40.695179 -4.493855 6.777961 0.000000 66.000000 14.697869 3.000000
43.398804 -3.607156 7.492465 0.000000 54.000000 15.163419 14.000000
43.344498 -3.850404 7.059139 0.000000 58.000000 14.806189 19.000000
45.940201 -4.741509 6.675677 0.000000 74.000000 14.661921 10.000000
41.962868 -3.556648 7.050531 0.000000 66.000000 14.723168 6.000000
40.105839 -2.865063 7.526224 0.000000 66.000000 15.007369 9.000000
40.757599 -2.682170 7.377108 0.000000 42.000000 14.816649 9.000000
45.556080 -2.508216 7.611288 0.000000 54.000000 14.998899 21.000000
41.961777 -0.204759 7.823226 0.000000 61.000000 14.618149 30.000000
42.059692 -4.151072 7.193978 0.000000 47.000000 15.013050 5.000000
43.079296 -4.929494 6.397300 0.000000 56.000000 14.440495 0.000000
45.626228 -3.555688 7.124920 0.000000 42.000000 14.794868 20.000000
45.517063 -0.962434 7.798069 0.000000 50.000000 14.786480 29.000000
44.588760 -4.932705 6.727050 0.000000 38.000000 14.760222 11.000000
40.296093 -3.712144 6.728162 0.000000 45.000000 14.450934 0.000000
43.414589 -2.756671 7.570827 0.000000 64.000000 15.022945 23.000000
44.180908 -3.219961 7.237054 0.000000 59.000000 14.817948 13.000000
41.422188 0.970676 7.963277 0.000000 53.000000 14.454708 0.000000
45.877892 -1.383479 7.923736 0.000000 43.000000 15.015079 28.000000
39.951813 -2.714665 7.570462 0.000000 70.000000 15.011910 9.000000
39.763809 -0.222879 7.656801 0.000000 51.000000 14.461802 0.000000
41.113762 -0.318683 7.620988 0.000000 61.000000 14.451527 0.000000
43.980999 -4.189719 7.133877 0.000000 73.000000 14.964751 19.000000
41.424030 -4.702019 6.872753 0.000000 73.000000 14.842478 2.000000
43.204887 -4.159210 6.921383 0.000000 48.000000 14.751484 19.000000
42.608646 -0.610296 8.318831 0.000000 53.000000 15.200583 30.000000
44.651436 -1.516590 7.378240 0.000000 38.000000 14.521361 29.000000
43.301559 -2.468748 7.352970 0.000000 31.000000 14.739036 23.000000
44.907162 -3.985214 6.897138 0.000000 67.000000 14.683792 19.000000
41.047836 -2.701038 6.991677 0.000000 48.000000 14.448684 0.000000
41.974743 -4.649757 6.743312 0.000000 78.000000 14.704002 2.000000
43.031715 -3.348027 7.406488 0.000000 77.000000 15.014377 14.000000
41.980011 -2.359532 7.237586 0.000000 47.000000 14.599673 12.000000
41.800163 -4.729718 6.799202 0.000000 69.000000 14.778387 2.000000
44.195496 -4.099979 7.003072 0.000000 35.000000 14.815427 19.000000
42.555218 -4.948373 6.177133 0.000000 26.000000 14.232365 0.000000
41.130142 -4.845741 6.593254 0.000000 63.000000 14.608711 2.000000
40.175907 -2.811672 7.514417 0.000000 49.000000 14.982374 9.000000
43.506207 -4.257263 6.488541 0.000000 51.000000 14.357802 0.000000
41.580307 0.907693 7.773151 0.000000 22.000000 14.286846 0.000000
41.939762 -3.480092 6.882982 0.000000 53.000000 14.541660 6.000000
42.109390 -1.291659 8.021071 0.000000 61.000000 15.085867 16.000000
44.375263 -1.282789 7.835255 0.000000 43.000000 14.903903 29.000000
44.806427 -3.049182 6.877900 0.000000 57.000000 14.427173 0.000000
40.635624 -0.992213 7.772941 0.000000 60.000000 14.769750 7.000000
45.639214 -1.722965 7.690188 0.000000 60.000000 14.875532 28.000000
43.823612 -3.148095 7.251379 0.000000 64.000000 14.813528 14.000000
40.964245 0.373666 7.911251 0.000000 39.000000 14.556199 8.000000
42.142891 -4.274535 7.033080 0.000000 60.000000 14.888834 5.000000
40.001125 -4.882249 6.479153 0.000000 49.000000 14.507644 0.000000
40.512806 -1.092167 7.787482 0.000000 71.000000 14.809229 7.000000
42.234112 -2.899578 7.161536 0.000000 75.000000 14.663445 12.000000
41.447479 -0.361767 7.749721 0.000000 31.000000 14.586984 17.000000
39.780468 -1.067634 7.435473 0.000000 58.000000 14.462552 0.000000
41.240013 -2.078940 7.891668 0.000000 51.000000 15.160907 24.000000
41.574177 -2.072667 7.482622 0.000000 57.000000 14.763711 24.000000
43.867039 -5.014036 6.746279 0.000000 76.000000 14.799500 11.000000
40.588234 -2.761379 7.681362 0.000000 53.000000 15.131044 9.000000
42.417141 -2.811273 7.282150 0.000000 69.000000 14.757640 12.000000
39.984257 -2.704195 7.708432 0.000000 51.000000 15.142683 9.000000
42.209179 -2.800660 7.637345 0.000000 58.000000 15.098462 12.000000
45.367661 -1.214013 7.673326 0.000000 53.000000 14.729808 29.000000
40.563843 -4.397879 6.724325 0.000000 57.000000 14.621592 3.000000
40.562435 -0.374475 7.570279 0.000000 53.000000 14.416671 0.000000
43.347557 -0.655579 7.848700 0.000000 36.000000 14.757420 15.000000
45.084084 -4.160401 6.960090 0.000000 60.000000 14.789222 19.000000
41.158100 -1.974080 7.973863 0.000000 70.000000 15.213736 24.000000
40.000603 -3.181929 7.337466 0.000000 72.000000 14.905388 6.000000
42.719677 -2.773804 7.011276 0.000000 39.000000 14.486142 0.000000
40.711994 -1.561461 7.640276 0.000000 63.000000 14.786194 24.000000
41.495678 0.968788 8.012211 0.000000 56.000000 14.502513 0.000000
42.226200 -0.642307 7.802221 0.000000 50.000000 14.709094 30.000000
44.028770 -3.488733 7.231943 0.000000 77.000000 14.881348 13.000000
41.021095 -1.466156 7.615010 0.000000 64.000000 14.737524 24.000000
45.871555 -3.170819 7.221524 0.000000 70.000000 14.790432 20.000000
43.416851 -2.224006 7.657502 0.000000 72.000000 14.971325 23.000000
41.081047 -4.894238 6.200591 0.000000 47.000000 14.241286 0.000000
45.571606 0.870916 7.839222 0.000000 35.000000 14.360097 0.000000
45.486443 -3.667508 7.119744 0.000000 42.000000 14.818295 20.000000
43.254650 -2.464028 7.076209 0.000000 51.000000 14.470171 23.000000
39.659939 -1.103895 7.402282 0.000000 67.000000 14.439673 0.000000
45.282288 -2.489015 7.281063 0.000000 62.000000 14.674645 21.000000
43.938637 -4.380039 6.552502 0.000000 77.000000 14.450880 0.000000
40.691891 -0.459033 7.537256 0.000000 36.000000 14.406235 0.000000
44.505711 -2.628718 7.354851 0.000000 70.000000 14.781532 22.000000
45.485107 -3.126776 7.278382 0.000000 74.000000 14.834222 20.000000
43.148579 -1.137862 7.952904 0.000000 43.000000 14.980833 26.000000
39.668137 -1.001700 7.471912 0.000000 50.000000 14.481028 0.000000
43.235558 -2.152426 7.545271 0.000000 66.000000 14.844582 23.000000
43.339016 -2.353051 7.372543 0.000000 60.000000 14.728546 23.000000
45.243618 -3.258693 7.188646 0.000000 82.000000 14.780979 20.000000
42.855343 -1.294237 7.457796 0.000000 48.000000 14.541762 26.000000
42.712269 -2.257846 7.089568 0.000000 64.000000 14.430663 0.000000
43.986019 -2.903631 7.159399 0.000000 72.000000 14.662409 22.000000
43.990906 -2.838397 7.138438 0.000000 69.000000 14.625549 22.000000
39.792019 -1.131729 7.440044 0.000000 59.000000 14.483271 0.000000
42.986656 -2.124008 7.282338 0.000000 39.000000 14.583065 24.000000
40.505962 -2.728605 7.705265 0.000000 67.000000 15.145827 9.000000
45.687344 -3.756798 6.983695 0.000000 52.000000 14.709423 20.000000
41.245346 -3.478176 6.809265 0.000000 57.000000 14.469878 0.000000
45.914898 -4.663142 6.511327 0.000000 68.000000 14.483046 10.000000
40.727234 -0.452246 7.612782 0.000000 50.000000 14.477553 0.000000
41.163990 -2.589815 7.304662 0.000000 62.000000 14.723100 12.000000
44.693016 0.616267 8.276905 0.000000 54.000000 14.848146 1.000000
42.858368 0.807961 8.286396 0.000000 61.000000 14.808581 1.000000
41.753174 0.974215 7.937535 0.000000 43.000000 14.428912 0.000000
45.513096 -0.958099 7.975773 0.000000 51.000000 14.957241 29.000000
42.200718 -1.139723 7.957384 0.000000 54.000000 14.985639 16.000000
42.136089 -0.095045 8.025090 0.000000 50.000000 14.785480 18.000000
42.621571 -1.219623 7.459321 0.000000 58.000000 14.524264 0.000000
40.275948 -3.420663 7.260721 0.000000 78.000000 14.891871 6.000000
41.581287 -4.963905 6.695734 0.000000 74.000000 14.737869 2.000000
40.952221 -3.505244 6.765618 0.000000 42.000000 14.434549 0.000000
41.002296 -1.023000 7.687637 0.000000 60.000000 14.695078 7.000000
39.663422 -1.081889 7.449362 0.000000 65.000000 14.479609 0.000000
41.104740 -2.019726 7.270415 0.000000 66.000000 14.545017 24.000000
44.273369 -2.953091 7.112773 0.000000 47.000000 14.629892 22.000000
41.394318 -0.965477 7.708933 0.000000 44.000000 14.701047 17.000000
43.661720 -2.922994 7.295206 0.000000 56.000000 14.798676 23.000000
40.282974 -2.955268 7.106463 0.000000 62.000000 14.624343 6.000000
44.566616 -1.944940 7.167506 0.000000 55.000000 14.426474 0.000000
43.150864 -2.070535 7.742689 0.000000 38.000000 15.014687 24.000000
41.502808 -4.838296 6.945898 0.000000 70.000000 14.947871 2.000000
45.638428 -2.345271 7.341474 0.000000 47.000000 14.696520 21.000000
41.367157 -2.239776 7.582196 0.000000 58.000000 14.902504 12.000000
40.526066 -0.292790 7.637709 0.000000 52.000000 14.461114 0.000000
44.835625 -4.303352 6.930224 0.000000 56.000000 14.796687 19.000000
39.768444 -3.641591 6.925995 0.000000 66.000000 14.624325 4.000000
40.432484 -0.395588 7.566553 0.000000 51.000000 14.418436 0.000000
42.739929 -2.845184 7.016376 0.000000 38.000000 14.509225 0.000000
41.377262 0.869628 7.906193 0.000000 42.000000 14.425194 0.000000
44.377258 -1.730465 7.614709 0.000000 65.000000 14.804441 25.000000
41.802616 -1.336833 7.323169 0.000000 52.000000 14.422391 0.000000
41.660042 -2.090707 7.875590 0.000000 70.000000 15.148349 24.000000
43.874790 -3.192727 7.263534 0.000000 57.000000 14.836632 13.000000
41.607956 -3.590823 6.780441 0.000000 56.000000 14.470646 0.000000
41.285900 -1.987288 8.029508 0.000000 44.000000 15.270911 24.000000
43.536255 -0.474671 8.232176 0.000000 40.000000 15.082290 15.000000
40.943401 -3.031098 7.255780 0.000000 52.000000 14.788034 6.000000
40.971161 -0.878511 7.753246 0.000000 48.000000 14.721790 17.000000
45.578033 -4.777363 6.784499 0.000000 64.000000 14.776283 10.000000
41.766525 -3.077031 7.207446 0.000000 73.000000 14.752969 6.000000
44.364262 -1.926941 6.987472 0.000000 33.000000 14.247781 0.000000
43.355740 -2.629358 7.008655 0.000000 53.000000 14.446878 23.000000
43.483704 -4.363182 6.543404 0.000000 49.000000 14.437795 0.000000
39.805008 -3.866907 7.100972 0.000000 67.000000 14.850843 4.000000
45.834316 -1.305120 7.832798 0.000000 37.000000 14.907205 28.000000
43.181686 -1.178851 7.973715 0.000000 41.000000 15.011383 26.000000
44.279846 -4.423330 6.533129 0.000000 48.000000 14.443152 0.000000
45.895329 -1.735825 7.775168 0.000000 75.000000 14.960989 28.000000
41.348633 -4.534333 6.900791 0.000000 51.000000 14.826955 2.000000
44.066269 -0.975410 7.658437 0.000000 61.000000 14.654737 29.000000
44.261421 -4.428213 6.538243 0.000000 53.000000 14.449339 0.000000
41.975864 -0.906322 7.665832 0.000000 36.000000 14.644321 16.000000
45.595097 -3.889149 7.134887 0.000000 50.000000 14.889299 20.000000
40.995892 -3.160936 7.417692 0.000000 73.000000 14.977639 6.000000
41.838181 -4.923556 6.250797 0.000000 43.000000 14.297297 0.000000
44.735020 -3.087877 6.880260 0.000000 52.000000 14.439295 0.000000
41.373169 -4.016283 6.746624 0.000000 72.000000 14.546126 5.000000
42.889187 -2.625641 7.049886 0.000000 53.000000 14.485808 0.000000
43.051846 -1.256703 7.679380 0.000000 53.000000 14.746519 26.000000
43.499008 -2.857889 7.621221 0.000000 67.000000 15.097420 23.000000
42.868626 -4.045606 6.554120 0.000000 33.000000 14.367406 0.000000
41.900829 -4.961338 6.436216 0.000000 56.000000 14.486229 0.000000
39.924107 0.645693 7.914800 0.000000 48.000000 14.490461 8.000000
42.886089 -0.337398 7.542475 0.000000 37.000000 14.380353 0.000000
41.228291 -1.033134 7.395768 0.000000 45.000000 14.415380 0.000000
44.536022 -3.422767 6.952619 0.000000 59.000000 14.594431 13.000000
40.621078 -0.558392 7.344089 0.000000 23.000000 14.244682 0.000000
44.960575 -2.772842 7.183446 0.000000 79.000000 14.652408 21.000000
45.800705 -3.742977 6.965104 0.000000 41.000000 14.687928 20.000000
43.969826 -1.400645 7.595105 0.000000 66.000000 14.701615 29.000000
45.119148 -3.315688 7.103215 0.000000 57.000000 14.712849 20.000000
41.866230 -2.143343 7.907913 0.000000 48.000000 15.192994 24.000000
43.507763 -1.379395 7.638676 0.000000 39.000000 14.738351 26.000000
44.466919 -1.466543 7.579105 0.000000 55.000000 14.702898 29.000000
45.910507 -3.518677 7.077743 0.000000 77.000000 14.739830 20.000000
45.629230 -1.386468 7.728092 0.000000 58.000000 14.826626 28.000000
42.029266 -2.406302 7.622920 0.000000 64.000000 14.984234 12.000000
40.591087 -1.103360 7.766212 0.000000 69.000000 14.791505 7.000000
41.142395 -2.244484 7.488238 0.000000 40.000000 14.812832 12.000000
45.202396 -4.758195 6.687949 0.000000 72.000000 14.678032 11.000000
39.893589 -2.700799 7.639790 0.000000 50.000000 15.075434 9.000000
45.005833 -4.277254 6.950046 0.000000 69.000000 14.809221 19.000000
44.478317 -2.131073 7.159970 0.000000 57.000000 14.466516 0.000000
43.869576 -3.507677 7.428814 0.000000 56.000000 15.076565 13.000000
43.197769 -2.289424 7.525290 0.000000 61.000000 14.860093 23.000000
42.028580 -4.890912 6.655193 0.000000 63.000000 14.680100 2.000000
44.565414 -4.903764 6.709509 0.000000 37.000000 14.735899 11.000000
42.598469 -1.033538 7.596641 0.000000 54.000000 14.609753 26.000000
44.730667 -3.044036 6.889624 0.000000 59.000000 14.437203 0.000000
41.230732 -0.067733 8.173481 0.000000 55.000000 14.922048 8.000000
41.389275 -0.472117 7.849948 0.000000 48.000000 14.711976 17.000000
45.475231 -4.569173 6.673078 0.000000 47.000000 14.615586 10.000000
44.745132 -3.055927 6.883967 0.000000 62.000000 14.434756 0.000000
42.853996 -3.021071 6.955538 0.000000 57.000000 14.495111 0.000000
39.781296 -1.272673 7.332150 0.000000 47.000000 14.414763 0.000000
39.843689 -0.523808 7.580546 0.000000 41.000000 14.464573 0.000000
42.774963 -2.366878 7.123823 0.000000 43.000000 14.491517 0.000000
41.091919 -0.120154 8.294504 0.000000 45.000000 15.052423 8.000000
45.754208 -4.453932 6.561949 0.000000 46.000000 14.478806 0.000000
45.809116 -1.181367 7.845112 0.000000 68.000000 14.887647 28.000000
43.799004 -1.966658 7.869126 0.000000 81.000000 15.110555 25.000000
44.405037 -3.024419 7.308381 0.000000 52.000000 14.837208 22.000000
41.896103 -1.532651 7.475685 0.000000 35.000000 14.619687 24.000000
45.166542 -3.468076 7.128846 0.000000 71.000000 14.776387 20.000000
40.617794 -1.885718 7.718047 0.000000 64.000000 14.943860 24.000000
45.372475 -1.243371 7.652437 0.000000 55.000000 14.717071 29.000000
39.815895 -1.660228 7.204114 0.000000 59.000000 14.389482 0.000000
41.334290 -0.989878 7.729011 0.000000 49.000000 14.726670 17.000000
40.225315 -3.836611 6.841026 0.000000 60.000000 14.591738 4.000000
40.482452 -0.384735 7.585425 0.000000 45.000000 14.433928 0.000000
39.704758 -2.932710 7.394513 0.000000 65.000000 14.897189 9.000000
44.367863 -1.944474 7.187400 0.000000 51.000000 14.445596 0.000000
44.101757 -5.090364 6.951097 0.000000 72.000000 15.016994 11.000000
41.420013 -4.794811 6.718558 0.000000 67.000000 14.716946 2.000000
41.956039 -3.700346 6.908801 0.000000 62.000000 14.622636 5.000000
43.149162 0.631574 7.960241 0.000000 60.000000 14.537998 1.000000
42.311218 -4.157863 6.972138 0.000000 58.000000 14.800228 5.000000
42.014084 -1.302401 7.487273 0.000000 33.000000 14.572346 16.000000
43.653210 -2.580517 7.714450 0.000000 72.000000 15.117055 23.000000
44.784397 -5.062058 6.490502 0.000000 62.000000 14.564341 11.000000
42.564240 -3.165725 7.018229 0.000000 36.000000 14.592524 6.000000
44.341640 -3.180161 7.148893 0.000000 62.000000 14.722564 13.000000
39.873188 0.126279 7.708411 0.000000 53.000000 14.422932 0.000000
44.134407 -2.629818 7.365748 0.000000 70.000000 14.792350 22.000000
39.641121 0.306380 7.779841 0.000000 46.000000 14.446218 0.000000
45.939049 -4.772096 6.724678 0.000000 61.000000 14.717089 10.000000
41.451050 -3.474027 7.258830 0.000000 76.000000 14.903612 6.000000
41.925110 -2.264359 7.326278 0.000000 26.000000 14.661249 12.000000
44.780865 -1.638088 7.296517 0.000000 57.000000 14.473218 0.000000
42.860043 0.228453 7.771760 0.000000 59.000000 14.458218 18.000000
43.569553 -3.469145 7.088988 0.000000 44.000000 14.738111 14.000000
45.616833 -4.791587 6.726568 0.000000 65.000000 14.723873 10.000000
44.797428 -1.362222 8.103098 0.000000 52.000000 15.183141 29.000000
43.534145 -2.711781 7.692523 0.000000 60.000000 15.129226 23.000000
42.615002 -1.722339 7.780089 0.000000 55.000000 14.962319 24.000000
43.360142 -1.705001 7.446592 0.000000 44.000000 14.635375 24.000000
41.854946 -4.287821 6.710403 0.000000 73.000000 14.580142 5.000000
43.882469 0.576587 8.257919 0.000000 56.000000 14.839874 1.000000
40.802589 -2.582096 7.645983 0.000000 57.000000 15.051240 9.000000
39.666351 0.312978 7.756396 0.000000 45.000000 14.421866 0.000000
44.499138 -2.134084 7.199386 0.000000 57.000000 14.505402 0.000000
42.701569 -0.916568 7.774916 0.000000 65.000000 14.752425 26.000000
44.781937 -1.486521 8.015560 0.000000 70.000000 15.130087 29.000000
40.486328 -2.818491 7.487522 0.000000 44.000000 14.958097 9.000000
44.411667 -2.125345 7.201578 0.000000 52.000000 14.505299 0.000000
45.748955 -3.717771 7.232736 0.000000 60.000000 14.940354 20.000000
40.750603 -1.915288 7.796233 0.000000 42.000000 15.026995 24.000000
42.287067 -0.625689 7.835161 0.000000 65.000000 14.736725 30.000000
41.210648 -2.158763 8.030527 0.000000 3.000000 15.315499 24.000000
41.289864 -4.732596 6.897669 0.000000 69.000000 14.874350 2.000000
44.783009 -3.059277 6.968511 0.000000 58.000000 14.517373 0.000000
43.650642 -4.933145 6.742736 0.000000 55.000000 14.775505 11.000000
40.220982 -1.886332 7.579477 0.000000 37.000000 14.810001 24.000000
42.300125 0.417044 8.021700 0.000000 32.000000 14.651988 18.000000
43.569420 -3.078901 7.291658 0.000000 53.000000 14.834888 14.000000
41.073376 -0.302582 7.659380 0.000000 56.000000 14.484563 0.000000
41.867661 -4.210384 6.878342 0.000000 69.000000 14.722870 5.000000
44.526104 -2.527778 7.344721 0.000000 68.000000 14.746068 22.000000
43.501400 0.792796 8.342762 0.000000 57.000000 14.866950 1.000000
41.844143 -2.440963 7.560511 0.000000 62.000000 14.932690 12.000000
42.728725 -1.047602 7.790983 0.000000 54.000000 14.801283 26.000000
41.588837 -2.790316 7.674257 0.000000 39.000000 15.131530 12.000000
40.736385 -0.052277 8.283976 0.000000 51.000000 15.024981 8.000000
43.397423 -4.171403 6.921276 0.000000 69.000000 14.754481 19.000000
41.518185 0.953408 7.918413 0.000000 46.000000 14.415709 0.000000
44.158905 -1.203011 7.961749 0.000000 70.000000 15.005954 29.000000
44.251522 0.042193 7.612082 0.000000 34.000000 14.351150 0.000000
43.580391 -4.099256 6.927719 0.000000 69.000000 14.742367 19.000000
44.537636 -2.076900 7.196215 0.000000 48.000000 14.487794 0.000000
39.913628 -1.386987 7.280441 0.000000 40.000000 14.393821 0.000000
43.284752 -2.325107 7.644624 0.000000 76.000000 14.984578 23.000000
42.001919 -4.577641 6.558160 0.000000 57.000000 14.506598 2.000000
39.793121 -2.857649 7.170455 0.000000 49.000000 14.661409 9.000000
43.482357 -2.997793 7.405607 0.000000 55.000000 14.924468 23.000000
39.900677 -0.526573 7.540230 0.000000 37.000000 14.426285 0.000000
40.472729 -2.311532 7.564745 0.000000 37.000000 14.903873 9.000000
41.282696 -4.783498 6.915141 0.000000 56.000000 14.904191 2.000000
42.364151 -0.131080 8.254600 0.000000 52.000000 15.016609 18.000000
43.302456 -2.796042 7.025639 0.000000 54.000000 14.505688 23.000000
44.818508 -3.023411 6.903439 0.000000 52.000000 14.445320 0.000000
43.884449 -4.772495 6.830822 0.000000 79.000000 14.819845 11.000000
41.358624 -0.941244 7.971115 0.000000 66.000000 14.948450 17.000000
41.557533 -1.068194 8.128292 0.000000 27.000000 15.132741 17.000000
45.400181 -3.440215 7.160819 0.000000 73.000000 14.800224 20.000000
41.900948 -2.923405 7.110833 0.000000 58.000000 14.620467 12.000000
40.317432 -0.957155 7.726167 0.000000 56.000000 14.715599 7.000000
39.754932 -2.824160 7.357052 0.000000 50.000000 14.833357 9.000000
42.444199 -2.116379 7.350546 0.000000 43.000000 14.647091 24.000000
42.849442 -4.113022 6.618082 0.000000 47.000000 14.446408 0.000000
41.815147 -1.239740 8.220224 0.000000 73.000000 15.265272 16.000000
42.017399 -4.691330 6.584565 0.000000 78.000000 14.561044 2.000000
41.534706 0.946929 8.026994 0.000000 49.000000 14.522369 0.000000
45.223473 -1.233266 7.781174 0.000000 65.000000 14.839007 29.000000
45.528633 0.874925 8.302515 0.000000 68.000000 14.807143 1.000000
40.643593 -0.323062 7.636042 0.000000 44.000000 14.467199 0.000000
44.293468 -3.678607 6.861921 0.000000 56.000000 14.571769 19.000000
40.455700 -0.104976 7.693812 0.000000 56.000000 14.467616 0.000000
41.369942 -4.617877 6.785775 0.000000 48.000000 14.736963 2.000000
40.879559 -4.870414 6.228409 0.000000 28.000000 14.262132 0.000000
41.717709 -4.583675 6.756211 0.000000 51.000000 14.699674 2.000000
42.777897 -1.708914 7.722346 0.000000 63.000000 14.903060 24.000000
43.397202 -2.568765 7.858147 0.000000 76.000000 15.253040 23.000000
39.981396 -4.202289 6.594609 0.000000 45.000000 14.446405 0.000000
45.595791 -3.077002 7.375253 0.000000 27.000000 14.915253 20.000000
41.276325 -1.740677 7.874907 0.000000 77.000000 15.058683 24.000000
45.284805 -1.300558 7.703932 0.000000 64.000000 14.781415 29.000000
43.223484 -3.458228 7.550262 0.000000 76.000000 15.181447 14.000000
45.085705 0.746213 8.121210 0.000000 48.000000 14.664526 1.000000
40.079788 -4.422831 6.593274 0.000000 42.000000 14.501193 3.000000
45.865803 -2.859663 6.967657 0.000000 56.000000 14.465789 21.000000
42.441135 -0.482096 8.106737 0.000000 40.000000 14.962862 30.000000
42.086315 0.103176 8.057329 0.000000 78.000000 14.766256 18.000000
39.956955 -0.165862 7.621151 0.000000 38.000000 14.412825 0.000000
42.551426 -4.101367 7.000261 0.000000 55.000000 14.813061 5.000000
40.511105 -3.185584 7.354005 0.000000 80.000000 14.922313 6.000000
42.981632 -1.548404 7.840666 0.000000 59.000000 14.976677 24.000000
42.145634 -4.281496 6.938681 0.000000 82.000000 14.799308 5.000000
39.912098 -4.845263 6.449363 0.000000 45.000000 14.469428 0.000000
40.641220 -1.505608 7.689487 0.000000 69.000000 14.819585 24.000000
40.619217 -1.129595 7.748807 0.000000 74.000000 14.781343 7.000000
43.468681 -4.810680 6.419329 0.000000 45.000000 14.431588 0.000000
44.689117 -3.106038 6.883146 0.000000 53.000000 14.446704 0.000000
44.654785 -1.506385 7.873144 0.000000 53.000000 14.997403 29.000000
42.252846 -2.101579 7.539988 0.000000 50.000000 14.826543 24.000000
45.452778 -2.705073 7.340476 0.000000 50.000000 14.787045 21.000000
40.044151 -4.248540 6.693607 0.000000 38.000000 14.553910 3.000000
39.705643 -0.847658 7.449028 0.000000 44.000000 14.419726 0.000000
44.790924 -2.731713 7.196109 0.000000 81.000000 14.654197 21.000000
42.433834 0.926732 7.847610 0.000000 31.000000 14.354017 0.000000
43.795261 -1.979747 7.597995 0.000000 61.000000 14.851664 25.000000
43.748924 -4.235932 6.761584 0.000000 42.000000 14.616446 19.000000
44.775379 -3.980537 6.927354 0.000000 73.000000 14.711826 19.000000
39.990566 0.653388 8.102229 0.000000 58.000000 14.669772 8.000000
45.241039 -2.131024 7.507789 0.000000 61.000000 14.802889 27.000000
39.830360 -4.390728 6.543478 0.000000 46.000000 14.444871 0.000000
44.619255 -4.737038 6.547377 0.000000 77.000000 14.536701 11.000000
45.879574 -3.470036 7.057984 0.000000 65.000000 14.708352 20.000000
39.913280 -4.734114 6.486637 0.000000 46.000000 14.477214 0.000000
43.320911 -3.732290 6.991527 0.000000 58.000000 14.710766 19.000000
44.775585 -3.037274 6.890802 0.000000 56.000000 14.436623 0.000000
41.225037 -3.141882 7.363004 0.000000 56.000000 14.919904 6.000000
45.464592 -0.676139 7.675503 0.000000 65.000000 14.595144 29.000000
40.733662 -1.582618 7.638643 0.000000 46.000000 14.789994 24.000000
44.671932 -1.242896 8.018369 0.000000 75.000000 15.070854 29.000000
40.985851 -2.715109 7.007537 0.000000 45.000000 14.467601 0.000000
44.485256 -3.549747 6.795331 0.000000 64.000000 14.474601 0.000000
40.043270 -2.363346 7.553472 0.000000 54.000000 14.906146 9.000000
43.704384 -3.031655 7.156547 0.000000 43.000000 14.692204 14.000000
44.830582 -4.793920 7.516909 0.000000 2.000000 15.488829 11.000000
44.945824 -4.688164 7.101977 0.000000 72.000000 15.060644 11.000000
43.114380 -4.817685 6.429525 0.000000 50.000000 14.443230 0.000000
43.591888 -2.650569 7.729794 0.000000 44.000000 15.149707 23.000000
42.477093 -4.001048 7.059670 0.000000 73.000000 14.845008 5.000000
40.944767 -1.061181 7.491442 0.000000 61.000000 14.515041 7.000000
41.552345 0.892329 8.014050 0.000000 53.000000 14.523734 0.000000
41.783806 -0.840215 8.014197 0.000000 48.000000 14.964426 17.000000
39.695862 -0.114761 7.715218 0.000000 43.000000 14.490806 0.000000
39.837307 -0.170176 7.669618 0.000000 43.000000 14.460796 0.000000
39.974266 -0.230476 7.630891 0.000000 39.000000 14.438675 0.000000
42.099575 -0.513353 8.032203 0.000000 48.000000 14.898726 30.000000
40.728077 -0.810548 7.776711 0.000000 56.000000 14.727202 7.000000
44.273502 -4.406901 6.553485 0.000000 51.000000 14.458661 0.000000
44.903690 -3.922489 6.933035 0.000000 64.000000 14.702560 19.000000
42.656853 -3.061294 7.032418 0.000000 54.000000 14.579692 6.000000
43.668285 -4.285991 6.620536 0.000000 51.000000 14.492763 0.000000
41.720142 -2.832196 7.573187 0.000000 79.000000 15.044432 12.000000
41.601494 -3.525777 6.776945 0.000000 54.000000 14.450725 0.000000
40.118332 -4.628409 6.670442 0.000000 65.000000 14.628099 3.000000
44.503204 -3.558197 6.806568 0.000000 73.000000 14.487618 0.000000
42.920166 -2.656650 7.030230 0.000000 48.000000 14.474683 0.000000
39.689243 -0.773602 7.465520 0.000000 45.000000 14.416846 0.000000
41.499027 -0.456412 7.872915 0.000000 75.000000 14.730195 17.000000
45.685158 -0.559765 7.625465 0.000000 56.000000 14.517159 0.000000
40.313931 -1.477137 7.483005 0.000000 39.000000 14.612650 24.000000
42.205784 0.153082 8.347023 0.000000 50.000000 15.033738 18.000000
42.561863 -2.850146 6.935029 0.000000 45.000000 14.431813 0.000000
44.095367 -4.074228 7.210237 0.000000 70.000000 15.009234 19.000000
42.310261 -1.938875 7.856607 0.000000 56.000000 15.091383 24.000000
45.785904 -0.961788 7.635803 0.000000 51.000000 14.629383 28.000000
42.877235 0.012984 8.241973 0.000000 42.000000 14.967764 18.000000
39.939331 -2.907013 7.486711 0.000000 68.000000 14.979822 9.000000
44.644287 -4.473717 6.808163 0.000000 73.000000 14.721958 11.000000
45.485672 -1.543455 7.598562 0.000000 66.000000 14.741272 28.000000
44.358059 -4.312625 6.693447 0.000000 75.000000 14.570050 19.000000
41.688198 -2.408892 7.633869 0.000000 58.000000 14.995481 12.000000
40.385555 -1.493889 7.414645 0.000000 24.000000 14.550797 24.000000
44.970257 -3.479824 6.720024 0.000000 37.000000 14.383990 0.000000
40.904476 -4.904681 6.186003 0.000000 44.000000 14.229833 0.000000
44.852894 -3.064070 6.950589 0.000000 56.000000 14.501259 0.000000
42.953999 -2.608258 7.009885 0.000000 61.000000 14.442702 0.000000
44.855980 -3.389670 6.736689 0.000000 34.000000 14.377183 0.000000
43.974827 -2.543287 7.342275 0.000000 65.000000 14.747646 23.000000
40.363285 -1.943107 7.377805 0.000000 41.000000 14.629395 24.000000
43.187054 -0.473971 7.917987 0.000000 66.000000 14.778250 15.000000
44.383347 -2.136589 7.145178 0.000000 54.000000 14.453612 0.000000
44.687065 -3.441209 6.789475 0.000000 58.000000 14.441339 0.000000
43.415821 -5.065912 6.358461 0.000000 46.000000 14.437620 0.000000
43.087662 -1.453945 7.703929 0.000000 80.000000 14.820415 26.000000
40.969585 -2.571948 7.442779 0.000000 51.000000 14.852134 9.000000
40.576237 -2.463175 7.820455 0.000000 46.000000 15.189738 9.000000
40.315403 0.819457 8.266723 0.000000 53.000000 14.786632 8.000000
40.639744 -0.365983 7.591108 0.000000 47.000000 14.434656 0.000000
40.470795 -3.452702 7.202861 0.000000 66.000000 14.844060 6.000000
44.701553 -4.668024 6.994377 0.000000 69.000000 14.951460 11.000000
44.172150 -2.794872 7.404263 0.000000 61.000000 14.871569 22.000000
44.685711 -3.964658 6.907150 0.000000 61.000000 14.688248 19.000000
45.869610 -4.873448 6.832965 0.000000 44.000000 14.847588 10.000000
45.436260 -4.350483 6.475427 0.000000 34.000000 14.368823 0.000000
41.069244 -1.719764 7.694034 0.000000 50.000000 14.878438 24.000000
40.427639 -0.281971 7.619076 0.000000 52.000000 14.440343 0.000000
44.086121 -3.767701 6.901561 0.000000 63.000000 14.632761 19.000000
42.512234 0.478335 8.032947 0.000000 44.000000 14.647280 18.000000
39.822376 -2.583468 7.687677 0.000000 66.000000 15.091912 9.000000
45.179817 -2.042193 7.441652 0.000000 65.000000 14.716338 27.000000
41.400078 0.926543 7.905773 0.000000 37.000000 14.410316 0.000000
43.242641 -2.148398 7.656761 0.000000 63.000000 14.951383 23.000000
42.697750 -3.031734 6.954447 0.000000 54.000000 14.496767 0.000000
43.429104 -2.988590 7.395101 0.000000 60.000000 14.911967 23.000000
44.217205 -4.063475 7.133549 0.000000 67.000000 14.932333 19.000000
43.490147 -3.072833 7.289600 0.000000 58.000000 14.831355 14.000000
43.228035 -4.963643 6.383136 0.000000 49.000000 14.435479 0.000000
44.468281 -1.495150 7.327875 0.000000 65.000000 14.467199 0.000000
41.876602 -1.155073 8.045728 0.000000 66.000000 15.074983 16.000000
42.578835 -3.992166 6.928493 0.000000 71.000000 14.715885 5.000000
45.943798 -1.272002 7.844477 0.000000 58.000000 14.910079 28.000000
43.223190 -4.018944 6.742326 0.000000 68.000000 14.542646 19.000000
45.176739 -0.907228 7.786402 0.000000 53.000000 14.761159 29.000000
39.940319 -0.278696 7.615774 0.000000 42.000000 14.436316 0.000000
45.341866 -2.396243 7.392151 0.000000 43.000000 14.758492 21.000000
45.111645 -2.119753 7.521060 0.000000 39.000000 14.812858 27.000000
42.087532 -3.499097 6.562854 0.000000 39.000000 14.236886 0.000000
45.907143 -3.548372 7.044876 0.000000 77.000000 14.715594 20.000000
41.087067 -3.893957 6.632024 0.000000 34.000000 14.404188 0.000000
45.378433 -1.648209 7.569139 0.000000 47.000000 14.739453 27.000000
41.367470 -4.672177 6.870382 0.000000 69.000000 14.832596 2.000000
41.807114 -3.637313 6.808152 0.000000 63.000000 14.509267 5.000000
42.750244 0.918420 7.847614 0.000000 26.000000 14.356134 0.000000
43.157772 0.656702 8.633773 0.000000 55.000000 15.183002 1.000000
44.169765 -1.299093 8.064125 0.000000 69.000000 15.129396 29.000000
44.989292 -1.917465 7.562042 0.000000 47.000000 14.801056 27.000000
42.375751 -1.261863 7.424970 0.000000 40.000000 14.501783 16.000000
41.573597 -3.282610 7.280206 0.000000 53.000000 14.875611 6.000000
45.477551 -2.086683 7.370513 0.000000 44.000000 14.658851 27.000000
41.262985 -3.451735 7.513907 0.000000 52.000000 15.144636 6.000000
43.648426 -5.005679 6.161835 0.000000 41.000000 14.232141 0.000000
39.724792 -1.163306 7.389811 0.000000 53.000000 14.442719 0.000000
40.110123 -4.805431 6.430232 0.000000 38.000000 14.440797 0.000000
45.091320 -3.885972 6.850346 0.000000 51.000000 14.613303 19.000000
43.988861 0.684144 8.251880 0.000000 47.000000 14.806684 1.000000
45.531258 -3.954376 6.877442 0.000000 43.000000 14.656902 20.000000
40.575527 -3.231774 7.394116 0.000000 80.000000 14.972851 6.000000
39.806194 -4.248946 6.637568 0.000000 47.000000 14.499816 0.000000
45.253857 -3.987181 7.097341 0.000000 51.000000 14.877915 19.000000
40.545876 -1.985706 7.207709 0.000000 30.000000 14.475722 24.000000
43.782291 -3.146796 7.278869 0.000000 74.000000 14.839784 14.000000
40.527142 0.445165 8.258925 0.000000 62.000000 14.874265 8.000000
45.310619 -4.884698 6.569545 0.000000 62.000000 14.595687 11.000000
43.260990 -3.504293 6.860844 0.000000 58.000000 14.526403 14.000000
41.997334 -1.284707 8.172537 0.000000 67.000000 15.230587 16.000000
39.769768 0.432254 7.804108 0.000000 45.000000 14.437680 0.000000
43.427429 -3.222587 7.217835 0.000000 27.000000 14.800028 14.000000
40.745068 0.792135 7.980941 0.000000 42.000000 14.517190 0.000000
41.864655 0.946469 8.009857 0.000000 46.000000 14.505912 0.000000
41.475357 -2.845000 7.094596 0.000000 40.000000 14.584827 12.000000
41.980598 -1.933954 7.795929 0.000000 46.000000 15.031448 24.000000
40.892273 -3.212811 7.413797 0.000000 65.000000 14.987063 6.000000
43.379524 -2.893166 7.547486 0.000000 74.000000 15.035079 23.000000
45.212505 -3.137363 7.169992 0.000000 74.000000 14.732087 20.000000
44.239040 -1.916975 7.381417 0.000000 68.000000 14.626243 25.000000
45.155060 -3.514749 6.779457 0.000000 55.000000 14.450350 20.000000
42.287693 -3.480805 6.784900 0.000000 49.000000 14.446983 6.000000
43.308678 -5.000557 6.288324 0.000000 28.000000 14.353170 0.000000
44.212292 -0.891905 7.518483 0.000000 50.000000 14.498150 0.000000
40.364136 0.260498 7.935493 0.000000 66.000000 14.608420 8.000000
41.229500 -2.093134 7.750204 0.000000 60.000000 15.027702 24.000000
42.039539 -3.662950 6.884318 0.000000 48.000000 14.589449 6.000000
45.113750 -2.507524 7.388622 0.000000 76.000000 14.783376 21.000000
44.665134 -3.114737 6.918714 0.000000 55.000000 14.483315 0.000000
43.167004 -3.270707 7.276583 0.000000 74.000000 14.869081 14.000000
39.642517 -0.558757 7.555070 0.000000 40.000000 14.448821 0.000000
41.844685 -0.885457 8.067805 0.000000 63.000000 15.027776 17.000000
42.728786 -2.748003 7.038774 0.000000 43.000000 14.506176 0.000000
43.987068 -4.920654 6.878185 0.000000 71.000000 14.903325 11.000000
45.516243 -3.844028 7.026048 0.000000 45.000000 14.772564 20.000000
45.706123 -1.354623 7.518791 0.000000 35.000000 14.616107 28.000000
41.518486 -4.931747 6.665933 0.000000 70.000000 14.700871 2.000000
42.519077 -1.917212 7.928793 0.000000 60.000000 15.155687 24.000000
40.263039 0.892733 8.159016 0.000000 60.000000 14.663832 8.000000
45.737858 -3.313909 7.265915 0.000000 70.000000 14.869749 20.000000
43.589581 -2.924762 7.046485 0.000000 60.000000 14.558579 14.000000
45.655674 -2.081865 7.227960 0.000000 54.000000 14.519758 0.000000
43.672775 -3.464142 7.250389 0.000000 74.000000 14.892934 14.000000
44.885357 -4.543664 6.940578 0.000000 42.000000 14.867807 11.000000
40.231598 -2.923174 7.166978 0.000000 48.000000 14.674708 9.000000
42.935825 -1.641109 7.780268 0.000000 64.000000 14.941837 24.000000
42.732716 -2.755526 6.991861 0.000000 47.000000 14.462718 0.000000
45.009342 0.383704 7.803472 0.000000 52.000000 14.449410 0.000000
44.912880 -2.305437 7.176903 0.000000 71.000000 14.527229 21.000000
39.665165 -2.105095 7.302770 0.000000 36.000000 14.598016 9.000000
42.538181 -1.959966 7.969992 0.000000 54.000000 15.206404 24.000000
39.643108 -0.771902 7.378259 0.000000 21.000000 14.332020 0.000000
40.386379 -4.630498 6.672902 0.000000 55.000000 14.631009 3.000000
40.636692 -0.720470 7.489913 0.000000 43.000000 14.426926 7.000000
42.710930 0.525926 8.094998 0.000000 33.000000 14.695190 18.000000
43.419426 -1.686324 7.616601 0.000000 46.000000 14.795047 26.000000
42.059074 -4.279910 7.000269 0.000000 50.000000 14.858469 5.000000
44.093983 0.575720 8.162859 0.000000 53.000000 14.748159 1.000000
45.850502 -1.824926 7.132260 0.000000 28.000000 14.361869 0.000000
42.924824 -1.197203 7.562800 0.000000 55.000000 14.618641 26.000000
44.995167 -2.477596 7.419601 0.000000 79.000000 14.805726 21.000000
44.344921 -3.435382 6.573720 0.000000 26.000000 14.231194 0.000000
44.208172 -4.196462 6.907480 0.000000 47.000000 14.747510 19.000000
43.408226 -2.403656 7.517199 0.000000 66.000000 14.881315 23.000000
39.977646 -2.277640 7.562642 0.000000 61.000000 14.893221 9.000000
45.186829 -1.792484 7.732722 0.000000 67.000000 14.934345 27.000000
44.938370 -2.689281 7.108996 0.000000 65.000000 14.559158 21.000000
40.862633 -3.553919 6.756999 0.000000 40.000000 14.438590 0.000000
42.805431 0.046000 8.359982 0.000000 62.000000 15.073499 18.000000
44.801266 -3.071448 6.958985 0.000000 57.000000 14.511255 0.000000
40.126625 -3.865527 6.792681 0.000000 48.000000 14.552335 4.000000
40.055656 -3.794919 6.868388 0.000000 71.000000 14.607599 4.000000
41.156334 -0.038395 8.249013 0.000000 49.000000 14.987638 8.000000
44.596935 -3.040225 6.911475 0.000000 44.000000 14.457367 0.000000
41.659756 -2.293569 7.404004 0.000000 64.000000 14.743848 12.000000
44.505508 -2.061709 7.219055 0.000000 50.000000 14.506021 0.000000
40.970093 -0.024614 8.031553 0.000000 64.000000 14.773821 8.000000
44.339500 -3.276684 7.040995 0.000000 64.000000 14.642756 13.000000
43.052528 -4.920096 6.432318 0.000000 45.000000 14.471972 0.000000
39.647690 0.426260 7.780024 0.000000 42.000000 14.415912 0.000000
39.918701 0.765261 7.802646 0.000000 26.000000 14.351589 0.000000
43.988808 -2.742196 7.277728 0.000000 59.000000 14.735799 22.000000
45.379303 -2.442233 7.303787 0.000000 68.000000 14.684727 21.000000
40.135586 -3.418666 7.295730 0.000000 80.000000 14.925222 6.000000
45.788006 -3.523502 7.165549 0.000000 74.000000 14.825977 20.000000
40.113113 -4.224196 6.735076 0.000000 48.000000 14.587825 3.000000
41.723621 -4.225865 6.892010 0.000000 49.000000 14.740025 5.000000
40.070072 -0.245212 7.600552 0.000000 33.000000 14.413080 0.000000
41.106380 -1.638605 7.790908 0.000000 51.000000 14.951491 24.000000
39.677132 -0.494710 7.642108 0.000000 38.000000 14.516713 0.000000
44.455162 -3.209449 6.865964 0.000000 38.000000 14.456382 13.000000
40.722179 -4.421645 6.668363 0.000000 47.000000 14.573512 3.000000
41.432194 -0.338450 7.944698 0.000000 56.000000 14.769623 17.000000
44.635181 0.620959 8.274747 0.000000 49.000000 14.844866 1.000000
42.741905 -3.965457 6.565417 0.000000 49.000000 14.357951 0.000000
41.853004 0.966506 7.942729 0.000000 35.000000 14.435895 0.000000
45.817886 -3.368488 7.405307 0.000000 81.000000 15.018438 20.000000
44.736973 0.725037 8.275410 0.000000 53.000000 14.819042 1.000000
43.889637 -4.640968 6.736432 0.000000 66.000000 14.695113 11.000000
44.134087 -2.061966 7.234271 0.000000 45.000000 14.520802 0.000000
42.981655 -0.073925 7.676460 0.000000 41.000000 14.442939 0.000000
43.316547 -3.224975 7.457692 0.000000 76.000000 15.032608 14.000000
41.271656 -3.584687 6.523344 0.000000 25.000000 14.220439 0.000000
42.906006 -3.082280 6.983348 0.000000 58.000000 14.537571 14.000000
45.248405 -3.433181 7.200857 0.000000 68.000000 14.837158 20.000000
40.006599 0.595969 7.690951 0.000000 25.000000 14.286613 0.000000
41.347393 -3.276536 7.491903 0.000000 45.000000 15.078806 6.000000
44.997707 -2.653647 7.485347 0.000000 47.000000 14.914077 21.000000
44.852974 -3.068082 6.962495 0.000000 56.000000 14.513793 0.000000
42.582756 -2.885355 6.987653 0.000000 40.000000 14.491661 0.000000
45.111813 -3.395600 7.158526 0.000000 69.000000 14.786662 20.000000
43.753574 -4.917672 6.636822 0.000000 53.000000 14.669137 11.000000
40.430256 -3.836013 6.678540 0.000000 38.000000 14.434441 0.000000
41.967339 -4.124330 7.114691 0.000000 51.000000 14.929569 5.000000
43.129490 -3.497896 6.691051 0.000000 36.000000 14.360564 0.000000
40.617157 -1.065133 7.797601 0.000000 49.000000 14.812142 7.000000
44.658741 -1.569901 7.364779 0.000000 58.000000 14.521898 0.000000
43.363373 -2.991104 7.226938 0.000000 55.000000 14.749971 14.000000
45.046780 -1.295706 7.775331 0.000000 54.000000 14.849233 29.000000
43.456078 -2.443521 7.795379 0.000000 62.000000 15.160488 23.000000
42.536163 -0.069734 8.231933 0.000000 58.000000 14.979088 18.000000
40.524742 -0.308911 7.623219 0.000000 48.000000 14.451200 0.000000
40.672256 -0.297565 7.596503 0.000000 40.000000 14.422477 0.000000
43.292629 -2.958436 7.107829 0.000000 70.000000 14.626470 14.000000
41.275787 -2.742385 6.960341 0.000000 35.000000 14.428892 12.000000
40.024933 -0.285196 7.609689 0.000000 36.000000 14.432084 0.000000
44.753529 0.703600 8.025980 0.000000 64.000000 14.583262 1.000000
43.017220 0.881454 8.114442 0.000000 48.000000 14.623591 1.000000
45.091927 -4.317738 6.909536 0.000000 56.000000 14.780337 19.000000
45.536209 -4.545106 6.647352 0.000000 50.000000 14.584586 10.000000
41.409100 -3.846923 7.060299 0.000000 53.000000 14.806426 5.000000
40.029167 -4.849716 6.267177 0.000000 40.000000 14.294363 0.000000
44.428600 -4.887942 6.912035 0.000000 80.000000 14.927745 11.000000
45.036179 0.311245 7.770923 0.000000 51.000000 14.436356 0.000000
40.334629 -1.141774 7.681211 0.000000 61.000000 14.719065 7.000000
44.246029 -4.408066 6.563898 0.000000 46.000000 14.469028 0.000000
41.881039 -0.998380 7.789315 0.000000 53.000000 14.787154 16.000000
45.743324 -0.394510 7.458897 0.000000 44.000000 14.314045 0.000000
44.168488 -3.340991 7.374426 0.000000 47.000000 14.981580 13.000000
40.197788 -2.647041 7.777200 0.000000 50.000000 15.194658 9.000000
42.207161 -2.903950 7.446290 0.000000 77.000000 14.939951 12.000000
43.314419 -2.336801 7.681020 0.000000 54.000000 15.022751 23.000000
40.002907 -4.551754 6.671733 0.000000 68.000000 14.609856 3.000000
39.911034 -4.775650 6.480223 0.000000 44.000000 14.481572 0.000000
40.001831 -2.107488 7.290923 0.000000 22.000000 14.587167 9.000000
40.626179 -1.112373 7.377648 0.000000 36.000000 14.418004 7.000000
45.617268 -2.104819 7.167986 0.000000 50.000000 14.467592 0.000000
41.096912 -2.962325 7.152134 0.000000 45.000000 14.670307 6.000000
40.745518 -0.769570 7.730434 0.000000 51.000000 14.672027 7.000000
45.829941 -0.782142 7.507015 0.000000 40.000000 14.459148 0.000000
44.747318 -2.564075 7.308933 0.000000 74.000000 14.720686 21.000000
43.761452 -1.352425 7.924453 0.000000 46.000000 15.007876 26.000000
39.744541 -0.275350 7.637468 0.000000 46.000000 14.456446 0.000000
40.503014 -3.448472 7.236542 0.000000 74.000000 14.875558 6.000000
43.988083 -4.054682 7.201686 0.000000 43.000000 14.995994 19.000000
39.729939 -0.165210 7.685895 0.000000 37.000000 14.475275 0.000000
40.646454 -4.532533 6.529412 0.000000 69.000000 14.467325 3.000000
45.813538 -3.349228 7.362313 0.000000 73.000000 14.971959 20.000000
42.000198 -2.296254 7.339669 0.000000 51.000000 14.682310 12.000000
45.361099 0.840690 8.336625 0.000000 53.000000 14.848837 1.000000
40.703426 -0.395555 7.604604 0.000000 35.000000 14.455228 0.000000
43.214264 -1.232797 8.039786 0.000000 55.000000 15.088999 26.000000
43.736988 -2.405637 7.732885 0.000000 59.000000 15.090415 23.000000
43.596710 -2.889926 7.318097 0.000000 39.000000 14.812406 23.000000
43.848953 -2.422780 7.448958 0.000000 58.000000 14.820180 23.000000
40.065269 0.271944 7.737479 0.000000 37.000000 14.414005 0.000000
44.906929 -1.627407 7.605379 0.000000 71.000000 14.769212 29.000000
42.305069 -0.839589 7.916093 0.000000 40.000000 14.869388 16.000000
40.933403 -3.404728 7.004455 0.000000 68.000000 14.639976 6.000000
41.709705 0.989307 7.988874 0.000000 41.000000 14.474726 0.000000
42.373604 -1.936217 7.989870 0.000000 52.000000 15.219589 24.000000
40.117081 -1.202629 7.748633 0.000000 56.000000 14.799745 7.000000
45.690556 -3.068244 7.352689 0.000000 45.000000 14.891203 21.000000
41.967678 -2.175560 7.568980 0.000000 59.000000 14.873394 24.000000
41.786789 -0.641831 7.884704 0.000000 55.000000 14.788745 17.000000
40.678715 -0.436070 7.592484 0.000000 36.000000 14.453809 0.000000
40.526527 -3.202187 7.347776 0.000000 79.000000 14.920511 6.000000
45.220501 -2.840680 6.974007 0.000000 38.000000 14.467103 21.000000
45.624969 -1.942976 7.227118 0.000000 50.000000 14.483627 27.000000
41.690411 -3.741411 6.829408 0.000000 69.000000 14.556294 5.000000
42.892101 -1.533501 7.724139 0.000000 54.000000 14.860190 24.000000
41.478317 0.893211 7.999105 0.000000 41.000000 14.509056 0.000000
41.235416 -2.071001 7.529461 0.000000 54.000000 14.808586 24.000000
39.765263 -0.221397 7.634747 0.000000 40.000000 14.440096 0.000000
39.893612 -0.185431 7.621292 0.000000 37.000000 14.417938 0.000000
44.188622 0.087036 7.622069 0.000000 22.000000 14.349406 0.000000
45.225353 -3.860006 6.781038 0.000000 47.000000 14.539671 19.000000
39.731842 -4.193214 6.664652 0.000000 41.000000 14.511838 0.000000
39.840771 -2.668103 7.671349 0.000000 72.000000 15.097642 9.000000
45.870495 -1.210808 7.724892 0.000000 65.000000 14.778865 28.000000
43.704144 -1.196421 7.921640 0.000000 61.000000 14.965487 26.000000
45.652214 -2.427176 7.424512 0.000000 52.000000 14.797655 21.000000
42.034283 -2.827476 7.148958 0.000000 48.000000 14.632946 12.000000
45.324036 -2.638111 7.329460 0.000000 79.000000 14.759364 21.000000
44.253410 -1.401910 7.974683 0.000000 57.000000 15.069038 29.000000
45.588287 -4.967450 6.619869 0.000000 67.000000 14.665399 10.000000
40.832779 -0.469515 7.498358 0.000000 28.000000 14.371281 0.000000
41.412758 -4.888783 6.751355 0.000000 49.000000 14.772560 2.000000
43.809467 -1.334264 7.706548 0.000000 57.000000 14.792516 29.000000
44.000957 -1.213359 7.870458 0.000000 38.000000 14.920295 29.000000
40.019081 -0.145948 7.636330 0.000000 32.000000 14.422442 0.000000
44.044121 -3.454071 7.268723 0.000000 73.000000 14.908105 13.000000
42.882046 -2.220350 7.143217 0.000000 65.000000 14.473014 23.000000
45.586254 -1.681430 7.666572 0.000000 53.000000 14.842131 28.000000
45.032597 -5.078932 6.637417 0.000000 47.000000 14.710718 11.000000
39.908409 -0.206714 7.625473 0.000000 36.000000 14.427393 0.000000
40.380844 -0.097619 7.682380 0.000000 43.000000 14.454689 0.000000
41.206799 -3.882385 6.658462 0.000000 37.000000 14.426814 0.000000
44.807026 0.709618 8.693304 0.000000 59.000000 15.227121 1.000000
42.126446 -3.539725 6.818453 0.000000 44.000000 14.494415 6.000000
40.966301 0.852540 7.790744 0.000000 27.000000 14.317885 0.000000
41.913822 -2.112726 7.524116 0.000000 56.000000 14.814027 24.000000
40.177914 -3.095107 7.303563 0.000000 59.000000 14.850523 6.000000
40.438343 -2.688096 7.639855 0.000000 45.000000 15.072267 9.000000
40.754196 -1.165862 7.467653 0.000000 52.000000 14.518652 7.000000
42.358864 -2.962148 7.286463 0.000000 53.000000 14.800176 12.000000
45.007919 0.402543 7.791352 0.000000 45.000000 14.432898 0.000000
41.486397 -2.016288 7.671136 0.000000 55.000000 14.931693 24.000000
41.305241 0.913907 7.934244 0.000000 37.000000 14.441064 0.000000
40.952282 -0.656926 7.851354 0.000000 32.000000 14.760329 17.000000
43.786190 -1.823569 7.870766 0.000000 61.000000 15.075756 25.000000
44.282200 -4.903123 6.714537 0.000000 65.000000 14.740599 11.000000
39.742771 -0.220242 7.654939 0.000000 42.000000 14.459330 0.000000
39.797386 -3.921963 6.945655 0.000000 68.000000 14.714631 4.000000
40.033035 0.266362 7.736947 0.000000 36.000000 14.414909 0.000000
41.835983 -0.879365 8.061742 0.000000 59.000000 15.020363 17.000000
40.180710 0.859762 8.227151 0.000000 72.000000 14.738111 8.000000
41.546970 -3.548312 6.807782 0.000000 49.000000 14.486278 0.000000
44.847050 -3.044004 6.969088 0.000000 47.000000 14.514047 0.000000
39.771244 -3.709021 6.969531 0.000000 70.000000 14.683576 4.000000
40.419426 -4.653337 6.667314 0.000000 56.000000 14.631412 3.000000
42.782272 0.441737 8.204405 0.000000 70.000000 14.822408 18.000000
42.104912 -4.184185 6.967038 0.000000 64.000000 14.801989 5.000000
42.945896 -4.788719 6.452307 0.000000 41.000000 14.457897 0.000000
45.405746 -3.255496 7.267559 0.000000 68.000000 14.856486 20.000000
39.997955 -3.467084 6.958586 0.000000 48.000000 14.611471 6.000000
41.501625 -3.144447 7.250242 0.000000 42.000000 14.811501 6.000000
41.174080 -0.797103 7.858101 0.000000 35.000000 14.802498 17.000000
41.878132 -1.298504 8.122002 0.000000 62.000000 15.185221 16.000000
42.188446 -2.784594 7.856292 0.000000 46.000000 15.306127 12.000000
45.023483 -4.562833 7.016438 0.000000 49.000000 14.946048 11.000000
41.487118 -4.957862 6.233814 0.000000 47.000000 14.289596 0.000000
40.016392 -4.581746 6.604327 0.000000 50.000000 14.552292 3.000000
41.999554 0.987149 7.941389 0.000000 39.000000 14.429350 0.000000
41.784431 -2.867528 7.413919 0.000000 76.000000 14.899383 12.000000
44.324810 -2.645512 7.521081 0.000000 72.000000 14.946568 22.000000
39.683472 0.360123 7.759745 0.000000 30.000000 14.413117 0.000000
42.022018 -2.894479 7.133978 0.000000 37.000000 14.635496 12.000000
42.445438 -3.417155 7.178585 0.000000 62.000000 14.811543 6.000000
45.166496 -1.974089 7.825127 0.000000 77.000000 15.069892 27.000000
41.789791 -0.290397 7.790063 0.000000 63.000000 14.607852 17.000000
44.356144 -3.497519 7.220516 0.000000 64.000000 14.872530 13.000000
40.493198 -0.135163 7.720729 0.000000 42.000000 14.501324 0.000000
40.971935 -1.959367 7.458824 0.000000 50.000000 14.711885 24.000000
40.281494 -3.158090 7.340565 0.000000 50.000000 14.902324 6.000000
44.022041 -4.570032 6.675952 0.000000 66.000000 14.618584 11.000000
39.901031 -4.778126 6.505538 0.000000 35.000000 14.506685 0.000000
40.712391 -4.186031 6.576036 0.000000 35.000000 14.424308 0.000000
45.681999 -1.364504 7.613717 0.000000 55.000000 14.710426 28.000000
41.309799 -2.079176 7.730055 0.000000 49.000000 15.004666 24.000000
45.454903 0.839006 8.307885 0.000000 78.000000 14.821470 1.000000
