30.888404 -20.312428 -0.243755 0.000000 42.000000 14.546210 0.000000
29.712354 -19.881256 -2.721336 0.000000 72.000000 14.836003 11.000000
32.831437 -20.487783 -0.876334 0.000000 57.000000 14.893903 26.000000
30.028193 -21.096754 1.243127 0.000000 67.000000 14.876244 15.000000
31.021991 -20.174531 -1.572878 0.000000 63.000000 14.791240 25.000000
32.261564 -21.140683 1.564926 0.000000 50.000000 14.827028 24.000000
30.791844 -19.805211 -3.008087 0.000000 62.000000 14.844476 13.000000
29.009387 -20.271217 -2.095840 0.000000 69.000000 15.032386 30.000000
33.450303 -20.635941 1.510625 0.000000 34.000000 14.358457 0.000000
30.309931 -21.050456 0.872302 0.000000 80.000000 14.937105 5.000000
32.740518 -21.721200 2.670900 0.000000 71.000000 15.069752 16.000000
29.560300 -20.841015 1.511561 0.000000 46.000000 14.554831 0.000000
28.664020 -20.738111 0.792180 0.000000 66.000000 14.660347 1.000000
33.616263 -20.427839 -1.384013 0.000000 25.000000 14.980523 27.000000
28.975879 -21.003646 -0.789659 0.000000 75.000000 15.363948 29.000000
30.440860 -20.884322 0.128763 0.000000 76.000000 14.988848 9.000000
32.401995 -20.912112 1.229035 0.000000 48.000000 14.703196 23.000000
31.121050 -21.102042 2.811881 0.000000 40.000000 14.436043 0.000000
29.751044 -20.341085 -1.151447 0.000000 61.000000 14.831326 25.000000
31.978518 -21.252347 1.617062 0.000000 56.000000 14.919301 24.000000
27.707284 -20.466501 0.636842 0.000000 41.000000 14.443999 0.000000
29.835692 -19.599149 -2.403231 0.000000 40.000000 14.475208 0.000000
30.148271 -19.596900 -2.428714 0.000000 44.000000 14.480285 0.000000
30.452665 -19.590542 -2.456487 0.000000 55.000000 14.482071 0.000000
28.265075 -21.029247 0.662306 0.000000 77.000000 14.976373 1.000000
29.838107 -19.632441 -2.557865 0.000000 60.000000 14.551022 0.000000
29.426087 -20.501628 -0.373047 0.000000 40.000000 14.764326 29.000000
30.857875 -21.586309 2.749435 0.000000 51.000000 14.918117 12.000000
32.608411 -19.445151 -2.708089 0.000000 38.000000 14.414074 0.000000
29.907834 -20.795576 0.216928 0.000000 74.000000 14.878727 9.000000
33.030217 -21.349654 2.402096 0.000000 51.000000 14.789783 3.000000
29.656301 -19.462105 -2.797550 0.000000 46.000000 14.455723 0.000000
31.205291 -21.175225 2.592768 0.000000 58.000000 14.568408 0.000000
30.346180 -20.257963 -1.749989 0.000000 43.000000 14.921511 22.000000
31.884167 -19.311435 -2.865333 0.000000 38.000000 14.330489 0.000000
28.088615 -21.423248 2.088187 0.000000 69.000000 14.949450 6.000000
33.732017 -21.253721 2.160181 0.000000 51.000000 14.766461 3.000000
29.055243 -20.192773 -2.567138 0.000000 68.000000 15.090940 11.000000
32.543851 -20.330593 -1.219271 0.000000 50.000000 14.840516 21.000000
28.324092 -20.762771 0.057247 0.000000 57.000000 14.892595 8.000000
29.059258 -20.375091 -2.240018 0.000000 57.000000 15.172911 30.000000
29.952766 -20.300419 -1.665904 0.000000 52.000000 14.938355 25.000000
32.961323 -20.561762 -0.737352 0.000000 69.000000 14.925391 26.000000
29.700173 -20.568865 0.743959 0.000000 40.000000 14.511749 0.000000
30.084219 -20.194485 -0.014284 0.000000 38.000000 14.367985 0.000000
30.658653 -20.597581 -0.491481 0.000000 70.000000 14.889949 28.000000
32.299774 -20.494581 0.477561 0.000000 50.000000 14.516134 0.000000
33.383159 -20.850169 -0.762692 0.000000 58.000000 15.209129 27.000000
33.725828 -20.623777 -1.291325 0.000000 59.000000 15.142094 27.000000
32.701734 -21.180592 1.276527 0.000000 74.000000 14.947154 24.000000
30.580904 -20.478778 -2.137065 0.000000 70.000000 15.243112 22.000000
28.465820 -20.273153 0.014970 0.000000 31.000000 14.435114 0.000000
32.296498 -21.015002 0.884562 0.000000 64.000000 14.899629 23.000000
29.805993 -20.614474 -0.879063 0.000000 52.000000 15.016158 28.000000
30.993045 -20.474906 -1.015455 0.000000 69.000000 14.921043 25.000000
31.385649 -19.843764 -1.537932 0.000000 49.000000 14.464158 0.000000
29.572618 -19.989006 -2.613361 0.000000 81.000000 14.908674 11.000000
32.788258 -19.669057 -2.186285 0.000000 42.000000 14.480663 0.000000
32.907646 -21.702262 2.706560 0.000000 63.000000 15.041471 16.000000
32.728209 -20.462241 0.491659 0.000000 44.000000 14.481123 0.000000
27.905463 -20.175372 -1.321500 0.000000 43.000000 14.720696 18.000000
32.210241 -20.945248 2.154707 0.000000 40.000000 14.472228 0.000000
30.787167 -20.533643 -0.880154 0.000000 71.000000 14.938961 28.000000
30.952537 -21.154664 0.915164 0.000000 18.000000 15.024861 5.000000
31.259120 -20.272816 -0.704092 0.000000 61.000000 14.638888 28.000000
31.916284 -19.309372 -2.846213 0.000000 38.000000 14.323084 0.000000
30.526305 -21.076106 0.058074 0.000000 75.000000 15.192809 9.000000
30.724130 -20.863651 1.819118 0.000000 52.000000 14.489240 0.000000
32.475552 -20.100592 -1.251508 0.000000 32.000000 14.629125 21.000000
30.951719 -20.815826 1.684520 0.000000 43.000000 14.481586 0.000000
28.597519 -20.396590 -2.194620 0.000000 64.000000 15.180640 30.000000
27.930217 -21.443011 2.183003 0.000000 73.000000 14.941488 6.000000
32.320303 -20.787098 -0.345244 0.000000 67.000000 15.030164 26.000000
30.617935 -20.219212 -1.658917 0.000000 61.000000 14.858504 25.000000
30.906306 -19.591793 -2.439469 0.000000 59.000000 14.478440 0.000000
32.671082 -20.467213 0.570565 0.000000 41.000000 14.463494 0.000000
31.010225 -20.547288 0.637784 0.000000 41.000000 14.521196 0.000000
32.911638 -20.467515 0.411132 0.000000 37.000000 14.509036 0.000000
29.871367 -20.705197 0.273550 0.000000 65.000000 14.775994 9.000000
27.754681 -20.727497 1.475538 0.000000 35.000000 14.456207 0.000000
31.011779 -19.653526 -2.740660 0.000000 46.000000 14.623124 13.000000
32.294446 -21.125400 2.681279 0.000000 46.000000 14.495510 0.000000
32.736062 -20.963131 2.159817 0.000000 44.000000 14.487925 0.000000
30.307594 -20.279537 -1.841014 0.000000 68.000000 14.968034 22.000000
28.230587 -20.697788 -0.990317 0.000000 41.000000 15.127623 29.000000
32.699214 -21.267085 0.855274 0.000000 49.000000 15.149657 23.000000
33.145244 -20.645584 1.538123 0.000000 37.000000 14.359899 0.000000
33.631074 -20.526208 0.376109 0.000000 47.000000 14.575256 27.000000
28.322924 -20.670076 -1.065976 0.000000 68.000000 15.122526 29.000000
31.611689 -19.761936 -1.547213 0.000000 57.000000 14.388329 0.000000
29.874478 -19.499014 -2.781006 0.000000 39.000000 14.486418 0.000000
30.828521 -19.662880 -2.352536 0.000000 67.000000 14.521929 0.000000
33.030378 -19.345242 -2.829137 0.000000 45.000000 14.352632 0.000000
28.497929 -20.809347 0.663651 0.000000 44.000000 14.765135 1.000000
32.746469 -19.535398 -2.657935 0.000000 57.000000 14.486374 0.000000
27.812593 -20.547462 1.176743 0.000000 32.000000 14.368386 0.000000
32.307808 -19.587325 -2.431566 0.000000 53.000000 14.471913 0.000000
32.085324 -19.616115 -2.313087 0.000000 50.000000 14.465890 0.000000
31.861019 -19.639214 -2.190954 0.000000 42.000000 14.453373 0.000000
33.614942 -19.674042 -2.137404 0.000000 44.000000 14.471569 0.000000
31.652497 -19.680585 -2.070298 0.000000 39.000000 14.458796 0.000000
28.719942 -21.290622 2.200124 0.000000 81.000000 14.790507 6.000000
33.296455 -19.795605 -1.920762 0.000000 58.000000 14.526641 0.000000
32.659846 -19.840696 -1.518694 0.000000 40.000000 14.455755 0.000000
28.574942 -20.233766 0.006056 0.000000 35.000000 14.399877 0.000000
28.725284 -20.687748 -1.652761 0.000000 14.000000 15.306023 18.000000
32.041032 -20.105729 -2.062919 0.000000 55.000000 14.864360 20.000000
32.005306 -20.846508 0.018184 0.000000 49.000000 14.983976 4.000000
31.106154 -20.188576 -1.580721 0.000000 68.000000 14.806933 25.000000
29.973391 -20.542694 0.730566 0.000000 37.000000 14.490456 0.000000
28.693150 -20.410119 -1.377716 0.000000 65.000000 14.961744 18.000000
29.380511 -20.814423 1.406495 0.000000 30.000000 14.559155 0.000000
30.386664 -20.454629 -0.273460 0.000000 60.000000 14.690994 28.000000
28.159855 -21.138860 2.811902 0.000000 44.000000 14.471340 0.000000
30.663195 -19.877201 -1.557908 0.000000 45.000000 14.501889 0.000000
29.007574 -20.790853 0.249514 0.000000 70.000000 14.864950 10.000000
30.883504 -21.042771 2.762956 0.000000 37.000000 14.393096 0.000000
32.118032 -21.311938 2.353738 0.000000 59.000000 14.767344 17.000000
30.253942 -20.780417 0.288108 0.000000 68.000000 14.843988 9.000000
32.302773 -19.581047 -2.488409 0.000000 56.000000 14.482027 0.000000
28.514542 -20.598781 -0.021831 0.000000 65.000000 14.757795 8.000000
33.544433 -20.664835 1.584355 0.000000 33.000000 14.365236 0.000000
33.006351 -19.508037 -2.745077 0.000000 64.000000 14.484872 0.000000
33.720237 -20.608090 -1.370705 0.000000 72.000000 15.149583 27.000000
28.591509 -20.641194 -0.291220 0.000000 67.000000 14.874927 29.000000
33.436049 -19.693396 -2.064076 0.000000 67.000000 14.469314 0.000000
29.212301 -20.187498 -1.092271 0.000000 47.000000 14.667259 18.000000
32.245564 -20.997184 0.910733 0.000000 70.000000 14.875115 23.000000
32.379738 -20.223542 -1.238658 0.000000 47.000000 14.743371 21.000000
33.106238 -20.553723 0.811302 0.000000 39.000000 14.478115 0.000000
29.305387 -20.827286 -0.628419 0.000000 69.000000 15.149075 29.000000
30.856224 -20.718486 1.515001 0.000000 43.000000 14.436365 0.000000
30.800869 -20.802829 1.689239 0.000000 44.000000 14.467784 0.000000
32.777431 -20.760945 1.515233 0.000000 37.000000 14.477012 0.000000
32.843022 -20.379782 -1.132879 0.000000 65.000000 14.863161 21.000000
32.074130 -21.261267 2.346674 0.000000 36.000000 14.720762 17.000000
27.550467 -20.692017 1.613880 0.000000 34.000000 14.382919 0.000000
29.982838 -20.931496 0.041190 0.000000 78.000000 15.058938 9.000000
27.680290 -20.815571 1.782836 0.000000 32.000000 14.453436 0.000000
28.064799 -20.830521 1.638056 0.000000 41.000000 14.508865 0.000000
30.276875 -20.186560 -1.915267 0.000000 71.000000 14.899957 22.000000
33.691173 -21.063076 2.163271 0.000000 51.000000 14.582779 3.000000
32.430051 -21.406370 2.231760 0.000000 59.000000 14.892515 3.000000
28.795134 -21.445878 2.280660 0.000000 69.000000 14.916518 6.000000
32.720238 -20.442289 0.455015 0.000000 33.000000 14.472392 0.000000
31.314807 -19.910841 -1.258645 0.000000 44.000000 14.449204 0.000000
30.909835 -20.489956 0.482637 0.000000 47.000000 14.510259 0.000000
28.954618 -20.524245 0.608703 0.000000 48.000000 14.507355 0.000000
27.806464 -21.360863 2.239047 0.000000 73.000000 14.846811 6.000000
30.820894 -20.758891 0.678791 0.000000 51.000000 14.712457 5.000000
29.401479 -20.100541 -3.019859 0.000000 58.000000 15.131001 11.000000
33.368482 -19.740542 -1.995015 0.000000 58.000000 14.494919 0.000000
33.532766 -19.694967 -2.122492 0.000000 57.000000 14.487401 0.000000
30.420094 -21.023854 0.103949 0.000000 71.000000 15.129685 9.000000
33.626606 -20.910540 -0.431934 0.000000 74.000000 15.173135 27.000000
32.048800 -20.441803 -1.030208 0.000000 52.000000 14.893489 21.000000
32.356620 -19.533594 -2.666229 0.000000 31.000000 14.486998 0.000000
30.321143 -20.891619 -0.740572 0.000000 69.000000 15.242596 28.000000
29.343932 -21.078826 1.257338 0.000000 74.000000 14.855020 15.000000
30.399460 -20.995071 2.267295 0.000000 44.000000 14.488045 0.000000
29.588400 -20.150249 -1.964101 0.000000 65.000000 14.879001 18.000000
28.240783 -21.362852 2.082974 0.000000 72.000000 14.893018 6.000000
32.600146 -20.781690 -0.726751 0.000000 73.000000 15.133265 26.000000
29.593842 -20.603834 0.864136 0.000000 43.000000 14.511169 0.000000
29.125858 -20.794730 0.157608 0.000000 63.000000 14.894754 10.000000
30.487789 -20.345291 -0.213803 0.000000 48.000000 14.569219 28.000000
31.068974 -19.561271 -2.598914 0.000000 45.000000 14.494430 0.000000
29.610215 -20.713336 -0.506194 0.000000 65.000000 15.005120 29.000000
32.845300 -20.033422 -2.126107 0.000000 50.000000 14.812962 20.000000
29.135576 -19.826282 -2.005482 0.000000 49.000000 14.580103 30.000000
29.772799 -19.638712 -2.375871 0.000000 45.000000 14.505378 0.000000
29.199127 -21.367993 2.050368 0.000000 68.000000 14.907202 6.000000
32.509208 -20.152380 -1.689139 0.000000 46.000000 14.802999 20.000000
33.418176 -19.330964 -2.775576 0.000000 33.000000 14.323739 0.000000
32.375118 -19.693524 -2.136453 0.000000 40.000000 14.489980 0.000000
31.163610 -19.754982 -1.530571 0.000000 36.000000 14.376938 0.000000
31.124568 -19.939032 -1.467958 0.000000 44.000000 14.535646 0.000000
28.851114 -20.286975 -0.038864 0.000000 42.000000 14.463648 0.000000
28.005013 -20.485253 0.592053 0.000000 60.000000 14.474693 0.000000
29.980782 -20.671853 -0.025332 0.000000 80.000000 14.828856 9.000000
31.331172 -19.877313 -1.291755 0.000000 38.000000 14.426452 0.000000
29.804653 -19.596532 -2.427394 0.000000 47.000000 14.479557 0.000000
30.148545 -20.775318 0.250269 0.000000 54.000000 14.849839 9.000000
28.309070 -21.267393 2.661696 0.000000 50.000000 14.637221 7.000000
28.089344 -19.906362 -1.671976 0.000000 51.000000 14.562228 30.000000
32.649176 -19.547283 -2.644161 0.000000 47.000000 14.493860 0.000000
30.993291 -20.222716 -1.577867 0.000000 33.000000 14.838859 25.000000
33.142873 -19.516191 -2.738746 0.000000 57.000000 14.490894 0.000000
33.419815 -20.792254 0.693209 0.000000 45.000000 14.740355 19.000000
30.935760 -21.610774 2.892384 0.000000 53.000000 14.901002 12.000000
27.842035 -19.487350 -2.669049 0.000000 43.000000 14.443456 0.000000
28.077691 -20.493557 -1.194532 0.000000 57.000000 14.989756 18.000000
33.731671 -22.088981 2.763570 0.000000 65.000000 15.396103 16.000000
32.132360 -20.980116 0.787502 0.000000 68.000000 14.893727 23.000000
29.391121 -20.261400 -2.807201 0.000000 76.000000 15.224884 11.000000
29.046560 -21.290401 1.858918 0.000000 69.000000 14.887142 6.000000
32.871428 -21.690141 2.866188 0.000000 50.000000 14.984540 16.000000
32.735883 -19.709534 -2.049055 0.000000 44.000000 14.480524 0.000000
30.931201 -21.577003 2.216517 0.000000 55.000000 15.060456 2.000000
30.338189 -20.354530 -1.977931 0.000000 68.000000 15.078805 22.000000
28.228877 -20.455320 -0.941858 0.000000 76.000000 14.881373 29.000000
30.982220 -21.313332 1.984289 0.000000 59.000000 14.873545 2.000000
28.747124 -21.414122 2.017190 0.000000 78.000000 14.960851 6.000000
33.482049 -20.741407 0.725791 0.000000 52.000000 14.682352 19.000000
30.590389 -22.110654 2.879086 0.000000 2.000000 15.384097 12.000000
29.733744 -21.042461 1.318155 0.000000 59.000000 14.802888 15.000000
32.057425 -20.523760 -1.193176 0.000000 64.000000 15.018332 21.000000
29.016356 -20.930511 1.971801 0.000000 43.000000 14.510013 0.000000
32.797331 -21.459363 2.167211 0.000000 67.000000 14.961650 3.000000
28.220676 -20.736642 0.637843 0.000000 54.000000 14.702745 1.000000
28.087248 -20.921524 1.935081 0.000000 56.000000 14.511818 0.000000
32.339379 -19.603299 -2.362915 0.000000 44.000000 14.467744 0.000000
29.457045 -20.873449 -0.844760 0.000000 74.000000 15.254745 29.000000
33.789508 -20.753927 0.430795 0.000000 59.000000 14.778088 27.000000
30.411311 -20.054071 -1.651773 0.000000 45.000000 14.698128 22.000000
31.128018 -19.871693 -1.329174 0.000000 39.000000 14.431684 0.000000
28.481746 -20.945761 0.875171 0.000000 80.000000 14.835901 1.000000
31.909611 -20.535471 -1.110837 0.000000 73.000000 15.006190 21.000000
31.856269 -20.992097 0.336030 0.000000 67.000000 15.033360 4.000000
33.576865 -20.482125 0.139666 0.000000 57.000000 14.600098 27.000000
28.323200 -21.261600 2.430683 0.000000 50.000000 14.697237 6.000000
27.769926 -21.267483 2.154346 0.000000 43.000000 14.781313 6.000000
32.771139 -20.503787 0.661056 0.000000 41.000000 14.472879 0.000000
29.165295 -20.708979 -1.199471 0.000000 73.000000 15.197720 18.000000
32.402793 -20.936983 2.119247 0.000000 40.000000 14.474368 0.000000
30.230651 -20.963101 0.213057 0.000000 67.000000 15.040461 9.000000
29.208397 -21.221727 2.864916 0.000000 48.000000 14.535752 0.000000
29.395366 -21.123779 2.762841 0.000000 43.000000 14.470805 0.000000
32.168653 -20.361183 -1.271006 0.000000 71.000000 14.884532 21.000000
31.610558 -20.178275 -2.332943 0.000000 40.000000 15.010565 22.000000
32.068104 -20.664423 1.410999 0.000000 34.000000 14.414046 0.000000
30.208162 -21.025113 2.310809 0.000000 49.000000 14.504501 0.000000
30.093840 -20.713750 -0.054853 0.000000 73.000000 14.877409 9.000000
29.359029 -20.168648 -2.717323 0.000000 70.000000 15.110436 11.000000
28.295377 -20.758263 0.125694 0.000000 76.000000 14.868845 8.000000
29.108607 -20.321736 -1.102639 0.000000 61.000000 14.798919 18.000000
30.223106 -20.698296 1.321597 0.000000 46.000000 14.471901 0.000000
31.107595 -20.340915 0.144491 0.000000 35.000000 14.463326 0.000000
30.478020 -20.869639 0.386886 0.000000 79.000000 14.901504 9.000000
31.111983 -20.541677 0.698974 0.000000 46.000000 14.498448 0.000000
29.701674 -20.867534 1.744031 0.000000 47.000000 14.514276 0.000000
31.847472 -20.330376 0.115812 0.000000 40.000000 14.461361 0.000000
32.972433 -20.156330 -0.814585 0.000000 45.000000 14.558555 0.000000
32.832938 -20.959679 2.165669 0.000000 44.000000 14.482954 0.000000
33.498792 -21.741918 2.280831 0.000000 6.000000 15.200334 3.000000
30.044067 -20.713672 -0.043732 0.000000 75.000000 14.874177 9.000000
30.495431 -20.803711 0.660055 0.000000 55.000000 14.760751 5.000000
32.561517 -21.401608 2.217516 0.000000 52.000000 14.891991 3.000000
32.263862 -20.990919 2.291695 0.000000 49.000000 14.477138 0.000000
30.653898 -21.842812 2.945596 0.000000 63.000000 15.108393 12.000000
32.135584 -19.452161 -2.702299 0.000000 43.000000 14.419152 0.000000
30.072051 -20.678998 -0.062536 0.000000 54.000000 14.846267 9.000000
33.127306 -19.353172 -2.849278 0.000000 46.000000 14.365952 0.000000
33.010403 -19.465695 -2.769263 0.000000 65.000000 14.451137 0.000000
27.745970 -19.479154 -2.687348 0.000000 50.000000 14.440791 0.000000
32.294809 -21.315459 1.441548 0.000000 58.000000 15.029635 24.000000
32.426223 -19.584147 -2.445297 0.000000 47.000000 14.472763 0.000000
32.281393 -21.206499 0.797894 0.000000 73.000000 15.107850 23.000000
28.969714 -20.276992 -2.810711 0.000000 50.000000 15.240831 11.000000
31.579675 -19.772561 -2.659235 0.000000 63.000000 14.714152 14.000000
33.188810 -20.967761 2.198474 0.000000 27.000000 14.481392 0.000000
31.739945 -20.142968 -2.701681 0.000000 61.000000 15.081372 14.000000
33.508273 -20.622502 -0.913045 0.000000 76.000000 15.033501 27.000000
28.063081 -20.135550 -1.662327 0.000000 62.000000 14.779251 30.000000
33.684889 -20.549936 0.227848 0.000000 74.000000 14.640090 27.000000
33.087833 -19.620366 -2.287154 0.000000 37.000000 14.462605 0.000000
32.117052 -20.643682 -1.030320 0.000000 76.000000 15.087097 21.000000
29.179035 -20.921831 1.937409 0.000000 35.000000 14.511452 0.000000
31.968562 -19.635884 -2.243693 0.000000 40.000000 14.465149 0.000000
30.380816 -21.737455 2.702760 0.000000 73.000000 15.076295 12.000000
30.030057 -20.826635 -0.658429 0.000000 76.000000 15.156969 28.000000
31.119942 -19.748416 -1.512946 0.000000 36.000000 14.365639 0.000000
29.059662 -20.812348 -1.712595 0.000000 75.000000 15.442482 18.000000
30.875759 -20.393303 -1.160430 0.000000 68.000000 14.883946 25.000000
31.579208 -19.673358 -2.148760 0.000000 43.000000 14.474136 0.000000
28.967546 -21.316474 1.975156 0.000000 66.000000 14.879150 6.000000
33.352664 -20.858321 1.893666 0.000000 30.000000 14.462970 0.000000
32.315556 -19.616907 -2.417318 0.000000 48.000000 14.496234 0.000000
30.426358 -20.233078 -2.269750 0.000000 66.000000 15.045178 22.000000
29.105385 -20.276023 -2.321646 0.000000 64.000000 15.101087 30.000000
33.133204 -19.446308 -2.752293 0.000000 55.000000 14.427730 0.000000
33.699968 -21.831211 2.930604 0.000000 64.000000 15.101524 16.000000
29.730992 -20.939876 1.418236 0.000000 76.000000 14.676116 15.000000
33.051468 -19.879575 -1.542476 0.000000 47.000000 14.499786 0.000000
31.253139 -20.477347 0.437788 0.000000 35.000000 14.510898 0.000000
31.814166 -20.302991 0.125762 0.000000 43.000000 14.432278 0.000000
30.794314 -21.360615 2.658315 0.000000 59.000000 14.727569 12.000000
32.698415 -19.564904 -2.498204 0.000000 44.000000 14.469328 0.000000
32.501701 -21.619465 2.890652 0.000000 47.000000 14.909827 16.000000
32.318659 -20.454759 0.421189 0.000000 45.000000 14.493950 0.000000
30.108782 -20.839610 -0.619316 0.000000 70.000000 15.158308 28.000000
31.318351 -21.206675 2.095649 0.000000 44.000000 14.739666 2.000000
30.911357 -20.982984 2.096468 0.000000 45.000000 14.524943 0.000000
32.796833 -20.898690 1.923228 0.000000 44.000000 14.493288 0.000000
32.737830 -20.952823 2.101925 0.000000 38.000000 14.494473 0.000000
31.908744 -21.407618 2.420425 0.000000 57.000000 14.840161 17.000000
28.207633 -20.720950 1.445098 0.000000 41.000000 14.458569 0.000000
33.519676 -21.161898 2.121767 0.000000 54.000000 14.689317 3.000000
32.641149 -19.587298 -2.441726 0.000000 50.000000 14.474771 0.000000
32.293856 -20.269198 -1.253449 0.000000 75.000000 14.791347 21.000000
28.812161 -20.779597 -0.866106 0.000000 76.000000 15.170812 29.000000
27.998595 -20.586551 1.273763 0.000000 31.000000 14.378329 0.000000
29.577984 -20.777848 -0.674585 0.000000 47.000000 15.114774 29.000000
28.219114 -20.680679 -1.500750 0.000000 75.000000 15.256098 18.000000
29.287558 -20.564075 0.659806 0.000000 47.000000 14.531042 0.000000
29.213108 -20.230650 -2.621366 0.000000 81.000000 15.142652 11.000000
29.951593 -20.898496 1.291870 0.000000 56.000000 14.672305 15.000000
30.721465 -20.309235 -0.125130 0.000000 36.000000 14.509478 0.000000
29.951335 -21.050288 1.488103 0.000000 66.000000 14.762156 15.000000
29.183124 -20.730405 -0.897909 0.000000 52.000000 15.132670 29.000000
30.376748 -20.240861 -2.192674 0.000000 64.000000 15.030764 22.000000
30.777056 -21.144745 2.620866 0.000000 40.000000 14.531207 0.000000
32.498496 -20.147221 -1.741340 0.000000 65.000000 14.812869 20.000000
27.566586 -19.909784 -1.178283 0.000000 31.000000 14.425380 0.000000
29.798030 -20.220401 -1.237103 0.000000 70.000000 14.739918 25.000000
30.505514 -19.852535 -2.910410 0.000000 56.000000 14.862130 13.000000
31.127506 -20.793724 1.640683 0.000000 41.000000 14.472836 0.000000
32.571101 -21.254690 1.308791 0.000000 55.000000 15.009047 24.000000
33.505857 -19.501545 -2.676686 0.000000 47.000000 14.459235 0.000000
29.360728 -20.042130 -2.572719 0.000000 48.000000 14.948077 11.000000
33.019606 -20.430980 0.336718 0.000000 44.000000 14.495125 0.000000
28.642811 -20.378337 0.105774 0.000000 45.000000 14.510198 0.000000
27.702203 -21.508456 2.024082 0.000000 47.000000 15.049349 6.000000
31.966116 -19.473862 -2.741388 0.000000 51.000000 14.451055 0.000000
28.149563 -20.247831 -1.729802 0.000000 71.000000 14.906066 30.000000
30.853106 -19.655172 -2.257226 0.000000 67.000000 14.487485 0.000000
28.472178 -20.603663 -1.323932 0.000000 63.000000 15.132062 18.000000
32.414430 -19.706195 -2.087070 0.000000 43.000000 14.488113 0.000000
32.307590 -20.852464 0.275740 0.000000 35.000000 14.916583 4.000000
32.874935 -20.479294 -1.460903 0.000000 76.000000 15.051686 21.000000
30.733034 -20.813160 0.787901 0.000000 47.000000 14.733524 5.000000
32.603232 -21.537761 2.553768 0.000000 78.000000 14.927104 16.000000
27.834923 -20.036513 -2.143209 0.000000 63.000000 14.820780 30.000000
28.208846 -20.012965 -2.213260 0.000000 81.000000 14.818084 30.000000
31.173285 -20.275635 -1.552745 0.000000 66.000000 14.882471 25.000000
33.357439 -20.325908 -1.206631 0.000000 69.000000 14.832436 27.000000
27.642572 -19.975826 -2.099849 0.000000 70.000000 14.750282 30.000000
28.149995 -20.968791 0.607184 0.000000 75.000000 14.934049 1.000000
28.928589 -20.603895 -2.154138 0.000000 78.000000 15.367929 30.000000
27.853505 -19.431371 -2.767276 0.000000 42.000000 14.417660 0.000000
33.214174 -19.542049 -2.692780 0.000000 49.000000 14.502641 0.000000
33.308884 -19.390396 -2.704889 0.000000 42.000000 14.360663 0.000000
31.903137 -19.537825 -2.764795 0.000000 55.000000 14.519032 0.000000
33.499501 -19.333102 -2.749781 0.000000 36.000000 14.318467 0.000000
29.453912 -21.261611 2.094625 0.000000 44.000000 14.792633 6.000000
33.721424 -19.312868 -2.807265 0.000000 36.000000 14.315381 0.000000
33.440641 -20.779936 1.682634 0.000000 31.000000 14.447707 0.000000
32.261020 -21.013568 0.726393 0.000000 73.000000 14.943148 23.000000
29.414184 -20.159897 -1.397066 0.000000 72.000000 14.727305 18.000000
32.937909 -19.609484 -2.326446 0.000000 47.000000 14.463323 0.000000
28.097528 -20.838608 0.779288 0.000000 51.000000 14.760370 1.000000
28.749866 -20.970760 1.889410 0.000000 57.000000 14.571992 6.000000
31.950543 -19.855517 -1.492126 0.000000 52.000000 14.462426 0.000000
30.427839 -20.868040 -0.620398 0.000000 68.000000 15.185876 28.000000
32.635527 -20.469563 -0.917108 0.000000 79.000000 14.888005 26.000000
31.132017 -21.123713 0.844478 0.000000 34.000000 15.015246 5.000000
32.162304 -20.352547 0.203442 0.000000 38.000000 14.457747 0.000000
29.393090 -21.426846 2.849348 0.000000 68.000000 14.736853 12.000000
29.888103 -20.582550 0.783592 0.000000 43.000000 14.513622 0.000000
31.841913 -20.537798 0.682815 0.000000 36.000000 14.499315 0.000000
29.308961 -20.620417 1.416870 0.000000 28.000000 14.370183 0.000000
31.247952 -20.630124 1.446533 0.000000 35.000000 14.371071 0.000000
31.159546 -20.698955 1.616517 0.000000 35.000000 14.388824 0.000000
29.441569 -20.391599 -1.653787 0.000000 82.000000 15.022345 18.000000
30.979747 -20.961664 2.100171 0.000000 44.000000 14.503448 0.000000
28.949916 -20.629583 -0.196844 0.000000 58.000000 14.837006 29.000000
30.439037 -20.868759 1.515663 0.000000 54.000000 14.580270 15.000000
32.386301 -20.182036 -0.831840 0.000000 53.000000 14.588101 26.000000
31.514504 -20.958511 2.154141 0.000000 31.000000 14.485106 0.000000
29.457475 -20.249366 0.023092 0.000000 39.000000 14.410000 0.000000
29.154606 -20.277519 -1.974444 0.000000 64.000000 15.003972 18.000000
31.143819 -19.778698 -1.355091 0.000000 36.000000 14.349870 0.000000
33.308132 -20.297455 -1.307788 0.000000 78.000000 14.833866 27.000000
31.405988 -19.778209 -1.482281 0.000000 44.000000 14.385503 0.000000
32.563982 -19.708831 -2.086509 0.000000 45.000000 14.490481 0.000000
33.381359 -20.617840 -0.823138 0.000000 72.000000 15.003512 27.000000
32.917966 -19.610104 -2.304052 0.000000 47.000000 14.457562 0.000000
27.915412 -20.615055 1.352100 0.000000 27.000000 14.383426 0.000000
32.934005 -19.918281 -1.606488 0.000000 36.000000 14.555069 0.000000
32.643770 -20.438224 0.425533 0.000000 45.000000 14.476863 0.000000
29.445442 -19.944682 -2.559169 0.000000 78.000000 14.850791 11.000000
32.591765 -20.590631 0.752012 0.000000 57.000000 14.530334 0.000000
29.725031 -19.915316 -2.486053 0.000000 68.000000 14.801880 11.000000
31.632751 -20.547572 0.129674 0.000000 66.000000 14.665689 4.000000
27.780622 -19.644296 -2.221636 0.000000 54.000000 14.466955 0.000000
28.311985 -20.642594 -0.920371 0.000000 73.000000 15.054846 29.000000
29.132042 -21.349431 2.381287 0.000000 62.000000 14.795476 6.000000
28.285040 -19.949583 -2.273919 0.000000 66.000000 14.774526 30.000000
32.327275 -21.420580 2.573141 0.000000 50.000000 14.809243 17.000000
28.118565 -21.066765 2.676919 0.000000 31.000000 14.440524 0.000000
28.575325 -19.338525 -2.858724 0.000000 36.000000 14.354589 0.000000
31.970205 -19.803417 -2.776283 0.000000 53.000000 14.776961 14.000000
31.986197 -20.126763 -0.692091 0.000000 31.000000 14.495436 0.000000
29.448317 -20.892582 1.842622 0.000000 44.000000 14.510310 0.000000
33.755424 -20.642463 -0.034504 0.000000 68.000000 14.803278 27.000000
32.558896 -20.524556 0.693036 0.000000 44.000000 14.483716 0.000000
31.592653 -19.868027 -2.147893 0.000000 65.000000 14.660553 22.000000
28.879350 -20.596072 -0.413798 0.000000 41.000000 14.866453 29.000000
32.918542 -20.452750 0.403208 0.000000 39.000000 14.497128 0.000000
31.756898 -20.265363 0.044429 0.000000 46.000000 14.419283 0.000000
28.183046 -20.520545 0.631948 0.000000 56.000000 14.497209 0.000000
32.653641 -21.180753 1.011627 0.000000 65.000000 15.022497 23.000000
31.997305 -20.549597 -0.813675 0.000000 60.000000 14.935389 26.000000
32.966678 -20.853267 1.770079 0.000000 50.000000 14.493202 0.000000
31.286779 -20.101086 -1.390273 0.000000 77.000000 14.668985 25.000000
33.070557 -20.647900 1.494706 0.000000 37.000000 14.374443 0.000000
28.593815 -21.769309 2.754063 0.000000 73.000000 15.092277 7.000000
30.991923 -21.163405 0.805416 0.000000 81.000000 15.064393 5.000000
28.891038 -20.568742 1.307376 0.000000 31.000000 14.351712 0.000000
28.619648 -20.410409 -1.712319 0.000000 59.000000 15.056995 18.000000
30.947081 -20.306370 -1.925261 0.000000 54.000000 15.017676 22.000000
32.045856 -19.484961 -2.672067 0.000000 45.000000 14.442022 0.000000
28.587315 -20.592460 -1.192531 0.000000 51.000000 15.084023 18.000000
33.632269 -20.654639 0.462932 0.000000 56.000000 14.673761 27.000000
33.164718 -19.399840 -2.801906 0.000000 49.000000 14.397255 0.000000
28.688428 -19.482270 -2.878733 0.000000 29.000000 14.498102 0.000000
31.444980 -20.014347 -2.098653 0.000000 68.000000 14.786879 22.000000
28.332329 -20.426862 -1.794892 0.000000 56.000000 15.096209 30.000000
29.206063 -20.599234 -1.227376 0.000000 45.000000 15.100409 18.000000
28.872741 -21.426933 2.088839 0.000000 57.000000 14.952798 6.000000
28.592643 -21.203246 1.855203 0.000000 47.000000 14.804626 6.000000
28.250072 -20.452397 -0.424666 0.000000 75.000000 14.731771 29.000000
33.032795 -21.152222 0.802375 0.000000 51.000000 15.054533 23.000000
32.245053 -19.570671 -2.512725 0.000000 60.000000 14.478980 0.000000
32.079935 -19.631712 -2.408349 0.000000 57.000000 14.507884 0.000000
31.832083 -19.618635 -2.274338 0.000000 46.000000 14.457308 0.000000
31.633801 -19.655023 -2.152694 0.000000 44.000000 14.457672 0.000000
31.950685 -20.171096 -1.031946 0.000000 60.000000 14.634409 21.000000
33.247895 -20.865777 -0.727416 0.000000 44.000000 15.214082 27.000000
27.996720 -20.973091 1.906509 0.000000 55.000000 14.569374 6.000000
28.604203 -21.065903 -0.417898 0.000000 13.000000 15.318124 29.000000
31.729817 -20.637945 0.072780 0.000000 73.000000 14.768494 4.000000
30.024886 -20.753972 0.336226 0.000000 49.000000 14.804973 9.000000
30.691797 -20.248965 -0.007154 0.000000 37.000000 14.418200 0.000000
33.356887 -20.041719 -0.870603 0.000000 24.000000 14.464558 0.000000
29.383173 -20.616966 1.365181 0.000000 28.000000 14.381545 0.000000
28.304520 -21.010649 0.591500 0.000000 77.000000 14.978637 1.000000
28.945955 -20.945180 2.034567 0.000000 42.000000 14.506263 0.000000
28.350370 -21.134819 2.831607 0.000000 43.000000 14.461872 0.000000
29.105843 -20.046942 -0.972399 0.000000 45.000000 14.498460 0.000000
30.870297 -20.719007 -0.025886 0.000000 29.000000 14.874227 9.000000
28.542602 -20.504567 0.129493 0.000000 73.000000 14.624504 8.000000
32.856165 -19.676041 -2.111173 0.000000 44.000000 14.466040 0.000000
32.783329 -20.886571 1.968782 0.000000 31.000000 14.468737 0.000000
29.238233 -20.866034 -0.884598 0.000000 59.000000 15.258943 29.000000
31.703401 -21.122205 1.386024 0.000000 65.000000 14.860089 24.000000
30.875405 -21.362265 2.351317 0.000000 48.000000 14.816289 2.000000
28.898979 -20.982399 -0.864682 0.000000 51.000000 15.364869 29.000000
32.793101 -19.455936 -2.750792 0.000000 51.000000 14.436536 0.000000
32.946775 -19.378268 -2.830952 0.000000 53.000000 14.384815 0.000000
31.692291 -21.023919 1.550525 0.000000 73.000000 14.719154 24.000000
33.453394 -20.790176 -0.884756 0.000000 39.000000 15.186249 27.000000
33.182171 -19.629888 -2.269896 0.000000 44.000000 14.466837 0.000000
27.893260 -20.389743 -2.019386 0.000000 74.000000 15.124337 30.000000
32.188107 -21.561554 2.610822 0.000000 60.000000 14.933724 17.000000
33.086340 -20.476230 0.380194 0.000000 43.000000 14.526174 0.000000
32.965364 -20.486343 0.568119 0.000000 36.000000 14.482531 0.000000
32.881698 -20.531633 0.741070 0.000000 40.000000 14.476868 0.000000
33.253873 -20.762441 0.863712 0.000000 38.000000 14.663373 19.000000
32.517731 -20.722590 -0.982431 0.000000 65.000000 15.149167 26.000000
31.713765 -20.806043 1.042054 0.000000 35.000000 14.654562 23.000000
29.577627 -21.210124 2.395748 0.000000 65.000000 14.657794 6.000000
30.716488 -20.232620 -1.822967 0.000000 75.000000 14.917925 22.000000
32.936342 -20.639715 -0.765294 0.000000 81.000000 15.008069 26.000000
29.764193 -19.341978 -2.833735 0.000000 45.000000 14.350807 0.000000
30.300540 -21.107969 2.752053 0.000000 36.000000 14.458707 0.000000
27.682451 -20.025711 -2.092603 0.000000 74.000000 14.796058 30.000000
30.857680 -19.835148 -2.348930 0.000000 57.000000 14.686088 22.000000
28.521603 -20.863531 1.705224 0.000000 44.000000 14.521452 0.000000
29.145437 -20.618477 1.410566 0.000000 24.000000 14.370112 0.000000
30.020146 -20.966266 -0.804640 0.000000 60.000000 15.332357 28.000000
29.079762 -20.037645 -2.846470 0.000000 59.000000 15.021478 11.000000
28.787774 -20.642624 0.817870 0.000000 64.000000 14.561496 0.000000
32.136636 -21.170733 1.687550 0.000000 44.000000 14.821037 24.000000
28.348890 -20.776502 0.690745 0.000000 57.000000 14.725951 1.000000
28.704792 -20.344942 -2.301935 0.000000 67.000000 15.161576 30.000000
30.697185 -20.778067 0.080264 0.000000 64.000000 14.900729 9.000000
31.046006 -20.467239 -0.777546 0.000000 71.000000 14.846164 28.000000
32.402226 -20.685612 -0.624096 0.000000 52.000000 15.012001 26.000000
28.999883 -20.590214 -1.784743 0.000000 56.000000 15.249962 18.000000
28.312625 -21.068808 0.902515 0.000000 56.000000 14.946126 1.000000
31.440492 -20.159337 -0.667328 0.000000 51.000000 14.519641 0.000000
30.988776 -20.836708 0.618781 0.000000 70.000000 14.804107 5.000000
33.684995 -19.353775 -2.762372 0.000000 38.000000 14.341863 0.000000
33.282626 -20.624791 1.501488 0.000000 39.000000 14.350359 0.000000
33.345866 -20.725155 1.640594 0.000000 41.000000 14.407112 0.000000
30.381655 -19.736069 -2.377939 0.000000 67.000000 14.599318 22.000000
29.014165 -20.352373 -1.918264 0.000000 68.000000 15.059801 30.000000
28.615170 -20.715335 0.798923 0.000000 78.000000 14.636594 1.000000
31.355266 -21.272212 3.107235 0.000000 48.000000 14.515381 0.000000
30.834373 -21.167201 2.115883 0.000000 77.000000 14.696073 2.000000
30.580051 -20.850587 -0.679426 0.000000 66.000000 15.185895 28.000000
33.484307 -20.462696 -0.918248 0.000000 54.000000 14.881744 27.000000
31.999018 -20.124275 -2.095706 0.000000 61.000000 14.891449 20.000000
32.859513 -20.828380 1.672550 0.000000 44.000000 14.497021 0.000000
29.449215 -20.367893 -1.369417 0.000000 64.000000 14.918899 18.000000
30.776017 -20.763617 -0.010584 0.000000 43.000000 14.912659 9.000000
31.492567 -20.706945 1.463252 0.000000 39.000000 14.439987 0.000000
32.348503 -20.995319 1.171155 0.000000 51.000000 14.799410 23.000000
32.262724 -20.503269 0.609916 0.000000 41.000000 14.486897 0.000000
32.399924 -20.458963 0.443124 0.000000 45.000000 14.491756 0.000000
32.553911 -19.411564 -2.713347 0.000000 37.000000 14.383361 0.000000
28.616694 -21.259817 2.076937 0.000000 72.000000 14.795934 6.000000
28.031320 -20.650002 -0.666339 0.000000 76.000000 14.989845 29.000000
32.121222 -21.069490 1.751875 0.000000 57.000000 14.705700 24.000000
30.464781 -20.812237 0.663337 0.000000 64.000000 14.767995 5.000000
28.409195 -20.377957 -2.144442 0.000000 74.000000 15.148531 30.000000
28.792182 -21.236819 2.328133 0.000000 67.000000 14.702583 6.000000
30.791566 -19.593854 -2.441537 0.000000 57.000000 14.481003 0.000000
28.592220 -20.886950 1.824171 0.000000 39.000000 14.510147 0.000000
29.353548 -20.244193 -1.419598 0.000000 78.000000 14.814530 18.000000
32.073268 -19.652894 -2.154983 0.000000 46.000000 14.456280 0.000000
30.885102 -19.893020 -1.482398 0.000000 38.000000 14.495625 0.000000
29.918508 -20.140469 -0.847179 0.000000 40.000000 14.552598 0.000000
29.038699 -20.531402 -1.232874 0.000000 66.000000 15.036927 18.000000
33.607386 -19.682306 -2.098806 0.000000 45.000000 14.468537 0.000000
30.059810 -20.514803 0.603055 0.000000 36.000000 14.499904 0.000000
30.023639 -19.625785 -2.368312 0.000000 45.000000 14.490837 0.000000
29.599131 -20.957470 2.060029 0.000000 44.000000 14.510821 0.000000
29.047942 -21.309521 1.914224 0.000000 70.000000 14.889778 6.000000
30.583646 -19.610397 -2.502142 0.000000 59.000000 14.514068 0.000000
32.953716 -20.186939 -2.005403 0.000000 48.000000 14.925905 20.000000
29.860571 -19.869638 -2.673856 0.000000 55.000000 14.811386 11.000000
32.939728 -19.581504 -2.693695 0.000000 49.000000 14.540733 0.000000
32.523251 -21.424781 2.228184 0.000000 34.000000 14.911183 3.000000
32.169134 -20.754893 0.735196 0.000000 63.000000 14.692613 23.000000
29.236548 -20.811401 -1.570434 0.000000 11.000000 15.401223 18.000000
31.911788 -20.516580 -0.686183 0.000000 61.000000 14.867543 26.000000
30.299123 -20.947874 -0.568787 0.000000 72.000000 15.247778 28.000000
33.026803 -19.383349 -2.818020 0.000000 57.000000 14.386016 0.000000
30.781041 -19.770068 -1.541523 0.000000 40.000000 14.394512 0.000000
32.803629 -19.560336 -2.600138 0.000000 54.000000 14.493881 0.000000
28.940836 -19.892362 -2.371066 0.000000 70.000000 14.747232 11.000000
32.452639 -19.614383 -2.332850 0.000000 48.000000 14.469839 0.000000
27.961816 -20.455983 -2.154975 0.000000 72.000000 15.226338 30.000000
30.147507 -20.851096 0.155196 0.000000 80.000000 14.949486 9.000000
30.476071 -21.013961 0.168366 0.000000 52.000000 15.101914 9.000000
32.675348 -20.088088 -0.896440 0.000000 39.000000 14.516353 0.000000
32.493133 -20.656832 -1.010540 0.000000 59.000000 15.094092 26.000000
28.344261 -21.000335 0.954194 0.000000 57.000000 14.865801 1.000000
29.481608 -21.143941 1.349435 0.000000 54.000000 14.891316 15.000000
29.496728 -20.601748 0.809514 0.000000 49.000000 14.524673 0.000000
27.706082 -21.191588 2.258543 0.000000 63.000000 14.678964 6.000000
31.644958 -20.360802 -0.657629 0.000000 73.000000 14.710067 26.000000
28.260049 -20.346993 -1.851264 0.000000 79.000000 15.035625 30.000000
30.923393 -20.701008 1.445254 0.000000 42.000000 14.439403 0.000000
33.628592 -21.194748 2.110491 0.000000 36.000000 14.724017 3.000000
28.661123 -20.847391 -1.389109 0.000000 55.000000 15.384266 18.000000
30.694505 -20.919099 1.954403 0.000000 46.000000 14.504009 0.000000
30.176914 -20.645440 -0.882979 0.000000 53.000000 15.046962 28.000000
29.492773 -20.614673 0.430430 0.000000 69.000000 14.644665 10.000000
28.335662 -20.785436 1.479132 0.000000 49.000000 14.510743 0.000000
28.046553 -20.480555 0.517555 0.000000 48.000000 14.491333 0.000000
29.422518 -20.318666 0.015641 0.000000 46.000000 14.478565 0.000000
30.516335 -20.993489 0.117852 0.000000 69.000000 15.096622 9.000000
32.647041 -19.880046 -1.471160 0.000000 43.000000 14.479995 0.000000
32.873124 -19.877329 -1.590963 0.000000 41.000000 14.511394 0.000000
28.620194 -19.339236 -2.847774 0.000000 38.000000 14.352163 0.000000
29.106356 -20.836543 -0.601471 0.000000 77.000000 15.150302 29.000000
33.553830 -20.909546 -0.080913 0.000000 70.000000 15.072549 27.000000
32.449091 -19.632741 -2.283219 0.000000 45.000000 14.473354 0.000000
28.117067 -20.274171 -1.670852 0.000000 31.000000 14.914591 18.000000
32.856174 -19.607615 -2.533588 0.000000 52.000000 14.520326 0.000000
33.041973 -19.584746 -2.654420 0.000000 55.000000 14.532694 0.000000
28.261228 -20.667943 -1.505232 0.000000 63.000000 15.245158 18.000000
30.933264 -20.923899 1.987618 0.000000 45.000000 14.499183 0.000000
28.598496 -21.136760 1.840236 0.000000 70.000000 14.745123 6.000000
29.362403 -20.714373 -0.004976 0.000000 56.000000 14.863849 10.000000
33.246320 -19.795905 -1.925918 0.000000 60.000000 14.528392 0.000000
30.966176 -20.387381 -2.165737 0.000000 59.000000 15.163612 22.000000
28.143428 -21.053762 0.857967 0.000000 68.000000 14.944344 1.000000
31.957040 -21.498090 2.777261 0.000000 72.000000 14.825628 17.000000
29.993873 -20.656694 0.110446 0.000000 70.000000 14.775781 9.000000
28.608023 -20.688534 0.780750 0.000000 39.000000 14.616054 1.000000
33.570749 -20.688918 1.593143 0.000000 34.000000 14.385834 0.000000
32.703084 -20.385064 0.317296 0.000000 45.000000 14.456611 0.000000
32.407860 -20.315291 -1.322091 0.000000 74.000000 14.855028 21.000000
30.963483 -20.979418 2.111185 0.000000 56.000000 14.517346 0.000000
33.111585 -20.691844 1.079549 0.000000 29.000000 14.534417 0.000000
29.688874 -19.867361 -2.459020 0.000000 69.000000 14.748224 11.000000
32.413571 -20.958228 1.298372 0.000000 37.000000 14.727735 24.000000
32.919423 -19.484674 -2.763724 0.000000 51.000000 14.467763 0.000000
27.572833 -21.072976 2.925072 0.000000 36.000000 14.376044 0.000000
27.822958 -21.017282 2.763455 0.000000 30.000000 14.368514 0.000000
29.219664 -20.922226 -0.883511 0.000000 74.000000 15.312515 29.000000
30.524223 -20.934796 2.025099 0.000000 42.000000 14.498994 0.000000
32.830615 -20.022993 -2.094407 0.000000 68.000000 14.793964 20.000000
28.808628 -20.341785 -2.777370 0.000000 43.000000 15.293496 11.000000
32.610438 -20.576695 -0.821330 0.000000 56.000000 14.963546 26.000000
29.886677 -21.392141 2.821761 0.000000 44.000000 14.711406 12.000000
29.950188 -20.671083 -0.909344 0.000000 40.000000 15.079033 28.000000
29.195662 -21.001330 1.362633 0.000000 62.000000 14.750825 15.000000
31.381474 -20.594871 1.358932 0.000000 39.000000 14.362133 0.000000
32.396973 -20.485020 0.564067 0.000000 43.000000 14.482413 0.000000
31.611340 -21.239122 1.727097 0.000000 68.000000 14.875388 24.000000
32.568772 -20.448392 0.415358 0.000000 43.000000 14.489500 0.000000
32.694077 -20.373965 0.287238 0.000000 44.000000 14.454500 0.000000
31.266451 -21.032886 1.008224 0.000000 64.000000 14.881677 5.000000
28.803858 -20.681099 -1.160716 0.000000 44.000000 15.159987 18.000000
33.273886 -19.767668 -1.953586 0.000000 65.000000 14.509170 0.000000
30.760431 -19.891338 -2.858369 0.000000 72.000000 14.884565 13.000000
33.291191 -21.054811 2.864956 0.000000 51.000000 14.375689 0.000000
31.931782 -20.390833 -1.140470 0.000000 78.000000 14.875912 21.000000
31.500174 -20.193207 -2.065072 0.000000 46.000000 14.948851 22.000000
30.376465 -20.328631 -0.845480 0.000000 56.000000 14.732539 28.000000
32.286084 -20.959429 2.216526 0.000000 47.000000 14.468279 0.000000
31.190392 -21.048623 2.748247 0.000000 38.000000 14.402882 0.000000
31.024360 -20.136332 -1.845833 0.000000 43.000000 14.832087 22.000000
32.870828 -19.415026 -2.860061 0.000000 49.000000 14.428323 0.000000
30.337851 -21.004177 0.589048 0.000000 80.000000 14.973127 5.000000
31.999305 -19.504654 -2.740816 0.000000 45.000000 14.480419 0.000000
31.743804 -21.397715 2.242187 0.000000 55.000000 14.881256 17.000000
28.248782 -20.959859 2.643960 0.000000 35.000000 14.347370 0.000000
31.232984 -20.954197 0.735670 0.000000 37.000000 14.883586 5.000000
29.295594 -20.945084 1.966030 0.000000 38.000000 14.525625 0.000000
30.751813 -19.581645 -2.463048 0.000000 55.000000 14.475402 0.000000
28.207181 -19.479312 -2.715321 0.000000 44.000000 14.448882 0.000000
28.836891 -20.619084 -1.649575 0.000000 40.000000 15.239279 18.000000
31.274232 -20.189756 -1.863749 0.000000 53.000000 14.888399 22.000000
31.257245 -19.306790 -2.834928 0.000000 39.000000 14.317405 0.000000
30.536169 -20.501363 -0.827230 0.000000 52.000000 14.892987 28.000000
30.474456 -20.903711 -0.586435 0.000000 69.000000 15.210440 28.000000
31.552362 -20.358557 -2.348999 0.000000 56.000000 15.187990 22.000000
32.246016 -19.395670 -2.757171 0.000000 42.000000 14.380559 0.000000
30.007380 -20.953778 0.075599 0.000000 75.000000 15.070538 9.000000
33.629002 -21.103116 -0.687218 0.000000 72.000000 15.430250 27.000000
31.026662 -19.747783 -2.749782 0.000000 71.000000 14.716093 13.000000
28.334386 -20.608812 -0.056858 0.000000 68.000000 14.777356 8.000000
31.170936 -20.431685 0.308201 0.000000 40.000000 14.503896 0.000000
32.976725 -19.633134 -2.269246 0.000000 47.000000 14.469765 0.000000
29.326957 -20.556706 -1.803166 0.000000 67.000000 15.223061 18.000000
28.210365 -20.640753 -1.537020 0.000000 66.000000 15.228109 18.000000
33.566830 -21.003862 2.799922 0.000000 41.000000 14.345295 0.000000
29.746310 -20.547122 0.735617 0.000000 40.000000 14.493268 0.000000
30.576714 -19.809792 -2.791465 0.000000 63.000000 14.787383 13.000000
33.780396 -21.161514 2.475141 0.000000 52.000000 14.588648 3.000000
31.777620 -21.705074 2.462779 0.000000 46.000000 15.113362 17.000000
29.887943 -20.796923 -0.758578 0.000000 70.000000 15.156905 28.000000
30.989024 -21.503445 2.039004 0.000000 45.000000 15.040309 2.000000
30.310953 -20.572145 0.428975 0.000000 58.000000 14.604299 9.000000
30.888354 -21.045969 2.792625 0.000000 38.000000 14.387741 0.000000
32.683022 -20.289070 -1.401292 0.000000 44.000000 14.852365 21.000000
33.731484 -20.951768 -0.577962 0.000000 78.000000 15.254116 27.000000
28.255915 -21.460034 2.377076 0.000000 60.000000 14.902725 6.000000
30.799493 -21.200718 2.139064 0.000000 45.000000 14.721631 2.000000
32.836997 -20.467526 -1.192577 0.000000 57.000000 14.964241 21.000000
32.578577 -19.362680 -2.829463 0.000000 39.000000 14.369445 0.000000
33.663188 -22.158335 2.815198 0.000000 38.000000 15.447951 16.000000
28.956506 -20.818668 -0.409471 0.000000 76.000000 15.078666 29.000000
30.423100 -20.803057 -0.550978 0.000000 63.000000 15.103862 28.000000
33.153758 -19.552464 -2.718043 0.000000 52.000000 14.519799 0.000000
32.772305 -19.660349 -2.208580 0.000000 46.000000 14.478641 0.000000
28.898280 -20.312815 -2.721517 0.000000 58.000000 15.249864 11.000000
28.735585 -20.903445 -0.622679 0.000000 75.000000 15.220473 29.000000
28.408825 -21.301256 2.243110 0.000000 66.000000 14.788502 6.000000
30.114280 -21.070787 1.491084 0.000000 64.000000 14.780966 15.000000
33.537616 -21.001225 1.063008 0.000000 66.000000 14.835769 19.000000
33.374597 -19.706152 -2.096747 0.000000 64.000000 14.490818 0.000000
32.658126 -20.528705 0.639609 0.000000 39.000000 14.502859 0.000000
33.699605 -20.420091 -1.437192 0.000000 50.000000 14.988188 27.000000
28.318785 -20.778258 0.581899 0.000000 69.000000 14.758529 1.000000
30.425609 -20.893803 1.839341 0.000000 51.000000 14.512412 0.000000
30.366810 -20.956367 2.026038 0.000000 42.000000 14.519411 0.000000
30.622592 -21.381270 2.655777 0.000000 66.000000 14.748095 12.000000
33.348243 -21.043094 -0.613963 0.000000 64.000000 15.351904 27.000000
30.241099 -21.065026 2.408132 0.000000 37.000000 14.515148 0.000000
30.895871 -20.289095 0.070362 0.000000 30.000000 14.434678 0.000000
32.285915 -20.944250 1.329631 0.000000 61.000000 14.705459 24.000000
31.098438 -21.041415 0.899303 0.000000 59.000000 14.920772 5.000000
32.775432 -20.978469 -0.667681 0.000000 55.000000 15.305184 26.000000
29.197263 -20.655011 1.432237 0.000000 34.000000 14.398993 0.000000
31.888797 -21.437011 2.701897 0.000000 72.000000 14.788453 17.000000
27.588090 -20.687143 1.464668 0.000000 30.000000 14.420598 0.000000
27.806234 -20.612069 1.343699 0.000000 30.000000 14.382947 0.000000
29.416690 -21.129538 1.549372 0.000000 61.000000 14.820756 15.000000
33.683782 -20.549922 0.210731 0.000000 71.000000 14.644935 27.000000
28.994328 -20.773106 -0.939240 0.000000 60.000000 15.185346 29.000000
28.971567 -20.578973 0.413889 0.000000 53.000000 14.615128 10.000000
30.787519 -20.734028 -0.902053 0.000000 44.000000 15.137320 28.000000
31.851422 -20.541068 -1.153266 0.000000 54.000000 15.023600 21.000000
33.059918 -20.521818 -0.218357 0.000000 37.000000 14.739779 26.000000
31.117946 -20.170375 -0.698380 0.000000 46.000000 14.539039 0.000000
32.818550 -20.090900 -0.829790 0.000000 36.000000 14.500132 0.000000
28.185953 -20.506523 -1.802859 0.000000 46.000000 15.174855 30.000000
32.873442 -19.673516 -2.188758 0.000000 47.000000 14.485641 0.000000
28.606887 -20.957943 -0.787653 0.000000 73.000000 15.319555 29.000000
30.340792 -20.465662 -1.928389 0.000000 50.000000 15.171305 22.000000
30.012771 -20.619365 1.154259 0.000000 32.000000 14.443713 0.000000
29.405684 -21.243103 2.093488 0.000000 52.000000 14.775209 6.000000
33.642055 -19.698375 -2.060668 0.000000 57.000000 14.473120 0.000000
33.219242 -20.540095 0.757226 0.000000 47.000000 14.480397 0.000000
33.130472 -20.635793 1.499443 0.000000 35.000000 14.361489 0.000000
33.183887 -20.724040 1.645685 0.000000 39.000000 14.404598 0.000000
28.590497 -19.965040 -2.621250 0.000000 62.000000 14.887933 11.000000
29.456008 -20.102914 -0.806244 0.000000 49.000000 14.504968 0.000000
33.200739 -20.847404 -0.614321 0.000000 53.000000 15.164364 27.000000
