74.337475 27.379538 -18.323633 0.000000 48.000000 14.665565 13.000000
77.017784 27.272665 -17.742935 0.000000 41.000000 14.202241 0.000000
73.646408 29.349468 -15.532194 0.000000 44.000000 14.305262 30.000000
71.636765 30.185474 -15.076421 0.000000 71.000000 14.633068 10.000000
77.358776 29.095984 -15.923025 0.000000 42.000000 14.372490 18.000000
71.949520 27.913105 -17.239308 0.000000 63.000000 14.351484 3.000000
76.980560 30.107668 -14.484002 0.000000 40.000000 14.183863 0.000000
72.498669 30.207692 -15.074394 0.000000 69.000000 14.648432 10.000000
76.692883 30.086656 -14.559016 0.000000 38.000000 14.217543 0.000000
75.349892 30.456120 -15.368023 0.000000 70.000000 15.028828 29.000000
72.301899 30.679491 -14.793446 0.000000 43.000000 14.817776 10.000000
77.564205 28.675423 -16.671322 0.000000 50.000000 14.549893 18.000000
76.994537 29.695088 -15.437751 0.000000 77.000000 14.502767 27.000000
76.646667 30.671657 -14.699797 0.000000 73.000000 14.750123 11.000000
73.310841 28.945523 -15.923050 0.000000 37.000000 14.259409 0.000000
73.473015 29.127856 -16.160199 0.000000 51.000000 14.552872 26.000000
71.822849 30.228362 -14.498961 0.000000 67.000000 14.284451 10.000000
74.056496 28.611012 -16.763312 0.000000 75.000000 14.562148 23.000000
77.219406 28.836435 -16.670715 0.000000 62.000000 14.670522 18.000000
75.849903 29.287764 -16.058962 0.000000 72.000000 14.606302 24.000000
73.011917 28.457430 -17.599827 0.000000 72.000000 14.998414 3.000000
72.120884 29.626641 -15.756179 0.000000 69.000000 14.661331 9.000000
72.683849 30.511743 -14.804591 0.000000 44.000000 14.699035 11.000000
75.821865 27.919490 -17.376167 0.000000 62.000000 14.446547 20.000000
71.521267 28.399809 -16.313279 0.000000 30.000000 14.106579 0.000000
74.486752 27.326617 -18.080717 0.000000 54.000000 14.465574 13.000000
75.040371 30.485019 -15.477613 0.000000 63.000000 15.122828 29.000000
72.649311 29.742657 -15.342726 0.000000 50.000000 14.475851 10.000000
72.602707 28.706894 -16.892117 0.000000 71.000000 14.719171 23.000000
76.129051 30.806183 -14.787827 0.000000 49.000000 14.909302 11.000000
73.466202 29.150410 -16.440653 0.000000 57.000000 14.754794 26.000000
72.963158 29.114191 -16.195394 0.000000 33.000000 14.565813 4.000000
71.950661 27.027580 -18.062243 0.000000 30.000000 14.228611 0.000000
72.095959 26.536649 -18.635705 0.000000 30.000000 14.237809 0.000000
73.934010 30.663578 -14.726271 0.000000 72.000000 14.761511 11.000000
72.166721 26.430894 -18.778315 0.000000 27.000000 14.252372 0.000000
73.585293 30.706234 -14.750446 0.000000 70.000000 14.809519 11.000000
77.042870 28.081970 -17.471780 0.000000 56.000000 14.631739 19.000000
72.815937 29.718726 -15.965889 0.000000 45.000000 14.868860 9.000000
76.059517 30.298775 -15.062064 0.000000 66.000000 14.708765 29.000000
71.899391 28.103477 -17.693296 0.000000 40.000000 14.794003 3.000000
71.712112 30.008228 -15.436550 0.000000 71.000000 14.737355 10.000000
71.834423 28.659410 -16.620124 0.000000 63.000000 14.504089 8.000000
76.234379 30.510710 -15.551283 0.000000 73.000000 15.190728 29.000000
77.576885 30.237254 -14.623228 0.000000 42.000000 14.373093 12.000000
72.455822 30.279135 -14.881442 0.000000 80.000000 14.574875 10.000000
73.069996 29.547440 -15.855441 0.000000 35.000000 14.667264 9.000000
74.747139 27.360491 -17.573646 0.000000 30.000000 14.156606 0.000000
74.317883 29.213282 -16.571654 0.000000 52.000000 14.888453 25.000000
72.021530 29.494670 -15.530412 0.000000 42.000000 14.413231 9.000000
76.371746 29.999923 -15.399690 0.000000 74.000000 14.706801 29.000000
77.716362 27.595269 -18.121183 0.000000 70.000000 14.694202 17.000000
77.764233 30.339572 -15.468311 0.000000 80.000000 15.007365 15.000000
73.759521 28.685242 -16.991712 0.000000 73.000000 14.768582 23.000000
73.332474 27.255189 -17.803531 0.000000 37.000000 14.229070 0.000000
75.273716 30.679189 -14.970235 0.000000 50.000000 14.934148 11.000000
72.260506 30.285038 -14.778214 0.000000 48.000000 14.511230 10.000000
76.211575 29.833606 -15.722427 0.000000 73.000000 14.794641 27.000000
72.767487 26.526989 -18.623905 0.000000 33.000000 14.222765 0.000000
71.861835 29.163652 -15.720367 0.000000 28.000000 14.289695 9.000000
73.884186 26.407394 -18.827717 0.000000 30.000000 14.267290 0.000000
72.791534 30.217510 -14.953858 0.000000 49.000000 14.576315 11.000000
74.512569 28.418710 -17.621859 0.000000 54.000000 14.983840 21.000000
74.601040 30.553246 -14.865379 0.000000 55.000000 14.770324 11.000000
76.997810 29.686519 -15.475362 0.000000 53.000000 14.521132 27.000000
76.228470 29.565994 -16.548606 0.000000 69.000000 15.138377 24.000000
73.846420 28.663466 -16.757138 0.000000 46.000000 14.597504 23.000000
77.458263 27.958141 -16.951399 0.000000 53.000000 14.195451 0.000000
77.054573 28.560599 -16.787615 0.000000 58.000000 14.540282 18.000000
74.681271 28.924684 -16.401980 0.000000 56.000000 14.559616 25.000000
72.174892 29.693097 -15.969108 0.000000 37.000000 14.851719 9.000000
74.308163 29.156432 -16.490071 0.000000 69.000000 14.791914 25.000000
77.489998 27.293697 -18.439565 0.000000 73.000000 14.677501 17.000000
76.533039 27.264232 -17.730538 0.000000 39.000000 14.187726 0.000000
76.452389 27.188125 -17.810753 0.000000 37.000000 14.183423 0.000000
72.094807 28.275248 -17.325725 0.000000 59.000000 14.680693 3.000000
76.278320 29.530888 -16.685224 0.000000 53.000000 15.202093 24.000000
76.291313 27.045725 -17.981511 0.000000 33.000000 14.189005 0.000000
73.951210 30.261891 -15.485816 0.000000 62.000000 14.960519 30.000000
76.210114 26.978988 -18.071626 0.000000 36.000000 14.198274 0.000000
77.260971 26.762199 -18.288426 0.000000 33.000000 14.178307 0.000000
75.182346 27.345617 -18.637883 0.000000 61.000000 14.847326 13.000000
72.012745 29.507407 -15.556000 0.000000 74.000000 14.439681 9.000000
77.176281 26.487322 -18.403805 0.000000 36.000000 14.047785 0.000000
74.447891 29.993242 -15.317037 0.000000 60.000000 14.647267 30.000000
75.850224 26.610333 -18.518548 0.000000 30.000000 14.215926 0.000000
75.792866 28.026772 -17.375257 0.000000 64.000000 14.526588 20.000000
77.392578 27.421740 -17.959855 0.000000 34.000000 14.457363 17.000000
76.801308 26.242613 -18.931055 0.000000 39.000000 14.211583 0.000000
76.078934 30.193767 -15.612283 0.000000 79.000000 14.992721 29.000000
73.035259 29.841178 -14.913775 0.000000 39.000000 14.266999 0.000000
73.228981 29.752368 -15.004255 0.000000 36.000000 14.259918 0.000000
73.340279 29.659213 -15.007430 0.000000 33.000000 14.191989 0.000000
76.536617 29.914674 -15.893805 0.000000 69.000000 14.968607 27.000000
74.071529 30.296380 -15.485405 0.000000 70.000000 14.986172 30.000000
76.279686 29.908690 -15.781488 0.000000 46.000000 14.890033 27.000000
74.657059 30.832610 -15.028240 0.000000 67.000000 15.087727 11.000000
74.975166 30.005171 -15.443868 0.000000 73.000000 14.739883 29.000000
75.693310 29.071082 -15.681840 0.000000 38.000000 14.194703 0.000000
76.371277 29.964867 -15.528892 0.000000 65.000000 14.765664 29.000000
73.731869 29.579336 -16.051484 0.000000 62.000000 14.820537 26.000000
77.259571 27.645861 -17.630723 0.000000 30.000000 14.408755 19.000000
76.092564 26.705870 -19.134508 0.000000 64.000000 14.693986 6.000000
73.954060 27.043866 -18.283969 0.000000 79.000000 14.387089 13.000000
73.993996 30.635937 -14.788147 0.000000 82.000000 14.781543 11.000000
73.724499 30.776877 -14.648245 0.000000 54.000000 14.795214 11.000000
75.478649 29.162657 -15.885737 0.000000 35.000000 14.398014 24.000000
72.208939 28.231862 -17.429351 0.000000 46.000000 14.716426 3.000000
73.861263 27.736343 -18.093019 0.000000 45.000000 14.781668 13.000000
74.079170 26.730858 -19.086641 0.000000 64.000000 14.681198 13.000000
73.986427 27.518265 -18.235384 0.000000 49.000000 14.711639 13.000000
71.579651 30.168348 -15.085201 0.000000 53.000000 14.625986 10.000000
74.374458 28.678583 -16.490270 0.000000 65.000000 14.432858 23.000000
73.502026 27.851096 -17.102817 0.000000 30.000000 14.214853 0.000000
73.417339 30.144916 -15.128107 0.000000 86.000000 14.636671 30.000000
72.905113 30.272572 -14.952045 0.000000 35.000000 14.616508 11.000000
72.989876 29.628501 -15.613731 0.000000 68.000000 14.568780 9.000000
76.146820 27.075777 -18.226166 0.000000 46.000000 14.372952 14.000000
73.533798 28.663636 -17.071894 0.000000 60.000000 14.805224 23.000000
73.752193 27.569432 -17.348029 0.000000 23.000000 14.164859 0.000000
74.106205 28.658127 -16.919523 0.000000 59.000000 14.700589 23.000000
72.296139 30.137976 -15.281435 0.000000 65.000000 14.732579 10.000000
72.341583 30.078900 -14.969636 0.000000 60.000000 14.482531 10.000000
72.942604 28.841578 -17.040861 0.000000 60.000000 14.918511 23.000000
74.423691 27.498140 -17.376088 0.000000 21.000000 14.129777 0.000000
77.733204 28.423254 -17.041247 0.000000 69.000000 14.604322 18.000000
75.657455 27.443630 -17.333428 0.000000 28.000000 14.060667 0.000000
76.044361 27.495942 -17.375145 0.000000 34.000000 14.127503 0.000000
75.097961 27.527882 -17.402712 0.000000 29.000000 14.169692 0.000000
76.571678 29.870626 -15.483115 0.000000 57.000000 14.664634 29.000000
75.527256 26.956890 -18.572072 0.000000 48.000000 14.511725 13.000000
75.391438 30.309858 -15.425499 0.000000 73.000000 14.956794 29.000000
74.697144 27.090939 -18.964547 0.000000 60.000000 14.871337 13.000000
72.250477 27.276225 -18.761100 0.000000 75.000000 14.876431 2.000000
75.552177 27.439637 -17.327856 0.000000 22.000000 14.053991 0.000000
74.427441 27.543881 -17.851535 0.000000 62.000000 14.477733 13.000000
77.579376 29.744957 -15.377938 0.000000 57.000000 14.500803 16.000000
74.933952 30.342159 -15.163022 0.000000 54.000000 14.807961 29.000000
74.223495 30.060466 -15.459259 0.000000 74.000000 14.791597 30.000000
77.057827 27.445633 -17.288399 0.000000 25.000000 14.032475 0.000000
77.586250 27.643458 -17.875414 0.000000 70.000000 14.568331 17.000000
75.546135 29.114280 -16.410526 0.000000 62.000000 14.707767 24.000000
75.360443 30.726536 -15.563037 0.000000 40.000000 15.360711 29.000000
73.417675 29.126107 -16.230149 0.000000 78.000000 14.597692 26.000000
77.070724 29.495766 -15.858452 0.000000 68.000000 14.630408 27.000000
76.635681 29.929363 -15.997442 0.000000 75.000000 15.048001 27.000000
77.037823 27.769575 -17.251556 0.000000 41.000000 14.251674 0.000000
72.377598 27.113599 -18.428868 0.000000 60.000000 14.535071 2.000000
73.243366 29.489216 -15.064387 0.000000 33.000000 14.101772 0.000000
75.495625 30.174088 -15.632392 0.000000 56.000000 14.991192 29.000000
73.384937 28.961599 -16.532656 0.000000 73.000000 14.673549 26.000000
71.791370 29.361752 -15.167576 0.000000 24.000000 14.074017 0.000000
71.699379 29.340244 -15.249921 0.000000 21.000000 14.112160 0.000000
71.888397 28.346260 -17.127020 0.000000 46.000000 14.603018 8.000000
73.313580 29.961872 -14.911165 0.000000 59.000000 14.356000 30.000000
75.913006 29.081037 -16.698395 0.000000 52.000000 14.872638 24.000000
74.487698 27.346096 -18.202121 0.000000 76.000000 14.560286 13.000000
71.655422 27.957396 -17.003160 0.000000 32.000000 14.229029 0.000000
72.549706 30.755831 -14.745869 0.000000 75.000000 14.843781 10.000000
71.640610 27.849576 -17.152269 0.000000 27.000000 14.246326 0.000000
75.986877 28.076689 -17.536716 0.000000 53.000000 14.670597 20.000000
72.598240 30.791917 -14.689503 0.000000 53.000000 14.833730 10.000000
77.254700 29.036901 -16.758177 0.000000 67.000000 14.878891 18.000000
75.637924 30.521062 -15.208489 0.000000 58.000000 14.972425 29.000000
71.684341 27.419542 -17.427030 0.000000 22.000000 14.104295 0.000000
71.700470 27.366426 -17.500807 0.000000 22.000000 14.113027 0.000000
71.715282 27.357051 -17.596542 0.000000 29.000000 14.169120 0.000000
75.509052 30.880707 -14.963042 0.000000 44.000000 15.080880 11.000000
74.931190 29.527877 -16.016353 0.000000 78.000000 14.758687 28.000000
74.233685 28.390747 -17.633931 0.000000 42.000000 14.970783 21.000000
75.050930 30.408105 -15.344633 0.000000 55.000000 14.977309 29.000000
73.290115 29.408214 -15.732839 0.000000 62.000000 14.481752 9.000000
77.733482 30.721046 -14.830036 0.000000 81.000000 14.873145 12.000000
74.100788 30.273144 -15.516487 0.000000 71.000000 14.989206 30.000000
77.565464 30.039526 -15.332550 0.000000 79.000000 14.692289 15.000000
77.311584 29.527418 -15.001602 0.000000 37.000000 14.089079 0.000000
71.676991 26.619684 -19.276624 0.000000 44.000000 14.722932 1.000000
71.740582 30.252739 -15.189439 0.000000 78.000000 14.758169 10.000000
74.821716 30.303874 -15.067623 0.000000 69.000000 14.716264 29.000000
76.105755 28.621240 -17.072179 0.000000 63.000000 14.773544 22.000000
74.929081 26.558797 -18.740849 0.000000 45.000000 14.323803 13.000000
72.599419 26.927674 -18.294999 0.000000 43.000000 14.307025 2.000000
74.550056 30.207799 -15.359570 0.000000 71.000000 14.836596 29.000000
75.047932 29.331058 -15.906360 0.000000 53.000000 14.538198 28.000000
75.283081 30.802754 -14.634397 0.000000 66.000000 14.805532 11.000000
72.203465 28.161263 -17.558429 0.000000 54.000000 14.748490 3.000000
73.034679 30.798590 -14.789610 0.000000 74.000000 14.904770 11.000000
74.777821 28.430853 -17.515056 0.000000 70.000000 14.922527 21.000000
76.561813 27.848518 -17.371275 0.000000 46.000000 14.389972 20.000000
74.849007 29.793070 -15.620247 0.000000 77.000000 14.696780 28.000000
74.526157 30.785723 -14.852087 0.000000 68.000000 14.936304 11.000000
76.210617 29.736770 -15.975444 0.000000 65.000000 14.888725 27.000000
76.539085 29.996846 -15.737326 0.000000 79.000000 14.927171 27.000000
72.257179 27.325477 -17.827208 0.000000 35.000000 14.297519 0.000000
73.081158 28.323525 -17.413483 0.000000 56.000000 14.774861 3.000000
74.442612 28.763025 -16.932643 0.000000 65.000000 14.788091 23.000000
72.064152 29.623775 -15.752543 0.000000 74.000000 14.656779 9.000000
74.487591 28.430090 -17.584737 0.000000 59.000000 14.967911 21.000000
73.090336 30.681709 -14.741310 0.000000 68.000000 14.785058 11.000000
76.887058 29.773146 -15.868494 0.000000 70.000000 14.845531 27.000000
73.283291 26.974366 -18.117633 0.000000 31.000000 14.225143 0.000000
71.975609 26.689253 -18.617122 0.000000 51.000000 14.340261 2.000000
76.234383 28.821625 -16.710677 0.000000 59.000000 14.685745 24.000000
72.468533 29.630985 -15.440429 0.000000 58.000000 14.456349 9.000000
75.543579 28.535043 -16.632578 0.000000 36.000000 14.418820 22.000000
77.275597 26.969465 -19.125149 0.000000 49.000000 14.885950 7.000000
74.711529 28.888520 -16.400055 0.000000 43.000000 14.531163 25.000000
73.820095 27.426074 -18.146522 0.000000 69.000000 14.583734 13.000000
71.966660 28.977195 -16.007805 0.000000 70.000000 14.339115 4.000000
74.143631 28.111936 -17.042407 0.000000 48.000000 14.371077 21.000000
75.972927 30.292253 -15.968557 0.000000 14.000000 15.301725 27.000000
77.377258 30.337008 -15.319615 0.000000 34.000000 14.907367 15.000000
72.095608 29.030601 -15.983701 0.000000 49.000000 14.363362 4.000000
75.810448 27.391365 -17.467673 0.000000 33.000000 14.109920 0.000000
75.880016 30.518951 -15.347472 0.000000 56.000000 15.062502 29.000000
74.092400 27.950344 -17.589571 0.000000 67.000000 14.610486 21.000000
77.719902 28.357657 -17.457680 0.000000 53.000000 14.829666 19.000000
76.502052 29.782735 -16.060105 0.000000 58.000000 14.979113 27.000000
74.738991 29.220208 -15.961282 0.000000 47.000000 14.491098 25.000000
76.675083 29.335385 -16.357535 0.000000 72.000000 14.839016 24.000000
77.431229 29.212465 -16.275886 0.000000 59.000000 14.692770 18.000000
76.532841 27.083463 -17.950657 0.000000 41.000000 14.197022 0.000000
75.696209 29.972785 -15.833353 0.000000 70.000000 14.972418 27.000000
76.456013 27.015615 -18.029286 0.000000 40.000000 14.197881 0.000000
75.268024 27.069608 -17.989877 0.000000 34.000000 14.212475 0.000000
76.560909 30.925307 -14.777475 0.000000 68.000000 14.992017 11.000000
74.713993 29.620801 -15.794912 0.000000 59.000000 14.682487 28.000000
74.899963 30.969333 -14.976757 0.000000 74.000000 15.156543 11.000000
73.898338 29.033254 -16.352706 0.000000 46.000000 14.608727 26.000000
75.967518 26.495788 -18.604982 0.000000 31.000000 14.186832 0.000000
75.901196 26.437370 -18.698963 0.000000 31.000000 14.204904 0.000000
74.606953 29.544054 -15.008532 0.000000 36.000000 14.106154 0.000000
72.106915 27.207096 -18.478753 0.000000 47.000000 14.638252 2.000000
76.133514 30.371654 -15.619455 0.000000 64.000000 15.131164 29.000000
74.882614 29.906345 -15.850166 0.000000 78.000000 14.933565 28.000000
74.356262 28.340820 -17.370816 0.000000 65.000000 14.759721 21.000000
75.991291 29.818403 -15.715781 0.000000 58.000000 14.778830 27.000000
73.938259 28.381366 -16.915924 0.000000 47.000000 14.490181 23.000000
71.906620 29.418555 -15.410127 0.000000 34.000000 14.276685 0.000000
72.490833 29.024657 -15.838992 0.000000 36.000000 14.263453 0.000000
76.484001 29.568520 -16.580418 0.000000 79.000000 15.161257 24.000000
77.279827 28.957357 -16.875911 0.000000 68.000000 14.896749 18.000000
76.118820 29.621975 -15.965573 0.000000 72.000000 14.795926 27.000000
73.046547 28.710603 -16.077283 0.000000 25.000000 14.184548 0.000000
73.156250 28.619579 -16.083013 0.000000 35.000000 14.119907 0.000000
72.303066 28.592163 -16.311884 0.000000 30.000000 14.250247 0.000000
73.739708 30.535583 -15.249568 0.000000 73.000000 15.010433 30.000000
72.541325 28.444599 -16.331596 0.000000 29.000000 14.152327 0.000000
75.455074 30.448083 -15.487497 0.000000 67.000000 15.101583 29.000000
72.314777 29.683712 -15.670011 0.000000 51.000000 14.647399 9.000000
73.994862 28.448525 -16.444709 0.000000 31.000000 14.229881 0.000000
76.154655 26.917728 -18.562996 0.000000 72.000000 14.476302 14.000000
73.301716 26.577168 -19.159360 0.000000 51.000000 14.613634 1.000000
74.688263 27.154852 -18.904071 0.000000 61.000000 14.879493 13.000000
71.863838 29.463575 -15.541916 0.000000 80.000000 14.397445 9.000000
72.369446 30.334247 -14.900013 0.000000 43.000000 14.628550 10.000000
74.173294 29.861669 -15.503344 0.000000 59.000000 14.671243 30.000000
73.509846 29.768928 -15.124607 0.000000 70.000000 14.351742 30.000000
77.567284 28.110189 -16.770768 0.000000 41.000000 14.190609 0.000000
72.143215 28.275757 -17.610616 0.000000 69.000000 14.868971 3.000000
73.803291 26.434314 -18.956815 0.000000 43.000000 14.372669 13.000000
75.046352 29.568903 -16.036131 0.000000 71.000000 14.802569 28.000000
71.593903 30.128735 -14.951333 0.000000 69.000000 14.507919 10.000000
73.788536 28.242686 -16.936632 0.000000 41.000000 14.399597 23.000000
75.502136 29.057882 -16.555952 0.000000 76.000000 14.761287 24.000000
77.621399 27.447230 -18.699855 0.000000 42.000000 14.964579 17.000000
74.919220 27.261413 -18.700377 0.000000 70.000000 14.825249 13.000000
73.921349 30.347357 -15.369758 0.000000 73.000000 14.948218 30.000000
75.766693 26.583578 -18.887205 0.000000 41.000000 14.438957 6.000000
75.109859 30.560733 -14.944866 0.000000 68.000000 14.828376 11.000000
72.075188 28.077451 -17.078090 0.000000 52.000000 14.368690 3.000000
77.369770 27.281887 -17.882486 0.000000 39.000000 14.301211 17.000000
77.504112 30.199382 -15.217539 0.000000 35.000000 14.736595 15.000000
74.328339 27.529451 -18.410601 0.000000 47.000000 14.835609 13.000000
76.935822 30.764403 -14.611248 0.000000 49.000000 14.761437 12.000000
74.328667 28.430488 -17.679021 0.000000 9.000000 15.030394 21.000000
76.185825 27.201230 -18.403486 0.000000 50.000000 14.584201 14.000000
75.271626 29.296932 -16.317139 0.000000 70.000000 14.783470 25.000000
75.459667 27.018221 -18.587053 0.000000 36.000000 14.567707 13.000000
73.620895 30.089420 -15.767788 0.000000 74.000000 15.016847 30.000000
76.408966 28.925043 -16.651680 0.000000 38.000000 14.724572 24.000000
76.220680 30.683710 -14.798012 0.000000 66.000000 14.823959 11.000000
77.644936 30.755605 -14.621922 0.000000 65.000000 14.761863 12.000000
76.861843 27.092517 -18.206921 0.000000 40.000000 14.372843 14.000000
72.035187 30.367519 -14.888697 0.000000 67.000000 14.646097 10.000000
73.089573 30.154399 -14.894740 0.000000 51.000000 14.489885 11.000000
77.562817 26.674283 -18.602745 0.000000 30.000000 14.319527 7.000000
72.483650 27.275140 -17.863432 0.000000 37.000000 14.283573 0.000000
72.566807 27.221466 -17.907115 0.000000 37.000000 14.272038 0.000000
74.324745 28.747668 -16.514294 0.000000 41.000000 14.500632 23.000000
71.545925 27.091315 -18.004369 0.000000 25.000000 14.238350 0.000000
71.936367 28.809326 -16.858397 0.000000 76.000000 14.773927 8.000000
71.876282 30.531655 -14.650160 0.000000 61.000000 14.612150 10.000000
72.830158 27.065573 -18.025630 0.000000 30.000000 14.233022 0.000000
76.332317 29.015052 -16.617743 0.000000 50.000000 14.769846 24.000000
72.923077 27.014527 -18.062486 0.000000 28.000000 14.218960 0.000000
75.851761 29.387093 -16.587616 0.000000 80.000000 15.029630 24.000000
76.787937 29.409878 -16.245135 0.000000 77.000000 14.820879 24.000000
72.282108 29.927807 -15.459513 0.000000 64.000000 14.692049 10.000000
73.512959 30.623689 -14.840919 0.000000 64.000000 14.807142 11.000000
72.985992 30.482918 -14.957622 0.000000 58.000000 14.778297 11.000000
73.728897 26.819274 -18.382615 0.000000 41.000000 14.283329 0.000000
75.707878 30.738260 -14.862642 0.000000 75.000000 14.907589 11.000000
72.172092 29.402003 -15.935472 0.000000 73.000000 14.610727 9.000000
76.880116 29.773605 -15.997057 0.000000 77.000000 14.930668 27.000000
73.099434 29.135319 -16.375022 0.000000 57.000000 14.700165 26.000000
77.148151 29.004526 -16.479978 0.000000 56.000000 14.671074 18.000000
73.841915 26.525073 -18.557284 0.000000 28.000000 14.177386 0.000000
77.723198 27.635880 -17.918315 0.000000 67.000000 14.590929 17.000000
71.908272 30.407279 -14.471001 0.000000 61.000000 14.400498 10.000000
75.106873 30.660684 -14.547580 0.000000 52.000000 14.641483 11.000000
75.993320 26.492347 -18.590486 0.000000 33.000000 14.174684 0.000000
73.952518 30.534640 -14.873421 0.000000 67.000000 14.761642 11.000000
74.775867 30.299681 -14.921210 0.000000 60.000000 14.616548 11.000000
76.355083 28.582451 -16.777903 0.000000 37.000000 14.550302 22.000000
74.079853 27.678695 -17.753222 0.000000 52.000000 14.514228 13.000000
72.252453 30.359647 -15.018916 0.000000 52.000000 14.726063 10.000000
76.607803 29.810354 -15.933521 0.000000 72.000000 14.916387 27.000000
73.969105 27.093431 -18.257904 0.000000 78.000000 14.407155 13.000000
76.093468 30.478984 -15.628524 0.000000 60.000000 15.217823 29.000000
76.950459 26.545534 -18.540020 0.000000 39.000000 14.181380 0.000000
72.414974 28.190586 -17.750375 0.000000 57.000000 14.897126 3.000000
73.429688 30.336802 -15.177048 0.000000 73.000000 14.813184 30.000000
76.110497 29.524922 -16.330666 0.000000 77.000000 14.963765 24.000000
75.945179 28.710297 -17.007194 0.000000 73.000000 14.797626 22.000000
74.219807 28.000209 -17.668602 0.000000 65.000000 14.700092 21.000000
77.528629 26.556819 -18.445158 0.000000 38.000000 14.127298 0.000000
74.914371 27.258019 -18.312874 0.000000 37.000000 14.567126 13.000000
77.267361 26.773749 -18.283295 0.000000 29.000000 14.183604 0.000000
77.368980 26.888159 -18.292899 0.000000 38.000000 14.275937 0.000000
71.559986 29.763276 -15.114598 0.000000 40.000000 14.340892 10.000000
76.581936 29.449648 -16.287140 0.000000 53.000000 14.878477 24.000000
76.892273 26.803329 -19.224956 0.000000 47.000000 14.826897 7.000000
73.115345 27.113879 -18.634955 0.000000 46.000000 14.671203 2.000000
77.085999 29.908189 -14.718771 0.000000 44.000000 14.188758 0.000000
75.949692 29.676541 -15.965997 0.000000 65.000000 14.837222 27.000000
72.506447 27.708884 -17.593979 0.000000 39.000000 14.431894 3.000000
74.869503 28.150102 -17.197395 0.000000 61.000000 14.501986 21.000000
73.153622 29.076997 -16.533315 0.000000 58.000000 14.760725 26.000000
74.735485 26.540762 -19.157253 0.000000 40.000000 14.584879 13.000000
76.107948 26.720882 -19.086858 0.000000 47.000000 14.673843 6.000000
75.406185 30.250827 -15.481586 0.000000 73.000000 14.949412 29.000000
72.937462 30.516140 -14.799584 0.000000 69.000000 14.699038 11.000000
76.339485 30.379577 -15.654119 0.000000 69.000000 15.159982 29.000000
73.039516 28.835197 -16.250236 0.000000 48.000000 14.392270 26.000000
73.715683 30.779161 -14.839637 0.000000 39.000000 14.923160 11.000000
74.707294 29.330078 -15.803601 0.000000 33.000000 14.469689 28.000000
77.120834 28.556480 -16.693497 0.000000 50.000000 14.475112 18.000000
74.840927 30.317554 -15.023386 0.000000 69.000000 14.697371 29.000000
76.082355 29.605010 -16.344070 0.000000 60.000000 15.032806 24.000000
72.340973 28.374534 -16.612043 0.000000 31.000000 14.284626 0.000000
77.675274 29.294728 -16.299988 0.000000 53.000000 14.770502 18.000000
73.178875 30.154764 -14.882825 0.000000 59.000000 14.482301 11.000000
71.734905 27.788658 -17.231330 0.000000 25.000000 14.252679 0.000000
75.053589 27.176343 -18.390456 0.000000 53.000000 14.556900 13.000000
76.115749 28.196098 -16.874436 0.000000 45.000000 14.323557 22.000000
72.399353 30.242861 -15.340011 0.000000 65.000000 14.850051 10.000000
77.726578 28.463599 -17.048283 0.000000 71.000000 14.639289 18.000000
77.595543 29.261144 -16.052031 0.000000 48.000000 14.581721 18.000000
71.499985 27.369164 -17.561489 0.000000 24.000000 14.155107 0.000000
72.697968 27.323620 -17.642070 0.000000 28.000000 14.174019 0.000000
72.811275 28.652532 -17.059299 0.000000 57.000000 14.788571 23.000000
75.289230 28.648719 -16.712709 0.000000 37.000000 14.557116 22.000000
76.033031 27.582630 -17.859343 0.000000 65.000000 14.512009 5.000000
71.932007 30.726549 -14.603699 0.000000 68.000000 14.728004 10.000000
77.552437 28.137668 -16.947601 0.000000 65.000000 14.327892 19.000000
72.533054 26.990057 -18.125006 0.000000 30.000000 14.241800 0.000000
71.683048 28.709063 -17.151662 0.000000 40.000000 14.891980 8.000000
72.507439 26.858338 -18.272468 0.000000 27.000000 14.240047 0.000000
76.444279 28.372757 -16.983957 0.000000 52.000000 14.528580 22.000000
72.504318 26.522211 -18.645563 0.000000 39.000000 14.233458 0.000000
72.322193 28.110230 -17.952205 0.000000 3.000000 14.969838 3.000000
73.769962 29.322597 -15.856366 0.000000 70.000000 14.498866 26.000000
76.941517 28.105443 -16.777361 0.000000 39.000000 14.191390 0.000000
76.831234 28.058710 -16.844904 0.000000 40.000000 14.200809 0.000000
75.261509 27.885382 -17.054084 0.000000 29.000000 14.208484 0.000000
73.984314 28.894476 -16.556385 0.000000 57.000000 14.638745 26.000000
76.084679 30.542355 -15.300141 0.000000 83.000000 15.048878 29.000000
72.395760 29.628459 -15.807650 0.000000 74.000000 14.696645 9.000000
77.607071 26.899975 -18.516778 0.000000 62.000000 14.432475 17.000000
72.490612 29.149975 -16.019580 0.000000 61.000000 14.476756 4.000000
76.698193 30.413237 -14.593118 0.000000 51.000000 14.485517 11.000000
73.956161 27.499288 -18.354384 0.000000 59.000000 14.775859 13.000000
74.483383 31.091239 -14.893213 0.000000 65.000000 15.193077 11.000000
74.131058 30.386732 -15.318412 0.000000 70.000000 14.943950 30.000000
71.966221 27.934207 -17.528734 0.000000 61.000000 14.558232 3.000000
72.957634 30.723280 -14.738328 0.000000 53.000000 14.814340 11.000000
73.907799 26.912480 -18.281159 0.000000 38.000000 14.286476 0.000000
73.930450 30.260306 -15.515846 0.000000 63.000000 14.979133 30.000000
76.389904 30.382576 -15.142565 0.000000 68.000000 14.824849 29.000000
73.608814 26.514835 -18.681793 0.000000 26.000000 14.251808 0.000000
77.036930 29.888371 -15.929468 0.000000 69.000000 14.972357 27.000000
75.925087 26.968511 -18.580767 0.000000 54.000000 14.526195 14.000000
77.525482 27.307135 -18.672835 0.000000 68.000000 14.841452 17.000000
75.922279 26.935485 -18.354389 0.000000 39.000000 14.352066 14.000000
75.093914 30.994865 -15.030378 0.000000 50.000000 15.211100 11.000000
76.990990 29.264522 -15.736769 0.000000 40.000000 14.376334 27.000000
72.729511 28.343861 -17.693732 0.000000 41.000000 14.974981 3.000000
75.946453 30.559941 -15.428813 0.000000 79.000000 15.146960 29.000000
77.491341 29.714332 -15.382503 0.000000 55.000000 14.480794 16.000000
77.567886 29.526966 -14.967314 0.000000 34.000000 14.066125 0.000000
77.633690 28.347567 -17.108963 0.000000 66.000000 14.592091 19.000000
72.566582 27.097548 -18.441402 0.000000 39.000000 14.531273 2.000000
76.277355 29.364388 -16.580547 0.000000 61.000000 15.007901 24.000000
73.364712 27.086081 -18.310593 0.000000 41.000000 14.436380 2.000000
75.134346 27.362488 -18.816640 0.000000 57.000000 14.977904 13.000000
73.643387 29.392581 -15.970878 0.000000 69.000000 14.626996 26.000000
76.637192 26.428786 -18.729132 0.000000 34.000000 14.218349 0.000000
77.503750 28.732489 -16.416891 0.000000 59.000000 14.424982 18.000000
74.964497 30.849989 -15.018534 0.000000 67.000000 15.094389 11.000000
77.550461 29.673279 -15.803022 0.000000 47.000000 14.727282 16.000000
74.272026 28.728076 -16.708697 0.000000 70.000000 14.614121 23.000000
71.998966 27.995788 -17.565367 0.000000 72.000000 14.628682 3.000000
72.024303 27.157856 -18.360406 0.000000 67.000000 14.523185 2.000000
71.587074 26.921697 -19.375020 0.000000 72.000000 15.014843 1.000000
73.864414 29.226882 -15.581796 0.000000 33.000000 14.245831 0.000000
76.094601 29.499645 -16.050344 0.000000 81.000000 14.759883 24.000000
76.544907 29.339982 -16.136768 0.000000 62.000000 14.696868 24.000000
74.743721 30.301720 -15.133407 0.000000 69.000000 14.758031 29.000000
72.395039 28.135571 -17.159034 0.000000 46.000000 14.465763 3.000000
75.500717 27.010821 -19.003105 0.000000 72.000000 14.836545 6.000000
77.689095 29.596968 -15.241836 0.000000 46.000000 14.299800 16.000000
76.111927 30.456418 -14.859543 0.000000 48.000000 14.693692 11.000000
73.007553 29.185970 -16.124709 0.000000 54.000000 14.573148 4.000000
76.810883 28.467074 -16.199851 0.000000 33.000000 14.082331 0.000000
74.202969 30.357314 -15.510567 0.000000 48.000000 15.048570 30.000000
77.117821 28.434058 -16.172399 0.000000 35.000000 14.039408 0.000000
71.855171 30.036079 -14.609596 0.000000 30.000000 14.212885 0.000000
75.449059 30.970329 -15.034985 0.000000 46.000000 15.195695 11.000000
77.602520 29.275812 -15.806856 0.000000 39.000000 14.431046 18.000000
71.561630 29.388352 -15.185589 0.000000 30.000000 14.105892 0.000000
72.452023 30.302359 -14.876426 0.000000 46.000000 14.589024 10.000000
73.671959 29.051766 -15.927184 0.000000 51.000000 14.341996 26.000000
71.532856 29.286038 -15.443463 0.000000 32.000000 14.199062 0.000000
73.927170 27.040733 -18.750768 0.000000 32.000000 14.692604 13.000000
75.801445 27.067069 -18.419460 0.000000 61.000000 14.493891 14.000000
71.756737 30.356697 -14.492004 0.000000 68.000000 14.376329 10.000000
76.023113 30.254992 -14.756707 0.000000 54.000000 14.474461 11.000000
72.861523 30.599769 -14.836031 0.000000 72.000000 14.785938 11.000000
71.579765 28.964885 -15.855694 0.000000 30.000000 14.229540 0.000000
76.080917 26.665895 -18.897880 0.000000 56.000000 14.507873 6.000000
77.662949 26.817052 -19.381766 0.000000 60.000000 14.940633 7.000000
75.216999 28.568322 -16.834966 0.000000 68.000000 14.577317 22.000000
73.321373 29.539523 -15.626192 0.000000 64.000000 14.510116 9.000000
71.809814 28.463857 -16.228637 0.000000 28.000000 14.098898 0.000000
74.514977 28.416777 -17.339494 0.000000 73.000000 14.796158 21.000000
71.599686 27.832325 -17.152880 0.000000 23.000000 14.233762 0.000000
73.934959 28.710834 -16.974543 0.000000 73.000000 14.776495 23.000000
76.436459 29.065063 -16.712532 0.000000 40.000000 14.869955 24.000000
74.592430 26.918231 -19.388617 0.000000 46.000000 15.021206 13.000000
76.198601 30.528832 -15.265801 0.000000 80.000000 15.016064 29.000000
72.481251 30.550303 -14.644343 0.000000 56.000000 14.622331 10.000000
74.451660 29.490569 -16.382908 0.000000 73.000000 14.972399 25.000000
75.626808 28.122805 -17.180680 0.000000 63.000000 14.470443 22.000000
76.533627 28.431028 -17.278004 0.000000 21.000000 14.766315 20.000000
75.948219 30.481303 -15.632537 0.000000 51.000000 15.222213 29.000000
72.880428 27.391109 -17.594210 0.000000 24.000000 14.193183 0.000000
73.582951 29.134367 -16.552494 0.000000 68.000000 14.816498 26.000000
72.996952 27.378041 -17.629886 0.000000 27.000000 14.206890 0.000000
75.697895 30.390104 -14.854970 0.000000 68.000000 14.640829 11.000000
75.825264 29.922029 -15.493411 0.000000 71.000000 14.710062 27.000000
76.483315 29.782944 -15.918478 0.000000 70.000000 14.885862 27.000000
76.454288 28.807964 -16.881585 0.000000 59.000000 14.788196 22.000000
75.707458 29.596317 -15.887834 0.000000 68.000000 14.725368 27.000000
75.602333 28.407583 -17.012838 0.000000 74.000000 14.573806 22.000000
72.775253 28.628561 -16.506886 0.000000 26.000000 14.406217 23.000000
74.719376 27.302852 -17.727300 0.000000 44.000000 14.214620 0.000000
77.546768 27.277635 -18.627725 0.000000 70.000000 14.789526 17.000000
77.248817 28.683066 -16.870479 0.000000 73.000000 14.686989 18.000000
74.645134 30.021477 -15.533941 0.000000 76.000000 14.811546 29.000000
72.328884 28.595590 -16.671718 0.000000 60.000000 14.490146 8.000000
72.445641 30.017861 -15.156411 0.000000 50.000000 14.559834 10.000000
76.752316 29.346236 -15.891825 0.000000 62.000000 14.540021 24.000000
72.625450 27.282764 -18.612836 0.000000 36.000000 14.783561 2.000000
74.535122 27.182772 -17.841366 0.000000 32.000000 14.199589 0.000000
75.797279 28.055376 -17.564807 0.000000 58.000000 14.673103 20.000000
73.854450 29.487221 -16.059380 0.000000 85.000000 14.756504 26.000000
73.841961 29.697751 -15.651460 0.000000 48.000000 14.645717 30.000000
76.504967 29.513079 -16.058820 0.000000 64.000000 14.775572 24.000000
72.923531 27.130582 -18.322132 0.000000 56.000000 14.477441 2.000000
71.834530 28.900071 -16.196245 0.000000 89.000000 14.405426 4.000000
77.613758 30.664699 -14.569858 0.000000 67.000000 14.659194 12.000000
73.813057 30.459331 -14.902349 0.000000 73.000000 14.724113 11.000000
72.017010 30.087653 -14.734333 0.000000 60.000000 14.333920 10.000000
74.346039 29.380615 -16.491001 0.000000 56.000000 14.961040 25.000000
75.493782 27.154742 -17.849124 0.000000 32.000000 14.183637 0.000000
74.243935 28.259792 -17.394720 0.000000 80.000000 14.714580 21.000000
75.048660 29.814828 -15.911643 0.000000 70.000000 14.905320 28.000000
74.555618 26.945479 -19.548542 0.000000 50.000000 15.147163 13.000000
71.738903 27.103946 -18.509378 0.000000 42.000000 14.580915 2.000000
77.100185 30.158544 -15.179702 0.000000 67.000000 14.680943 15.000000
72.005310 27.965809 -17.274300 0.000000 53.000000 14.414179 3.000000
73.001518 29.676892 -15.778957 0.000000 54.000000 14.714126 9.000000
73.502472 28.580452 -16.754463 0.000000 66.000000 14.533340 23.000000
76.304970 27.284146 -17.844121 0.000000 32.000000 14.277607 0.000000
77.389763 27.250426 -17.826272 0.000000 43.000000 14.240488 0.000000
76.474590 27.219829 -17.788433 0.000000 36.000000 14.192533 0.000000
76.617767 27.225747 -17.769493 0.000000 34.000000 14.184490 0.000000
76.161461 29.533178 -16.547105 0.000000 69.000000 15.112720 24.000000
77.250519 28.726766 -16.855223 0.000000 74.000000 14.709775 18.000000
73.427994 30.002739 -15.394538 0.000000 43.000000 14.705520 30.000000
74.251717 29.402503 -16.069449 0.000000 74.000000 14.699465 26.000000
75.378963 28.412266 -16.905962 0.000000 46.000000 14.506838 22.000000
77.466095 27.337150 -17.642123 0.000000 33.000000 14.184224 0.000000
74.913700 28.592281 -16.903956 0.000000 64.000000 14.640827 23.000000
73.943054 29.159691 -16.176925 0.000000 49.000000 14.587833 26.000000
75.908592 29.428460 -16.308991 0.000000 63.000000 14.876962 24.000000
74.863049 30.422083 -14.908608 0.000000 68.000000 14.700243 11.000000
77.369057 30.749561 -14.834385 0.000000 77.000000 14.897447 12.000000
75.414104 28.588754 -16.787200 0.000000 67.000000 14.561172 22.000000
76.385040 28.861190 -16.768384 0.000000 59.000000 14.753545 24.000000
72.144108 30.136449 -14.920705 0.000000 59.000000 14.493517 10.000000
71.819359 28.718518 -16.916257 0.000000 76.000000 14.743830 8.000000
74.554020 28.980793 -16.999836 0.000000 75.000000 14.996098 23.000000
72.008492 28.286011 -17.397690 0.000000 76.000000 14.736247 3.000000
77.509617 29.458466 -16.469383 0.000000 53.000000 15.005301 18.000000
76.330036 28.178614 -17.389324 0.000000 63.000000 14.650001 20.000000
74.052971 28.993683 -16.534820 0.000000 38.000000 14.699093 26.000000
74.319843 30.715597 -14.727912 0.000000 66.000000 14.801695 11.000000
74.053986 28.040813 -17.189287 0.000000 41.000000 14.414488 21.000000
73.165955 28.859056 -15.963338 0.000000 40.000000 14.220986 0.000000
73.089031 28.815629 -16.034355 0.000000 34.000000 14.235181 0.000000
76.534054 28.439872 -17.181665 0.000000 67.000000 14.709424 20.000000
71.828407 27.856448 -17.467723 0.000000 41.000000 14.459544 3.000000
77.055679 29.689786 -15.900822 0.000000 46.000000 14.804193 27.000000
71.612137 28.492978 -16.189573 0.000000 21.000000 14.095024 0.000000
72.330147 27.280650 -18.761663 0.000000 47.000000 14.880129 2.000000
71.546326 28.437757 -16.262458 0.000000 25.000000 14.101586 0.000000
75.053833 28.126490 -17.032449 0.000000 61.000000 14.375450 21.000000
77.508915 29.737844 -15.584701 0.000000 80.000000 14.631824 16.000000
76.751091 30.782559 -14.681437 0.000000 71.000000 14.821376 11.000000
72.179977 27.401581 -17.702588 0.000000 31.000000 14.272533 0.000000
74.883240 29.480050 -16.525960 0.000000 61.000000 15.058839 25.000000
77.632023 29.009848 -16.700547 0.000000 74.000000 14.820547 18.000000
75.979477 27.144115 -18.282778 0.000000 49.000000 14.461658 14.000000
72.923893 28.248406 -16.950131 0.000000 35.000000 14.412799 23.000000
73.373150 29.227406 -16.290767 0.000000 66.000000 14.713815 26.000000
73.773582 28.745524 -16.355982 0.000000 56.000000 14.394608 26.000000
76.239475 28.881389 -16.729955 0.000000 64.000000 14.743383 24.000000
74.291119 28.842693 -16.649509 0.000000 66.000000 14.661239 23.000000
73.526814 30.326312 -14.996903 0.000000 56.000000 14.686488 30.000000
73.678730 27.424121 -17.731739 0.000000 56.000000 14.308702 13.000000
75.270618 27.868747 -17.073691 0.000000 35.000000 14.208911 0.000000
77.332516 30.234696 -15.314209 0.000000 78.000000 14.826897 15.000000
72.718925 30.145831 -15.071622 0.000000 47.000000 14.600104 10.000000
73.837391 27.715362 -17.228671 0.000000 34.000000 14.195830 0.000000
77.603970 28.136659 -16.906798 0.000000 56.000000 14.300222 19.000000
73.689518 27.501873 -17.318274 0.000000 23.000000 14.094452 0.000000
77.684105 30.393918 -15.163522 0.000000 76.000000 14.847197 15.000000
76.055321 26.859226 -19.304477 0.000000 80.000000 14.921360 6.000000
74.854950 28.418105 -17.369030 0.000000 66.000000 14.816636 21.000000
74.629456 27.374457 -17.624487 0.000000 38.000000 14.200635 0.000000
75.932041 30.509930 -15.598921 0.000000 64.000000 15.221560 29.000000
74.555046 27.322560 -17.702796 0.000000 37.000000 14.213273 0.000000
73.942280 30.381918 -15.243979 0.000000 74.000000 14.891240 30.000000
74.511749 29.049782 -16.100090 0.000000 43.000000 14.454542 25.000000
74.212605 30.528330 -15.423121 0.000000 73.000000 15.119445 30.000000
74.829659 30.302128 -15.200536 0.000000 68.000000 14.802612 29.000000
74.273308 26.979125 -18.785442 0.000000 64.000000 14.669163 13.000000
73.090443 27.080536 -17.982982 0.000000 27.000000 14.216141 0.000000
73.018604 27.076911 -18.096431 0.000000 26.000000 14.288240 0.000000
75.900276 27.510941 -17.979112 0.000000 71.000000 14.537114 5.000000
72.586651 27.948211 -17.723600 0.000000 60.000000 14.697279 3.000000
73.865112 26.439005 -18.713735 0.000000 30.000000 14.215876 0.000000
73.378883 29.246160 -16.390246 0.000000 58.000000 14.793522 26.000000
76.100487 27.486013 -17.742722 0.000000 49.000000 14.362469 5.000000
75.333321 30.959167 -14.994273 0.000000 47.000000 15.160454 11.000000
73.280457 28.622279 -16.832019 0.000000 71.000000 14.615931 23.000000
73.509819 30.126423 -14.879375 0.000000 62.000000 14.458723 30.000000
73.814182 27.826098 -17.964991 0.000000 67.000000 14.764696 13.000000
77.162891 29.023803 -16.592901 0.000000 61.000000 14.760040 18.000000
76.678493 29.928254 -15.656602 0.000000 70.000000 14.822372 27.000000
76.928173 27.360772 -17.417263 0.000000 25.000000 14.053677 0.000000
75.351242 29.489190 -15.763179 0.000000 70.000000 14.562629 27.000000
76.481293 30.407950 -15.560914 0.000000 70.000000 15.119837 29.000000
76.594803 27.290807 -17.714113 0.000000 38.000000 14.196869 0.000000
76.620609 30.343154 -15.434774 0.000000 74.000000 14.987938 29.000000
73.121086 28.913266 -17.051245 0.000000 79.000000 14.979246 23.000000
76.721767 27.159919 -18.576594 0.000000 72.000000 14.667319 14.000000
73.622314 30.105462 -15.780752 0.000000 77.000000 15.037456 30.000000
77.427624 26.983703 -18.082032 0.000000 39.000000 14.208682 0.000000
73.765549 27.635106 -18.045405 0.000000 58.000000 14.674168 13.000000
76.140041 26.995515 -18.137316 0.000000 36.000000 14.254022 0.000000
75.642929 28.576266 -16.824852 0.000000 45.000000 14.576617 22.000000
76.972263 29.243193 -16.021325 0.000000 49.000000 14.547976 24.000000
74.702938 29.981211 -15.333528 0.000000 73.000000 14.649100 29.000000
73.520794 30.433479 -15.160664 0.000000 68.000000 14.875049 30.000000
75.862598 27.466007 -17.734406 0.000000 68.000000 14.341946 5.000000
77.090332 27.939202 -17.511301 0.000000 55.000000 14.550489 19.000000
74.834846 30.250779 -14.908964 0.000000 63.000000 14.571713 11.000000
72.574429 30.622641 -14.650410 0.000000 73.000000 14.680707 10.000000
77.666855 29.118387 -16.162542 0.000000 34.000000 14.547300 18.000000
72.242596 28.994664 -16.529748 0.000000 58.000000 14.696485 4.000000
76.180832 29.430753 -16.691526 0.000000 75.000000 15.130980 24.000000
76.108494 27.176809 -18.440590 0.000000 77.000000 14.590316 14.000000
77.711700 28.476339 -17.022040 0.000000 71.000000 14.631557 18.000000
71.846703 27.008804 -18.674311 0.000000 62.000000 14.618178 2.000000
72.226646 29.283795 -15.925928 0.000000 68.000000 14.515578 9.000000
75.496452 29.330117 -16.390016 0.000000 73.000000 14.856479 24.000000
75.654079 28.248260 -17.099593 0.000000 47.000000 14.511265 22.000000
76.331806 26.794811 -18.546405 0.000000 55.000000 14.372966 14.000000
77.698685 29.374081 -15.906445 0.000000 63.000000 14.570594 18.000000
75.228600 30.460370 -14.972071 0.000000 69.000000 14.770878 11.000000
71.730949 30.190987 -14.485252 0.000000 30.000000 14.247316 0.000000
71.728348 30.108637 -14.527913 0.000000 32.000000 14.213552 0.000000
77.528603 28.111779 -17.340359 0.000000 51.000000 14.567469 19.000000
74.828964 27.053987 -18.885456 0.000000 46.000000 14.791398 13.000000
73.252926 29.135646 -16.478926 0.000000 44.000000 14.768939 26.000000
74.678799 30.324949 -15.451248 0.000000 63.000000 14.985119 29.000000
71.580097 28.595384 -16.092282 0.000000 20.000000 14.107833 0.000000
71.664642 28.573528 -16.163016 0.000000 24.000000 14.138056 0.000000
77.220306 30.016453 -15.256312 0.000000 38.000000 14.624664 15.000000
73.904976 26.729274 -19.009078 0.000000 36.000000 14.628852 13.000000
72.513180 29.616236 -15.810979 0.000000 44.000000 14.689653 9.000000
71.865627 30.508301 -14.667325 0.000000 54.000000 14.605916 10.000000
73.045750 28.815416 -17.121265 0.000000 60.000000 14.951875 23.000000
74.099400 30.498061 -15.100243 0.000000 67.000000 14.883744 30.000000
72.443531 30.266501 -15.224862 0.000000 78.000000 14.791876 10.000000
74.650719 27.157507 -18.912198 0.000000 64.000000 14.886848 13.000000
73.229706 27.895446 -17.624826 0.000000 43.000000 14.592473 3.000000
73.839619 27.957622 -16.990317 0.000000 36.000000 14.220728 0.000000
75.159729 30.443564 -15.448816 0.000000 68.000000 15.072675 29.000000
75.195362 30.336349 -15.039472 0.000000 65.000000 14.722108 29.000000
76.482361 30.274522 -14.701611 0.000000 57.000000 14.452804 11.000000
72.894745 28.824115 -16.278477 0.000000 41.000000 14.402566 4.000000
75.306187 27.757783 -17.140776 0.000000 27.000000 14.169747 0.000000
73.659573 29.280788 -15.990307 0.000000 70.000000 14.555778 26.000000
76.467453 28.023380 -17.536717 0.000000 56.000000 14.630526 20.000000
74.954533 28.081641 -17.533470 0.000000 70.000000 14.672178 21.000000
73.869904 29.567812 -16.089465 0.000000 71.000000 14.836925 26.000000
76.501366 29.678918 -16.466234 0.000000 55.000000 15.168932 24.000000
76.452866 30.669412 -14.777952 0.000000 79.000000 14.799982 11.000000
76.560616 29.557745 -16.095240 0.000000 57.000000 14.833166 24.000000
74.328636 29.267319 -16.463261 0.000000 61.000000 14.857583 25.000000
77.040997 26.595797 -19.157139 0.000000 78.000000 14.626172 7.000000
72.611481 28.243007 -17.029939 0.000000 51.000000 14.461377 23.000000
72.088932 29.089287 -16.002917 0.000000 61.000000 14.420148 4.000000
71.705425 29.379752 -15.134963 0.000000 23.000000 14.066038 0.000000
76.401546 30.552475 -15.225841 0.000000 78.000000 15.007481 29.000000
74.203896 29.908298 -15.480787 0.000000 47.000000 14.691415 30.000000
76.699520 29.323494 -16.062563 0.000000 67.000000 14.635534 24.000000
72.367439 27.376597 -17.696319 0.000000 28.000000 14.249619 0.000000
72.471775 27.276595 -17.818790 0.000000 36.000000 14.255224 0.000000
71.940987 30.222484 -15.399550 0.000000 69.000000 14.874002 10.000000
77.294872 28.880151 -16.258193 0.000000 72.000000 14.431309 18.000000
72.656410 27.097027 -17.974217 0.000000 30.000000 14.222757 0.000000
71.945568 28.079463 -17.201559 0.000000 54.000000 14.451634 3.000000
74.301414 29.568926 -15.309808 0.000000 37.000000 14.323551 30.000000
71.564049 26.981090 -18.100452 0.000000 24.000000 14.218866 0.000000
73.436066 28.717985 -16.954620 0.000000 52.000000 14.768730 23.000000
76.790722 27.302637 -18.477429 0.000000 69.000000 14.709194 14.000000
71.717190 26.952375 -18.238577 0.000000 32.000000 14.288380 0.000000
74.627865 30.745268 -14.829348 0.000000 61.000000 14.890898 11.000000
76.686619 28.294927 -17.477729 0.000000 66.000000 14.795737 20.000000
76.793049 30.117057 -15.164260 0.000000 65.000000 14.639574 29.000000
71.922512 29.517146 -15.645632 0.000000 60.000000 14.506117 9.000000
73.650249 26.606833 -18.556336 0.000000 33.000000 14.238218 0.000000
73.764023 26.500994 -18.560606 0.000000 29.000000 14.161477 0.000000
73.846466 26.570200 -18.646064 0.000000 31.000000 14.269860 0.000000
72.912663 26.406793 -18.695462 0.000000 24.000000 14.179611 0.000000
72.011703 26.870363 -19.093037 0.000000 64.000000 14.790279 1.000000
77.181797 28.634542 -16.844414 0.000000 76.000000 14.633324 18.000000
76.120686 30.577189 -14.844318 0.000000 72.000000 14.774430 11.000000
75.652348 30.455187 -15.466669 0.000000 71.000000 15.093187 29.000000
75.488438 30.604057 -15.422086 0.000000 62.000000 15.175684 29.000000
77.242218 28.837988 -16.897766 0.000000 63.000000 14.821436 18.000000
74.074497 29.831923 -15.557477 0.000000 64.000000 14.684586 30.000000
74.948681 29.475874 -16.277119 0.000000 70.000000 14.891582 25.000000
77.118824 29.553050 -15.051572 0.000000 38.000000 14.141302 0.000000
71.758354 28.764763 -17.014849 0.000000 42.000000 14.843615 8.000000
76.870899 29.439345 -15.059137 0.000000 36.000000 14.060823 0.000000
77.261845 29.391978 -15.400023 0.000000 57.000000 14.250044 0.000000
77.511795 27.038468 -19.244407 0.000000 55.000000 15.016473 7.000000
72.537270 29.587389 -15.784862 0.000000 56.000000 14.650744 9.000000
73.868271 27.818921 -17.968988 0.000000 67.000000 14.761937 13.000000
76.200764 28.898349 -16.762805 0.000000 57.000000 14.777797 24.000000
73.550522 28.414722 -16.450181 0.000000 25.000000 14.208081 0.000000
75.665718 31.021197 -14.970075 0.000000 70.000000 15.191121 11.000000
74.796921 30.226149 -15.463920 0.000000 59.000000 14.919212 29.000000
73.811337 27.641379 -17.255532 0.000000 37.000000 14.157935 0.000000
73.741249 27.623167 -17.350978 0.000000 36.000000 14.207195 0.000000
74.432617 28.808299 -17.161348 0.000000 68.000000 14.972962 23.000000
75.941280 29.387684 -16.728337 0.000000 69.000000 15.122885 24.000000
73.162388 30.746567 -14.894726 0.000000 59.000000 14.934993 11.000000
75.390438 29.728885 -15.841494 0.000000 44.000000 14.794454 27.000000
75.333057 29.884827 -15.755336 0.000000 50.000000 14.854847 27.000000
72.236980 27.363164 -17.745629 0.000000 28.000000 14.272043 0.000000
74.198109 27.690928 -17.778130 0.000000 54.000000 14.539851 13.000000
72.117874 28.715652 -16.920675 0.000000 66.000000 14.744589 8.000000
