-11.796699 -12.385910 -2.517751 0.000000 69.000000 14.752157 19.000000
-14.630940 -10.443016 -4.410725 0.000000 52.000000 14.508591 10.000000
-14.704711 -12.163873 -4.964865 0.000000 32.000000 14.900977 17.000000
-11.334508 -11.163025 -1.927773 0.000000 32.000000 14.569730 0.000000
-15.179519 -8.253644 -4.876140 0.000000 46.000000 14.539651 0.000000
-12.037507 -11.067513 -2.940260 0.000000 43.000000 14.938123 22.000000
-13.586749 -10.731203 -4.032906 0.000000 71.000000 14.850725 23.000000
-15.371332 -13.965254 -4.912078 0.000000 63.000000 14.450373 0.000000
-14.929789 -14.025932 -4.638201 0.000000 42.000000 14.504924 0.000000
-13.449892 -8.323919 -3.353672 0.000000 30.000000 14.398243 0.000000
-14.750172 -11.837688 -4.998061 0.000000 70.000000 14.899307 16.000000
-14.521358 -9.264351 -4.294881 0.000000 47.000000 14.484321 0.000000
-14.553047 -8.932148 -4.420029 0.000000 39.000000 14.563719 0.000000
-13.626599 -9.167953 -3.767472 0.000000 53.000000 14.616652 29.000000
-13.461465 -13.886262 -3.737605 0.000000 57.000000 14.694359 7.000000
-14.205466 -10.849920 -4.026060 0.000000 50.000000 14.465789 23.000000
-12.877132 -14.022658 -2.966926 0.000000 50.000000 14.444145 0.000000
-13.861307 -13.576494 -4.213774 0.000000 59.000000 14.825150 11.000000
-11.538322 -10.356572 -2.338236 0.000000 70.000000 14.768876 22.000000
-11.946548 -12.110544 -2.634748 0.000000 59.000000 14.752637 19.000000
-13.447673 -10.973074 -4.021318 0.000000 84.000000 14.926885 23.000000
-15.161874 -13.020369 -4.839692 0.000000 59.000000 14.521690 0.000000
-10.696704 -13.019779 -1.893783 0.000000 62.000000 14.934124 4.000000
-11.875418 -11.179578 -2.436370 0.000000 52.000000 14.639598 21.000000
-10.784913 -13.507172 -1.800766 0.000000 45.000000 14.806554 5.000000
-15.306728 -14.031921 -4.934875 0.000000 61.000000 14.508006 0.000000
-11.706693 -10.939193 -2.394025 0.000000 63.000000 14.709654 22.000000
-13.881150 -10.218986 -4.255660 0.000000 57.000000 14.846058 10.000000
-13.332383 -13.308448 -3.682397 0.000000 51.000000 14.729939 7.000000
-11.215090 -13.055777 -1.966487 0.000000 77.000000 14.673558 4.000000
-12.407499 -9.955573 -3.163188 0.000000 74.000000 14.887225 24.000000
-12.030907 -12.497626 -2.469234 0.000000 72.000000 14.570174 19.000000
-15.110667 -13.754035 -4.761276 0.000000 63.000000 14.491171 0.000000
-13.762962 -11.989278 -4.214227 0.000000 59.000000 14.885834 3.000000
-14.188237 -12.291742 -4.047524 0.000000 51.000000 14.493309 3.000000
-14.968206 -8.997160 -4.761288 0.000000 50.000000 14.578568 0.000000
-13.177470 -8.671781 -3.686047 0.000000 64.000000 14.827847 29.000000
-14.867851 -11.886442 -5.037891 0.000000 50.000000 14.858577 17.000000
-13.946458 -13.644014 -4.388142 0.000000 58.000000 14.910627 11.000000
-12.810157 -14.045945 -3.034766 0.000000 50.000000 14.538806 0.000000
-11.509534 -13.762841 -2.405018 0.000000 61.000000 14.839276 5.000000
-13.274278 -12.832339 -3.338909 0.000000 59.000000 14.494308 0.000000
-15.181866 -13.829314 -4.786672 0.000000 53.000000 14.467553 0.000000
-11.240471 -12.307454 -1.881753 0.000000 64.000000 14.591069 9.000000
-10.616352 -13.778617 -1.863650 0.000000 76.000000 14.959616 5.000000
-14.571562 -11.943610 -4.946064 0.000000 76.000000 14.967804 17.000000
-15.392143 -11.910320 -5.107499 0.000000 41.000000 14.591943 16.000000
-12.461376 -13.320784 -2.798098 0.000000 54.000000 14.565842 8.000000
-12.002268 -8.816328 -2.662469 0.000000 64.000000 14.740351 26.000000
-10.823216 -13.047446 -2.165564 0.000000 65.000000 15.071162 4.000000
-12.787020 -14.008473 -3.038183 0.000000 56.000000 14.555697 0.000000
-13.640641 -11.987828 -3.800380 0.000000 57.000000 14.634027 3.000000
-11.341849 -10.004905 -2.616205 0.000000 72.000000 15.108924 24.000000
-12.940655 -11.712869 -2.990220 0.000000 30.000000 14.423576 0.000000
-13.338917 -13.506037 -3.693245 0.000000 53.000000 14.734498 7.000000
-12.801003 -8.145468 -3.383878 0.000000 73.000000 14.820136 27.000000
-11.197488 -13.914200 -1.958006 0.000000 39.000000 14.677657 5.000000
-12.728646 -8.160652 -3.249047 0.000000 52.000000 14.758037 26.000000
-12.401646 -10.969514 -3.279116 0.000000 60.000000 14.982371 23.000000
-11.356162 -9.623185 -1.840260 0.000000 41.000000 14.487333 0.000000
-11.612871 -9.318164 -2.630430 0.000000 51.000000 14.953910 25.000000
-15.064854 -14.056204 -4.758893 0.000000 43.000000 14.517391 0.000000
-15.644363 -12.808483 -4.888166 0.000000 22.000000 14.264007 0.000000
-10.674732 -11.242788 -1.687206 0.000000 65.000000 14.784456 9.000000
-13.819570 -13.644044 -4.382465 0.000000 71.000000 14.983978 11.000000
-14.754120 -11.671094 -5.064972 0.000000 53.000000 14.949729 16.000000
-12.079395 -13.962761 -2.383435 0.000000 51.000000 14.472670 0.000000
-13.434604 -11.194343 -3.904188 0.000000 76.000000 14.842397 23.000000
-13.127111 -12.896824 -3.224279 0.000000 53.000000 14.494052 0.000000
-15.215570 -8.325356 -4.985934 0.000000 62.000000 14.604248 1.000000
-15.584483 -9.550932 -5.138529 0.000000 47.000000 14.498465 0.000000
-11.316072 -10.872706 -2.276710 0.000000 73.000000 14.856616 22.000000
-12.313239 -12.081325 -3.271833 0.000000 67.000000 15.030849 19.000000
-11.724212 -11.191191 -2.717400 0.000000 59.000000 14.954297 21.000000
-15.720513 -13.257964 -5.244270 0.000000 49.000000 14.498532 0.000000
-15.326643 -13.386859 -4.888233 0.000000 84.000000 14.458954 0.000000
-11.571457 -8.579577 -2.843029 0.000000 58.000000 15.147216 26.000000
-14.569330 -10.309137 -4.859685 0.000000 58.000000 14.900954 10.000000
-15.228263 -13.441037 -4.943063 0.000000 63.000000 14.562604 18.000000
-14.009281 -8.270996 -3.882496 0.000000 27.000000 14.472750 27.000000
-15.242312 -11.931558 -4.974396 0.000000 41.000000 14.578732 16.000000
-13.746683 -8.150303 -4.293711 0.000000 71.000000 14.958593 27.000000
-14.913359 -8.060905 -5.066519 0.000000 76.000000 14.853271 30.000000
-11.152028 -12.917188 -1.953838 0.000000 38.000000 14.702251 4.000000
-15.139512 -13.010614 -4.780710 0.000000 59.000000 14.488825 0.000000
-14.556865 -11.531657 -4.558420 0.000000 63.000000 14.670673 16.000000
-15.652869 -9.447224 -5.209372 0.000000 53.000000 14.512465 0.000000
-15.440382 -12.422938 -5.167242 0.000000 52.000000 14.609535 17.000000
-11.975565 -10.317673 -2.706688 0.000000 50.000000 14.791653 24.000000
-11.817438 -10.738514 -2.992941 0.000000 62.000000 15.114722 22.000000
-14.706828 -10.278568 -5.227605 0.000000 48.000000 15.107180 10.000000
-12.248089 -8.105245 -3.062923 0.000000 61.000000 14.905824 26.000000
-15.115658 -13.952053 -4.847996 0.000000 52.000000 14.556597 0.000000
-12.628805 -11.946894 -3.225289 0.000000 64.000000 14.800518 19.000000
-13.222947 -9.408587 -3.770566 0.000000 39.000000 14.866701 29.000000
-15.051979 -12.668651 -5.155518 0.000000 55.000000 14.838528 17.000000
-14.875934 -10.198873 -5.299269 0.000000 49.000000 15.060045 10.000000
-14.395562 -8.816828 -4.385455 0.000000 69.000000 14.633018 1.000000
-12.318664 -8.679227 -3.351984 0.000000 57.000000 15.090821 26.000000
-13.436327 -11.186437 -4.082850 0.000000 51.000000 14.982441 23.000000
-14.906327 -13.836819 -4.569462 0.000000 63.000000 14.465028 0.000000
-10.938618 -10.437713 -1.883328 0.000000 64.000000 14.777474 14.000000
-10.424325 -11.509650 -2.210077 0.000000 72.000000 15.351002 9.000000
-13.130912 -12.841155 -3.217800 0.000000 55.000000 14.486603 0.000000
-10.529208 -10.084018 -1.851256 0.000000 60.000000 15.003283 13.000000
-13.711773 -14.275831 -3.753080 0.000000 59.000000 14.553038 0.000000
-12.097746 -8.002320 -2.795206 0.000000 50.000000 14.786614 26.000000
-14.892375 -13.803669 -4.603519 0.000000 62.000000 14.500484 0.000000
-14.695473 -12.427031 -5.425393 0.000000 44.000000 15.270350 17.000000
-12.092541 -10.301885 -2.941842 0.000000 75.000000 14.905614 24.000000
-10.418215 -10.554812 -2.024897 0.000000 52.000000 15.208502 14.000000
-14.564431 -13.174968 -4.334493 0.000000 61.000000 14.489183 0.000000
-11.386805 -8.553697 -1.874497 0.000000 65.000000 14.495575 26.000000
-12.538605 -9.753700 -3.539809 0.000000 58.000000 15.104243 29.000000
-13.384789 -12.377886 -4.066497 0.000000 78.000000 15.001140 3.000000
-14.570543 -12.750913 -4.711081 0.000000 50.000000 14.782848 12.000000
-15.601817 -14.004292 -5.206067 0.000000 42.000000 14.541171 0.000000
-12.148326 -8.185427 -2.651582 0.000000 44.000000 14.642159 26.000000
-11.657901 -10.326476 -2.169448 0.000000 48.000000 14.562222 24.000000
-15.347507 -14.003870 -4.921053 0.000000 58.000000 14.472075 0.000000
-12.800046 -8.956075 -3.222032 0.000000 44.000000 14.692904 26.000000
-14.571078 -11.708770 -5.050194 0.000000 73.000000 15.050338 16.000000
-15.173429 -12.173832 -5.222906 0.000000 69.000000 14.817249 17.000000
-12.293491 -12.263179 -3.094011 0.000000 64.000000 14.902526 19.000000
-12.888929 -10.616424 -3.754285 0.000000 49.000000 15.058734 23.000000
-15.173458 -13.214758 -4.787527 0.000000 67.000000 14.473386 0.000000
-15.186954 -11.784210 -5.467222 0.000000 82.000000 15.001904 16.000000
-10.555616 -11.749531 -1.847713 0.000000 51.000000 14.984285 9.000000
-15.047468 -13.802080 -4.687175 0.000000 58.000000 14.471416 0.000000
-10.775079 -12.447881 -1.643815 0.000000 40.000000 14.688633 9.000000
-10.867950 -9.542026 -1.674793 0.000000 46.000000 14.656130 13.000000
-11.781983 -9.218337 -2.947607 0.000000 23.000000 15.100668 25.000000
-10.680081 -13.672250 -1.928187 0.000000 67.000000 14.971492 5.000000
-15.268437 -13.071438 -4.842654 0.000000 65.000000 14.458661 0.000000
-12.099792 -8.677279 -3.203944 0.000000 44.000000 15.108164 26.000000
-14.971938 -13.998137 -4.607542 0.000000 46.000000 14.454856 0.000000
-12.021373 -13.939425 -2.355316 0.000000 47.000000 14.486054 0.000000
-12.874851 -14.178913 -3.029125 0.000000 45.000000 14.494667 0.000000
-14.702694 -11.866546 -4.799633 0.000000 85.000000 14.771720 16.000000
-12.682768 -13.708419 -3.407611 0.000000 62.000000 14.911407 7.000000
-15.543726 -9.060467 -5.072473 0.000000 36.000000 14.471297 0.000000
-14.612932 -14.131163 -4.444881 0.000000 33.000000 14.546612 11.000000
-11.755358 -13.212541 -2.861397 0.000000 64.000000 15.048915 8.000000
-12.147215 -11.273147 -2.799337 0.000000 65.000000 14.759532 21.000000
-11.849048 -8.726770 -2.944848 0.000000 55.000000 15.057350 26.000000
-14.355656 -8.390745 -4.584724 0.000000 64.000000 14.814872 1.000000
-10.888540 -14.216433 -1.486381 0.000000 38.000000 14.494699 0.000000
-14.536845 -12.400928 -5.250553 0.000000 71.000000 15.229573 17.000000
-12.454705 -9.421193 -3.202976 0.000000 54.000000 14.889691 25.000000
-12.287030 -12.623085 -2.929841 0.000000 71.000000 14.776834 8.000000
-14.788871 -11.559519 -5.493750 0.000000 53.000000 15.267045 16.000000
-13.317260 -9.105459 -4.016993 0.000000 54.000000 15.003467 29.000000
-15.313215 -11.598888 -5.458218 0.000000 40.000000 14.917343 16.000000
-14.364000 -14.195689 -4.399244 0.000000 67.000000 14.663268 11.000000
-12.147605 -9.438101 -2.759270 0.000000 52.000000 14.727649 25.000000
-14.336094 -12.594561 -4.611950 0.000000 66.000000 14.848373 12.000000
-13.329057 -12.998680 -3.658194 0.000000 50.000000 14.712865 7.000000
-13.359497 -9.898592 -4.050405 0.000000 57.000000 15.003945 29.000000
-12.668423 -9.985655 -3.336990 0.000000 56.000000 14.864433 24.000000
-13.252592 -8.241064 -3.340947 0.000000 44.000000 14.509220 27.000000
-11.568819 -8.871715 -2.456654 0.000000 44.000000 14.843690 26.000000
-15.346251 -12.257422 -5.342086 0.000000 67.000000 14.805361 17.000000
-14.970389 -12.467196 -5.298896 0.000000 34.000000 15.001811 17.000000
-12.961505 -8.233637 -3.368372 0.000000 48.000000 14.709436 27.000000
-10.809664 -13.980038 -1.913005 0.000000 54.000000 14.880014 5.000000
-12.512482 -13.167135 -2.897975 0.000000 66.000000 14.613372 8.000000
-14.208893 -8.580227 -4.161109 0.000000 56.000000 14.570343 1.000000
-12.044036 -10.928854 -3.094202 0.000000 71.000000 15.055696 22.000000
-11.123196 -11.836373 -1.882287 0.000000 31.000000 14.663429 9.000000
-12.683006 -10.932113 -3.443300 0.000000 81.000000 14.939446 23.000000
-15.669194 -13.958252 -5.145980 0.000000 44.000000 14.452386 0.000000
-12.624096 -13.081103 -2.781872 0.000000 67.000000 14.453213 0.000000
-14.709263 -12.318752 -5.385812 0.000000 65.000000 15.230632 17.000000
-12.255211 -10.583595 -2.871122 0.000000 59.000000 14.749978 24.000000
-14.267439 -8.733124 -3.976925 0.000000 32.000000 14.388969 0.000000
-11.534847 -12.309970 -1.999731 0.000000 43.000000 14.503669 0.000000
-11.257755 -11.518796 -2.348289 0.000000 53.000000 14.948919 21.000000
-11.822205 -12.464013 -2.394223 0.000000 34.000000 14.638954 19.000000
-14.105226 -10.897174 -4.036031 0.000000 51.000000 14.535152 23.000000
-13.551875 -12.555793 -3.587118 0.000000 48.000000 14.520052 0.000000
-14.842930 -11.725947 -5.474763 0.000000 43.000000 15.218889 16.000000
-11.480952 -8.902565 -2.335615 0.000000 49.000000 14.801997 26.000000
-11.942103 -11.227139 -2.885153 0.000000 76.000000 14.953124 21.000000
-15.060734 -14.271330 -5.053918 0.000000 47.000000 14.752918 11.000000
-11.719223 -11.141767 -2.399752 0.000000 63.000000 14.706491 22.000000
-14.835742 -10.509982 -4.933873 0.000000 59.000000 14.796124 10.000000
-13.299250 -12.168577 -3.883209 0.000000 77.000000 14.908857 3.000000
-11.817991 -12.944415 -2.889833 0.000000 69.000000 15.032952 8.000000
-12.431119 -12.480873 -2.753439 0.000000 51.000000 14.549132 19.000000
-11.619501 -8.068254 -1.894589 0.000000 21.000000 14.368704 0.000000
-13.206818 -9.422370 -3.677219 0.000000 65.000000 14.802873 29.000000
-10.619426 -12.896962 -1.636026 0.000000 69.000000 14.777961 4.000000
-14.677868 -12.553041 -5.195639 0.000000 71.000000 15.099699 17.000000
-12.329636 -12.536509 -2.654119 0.000000 39.000000 14.532944 8.000000
-14.582929 -9.367018 -4.364319 0.000000 42.000000 14.501392 0.000000
-13.495388 -11.171562 -4.285952 0.000000 70.000000 15.106614 23.000000
-11.385853 -10.053448 -2.675136 0.000000 64.000000 15.128473 24.000000
-10.676010 -10.766117 -1.909413 0.000000 57.000000 14.959162 14.000000
-14.486812 -12.196621 -5.216563 0.000000 64.000000 15.233420 17.000000
-14.341743 -8.811759 -4.552730 0.000000 76.000000 14.798138 1.000000
-13.815358 -13.744063 -3.737298 0.000000 44.000000 14.477034 7.000000
-11.614093 -11.035576 -2.344278 0.000000 60.000000 14.727168 22.000000
-15.349689 -13.277367 -4.898022 0.000000 72.000000 14.452548 0.000000
-14.549836 -11.706038 -4.326126 0.000000 50.000000 14.491528 16.000000
-14.092816 -8.409219 -4.117033 0.000000 25.000000 14.606737 1.000000
-10.767402 -11.535471 -2.222586 0.000000 65.000000 15.150433 9.000000
-13.832447 -10.831901 -4.151290 0.000000 58.000000 14.793506 23.000000
-11.499969 -11.456050 -2.546990 0.000000 56.000000 14.957267 21.000000
-10.673402 -12.186831 -1.915864 0.000000 47.000000 14.965857 9.000000
-11.681018 -13.180982 -2.937479 0.000000 66.000000 15.154602 8.000000
-15.202037 -12.969405 -4.816969 0.000000 67.000000 14.479107 0.000000
-15.185727 -13.285717 -4.794081 0.000000 75.000000 14.471036 0.000000
-13.697628 -12.700216 -4.233021 0.000000 86.000000 14.940754 12.000000
-10.885228 -12.754127 -1.929431 0.000000 60.000000 14.846634 4.000000
-11.790389 -11.559068 -2.761331 0.000000 77.000000 14.948398 21.000000
-11.357071 -10.962139 -2.176484 0.000000 71.000000 14.752312 22.000000
-12.416594 -11.240965 -2.699905 0.000000 42.000000 14.515763 21.000000
-11.378142 -11.672358 -2.566185 0.000000 73.000000 15.047158 21.000000
-13.095795 -9.829784 -3.817196 0.000000 47.000000 14.981524 29.000000
-14.235028 -14.108235 -3.947093 0.000000 35.000000 14.385290 0.000000
-13.999490 -13.484543 -4.470017 0.000000 53.000000 14.942758 11.000000
-11.772911 -8.351374 -2.760050 0.000000 55.000000 14.958107 26.000000
-10.870812 -13.572202 -2.125848 0.000000 71.000000 15.010600 5.000000
-12.664825 -8.057032 -3.363142 0.000000 54.000000 14.887293 26.000000
-11.729472 -14.129656 -2.084375 0.000000 52.000000 14.451132 0.000000
-12.149259 -8.681026 -3.230045 0.000000 50.000000 15.098434 26.000000
-14.689020 -13.922201 -4.564751 0.000000 55.000000 14.594607 11.000000
-13.883860 -12.984893 -4.135822 0.000000 55.000000 14.749753 12.000000
-13.251091 -11.677415 -3.970085 0.000000 58.000000 15.007009 20.000000
-13.652705 -10.865065 -4.122308 0.000000 73.000000 14.880873 23.000000
-12.073795 -12.167718 -2.949133 0.000000 66.000000 14.922871 19.000000
-15.383775 -13.998092 -4.929178 0.000000 56.000000 14.456245 0.000000
-10.935352 -10.279017 -1.884442 0.000000 50.000000 14.780357 13.000000
-13.409547 -12.205323 -3.708804 0.000000 83.000000 14.703461 3.000000
-14.047918 -13.603935 -4.362767 0.000000 42.000000 14.828349 11.000000
-15.279992 -14.206621 -4.881470 0.000000 27.000000 14.482229 11.000000
-13.871560 -8.249222 -4.244609 0.000000 48.000000 14.843213 27.000000
-14.601231 -12.183832 -5.179155 0.000000 59.000000 15.133691 17.000000
-15.410046 -12.865604 -4.735873 0.000000 32.000000 14.287465 0.000000
-12.318335 -13.635127 -2.560309 0.000000 43.000000 14.465789 0.000000
-15.065571 -13.770760 -4.747714 0.000000 54.000000 14.508122 0.000000
-11.510215 -8.637693 -2.927408 0.000000 15.000000 15.251422 26.000000
-10.562959 -13.823155 -1.932215 0.000000 47.000000 15.046518 5.000000
-11.017517 -10.088146 -2.173195 0.000000 76.000000 14.958002 13.000000
-11.709658 -9.876490 -2.713664 0.000000 63.000000 14.960274 24.000000
-15.636439 -9.349746 -5.284437 0.000000 48.000000 14.581827 0.000000
-15.688073 -9.193550 -5.282138 0.000000 40.000000 14.548338 0.000000
-14.382935 -10.252558 -5.545106 0.000000 10.000000 15.556611 10.000000
-13.849002 -10.923589 -4.151870 0.000000 73.000000 14.783809 23.000000
-14.499153 -10.394738 -4.787722 0.000000 58.000000 14.887168 10.000000
-14.983313 -14.061566 -4.614495 0.000000 38.000000 14.453370 0.000000
-14.946547 -13.989661 -4.602585 0.000000 52.000000 14.466516 0.000000
-15.165722 -13.252619 -4.794726 0.000000 76.000000 14.483817 0.000000
-10.829979 -9.309804 -2.063434 0.000000 24.000000 14.986355 13.000000
-14.676009 -11.270796 -5.196155 0.000000 71.000000 15.101247 16.000000
-13.893167 -12.000458 -4.143804 0.000000 62.000000 14.750347 3.000000
-11.960104 -11.356070 -2.895441 0.000000 77.000000 14.950207 21.000000
-11.864832 -11.226246 -2.615139 0.000000 69.000000 14.787277 21.000000
-13.523629 -9.150716 -3.931812 0.000000 55.000000 14.809604 29.000000
-10.556138 -11.357567 -1.804439 0.000000 70.000000 14.949789 9.000000
-13.674776 -9.343077 -3.801543 0.000000 61.000000 14.614007 29.000000
-11.348830 -11.395461 -2.424579 0.000000 66.000000 14.953303 21.000000
-13.765156 -13.113041 -4.115521 0.000000 46.000000 14.806534 12.000000
-15.083898 -12.984019 -4.789721 0.000000 65.000000 14.530056 0.000000
-13.247465 -11.565853 -3.906166 0.000000 56.000000 14.958753 20.000000
-13.247877 -13.808362 -3.797257 0.000000 68.000000 14.872488 7.000000
-14.580501 -12.204017 -4.779962 0.000000 43.000000 14.831140 17.000000
-12.548408 -10.302216 -3.274051 0.000000 79.000000 14.888344 24.000000
-14.837342 -12.187996 -5.279879 0.000000 71.000000 15.068405 17.000000
-13.233393 -11.011374 -3.846630 0.000000 71.000000 14.920365 23.000000
-14.596165 -8.810548 -4.535651 0.000000 62.000000 14.628584 1.000000
-13.255333 -9.867149 -4.115364 0.000000 71.000000 15.119143 29.000000
-14.175052 -13.980523 -4.393612 0.000000 68.000000 14.774724 11.000000
-15.104309 -14.028658 -4.815655 0.000000 48.000000 14.538017 0.000000
-13.343175 -13.799990 -3.811834 0.000000 70.000000 14.825543 7.000000
-11.326230 -8.771093 -2.686101 0.000000 69.000000 15.173706 26.000000
-14.473352 -8.832665 -4.582511 0.000000 38.000000 14.740927 1.000000
-14.210839 -12.924815 -4.242623 0.000000 79.000000 14.633526 12.000000
-13.703070 -10.005302 -3.987736 0.000000 43.000000 14.743699 29.000000
-13.135138 -11.513382 -3.677076 0.000000 45.000000 14.846730 20.000000
-11.062460 -12.698531 -1.951467 0.000000 68.000000 14.755321 9.000000
-14.540778 -11.422037 -5.013055 0.000000 64.000000 15.039594 16.000000
-13.793733 -10.177443 -3.828965 0.000000 58.000000 14.562694 0.000000
-12.986404 -9.299964 -3.702583 0.000000 62.000000 14.958109 29.000000
-11.154803 -11.511109 -1.850422 0.000000 32.000000 14.618875 9.000000
-13.890535 -13.805307 -4.363614 0.000000 73.000000 14.925559 11.000000
-12.033022 -8.839645 -3.012109 0.000000 46.000000 14.997618 26.000000
-14.588324 -11.365219 -5.026815 0.000000 52.000000 15.021296 16.000000
-14.699235 -11.900198 -4.624736 0.000000 63.000000 14.635715 17.000000
-13.710328 -9.213312 -3.880749 0.000000 47.000000 14.654753 29.000000
-12.624824 -13.155735 -2.802981 0.000000 71.000000 14.469437 0.000000
-13.397803 -10.501576 -3.788296 0.000000 53.000000 14.773444 23.000000
-11.589105 -12.320626 -2.058439 0.000000 55.000000 14.516751 0.000000
-14.540857 -11.702708 -5.020981 0.000000 76.000000 15.045805 16.000000
-14.533680 -10.309920 -5.027149 0.000000 75.000000 15.055079 10.000000
-12.267412 -9.059780 -3.125596 0.000000 68.000000 14.943468 26.000000
-10.502919 -10.861487 -2.046029 0.000000 70.000000 15.173233 14.000000
-13.018830 -8.765419 -3.428809 0.000000 66.000000 14.722003 29.000000
-14.452473 -12.325254 -4.820807 0.000000 48.000000 14.941932 17.000000
-12.882464 -11.715705 -3.087067 0.000000 67.000000 14.535757 20.000000
-13.453221 -12.476587 -3.882969 0.000000 64.000000 14.814219 3.000000
-10.795087 -8.840695 -1.414810 0.000000 50.000000 14.495501 0.000000
-12.023353 -12.370132 -2.628184 0.000000 47.000000 14.700340 19.000000
-14.170869 -10.600690 -3.986685 0.000000 49.000000 14.455914 0.000000
-14.598640 -9.294060 -4.398518 0.000000 43.000000 14.518763 0.000000
-12.025314 -12.624460 -3.336728 0.000000 6.000000 15.258718 8.000000
-12.769868 -9.655870 -3.419956 0.000000 61.000000 14.867728 29.000000
-14.427206 -11.627686 -4.379192 0.000000 66.000000 14.608660 16.000000
-11.406706 -9.226634 -2.322392 0.000000 55.000000 14.837098 25.000000
-15.261990 -12.437551 -5.191682 0.000000 68.000000 14.738265 17.000000
-15.670310 -12.605646 -5.179929 0.000000 38.000000 14.478514 0.000000
-11.824005 -11.050210 -2.485851 0.000000 71.000000 14.710214 22.000000
-12.662124 -13.517391 -3.318079 0.000000 71.000000 14.853361 7.000000
-14.202365 -12.985848 -4.185162 0.000000 66.000000 14.593344 12.000000
-13.805949 -11.023677 -4.221412 0.000000 70.000000 14.865140 23.000000
-15.100787 -11.892803 -5.114685 0.000000 69.000000 14.776340 16.000000
-15.174973 -14.007399 -4.886215 0.000000 52.000000 14.550396 0.000000
-10.924406 -12.116705 -2.184842 0.000000 65.000000 15.024316 9.000000
-12.112937 -14.082431 -2.443232 0.000000 44.000000 14.499320 0.000000
-12.953541 -12.268899 -3.158549 0.000000 56.000000 14.548611 0.000000
-14.877443 -12.182149 -5.286487 0.000000 65.000000 15.049025 17.000000
-11.693596 -9.650914 -2.569702 0.000000 59.000000 14.856431 25.000000
-13.966001 -13.998617 -3.812410 0.000000 48.000000 14.443948 0.000000
-12.829681 -14.103825 -3.078251 0.000000 53.000000 14.561172 0.000000
-13.114838 -12.861101 -3.027136 0.000000 21.000000 14.345884 0.000000
-14.190541 -14.165643 -4.125381 0.000000 59.000000 14.553384 0.000000
-15.219513 -14.090913 -4.899005 0.000000 46.000000 14.533176 0.000000
-15.328611 -13.999079 -4.989709 0.000000 52.000000 14.537888 0.000000
-15.032642 -8.036949 -5.217634 0.000000 43.000000 14.899446 30.000000
-13.005304 -9.612841 -3.632496 0.000000 64.000000 14.891164 29.000000
-11.868462 -8.146531 -2.679476 0.000000 69.000000 14.835861 26.000000
-12.619106 -10.297472 -3.554106 0.000000 54.000000 15.066154 24.000000
-10.621305 -11.413263 -2.251128 0.000000 65.000000 15.262592 9.000000
-13.945937 -13.985592 -4.128277 0.000000 55.000000 14.705715 11.000000
-11.165023 -13.829089 -2.118981 0.000000 63.000000 14.824703 5.000000
-14.510767 -13.101130 -4.315761 0.000000 73.000000 14.507307 12.000000
-12.088086 -8.907390 -3.101104 0.000000 57.000000 15.034126 26.000000
-13.820551 -13.585289 -3.789753 0.000000 39.000000 14.515275 0.000000
-15.589972 -9.530773 -5.142655 0.000000 48.000000 14.498356 0.000000
-13.384551 -12.307757 -3.703945 0.000000 60.000000 14.714956 3.000000
-15.683079 -13.694996 -5.039871 0.000000 33.000000 14.360068 0.000000
-14.578696 -8.768787 -4.751081 0.000000 68.000000 14.809438 1.000000
-13.522733 -10.148676 -3.870359 0.000000 51.000000 14.761620 29.000000
-13.414139 -9.269113 -3.838375 0.000000 40.000000 14.802974 29.000000
-12.579795 -12.358266 -3.218924 0.000000 68.000000 14.825554 19.000000
-10.889429 -9.472243 -1.765114 0.000000 47.000000 14.714286 13.000000
-12.272164 -8.654551 -3.357978 0.000000 61.000000 15.124079 26.000000
-10.531282 -13.032622 -1.777847 0.000000 69.000000 14.944035 4.000000
-13.438008 -8.264074 -3.669791 0.000000 31.000000 14.655191 27.000000
-13.324222 -11.015195 -3.833972 0.000000 75.000000 14.854653 23.000000
-15.731998 -13.818190 -5.208893 0.000000 48.000000 14.463548 0.000000
-12.452258 -10.792524 -3.387099 0.000000 54.000000 15.036605 23.000000
-11.314198 -8.920175 -1.976214 0.000000 39.000000 14.620446 26.000000
-12.078091 -13.945380 -2.373335 0.000000 46.000000 14.465493 0.000000
-10.887448 -9.468802 -2.060302 0.000000 59.000000 14.948630 13.000000
-14.269310 -10.514139 -4.066097 0.000000 36.000000 14.458246 0.000000
-12.946116 -14.153937 -3.036468 0.000000 42.000000 14.456751 0.000000
-13.474463 -13.983110 -3.633887 0.000000 59.000000 14.604473 6.000000
-11.889611 -11.017287 -2.891698 0.000000 72.000000 14.990493 22.000000
-14.495718 -13.792808 -4.629304 0.000000 72.000000 14.764163 11.000000
-11.809091 -10.289068 -2.905745 0.000000 59.000000 15.050978 24.000000
-15.369421 -14.048612 -4.949946 0.000000 48.000000 14.481451 0.000000
-11.944517 -13.222356 -2.389790 0.000000 55.000000 14.560425 8.000000
-12.255849 -11.258754 -2.988406 0.000000 36.000000 14.842213 21.000000
-13.956551 -10.763512 -4.194822 0.000000 53.000000 14.751759 23.000000
-13.076925 -9.395927 -3.766882 0.000000 55.000000 14.953364 29.000000
-12.073522 -9.487660 -2.991013 0.000000 47.000000 14.956114 25.000000
-11.393041 -12.857789 -1.829768 0.000000 53.000000 14.456424 4.000000
-13.106322 -13.884279 -3.730505 0.000000 58.000000 14.906602 7.000000
-11.907180 -8.288063 -2.669287 0.000000 63.000000 14.804064 26.000000
-11.258648 -11.264881 -1.870841 0.000000 34.000000 14.571301 0.000000
-11.670837 -8.712892 -2.803414 0.000000 48.000000 15.054969 26.000000
-11.350716 -8.113400 -1.964085 0.000000 35.000000 14.588466 0.000000
-11.784390 -14.209485 -2.159500 0.000000 58.000000 14.476775 0.000000
-12.361749 -9.774743 -2.731214 0.000000 53.000000 14.574132 0.000000
-12.419146 -9.607032 -2.698665 0.000000 59.000000 14.513218 0.000000
-12.489240 -13.430860 -2.789502 0.000000 44.000000 14.541961 0.000000
-15.096584 -12.481011 -5.276819 0.000000 61.000000 14.906965 17.000000
-13.877140 -12.395025 -4.219756 0.000000 55.000000 14.820163 3.000000
-14.627367 -11.447002 -5.174037 0.000000 67.000000 15.113616 16.000000
-15.145610 -10.083447 -5.019428 0.000000 73.000000 14.673614 10.000000
-15.390377 -13.322010 -4.937220 0.000000 61.000000 14.458546 0.000000
-15.606721 -9.138759 -5.213011 0.000000 40.000000 14.543647 0.000000
-12.289074 -11.999066 -3.082416 0.000000 72.000000 14.896078 19.000000
-14.249171 -8.480464 -4.604913 0.000000 64.000000 14.896135 1.000000
-15.076813 -13.751925 -4.806603 0.000000 61.000000 14.547735 0.000000
-14.907211 -13.520733 -4.860770 0.000000 71.000000 14.694550 18.000000
-11.652397 -13.593274 -2.592010 0.000000 77.000000 14.899321 5.000000
-11.330604 -14.225343 -1.860989 0.000000 44.000000 14.519382 0.000000
-11.547553 -12.210586 -2.023303 0.000000 63.000000 14.514491 0.000000
-13.987536 -12.142935 -4.415354 0.000000 60.000000 14.906920 3.000000
-14.695855 -11.341925 -4.462091 0.000000 79.000000 14.509338 16.000000
-13.935405 -12.424518 -4.171494 0.000000 45.000000 14.746306 3.000000
-12.645786 -10.632627 -3.749398 0.000000 60.000000 15.204022 23.000000
-14.601454 -13.407516 -4.336427 0.000000 62.000000 14.468000 0.000000
-12.598677 -10.369398 -3.026762 0.000000 24.000000 14.662210 24.000000
-11.296739 -11.628865 -1.697762 0.000000 30.000000 14.411245 0.000000
-12.974426 -14.110465 -3.143009 0.000000 47.000000 14.523527 0.000000
-10.928223 -9.248917 -1.933832 0.000000 55.000000 14.823736 13.000000
-11.210839 -10.943349 -1.521574 0.000000 42.000000 14.324790 0.000000
-10.979684 -12.311723 -2.133971 0.000000 38.000000 14.950232 9.000000
-12.913850 -8.907573 -3.165391 0.000000 54.000000 14.578362 29.000000
-13.593682 -12.160975 -4.092999 0.000000 70.000000 14.893932 3.000000
-14.673030 -10.538315 -4.913665 0.000000 68.000000 14.879974 10.000000
-13.503483 -9.607274 -3.869542 0.000000 65.000000 14.772783 29.000000
-12.497816 -14.282473 -2.884177 0.000000 60.000000 14.611471 28.000000
-15.201454 -11.367729 -5.405216 0.000000 40.000000 14.944040 16.000000
-12.948431 -14.287843 -3.120287 0.000000 43.000000 14.521528 0.000000
-15.246199 -11.175075 -5.271924 0.000000 61.000000 14.811323 16.000000
-11.653999 -9.659070 -2.155573 0.000000 60.000000 14.553658 25.000000
-13.356188 -9.854558 -3.759248 0.000000 64.000000 14.776031 29.000000
-15.050326 -13.951852 -4.773705 0.000000 45.000000 14.538001 0.000000
-11.931802 -10.703948 -2.969726 0.000000 50.000000 15.026236 22.000000
-12.187796 -10.997957 -2.971087 0.000000 67.000000 14.870280 22.000000
-14.986463 -8.805124 -4.659394 0.000000 52.000000 14.486897 1.000000
-12.967250 -10.111372 -3.576590 0.000000 49.000000 14.870355 29.000000
-11.491210 -12.367123 -1.771344 0.000000 21.000000 14.350065 0.000000
-13.840957 -10.173974 -3.972028 0.000000 40.000000 14.646712 10.000000
-14.854654 -13.747993 -4.592260 0.000000 64.000000 14.514730 0.000000
-15.157471 -13.835693 -4.762868 0.000000 49.000000 14.463718 0.000000
-15.063113 -13.950325 -4.772738 0.000000 48.000000 14.529393 0.000000
-11.266901 -13.866079 -1.975600 0.000000 45.000000 14.648973 5.000000
-12.644769 -9.248995 -3.371153 0.000000 72.000000 14.905923 29.000000
-12.572037 -13.107499 -2.859489 0.000000 76.000000 14.546445 0.000000
-10.868439 -12.445407 -1.889477 0.000000 53.000000 14.825379 9.000000
-11.463540 -11.025652 -2.297153 0.000000 53.000000 14.782302 22.000000
-13.224338 -13.258856 -3.616253 0.000000 72.000000 14.743977 7.000000
-10.527086 -11.435393 -1.866985 0.000000 70.000000 15.017006 9.000000
-15.063226 -10.331921 -5.082159 0.000000 46.000000 14.773693 10.000000
-15.109515 -13.966516 -4.818853 0.000000 48.000000 14.537349 0.000000
-13.075266 -11.635407 -4.047637 0.000000 57.000000 15.176111 20.000000
-11.291431 -13.699300 -2.223047 0.000000 73.000000 14.829350 5.000000
-15.111254 -11.812406 -5.067909 0.000000 71.000000 14.732977 16.000000
-14.392131 -10.419629 -5.532608 0.000000 1.000000 15.541099 10.000000
-14.081122 -13.766835 -4.165197 0.000000 50.000000 14.651948 11.000000
-14.158240 -9.512060 -4.089262 0.000000 57.000000 14.544672 0.000000
-13.980397 -13.545056 -4.031126 0.000000 50.000000 14.607851 11.000000
-12.246209 -8.080032 -2.963734 0.000000 62.000000 14.828641 26.000000
-11.766757 -11.724335 -2.855825 0.000000 63.000000 15.037522 21.000000
-12.341927 -13.346075 -2.657082 0.000000 35.000000 14.527745 8.000000
-15.000799 -13.806753 -4.660594 0.000000 60.000000 14.479050 0.000000
-11.039852 -8.604546 -1.504328 0.000000 40.000000 14.416056 0.000000
-14.942099 -10.407865 -5.031146 0.000000 57.000000 14.807706 10.000000
-13.244484 -8.654659 -3.711923 0.000000 65.000000 14.807176 29.000000
-12.125741 -11.849529 -2.888368 0.000000 68.000000 14.843017 21.000000
-15.689579 -9.077730 -5.273439 0.000000 43.000000 14.540544 0.000000
-11.894593 -11.688544 -2.882895 0.000000 72.000000 14.980484 21.000000
-10.601955 -12.209881 -1.824361 0.000000 79.000000 14.937418 9.000000
-13.960635 -12.927399 -4.007507 0.000000 65.000000 14.601319 12.000000
-11.629730 -11.165708 -2.402877 0.000000 66.000000 14.763855 22.000000
-15.201166 -11.732449 -5.458390 0.000000 75.000000 14.986211 16.000000
-11.852126 -11.067277 -2.708760 0.000000 55.000000 14.869009 22.000000
-13.458259 -14.284041 -3.758573 0.000000 48.000000 14.712886 6.000000
-13.355629 -14.201200 -3.735804 0.000000 47.000000 14.757858 6.000000
-14.084589 -12.055914 -4.031004 0.000000 57.000000 14.543841 3.000000
-11.671183 -10.213278 -2.772271 0.000000 63.000000 15.030161 24.000000
-10.858064 -8.540628 -1.456042 0.000000 50.000000 14.489433 0.000000
-11.582450 -9.241483 -2.786112 0.000000 50.000000 15.095522 25.000000
-14.847135 -13.403263 -4.676876 0.000000 78.000000 14.586169 18.000000
-13.334263 -13.745552 -3.815378 0.000000 73.000000 14.833809 7.000000
-11.520029 -11.395940 -2.442228 0.000000 76.000000 14.862226 21.000000
-12.120782 -8.115174 -2.804587 0.000000 77.000000 14.779892 26.000000
-10.957657 -10.578112 -2.168549 0.000000 77.000000 14.991051 22.000000
-13.975236 -10.144942 -4.448972 0.000000 54.000000 14.941015 10.000000
-14.609740 -12.176479 -4.757679 0.000000 75.000000 14.795606 17.000000
-10.509693 -11.634738 -2.176241 0.000000 71.000000 15.271914 9.000000
-14.642594 -8.689188 -4.802996 0.000000 61.000000 14.811242 1.000000
-10.684051 -10.298430 -1.946841 0.000000 45.000000 14.983789 13.000000
-13.861026 -13.974370 -3.747887 0.000000 48.000000 14.457383 7.000000
-14.897858 -13.863018 -4.664724 0.000000 66.000000 14.545458 0.000000
-14.817830 -13.980581 -4.605429 0.000000 64.000000 14.547719 0.000000
-15.664260 -14.084838 -4.944195 0.000000 33.000000 14.296051 0.000000
-11.978592 -13.363934 -2.621003 0.000000 69.000000 14.722126 8.000000
-13.054677 -13.199874 -3.660370 0.000000 69.000000 14.882892 7.000000
-11.632891 -11.428372 -2.484498 0.000000 52.000000 14.826378 21.000000
-12.346395 -8.400979 -2.789398 0.000000 44.000000 14.629502 26.000000
-14.791263 -12.449216 -4.546719 0.000000 77.000000 14.517649 17.000000
-13.251497 -8.171065 -3.806446 0.000000 61.000000 14.877525 27.000000
-12.970399 -8.850816 -3.603055 0.000000 71.000000 14.889324 29.000000
-13.845972 -13.652167 -3.721986 0.000000 63.000000 14.446162 0.000000
-15.230452 -13.283027 -4.821853 0.000000 70.000000 14.465534 0.000000
-13.254401 -11.221846 -3.643642 0.000000 79.000000 14.747167 23.000000
-12.840433 -14.287799 -2.936283 0.000000 44.000000 14.442456 0.000000
-12.913535 -13.418581 -3.354375 0.000000 60.000000 14.727807 7.000000
-14.931214 -10.132071 -5.263061 0.000000 38.000000 14.997540 10.000000
-13.565087 -13.034421 -4.082795 0.000000 63.000000 14.903413 12.000000
-12.197500 -10.295098 -2.903180 0.000000 61.000000 14.810697 24.000000
-11.735646 -14.208300 -2.087673 0.000000 56.000000 14.449949 0.000000
-13.446933 -9.662706 -4.025204 0.000000 57.000000 14.930408 29.000000
-12.970659 -13.415137 -3.361188 0.000000 63.000000 14.698147 7.000000
-12.429914 -12.476047 -3.124148 0.000000 74.000000 14.842643 19.000000
-15.599753 -9.079133 -5.114247 0.000000 32.000000 14.469921 0.000000
-13.353564 -9.114056 -3.979112 0.000000 42.000000 14.951280 29.000000
-11.459220 -11.792275 -2.028678 0.000000 68.000000 14.572921 21.000000
-12.316649 -13.438684 -2.458269 0.000000 28.000000 14.386236 0.000000
-13.255201 -9.216295 -4.057868 0.000000 49.000000 15.073816 29.000000
-10.749224 -12.917737 -1.835067 0.000000 73.000000 14.855536 4.000000
-14.826810 -11.614634 -5.346172 0.000000 70.000000 15.127221 16.000000
-14.296519 -8.129291 -4.656627 0.000000 69.000000 14.907933 27.000000
-14.667844 -14.088803 -4.418696 0.000000 45.000000 14.492248 0.000000
-15.583689 -12.846986 -4.825042 0.000000 22.000000 14.251372 0.000000
-14.720319 -12.361398 -4.316515 0.000000 38.000000 14.379361 0.000000
-14.482422 -12.902904 -4.845512 0.000000 74.000000 14.943071 12.000000
-14.045691 -13.514148 -4.394259 0.000000 60.000000 14.854586 11.000000
-13.048759 -14.116833 -3.196159 0.000000 49.000000 14.519906 0.000000
-11.841155 -12.908871 -3.002588 0.000000 66.000000 15.107793 8.000000
-13.722947 -11.943576 -4.032224 0.000000 52.000000 14.766641 3.000000
-12.883815 -10.495925 -3.524624 0.000000 42.000000 14.880494 23.000000
-14.725037 -10.004956 -5.188031 0.000000 71.000000 15.064756 10.000000
-12.321119 -10.274230 -3.114861 0.000000 66.000000 14.902045 24.000000
-14.209120 -9.955655 -5.057399 0.000000 70.000000 15.278059 10.000000
-14.277702 -12.883607 -4.348393 0.000000 51.000000 14.676044 12.000000
-14.322373 -10.712031 -4.125823 0.000000 61.000000 14.472866 0.000000
-12.947273 -12.325360 -3.122179 0.000000 47.000000 14.523732 0.000000
-12.774156 -11.899522 -3.169583 0.000000 53.000000 14.667363 19.000000
-11.146174 -10.685694 -2.637095 0.000000 79.000000 15.245452 22.000000
-15.232775 -13.027091 -4.836559 0.000000 43.000000 14.475723 0.000000
-11.639801 -10.148040 -3.037672 0.000000 48.000000 15.259014 24.000000
-12.213290 -10.811868 -3.221467 0.000000 76.000000 15.052382 23.000000
-12.683216 -13.885762 -2.891803 0.000000 52.000000 14.503767 0.000000
-11.196261 -13.580454 -2.044298 0.000000 75.000000 14.746560 5.000000
-14.399654 -11.567815 -4.670033 0.000000 72.000000 14.855256 16.000000
-11.344543 -8.529830 -2.057086 0.000000 64.000000 14.665701 26.000000
-14.252479 -10.110496 -5.023658 0.000000 53.000000 15.224815 10.000000
-11.716037 -13.179127 -2.812774 0.000000 79.000000 15.034634 8.000000
-12.732484 -10.710055 -3.680278 0.000000 58.000000 15.096252 23.000000
-15.679842 -9.005725 -5.182718 0.000000 37.000000 14.474869 0.000000
-14.894087 -10.221374 -5.118551 0.000000 67.000000 14.906186 10.000000
-13.280466 -13.377164 -3.564557 0.000000 62.000000 14.668720 7.000000
-13.963336 -10.338081 -3.845303 0.000000 47.000000 14.471560 0.000000
-10.859181 -12.542245 -1.815217 0.000000 67.000000 14.772410 9.000000
-14.015922 -12.655364 -4.548556 0.000000 21.000000 14.994705 12.000000
-15.154904 -13.921350 -4.860656 0.000000 45.000000 14.542521 0.000000
-12.925139 -9.821436 -3.537273 0.000000 67.000000 14.865135 29.000000
-14.659760 -13.489246 -4.383079 0.000000 55.000000 14.469078 0.000000
-15.238257 -13.882008 -4.840881 0.000000 50.000000 14.475774 0.000000
-15.136262 -13.975097 -4.822401 0.000000 45.000000 14.523744 0.000000
-12.398712 -9.637415 -2.615895 0.000000 43.000000 14.460384 0.000000
-11.644469 -12.389794 -2.061785 0.000000 38.000000 14.485433 0.000000
-12.433679 -11.318293 -3.001770 0.000000 60.000000 14.743684 21.000000
-11.134974 -12.956964 -2.026265 0.000000 51.000000 14.769912 4.000000
-11.496239 -13.442014 -2.417716 0.000000 75.000000 14.857460 5.000000
-13.442607 -10.430325 -3.513167 0.000000 36.000000 14.528675 23.000000
-11.317835 -9.543105 -2.699519 0.000000 46.000000 15.189453 25.000000
-11.482848 -13.822193 -2.470615 0.000000 56.000000 14.907452 5.000000
-11.693421 -12.334845 -1.865759 0.000000 24.000000 14.300592 0.000000
-14.158442 -13.210075 -4.232792 0.000000 74.000000 14.657903 12.000000
-14.291765 -10.502864 -4.100064 0.000000 37.000000 14.471298 0.000000
-15.434432 -13.494601 -4.941887 0.000000 42.000000 14.435208 0.000000
-15.545187 -9.388301 -5.091256 0.000000 46.000000 14.485235 0.000000
-12.034393 -13.314369 -2.692179 0.000000 67.000000 14.744109 8.000000
-13.764270 -12.422096 -4.301560 0.000000 44.000000 14.954004 3.000000
-12.505233 -12.430975 -3.096316 0.000000 52.000000 14.774461 19.000000
-12.977168 -11.757094 -3.454445 0.000000 58.000000 14.767805 20.000000
-14.052464 -8.567324 -3.969008 0.000000 31.000000 14.514585 0.000000
-13.242777 -13.579826 -3.739792 0.000000 69.000000 14.830233 7.000000
-11.451080 -11.839312 -2.316320 0.000000 79.000000 14.805083 21.000000
-14.978695 -11.120446 -5.028693 0.000000 65.000000 14.783320 16.000000
-13.058866 -13.589171 -3.568941 0.000000 55.000000 14.808115 7.000000
-13.944398 -10.666924 -3.977148 0.000000 55.000000 14.587303 23.000000
-15.307431 -13.914823 -4.873250 0.000000 48.000000 14.458906 0.000000
-14.877450 -13.823266 -4.600614 0.000000 68.000000 14.507345 0.000000
-15.008329 -13.783459 -4.625236 0.000000 64.000000 14.446507 0.000000
-11.885580 -9.253404 -2.975295 0.000000 60.000000 15.058987 25.000000
-14.587534 -13.443091 -4.302864 0.000000 61.000000 14.450032 0.000000
-13.125944 -13.441684 -3.433455 0.000000 76.000000 14.659967 7.000000
-11.928414 -10.067098 -3.210218 0.000000 50.000000 15.218245 24.000000
-11.683532 -8.970262 -2.555148 0.000000 68.000000 14.851110 26.000000
-14.267776 -11.950502 -4.005441 0.000000 29.000000 14.411283 0.000000
-10.607685 -10.458805 -1.826171 0.000000 69.000000 14.935333 14.000000
-14.614361 -8.352101 -4.891765 0.000000 61.000000 14.898667 1.000000
-10.646743 -10.369138 -2.049139 0.000000 51.000000 15.087465 14.000000
-12.134581 -13.127533 -2.789245 0.000000 63.000000 14.759311 8.000000
-11.371792 -14.197176 -1.804670 0.000000 49.000000 14.449638 0.000000
-11.033246 -9.571003 -1.679521 0.000000 56.000000 14.558469 13.000000
-12.717324 -11.597642 -3.813557 0.000000 33.000000 15.210810 20.000000
-13.791069 -11.966365 -4.129291 0.000000 68.000000 14.801514 3.000000
-13.951398 -11.361950 -4.196858 0.000000 69.000000 14.756528 23.000000
-15.042026 -13.237522 -4.735722 0.000000 61.000000 14.513095 0.000000
-11.866989 -11.781304 -2.711459 0.000000 66.000000 14.862023 21.000000
-14.694305 -10.587713 -4.866286 0.000000 39.000000 14.829506 10.000000
-10.783900 -12.685164 -1.663443 0.000000 39.000000 14.698723 9.000000
-11.220715 -8.803544 -2.337378 0.000000 51.000000 14.963022 26.000000
-14.276798 -11.648184 -4.016880 0.000000 28.000000 14.414783 0.000000
-15.002643 -13.849843 -4.696982 0.000000 48.000000 14.506657 0.000000
-11.614659 -8.685194 -2.754191 0.000000 47.000000 15.050554 26.000000
-12.958619 -9.572219 -3.661463 0.000000 60.000000 14.942678 29.000000
-14.788697 -9.353355 -4.802685 0.000000 66.000000 14.721375 2.000000
-12.924537 -10.857299 -3.845040 0.000000 53.000000 15.108566 23.000000
-11.290645 -8.770984 -1.794816 0.000000 57.000000 14.491632 0.000000
-12.816528 -8.180274 -3.402136 0.000000 60.000000 14.825033 27.000000
-11.048519 -12.255445 -2.245499 0.000000 64.000000 14.996088 9.000000
-11.374984 -9.941472 -2.458517 0.000000 61.000000 14.964062 24.000000
-12.491503 -8.544618 -3.379255 0.000000 70.000000 15.006337 26.000000
-11.779074 -12.611487 -2.148453 0.000000 45.000000 14.471311 0.000000
-14.114356 -12.897576 -4.364775 0.000000 75.000000 14.789181 12.000000
-14.042541 -10.074927 -5.007251 0.000000 75.000000 15.340636 10.000000
-14.467026 -13.947022 -4.484339 0.000000 61.000000 14.667275 11.000000
-10.981216 -14.075910 -1.636105 0.000000 36.000000 14.556096 5.000000
-13.579115 -10.383317 -3.601688 0.000000 36.000000 14.514849 0.000000
-14.473292 -8.634072 -4.923564 0.000000 51.000000 15.010314 1.000000
-11.821032 -11.545588 -2.750905 0.000000 70.000000 14.921367 21.000000
-15.292580 -13.883227 -4.865486 0.000000 49.000000 14.461884 0.000000
-15.074747 -12.481661 -5.239511 0.000000 63.000000 14.890896 17.000000
-15.115779 -13.793161 -4.758669 0.000000 52.000000 14.485976 0.000000
-14.862981 -12.212456 -4.524618 0.000000 75.000000 14.456201 17.000000
-14.088793 -12.771197 -4.403387 0.000000 64.000000 14.835356 12.000000
-13.278830 -9.706058 -3.775982 0.000000 65.000000 14.836699 29.000000
-14.822675 -12.072792 -5.109593 0.000000 68.000000 14.942916 17.000000
-12.290292 -14.249247 -2.835410 0.000000 49.000000 14.700255 28.000000
-11.063491 -10.593727 -2.488006 0.000000 25.000000 15.178426 22.000000
-11.377170 -9.662867 -1.933023 0.000000 46.000000 14.547707 0.000000
-12.695484 -10.746245 -3.664294 0.000000 42.000000 15.106325 23.000000
-13.040976 -13.149347 -3.454350 0.000000 56.000000 14.728590 7.000000
-15.262665 -12.982292 -4.871222 0.000000 51.000000 14.484764 0.000000
-14.455812 -9.744738 -4.571337 0.000000 55.000000 14.742862 10.000000
-12.253142 -10.572555 -3.070976 0.000000 72.000000 14.909084 24.000000
-11.603103 -10.143952 -2.741547 0.000000 73.000000 15.047657 24.000000
-15.431922 -12.441132 -5.192980 0.000000 44.000000 14.635051 17.000000
-11.698981 -11.605975 -2.604381 0.000000 57.000000 14.880516 21.000000
-14.895699 -9.379359 -4.864379 0.000000 38.000000 14.704462 2.000000
-10.738607 -8.917555 -1.458818 0.000000 62.000000 14.564902 0.000000
-11.808963 -12.312103 -2.634239 0.000000 86.000000 14.836632 19.000000
-11.066635 -8.367533 -1.581599 0.000000 28.000000 14.460652 0.000000
-14.129326 -9.405806 -3.963721 0.000000 48.000000 14.463261 0.000000
-12.171645 -10.422139 -2.923228 0.000000 69.000000 14.842390 24.000000
-12.785212 -10.980552 -3.319556 0.000000 72.000000 14.779024 23.000000
-15.672091 -9.204213 -5.291762 0.000000 35.000000 14.565742 0.000000
-11.946823 -11.795235 -2.819155 0.000000 63.000000 14.898106 21.000000
-14.013531 -10.409399 -4.123313 0.000000 56.000000 14.660331 10.000000
-11.492843 -13.080668 -2.525024 0.000000 61.000000 14.944291 8.000000
-10.440521 -11.519073 -2.027191 0.000000 41.000000 15.196631 9.000000
-10.573655 -11.073192 -1.701031 0.000000 31.000000 14.857376 14.000000
-14.689373 -13.115771 -4.551627 0.000000 66.000000 14.584026 12.000000
-12.205905 -13.461014 -2.405306 0.000000 31.000000 14.412340 0.000000
-12.388067 -12.201156 -3.256080 0.000000 67.000000 14.972507 19.000000
-13.234977 -11.573659 -3.936190 0.000000 64.000000 14.990125 20.000000
-15.055101 -13.839367 -4.691511 0.000000 48.000000 14.470158 0.000000
-11.481945 -10.777922 -2.857545 0.000000 33.000000 15.213588 22.000000
-11.611283 -11.471807 -2.521478 0.000000 58.000000 14.868837 21.000000
-13.490476 -11.912521 -3.600213 0.000000 49.000000 14.568057 0.000000
-12.693589 -13.171743 -2.859323 0.000000 50.000000 14.471752 0.000000
-12.604678 -13.288939 -2.850315 0.000000 56.000000 14.519177 0.000000
-11.483974 -14.070703 -2.041255 0.000000 57.000000 14.567669 5.000000
-15.126914 -13.850111 -4.790401 0.000000 42.000000 14.504206 0.000000
-15.022410 -13.939877 -4.771468 0.000000 41.000000 14.553358 0.000000
-14.938387 -14.018547 -4.647169 0.000000 34.000000 14.506733 0.000000
-14.388930 -10.210375 -5.055413 0.000000 57.000000 15.166192 10.000000
-12.515678 -13.430547 -2.796769 0.000000 48.000000 14.531483 0.000000
-15.059266 -11.888417 -5.470022 0.000000 67.000000 15.082441 16.000000
-12.177679 -8.918286 -3.206151 0.000000 62.000000 15.062130 26.000000
-11.663380 -11.167316 -2.080282 0.000000 68.000000 14.488441 22.000000
-12.717563 -13.571451 -3.340625 0.000000 45.000000 14.837160 7.000000
-15.289328 -12.042414 -5.193847 0.000000 46.000000 14.723205 17.000000
-11.834982 -11.434715 -2.868906 0.000000 79.000000 15.006002 21.000000
-14.633311 -10.317718 -5.065485 0.000000 55.000000 15.024240 10.000000
-13.314202 -11.301002 -3.588555 0.000000 52.000000 14.666979 20.000000
-12.864894 -11.687872 -3.064706 0.000000 69.000000 14.528875 20.000000
-12.966615 -12.544853 -2.824657 0.000000 36.000000 14.276897 0.000000
-13.014843 -14.232110 -2.976179 0.000000 28.000000 14.366979 0.000000
-15.091755 -11.817260 -5.084886 0.000000 72.000000 14.758346 16.000000
-13.102813 -8.468650 -3.073986 0.000000 26.000000 14.390261 0.000000
-12.067128 -8.065501 -2.966131 0.000000 68.000000 14.940385 26.000000
-10.962917 -14.244413 -1.572783 0.000000 43.000000 14.517312 0.000000
-11.653995 -13.001554 -2.712774 0.000000 70.000000 14.993716 8.000000
-14.502156 -12.437541 -4.401361 0.000000 49.000000 14.580193 12.000000
-10.809243 -12.930156 -1.823981 0.000000 48.000000 14.809964 4.000000
-15.040951 -8.490390 -5.079214 0.000000 47.000000 14.785031 1.000000
-15.185206 -13.789581 -4.798148 0.000000 40.000000 14.474567 0.000000
-12.925655 -10.882068 -3.634505 0.000000 66.000000 14.941608 23.000000
-13.472262 -12.058245 -4.028704 0.000000 49.000000 14.917635 3.000000
-12.923508 -12.011425 -3.069952 0.000000 56.000000 14.497063 19.000000
-13.767971 -8.132807 -3.688897 0.000000 33.000000 14.467877 27.000000
-11.550994 -9.121094 -1.975135 0.000000 62.000000 14.474339 25.000000
-11.693712 -12.910370 -2.653535 0.000000 54.000000 14.922568 8.000000
-11.275022 -11.252436 -1.863399 0.000000 32.000000 14.555380 0.000000
-11.583043 -14.235511 -2.094661 0.000000 49.000000 14.549077 0.000000
-12.112579 -14.020922 -2.384006 0.000000 47.000000 14.452765 0.000000
-13.941422 -11.077098 -4.272396 0.000000 38.000000 14.822304 23.000000
-14.734877 -10.101979 -5.130307 0.000000 53.000000 15.013132 10.000000
-14.180420 -12.877436 -4.297566 0.000000 76.000000 14.695577 12.000000
-14.451631 -14.266281 -4.792221 0.000000 70.000000 14.919872 11.000000
