-43.359312 21.254214 24.609741 0.000000 54.000000 14.658982 18.000000
-43.266286 21.291905 24.858677 0.000000 42.000000 14.437550 18.000000
-43.815185 19.554538 25.762385 0.000000 36.000000 14.351495 0.000000
-43.117786 22.709733 24.694541 0.000000 30.000000 14.413665 0.000000
-44.212740 20.882761 26.203653 0.000000 30.000000 14.414349 0.000000
-45.992611 18.479062 27.928029 0.000000 72.000000 14.843196 22.000000
-44.110690 23.765455 26.082228 0.000000 33.000000 14.403001 0.000000
-46.055091 18.810866 27.977969 0.000000 48.000000 14.864467 22.000000
-44.159915 23.865603 26.129641 0.000000 33.000000 14.415024 0.000000
-43.443133 23.843686 25.172121 0.000000 31.000000 14.396745 0.000000
-44.192348 23.984684 26.208834 0.000000 32.000000 14.394799 0.000000
-43.565497 18.636055 24.236320 0.000000 49.000000 15.045098 16.000000
-44.236157 24.089805 26.276557 0.000000 34.000000 14.390516 0.000000
-45.849524 18.663856 28.261112 0.000000 51.000000 14.531842 22.000000
-44.298307 24.175997 26.322218 0.000000 37.000000 14.414031 0.000000
-43.587313 24.137099 25.370350 0.000000 28.000000 14.397120 0.000000
-43.536127 19.409996 24.897911 0.000000 56.000000 14.632986 26.000000
-45.655231 22.055014 27.639803 0.000000 51.000000 14.739229 6.000000
-42.849840 20.711357 24.524536 0.000000 26.000000 14.296521 0.000000
-45.500714 18.164808 26.913802 0.000000 70.000000 15.040271 24.000000
-46.261800 18.635128 28.861038 0.000000 36.000000 14.513487 15.000000
-45.954986 19.892939 28.274477 0.000000 52.000000 14.609381 12.000000
-45.390867 20.371530 27.249569 0.000000 55.000000 14.754253 7.000000
-46.580628 24.187833 28.046891 0.000000 18.000000 15.249492 1.000000
-43.490404 22.822583 24.305030 0.000000 64.000000 14.943971 17.000000
-44.984323 17.991026 26.690117 0.000000 43.000000 14.753492 24.000000
-43.778256 18.549228 24.823349 0.000000 59.000000 14.872782 25.000000
-44.235555 22.247791 26.353630 0.000000 26.000000 14.344789 0.000000
-45.484747 20.425801 28.107826 0.000000 30.000000 14.326489 0.000000
-43.567360 22.990222 24.969454 0.000000 47.000000 14.616279 17.000000
-44.743766 20.498022 27.061237 0.000000 40.000000 14.340899 0.000000
-45.419579 20.730591 28.112582 0.000000 40.000000 14.270937 0.000000
-44.715348 20.646931 27.053861 0.000000 33.000000 14.322220 0.000000
-44.682067 18.846542 25.994532 0.000000 47.000000 14.917068 20.000000
-44.736371 20.764995 26.973702 0.000000 35.000000 14.386292 0.000000
-43.644103 22.850690 24.815759 0.000000 64.000000 14.768625 17.000000
-45.688851 20.826929 28.332127 0.000000 31.000000 14.360076 0.000000
-44.885111 22.313313 27.266139 0.000000 28.000000 14.335062 0.000000
-45.496783 20.443963 27.355606 0.000000 62.000000 14.777763 7.000000
-44.579838 20.202339 26.750372 0.000000 30.000000 14.390649 0.000000
-45.217280 22.947185 27.118642 0.000000 53.000000 14.690565 3.000000
-43.842649 18.710366 25.638696 0.000000 33.000000 14.446332 20.000000
-44.573897 19.661214 25.975035 0.000000 62.000000 14.840937 9.000000
-45.284631 20.738634 27.916636 0.000000 26.000000 14.276696 0.000000
-43.211143 18.879112 23.914787 0.000000 58.000000 14.946939 16.000000
-43.494961 24.158092 24.709134 0.000000 52.000000 14.710464 2.000000
-43.477600 19.030428 24.122246 0.000000 17.000000 15.040893 16.000000
-45.332185 21.376227 27.808570 0.000000 37.000000 14.378627 0.000000
-45.070191 18.604576 26.927667 0.000000 56.000000 14.683577 21.000000
-44.653693 22.393628 26.891569 0.000000 31.000000 14.367564 0.000000
-46.542579 18.657807 29.041280 0.000000 51.000000 14.635012 15.000000
-43.861336 18.742840 24.933103 0.000000 55.000000 14.875622 25.000000
-45.399980 22.174047 27.417419 0.000000 33.000000 14.663108 6.000000
-45.607481 21.480514 28.067856 0.000000 45.000000 14.449317 6.000000
-44.166883 22.739525 25.704068 0.000000 49.000000 14.670464 5.000000
-43.469806 19.420647 24.752179 0.000000 61.000000 14.664832 26.000000
-44.218235 19.084792 25.625087 0.000000 52.000000 14.758398 20.000000
-45.400530 23.266313 28.023656 0.000000 35.000000 14.307711 0.000000
-45.431397 23.405385 28.011347 0.000000 33.000000 14.339927 0.000000
-44.722746 23.288719 26.930698 0.000000 27.000000 14.400503 0.000000
-45.420892 23.587325 28.080161 0.000000 28.000000 14.291030 0.000000
-44.180777 21.488760 26.213576 0.000000 29.000000 14.382647 0.000000
-45.469050 23.709450 28.049670 0.000000 38.000000 14.347916 0.000000
-43.744675 20.435190 25.271670 0.000000 39.000000 14.582444 13.000000
-45.495069 23.857502 28.067120 0.000000 33.000000 14.358739 0.000000
-43.013756 19.859436 24.017145 0.000000 53.000000 14.727052 14.000000
-45.519011 24.010549 28.092305 0.000000 34.000000 14.363340 0.000000
-44.785821 23.902803 27.045490 0.000000 36.000000 14.384190 0.000000
-45.543607 24.164593 28.122842 0.000000 37.000000 14.365329 0.000000
-46.042892 17.989792 27.700550 0.000000 72.000000 15.017427 24.000000
-42.824954 18.035198 24.353343 0.000000 37.000000 14.376858 0.000000
-42.905336 18.068384 24.424480 0.000000 39.000000 14.400181 0.000000
-44.756908 22.943745 26.914569 0.000000 47.000000 14.437628 3.000000
-45.263670 19.574605 27.607224 0.000000 49.000000 14.441341 8.000000
-44.257114 19.531452 26.075031 0.000000 62.000000 14.525772 9.000000
-42.739659 18.316044 24.187180 0.000000 36.000000 14.405334 0.000000
-43.379351 18.291526 25.107835 0.000000 35.000000 14.382840 0.000000
-45.470906 21.237514 28.056735 0.000000 32.000000 14.345272 0.000000
-43.455970 18.311707 25.204857 0.000000 39.000000 14.387923 0.000000
-43.541227 18.326905 25.292800 0.000000 45.000000 14.405328 0.000000
-45.849779 18.578023 27.485803 0.000000 56.000000 14.987131 22.000000
-43.071250 19.068064 23.956270 0.000000 48.000000 14.809331 16.000000
-45.360990 18.318974 27.012977 0.000000 50.000000 14.868936 24.000000
-43.819196 18.631189 25.161501 0.000000 43.000000 14.707443 25.000000
-43.973507 18.820307 25.723625 0.000000 57.000000 14.502425 20.000000
-43.193868 18.403130 24.833073 0.000000 32.000000 14.393948 0.000000
-45.028238 18.659188 26.362016 0.000000 45.000000 14.981630 20.000000
-43.353815 18.411511 25.052716 0.000000 29.000000 14.394519 0.000000
-46.033363 20.166476 28.390816 0.000000 54.000000 14.604548 11.000000
-43.566093 21.376504 24.508944 0.000000 54.000000 14.885558 18.000000
-44.934773 21.639502 27.250903 0.000000 42.000000 14.384212 0.000000
-43.784436 21.514911 25.642052 0.000000 34.000000 14.397232 0.000000
-42.775968 20.300601 24.210282 0.000000 35.000000 14.421171 0.000000
-46.276564 20.163785 28.827718 0.000000 71.000000 14.544998 11.000000
-42.949984 20.663239 24.688038 0.000000 29.000000 14.281628 0.000000
-42.992638 20.727382 24.788355 0.000000 31.000000 14.257278 0.000000
-46.502092 18.404122 28.761108 0.000000 71.000000 14.766686 23.000000
-43.158073 20.801766 24.905766 0.000000 28.000000 14.322300 0.000000
-43.242086 20.833962 24.967400 0.000000 28.000000 14.354140 0.000000
-43.329256 20.863162 25.028823 0.000000 31.000000 14.388660 0.000000
-43.398349 20.902346 25.115471 0.000000 30.000000 14.393739 0.000000
-46.330598 19.493973 28.484097 0.000000 42.000000 14.790439 12.000000
-43.836837 21.067496 25.666498 0.000000 43.000000 14.425308 0.000000
-45.430976 19.044800 26.614193 0.000000 69.000000 15.159671 21.000000
-43.905473 21.090686 25.770604 0.000000 47.000000 14.419769 0.000000
-43.302851 21.076273 24.949693 0.000000 27.000000 14.413729 0.000000
-43.973027 21.111879 25.882704 0.000000 42.000000 14.408662 0.000000
-44.514444 18.698810 25.634016 0.000000 43.000000 14.992971 20.000000
-44.036323 21.135069 26.002980 0.000000 39.000000 14.389309 0.000000
-43.460571 21.091687 25.155054 0.000000 29.000000 14.420881 0.000000
-43.373435 21.582634 24.375150 0.000000 34.000000 14.808113 18.000000
-46.413704 19.464493 28.718542 0.000000 65.000000 14.720111 12.000000
-44.484365 24.188378 26.593919 0.000000 36.000000 14.405186 0.000000
-43.565109 18.654845 24.042047 0.000000 63.000000 15.158816 16.000000
-43.132018 20.915675 24.608548 0.000000 47.000000 14.475662 10.000000
-44.646483 23.158500 25.836247 0.000000 20.000000 14.981168 5.000000
-46.128217 20.235322 28.820020 0.000000 32.000000 14.429413 11.000000
-43.938175 21.073956 25.809567 0.000000 43.000000 14.423375 0.000000
-46.438306 24.200763 28.434336 0.000000 29.000000 14.906849 1.000000
-45.767767 18.273679 27.384435 0.000000 58.000000 14.980233 24.000000
-43.797507 22.934727 24.653771 0.000000 21.000000 14.987905 17.000000
-44.088282 21.049373 26.043948 0.000000 38.000000 14.407329 0.000000
-44.721826 21.139936 27.005505 0.000000 38.000000 14.355848 0.000000
-44.162543 21.034582 26.166104 0.000000 36.000000 14.395750 0.000000
-44.796790 21.128148 27.128870 0.000000 36.000000 14.344129 0.000000
-44.246463 21.011801 26.275300 0.000000 37.000000 14.399597 0.000000
-46.516641 18.430680 28.727425 0.000000 70.000000 14.798236 23.000000
-45.993769 18.043031 27.280710 0.000000 49.000000 15.224090 24.000000
-45.238416 19.636080 27.094648 0.000000 52.000000 14.721761 8.000000
-43.449581 18.574457 24.484587 0.000000 46.000000 14.805526 16.000000
-45.047908 21.057803 27.451120 0.000000 47.000000 14.358286 0.000000
-44.483448 20.932445 26.619660 0.000000 33.000000 14.389334 0.000000
-46.724389 18.606405 28.820344 0.000000 61.000000 14.911890 15.000000
-45.920288 19.566682 28.183851 0.000000 84.000000 14.634483 12.000000
-46.686864 20.303751 28.831346 0.000000 56.000000 14.875051 11.000000
-43.671084 22.608852 25.091465 0.000000 41.000000 14.628639 27.000000
-45.283050 20.973449 27.806368 0.000000 41.000000 14.340140 0.000000
-43.386299 21.390282 24.388964 0.000000 42.000000 14.810420 18.000000
-46.942463 18.767456 28.855541 0.000000 50.000000 15.067785 15.000000
-43.478766 20.231071 24.759064 0.000000 41.000000 14.668045 30.000000
-45.431967 20.909878 28.061119 0.000000 41.000000 14.311174 0.000000
-45.374875 18.591764 27.292958 0.000000 43.000000 14.715837 22.000000
-45.508721 20.871092 28.181862 0.000000 40.000000 14.302442 0.000000
-44.927172 20.719709 27.360351 0.000000 31.000000 14.313815 0.000000
-45.625625 20.800336 28.229456 0.000000 40.000000 14.369153 0.000000
-45.682113 20.772540 28.391372 0.000000 32.000000 14.319846 0.000000
-43.684329 20.212554 24.898632 0.000000 45.000000 14.752549 13.000000
-43.355605 22.532442 24.817513 0.000000 41.000000 14.534025 17.000000
-43.093776 22.812071 24.273999 0.000000 62.000000 14.641071 28.000000
-43.487445 22.703191 24.675240 0.000000 49.000000 14.724274 17.000000
-43.706838 20.155532 25.568766 0.000000 39.000000 14.377425 0.000000
-45.653385 20.164629 28.314723 0.000000 28.000000 14.341578 0.000000
-45.731398 20.090838 28.419240 0.000000 30.000000 14.343390 0.000000
-45.549905 23.075282 26.913095 0.000000 46.000000 15.080511 3.000000
-43.662693 18.017309 25.475485 0.000000 47.000000 14.396438 0.000000
-42.928575 18.093013 24.440007 0.000000 37.000000 14.409881 0.000000
-43.598549 18.231170 25.365493 0.000000 41.000000 14.409068 0.000000
-42.881972 18.207942 24.400827 0.000000 38.000000 14.395148 0.000000
-43.563158 18.340107 25.323065 0.000000 45.000000 14.405319 0.000000
-42.845921 18.317875 24.353051 0.000000 33.000000 14.394004 0.000000
-43.519872 18.454041 25.290967 0.000000 41.000000 14.389115 0.000000
-43.265895 19.380643 25.076084 0.000000 31.000000 14.309622 0.000000
-43.236641 20.053638 24.899747 0.000000 39.000000 14.389442 0.000000
-43.753434 21.367617 24.944759 0.000000 62.000000 14.781422 18.000000
-43.133774 20.691704 24.974925 0.000000 28.000000 14.262032 0.000000
-43.177753 20.785734 24.929645 0.000000 27.000000 14.324216 0.000000
-45.313162 18.884565 27.037385 0.000000 46.000000 14.815887 21.000000
-43.272681 18.580458 24.121228 0.000000 56.000000 14.875586 16.000000
-46.826094 18.241609 28.798018 0.000000 62.000000 15.007336 23.000000
-43.275161 21.206879 24.889117 0.000000 48.000000 14.426867 0.000000
-43.601822 22.878642 24.740671 0.000000 44.000000 14.778469 17.000000
-43.716078 22.250455 25.295419 0.000000 52.000000 14.545352 27.000000
-42.761329 22.352250 24.247758 0.000000 26.000000 14.387321 0.000000
-42.820703 22.434338 24.269620 0.000000 28.000000 14.422559 0.000000
-42.835171 22.550423 24.347888 0.000000 24.000000 14.388332 0.000000
-46.344374 18.367821 28.413445 0.000000 53.000000 14.843063 23.000000
-42.877876 22.645514 24.401545 0.000000 23.000000 14.391411 0.000000
-43.615866 22.722813 25.422498 0.000000 41.000000 14.389628 0.000000
-42.928425 22.730608 24.449007 0.000000 26.000000 14.404477 0.000000
-44.728358 18.681657 26.222950 0.000000 64.000000 14.820472 20.000000
-46.334147 18.451554 28.540440 0.000000 40.000000 14.760241 23.000000
-46.578390 20.147625 29.129573 0.000000 44.000000 14.612180 11.000000
-45.060287 20.185690 27.206675 0.000000 41.000000 14.511789 7.000000
-43.303144 23.521619 25.211748 0.000000 24.000000 14.260149 0.000000
-46.341856 18.068097 28.012424 0.000000 71.000000 15.076411 23.000000
-44.726834 19.784277 26.258805 0.000000 46.000000 14.798192 9.000000
-43.602860 22.737108 24.645527 0.000000 50.000000 14.835155 17.000000
-45.857702 18.004295 27.212957 0.000000 73.000000 15.153697 24.000000
-45.921468 18.775475 27.458396 0.000000 62.000000 15.061258 22.000000
-42.758238 18.240407 24.218501 0.000000 27.000000 14.401992 0.000000
-46.686743 18.251475 28.707066 0.000000 55.000000 14.947902 23.000000
-44.588260 22.941777 26.186821 0.000000 59.000000 14.728254 5.000000
-43.520124 19.792038 24.708795 0.000000 43.000000 14.731035 26.000000
-43.547927 21.521768 24.488619 0.000000 42.000000 14.882781 18.000000
-44.500022 23.913738 26.677458 0.000000 35.000000 14.368827 0.000000
-44.406057 22.902834 25.780027 0.000000 31.000000 14.819516 5.000000
-44.581502 23.947879 26.756874 0.000000 35.000000 14.388180 0.000000
-43.020880 22.945498 24.036566 0.000000 55.000000 14.721420 28.000000
-44.654770 23.988027 26.851699 0.000000 36.000000 14.391839 0.000000
-45.436912 20.244983 27.308682 0.000000 64.000000 14.756834 7.000000
-42.705097 20.451360 24.182435 0.000000 31.000000 14.380138 0.000000
-46.377425 19.542189 28.429147 0.000000 75.000000 14.860605 12.000000
-44.825179 24.037326 27.017676 0.000000 39.000000 14.432380 0.000000
-46.069187 18.428501 27.959623 0.000000 54.000000 14.886648 23.000000
-43.111102 20.973295 24.216846 0.000000 47.000000 14.688646 10.000000
-43.527536 19.458167 24.729685 0.000000 74.000000 14.724774 26.000000
-43.571649 21.453223 25.319285 0.000000 41.000000 14.414412 0.000000
-44.297781 23.990513 26.379179 0.000000 39.000000 14.380171 0.000000
-45.016708 24.155805 27.389861 0.000000 35.000000 14.368983 0.000000
-45.324846 20.144296 27.464268 0.000000 52.000000 14.574780 7.000000
-45.095642 24.175967 27.498597 0.000000 34.000000 14.369064 0.000000
-44.455150 24.015836 26.598609 0.000000 42.000000 14.378780 0.000000
-46.195112 18.644171 27.619431 0.000000 43.000000 15.188280 22.000000
-44.533326 24.023002 26.710259 0.000000 35.000000 14.376537 0.000000
-43.159860 20.939744 24.835057 0.000000 32.000000 14.365250 0.000000
-44.613496 24.023164 26.818302 0.000000 30.000000 14.378026 0.000000
-43.779732 20.816541 25.672688 0.000000 35.000000 14.375442 0.000000
-44.697798 24.018328 26.926405 0.000000 36.000000 14.382824 0.000000
-45.411963 24.217626 27.947179 0.000000 38.000000 14.361857 0.000000
-43.965351 20.649336 26.081555 0.000000 28.000000 14.285728 0.000000
-45.514448 21.404960 28.026995 0.000000 46.000000 14.397981 0.000000
-44.839500 22.998954 26.852662 0.000000 49.000000 14.540833 3.000000
-43.283732 18.519452 24.112308 0.000000 71.000000 14.889769 16.000000
-43.560052 20.342458 25.010864 0.000000 35.000000 14.586056 13.000000
-45.661546 24.202131 28.284041 0.000000 43.000000 14.366195 0.000000
-45.018601 23.979999 27.389652 0.000000 37.000000 14.370638 0.000000
-45.739382 24.194301 28.404914 0.000000 43.000000 14.358263 0.000000
-44.299883 19.549460 26.333393 0.000000 33.000000 14.408748 0.000000
-45.831345 24.166467 28.503661 0.000000 44.000000 14.374756 0.000000
-42.907630 22.833357 24.062527 0.000000 41.000000 14.614493 28.000000
-45.261842 21.501224 27.525792 0.000000 44.000000 14.487659 6.000000
-44.716433 18.869545 25.907049 0.000000 66.000000 14.996241 20.000000
-43.464820 18.625048 24.274386 0.000000 43.000000 14.941245 16.000000
-45.338898 23.878676 27.858992 0.000000 30.000000 14.354466 0.000000
-46.069092 24.107989 28.877756 0.000000 37.000000 14.347656 0.000000
-45.412467 23.851851 27.992192 0.000000 29.000000 14.335844 0.000000
-46.146837 24.082167 29.006888 0.000000 35.000000 14.334803 0.000000
-44.775817 18.302894 26.739320 0.000000 29.000000 14.555803 24.000000
-42.965901 20.278311 24.439850 0.000000 51.000000 14.440193 30.000000
-45.605918 23.736180 28.169486 0.000000 32.000000 14.388398 0.000000
-46.315032 24.005513 29.240582 0.000000 37.000000 14.333804 0.000000
-45.681029 23.695351 28.296895 0.000000 42.000000 14.374424 0.000000
-46.115722 19.931312 28.335026 0.000000 28.000000 14.703974 12.000000
-45.800461 23.635711 28.605634 0.000000 30.000000 14.289897 0.000000
-45.867989 23.589883 28.738286 0.000000 31.000000 14.266706 0.000000
-44.034816 21.191523 25.988990 0.000000 34.000000 14.396301 0.000000
-43.970369 21.364357 25.890492 0.000000 34.000000 14.401939 0.000000
-44.576164 19.625795 26.366570 0.000000 50.000000 14.612954 9.000000
-46.176674 23.333549 29.197386 0.000000 33.000000 14.247143 0.000000
-46.710345 19.624811 28.691011 0.000000 65.000000 14.976434 12.000000
-43.321164 20.868428 24.359206 0.000000 50.000000 14.775153 10.000000
-45.839029 18.428101 27.552810 0.000000 68.000000 14.939096 22.000000
-45.529097 19.090820 26.792599 0.000000 13.000000 15.134392 21.000000
-44.924967 20.136756 27.273420 0.000000 33.000000 14.363056 0.000000
-43.010590 22.783398 24.501445 0.000000 37.000000 14.440219 17.000000
-46.202501 19.401043 28.586448 0.000000 53.000000 14.626654 12.000000
-46.309220 18.073296 28.037278 0.000000 71.000000 15.035400 23.000000
-44.093897 20.518391 26.249377 0.000000 30.000000 14.291294 0.000000
-45.493387 21.277020 27.695063 0.000000 56.000000 14.575763 6.000000
-45.232180 20.337712 27.116938 0.000000 62.000000 14.703629 7.000000
-44.781454 20.841676 27.213408 0.000000 31.000000 14.282091 0.000000
-45.973801 19.790939 28.083438 0.000000 63.000000 14.736747 12.000000
-45.704099 18.880085 27.365491 0.000000 69.000000 14.939806 22.000000
-45.248047 19.876714 27.507013 0.000000 41.000000 14.487513 8.000000
-44.798804 21.086558 27.104036 0.000000 40.000000 14.360336 0.000000
-44.165247 23.115026 25.604530 0.000000 32.000000 14.727565 5.000000
-43.470679 22.756108 24.588307 0.000000 64.000000 14.761727 17.000000
-44.079055 21.168183 26.057810 0.000000 39.000000 14.391722 0.000000
-43.226183 19.702585 23.901894 0.000000 46.000000 14.966683 14.000000
-44.064861 21.310173 26.048782 0.000000 36.000000 14.385529 0.000000
-44.779392 21.495500 27.047936 0.000000 43.000000 14.377549 0.000000
-44.058256 21.449159 26.034526 0.000000 35.000000 14.388550 0.000000
-46.004854 20.271832 28.372382 0.000000 48.000000 14.592287 11.000000
-44.051354 21.588150 26.025361 0.000000 39.000000 14.388342 0.000000
-44.764973 21.779495 27.039765 0.000000 43.000000 14.370671 0.000000
-44.042666 21.731151 26.022957 0.000000 30.000000 14.382719 0.000000
-44.904353 23.841351 27.190261 0.000000 29.000000 14.395178 0.000000
-44.621056 19.821340 26.521957 0.000000 32.000000 14.558091 9.000000
-44.182273 23.998137 26.192076 0.000000 28.000000 14.396478 0.000000
-43.752769 21.954244 25.847456 0.000000 17.000000 14.251029 0.000000
-43.812604 19.581354 25.701811 0.000000 37.000000 14.384961 0.000000
-43.988586 22.194227 26.086926 0.000000 25.000000 14.301387 0.000000
-44.754677 22.353524 27.055178 0.000000 33.000000 14.353289 0.000000
-46.437250 18.654326 28.634154 0.000000 54.000000 14.788707 15.000000
-44.609655 23.126325 25.719553 0.000000 36.000000 15.019847 5.000000
-44.049833 22.435168 26.019076 0.000000 35.000000 14.390799 0.000000
-46.365783 18.409111 27.922408 0.000000 63.000000 15.148619 23.000000
-46.010548 19.068692 27.746894 0.000000 41.000000 14.964039 22.000000
-43.480151 23.240238 24.789172 0.000000 46.000000 14.651494 17.000000
-46.732722 19.513498 28.973961 0.000000 49.000000 14.828468 12.000000
-44.874424 23.632753 27.197199 0.000000 30.000000 14.366875 0.000000
-44.454593 18.571868 26.196661 0.000000 37.000000 14.614260 20.000000
-44.191983 23.689416 26.174245 0.000000 37.000000 14.414806 0.000000
-44.937558 23.898818 27.236307 0.000000 41.000000 14.395034 0.000000
-45.309768 19.675169 27.535199 0.000000 44.000000 14.520938 8.000000
-43.304062 22.915617 23.928410 0.000000 6.000000 15.014171 28.000000
-44.225053 23.984546 26.272635 0.000000 27.000000 14.383828 0.000000
-44.990720 24.180933 27.317232 0.000000 36.000000 14.390574 0.000000
-44.964455 19.022716 26.791080 0.000000 35.000000 14.678144 21.000000
-45.690013 22.367978 27.724366 0.000000 48.000000 14.717753 6.000000
-46.047380 20.474726 28.401046 0.000000 34.000000 14.609891 11.000000
-46.341083 18.000313 27.992563 0.000000 59.000000 15.087443 23.000000
-45.674200 18.455045 27.172496 0.000000 65.000000 15.028882 22.000000
-45.883789 21.071192 28.544755 0.000000 37.000000 14.393094 0.000000
-45.863589 21.234210 28.558872 0.000000 39.000000 14.368454 0.000000
-45.164565 19.292130 27.135384 0.000000 32.000000 14.638060 21.000000
-44.077011 19.633291 25.881017 0.000000 57.000000 14.493839 9.000000
-43.335078 18.559555 24.105845 0.000000 51.000000 14.935133 16.000000
-42.891573 21.029184 24.143379 0.000000 36.000000 14.554036 10.000000
-45.874442 22.489084 28.538244 0.000000 42.000000 14.389348 0.000000
-45.874970 22.657113 28.563988 0.000000 42.000000 14.374665 0.000000
-45.888850 22.815101 28.566364 0.000000 40.000000 14.384507 0.000000
-45.888271 22.991148 28.604209 0.000000 30.000000 14.361825 0.000000
-45.885156 23.168212 28.651729 0.000000 43.000000 14.331411 0.000000
-45.928057 23.303133 28.618340 0.000000 30.000000 14.385742 0.000000
-46.173906 20.261183 28.453532 0.000000 54.000000 14.681521 11.000000
-43.483192 18.878708 24.303459 0.000000 45.000000 14.939054 16.000000
-43.757578 21.948145 25.822597 0.000000 20.000000 14.269513 0.000000
-45.998045 23.976256 28.746336 0.000000 30.000000 14.367275 0.000000
-46.024225 24.140280 28.776739 0.000000 32.000000 14.370625 0.000000
-44.516581 18.285155 26.244117 0.000000 56.000000 14.636591 19.000000
-45.383795 19.789413 27.866129 0.000000 38.000000 14.386626 0.000000
-42.801682 19.390217 24.476547 0.000000 27.000000 14.285700 0.000000
-42.875182 19.434238 24.539263 0.000000 30.000000 14.308394 0.000000
-42.978854 19.462178 24.573767 0.000000 35.000000 14.372075 0.000000
-43.674748 18.631611 25.434959 0.000000 30.000000 14.429985 25.000000
-45.269212 20.440969 27.119152 0.000000 45.000000 14.732311 7.000000
-46.400250 19.786951 28.470492 0.000000 56.000000 14.854816 12.000000
-43.213346 18.350793 24.302712 0.000000 49.000000 14.721023 16.000000
-46.261729 18.364337 27.862015 0.000000 53.000000 15.099825 23.000000
-43.086288 19.828208 24.634597 0.000000 26.000000 14.423349 0.000000
-43.724928 19.839039 25.586588 0.000000 45.000000 14.381610 0.000000
-43.798139 19.860130 25.689616 0.000000 40.000000 14.380408 0.000000
-43.870836 19.877225 25.794571 0.000000 42.000000 14.377659 0.000000
-45.024130 18.246221 26.756745 0.000000 69.000000 14.746611 24.000000
-43.457969 19.890703 25.179156 0.000000 32.000000 14.404627 0.000000
-43.342001 18.674441 24.051220 0.000000 32.000000 14.972801 16.000000
-44.196057 19.904521 26.189418 0.000000 37.000000 14.409198 0.000000
-43.822984 22.108274 25.129259 0.000000 50.000000 14.729434 27.000000
-44.465796 21.624246 26.586537 0.000000 28.000000 14.394485 0.000000
-43.759090 19.895134 25.638028 0.000000 37.000000 14.379074 0.000000
-45.908893 18.836301 27.431595 0.000000 55.000000 15.066808 22.000000
-44.535906 19.556708 26.462613 0.000000 56.000000 14.523986 9.000000
-44.651597 19.894150 26.866895 0.000000 33.000000 14.380350 0.000000
-44.720846 19.888284 26.992721 0.000000 40.000000 14.362559 0.000000
-44.797680 19.875401 27.113313 0.000000 43.000000 14.353981 0.000000
-42.861384 22.388765 24.362529 0.000000 33.000000 14.400960 0.000000
-46.376386 19.748339 28.153182 0.000000 54.000000 15.021747 12.000000
-45.293598 19.723978 27.786206 0.000000 37.000000 14.360514 0.000000
-45.664157 18.740961 27.183891 0.000000 58.000000 15.014062 22.000000
-45.396901 19.676990 27.861098 0.000000 45.000000 14.400190 0.000000
-44.978377 18.102652 26.749758 0.000000 56.000000 14.713670 24.000000
-45.531611 19.620308 28.138711 0.000000 38.000000 14.346302 0.000000
-43.379855 22.780139 24.473429 0.000000 69.000000 14.755624 17.000000
-45.696481 19.535513 28.368483 0.000000 44.000000 14.344914 0.000000
-45.120233 19.425877 27.579942 0.000000 42.000000 14.341227 0.000000
-45.177730 19.388067 27.730646 0.000000 29.000000 14.299318 0.000000
-45.217866 19.358331 27.911929 0.000000 29.000000 14.225405 0.000000
-44.603869 23.235799 26.188791 0.000000 45.000000 14.739735 5.000000
-46.049927 19.313257 29.040190 0.000000 42.000000 14.236796 0.000000
-46.096873 18.646906 28.832769 0.000000 41.000000 14.396554 0.000000
-42.973100 18.181463 24.507818 0.000000 44.000000 14.406127 0.000000
-46.246556 19.413743 28.423644 0.000000 56.000000 14.757882 12.000000
-42.779510 19.384641 24.320953 0.000000 29.000000 14.359078 0.000000
-42.860980 20.441758 24.371883 0.000000 38.000000 14.395142 0.000000
-45.470259 21.874244 27.702884 0.000000 48.000000 14.552448 6.000000
-46.697429 20.342844 28.792038 0.000000 66.000000 14.906678 11.000000
-44.557806 18.263469 25.914494 0.000000 67.000000 14.863445 19.000000
-44.314929 18.729033 25.820100 0.000000 74.000000 14.722216 20.000000
-44.048514 22.828124 25.708584 0.000000 48.000000 14.571981 5.000000
-44.235902 18.303421 25.621338 0.000000 55.000000 14.774902 19.000000
-43.513198 19.396127 24.968248 0.000000 44.000000 14.573137 26.000000
-42.750278 22.140338 24.383671 0.000000 22.000000 14.298598 0.000000
-43.677258 21.493836 24.693641 0.000000 30.000000 14.867147 18.000000
-45.909650 19.393996 28.345026 0.000000 69.000000 14.531266 12.000000
-42.961945 22.301397 24.589400 0.000000 25.000000 14.349209 0.000000
-43.386260 18.640958 24.039845 0.000000 68.000000 15.015310 16.000000
-45.286174 19.669214 27.663249 0.000000 42.000000 14.426675 8.000000
-43.763261 22.387049 25.637564 0.000000 34.000000 14.382723 0.000000
-43.108755 22.393452 24.738802 0.000000 25.000000 14.380374 0.000000
-43.829668 22.440103 25.719190 0.000000 37.000000 14.388575 0.000000
-45.819636 21.573048 27.745687 0.000000 56.000000 14.810183 6.000000
-43.899976 22.486145 25.797724 0.000000 40.000000 14.399400 0.000000
-45.465114 20.199305 27.384366 0.000000 47.000000 14.735243 7.000000
-43.374655 22.961600 24.270480 0.000000 47.000000 14.870539 17.000000
-44.092835 22.626405 26.078200 0.000000 41.000000 14.390910 0.000000
-43.362239 18.947465 24.109321 0.000000 52.000000 14.955082 16.000000
-43.593621 24.195786 24.800873 0.000000 33.000000 14.736492 2.000000
-45.670341 19.046548 27.301711 0.000000 64.000000 14.949912 22.000000
-44.299750 22.737660 26.371790 0.000000 35.000000 14.386102 0.000000
-43.675876 22.682036 25.493736 0.000000 34.000000 14.396398 0.000000
-46.258937 19.428358 28.705340 0.000000 54.000000 14.602559 12.000000
-43.747406 22.707122 25.602671 0.000000 31.000000 14.390368 0.000000
-44.459292 22.780715 26.554731 0.000000 40.000000 14.407889 0.000000
-43.835934 22.714124 25.690287 0.000000 33.000000 14.410613 0.000000
-44.526900 22.808815 26.666745 0.000000 38.000000 14.396876 0.000000
-44.600149 22.828894 26.773043 0.000000 48.000000 14.393785 0.000000
-44.685465 22.835911 26.864987 0.000000 47.000000 14.408890 0.000000
-44.134941 22.759452 26.131637 0.000000 38.000000 14.393634 0.000000
-43.283163 21.320767 24.394276 0.000000 39.000000 14.723802 18.000000
-44.094940 19.821303 25.762965 0.000000 37.000000 14.577648 9.000000
-44.291879 22.759608 26.355389 0.000000 32.000000 14.389357 0.000000
-44.480020 19.693649 26.007475 0.000000 57.000000 14.745892 9.000000
-44.374018 22.750668 26.463092 0.000000 34.000000 14.392639 0.000000
-45.065921 22.872329 27.428355 0.000000 43.000000 14.386232 0.000000
-44.463281 22.732696 26.563393 0.000000 33.000000 14.406034 0.000000
-45.141337 22.872434 27.549762 0.000000 48.000000 14.376027 0.000000
-44.372545 18.912807 25.712642 0.000000 54.000000 14.831937 20.000000
-46.145141 18.552967 27.895938 0.000000 71.000000 14.985522 22.000000
-44.170744 24.174793 24.755078 0.000000 16.000000 15.230617 2.000000
-45.828341 21.919567 27.942112 0.000000 54.000000 14.701935 6.000000
-44.695877 22.692976 26.919073 0.000000 32.000000 14.385573 0.000000
-46.411281 18.081906 28.251219 0.000000 44.000000 14.992453 23.000000
-44.785624 22.660999 27.017476 0.000000 42.000000 14.400474 0.000000
-43.938550 18.880647 25.410623 0.000000 62.000000 14.657846 20.000000
-44.864149 22.638097 27.138740 0.000000 35.000000 14.392870 0.000000
-45.546729 22.792804 28.115934 0.000000 47.000000 14.371911 0.000000
-44.948427 22.605151 27.246041 0.000000 40.000000 14.398120 0.000000
-46.627132 19.533385 28.479692 0.000000 56.000000 15.033102 12.000000
-46.455322 19.618278 28.187514 0.000000 74.000000 15.065502 12.000000
-45.709479 22.738964 28.348627 0.000000 50.000000 14.367092 0.000000
-43.510921 21.401577 25.250936 0.000000 39.000000 14.405365 0.000000
-45.870768 22.669121 28.578912 0.000000 43.000000 14.362503 0.000000
-45.960222 22.622145 28.678310 0.000000 41.000000 14.376582 0.000000
-46.052361 22.569159 28.775338 0.000000 52.000000 14.394227 0.000000
-46.133394 22.521228 28.887004 0.000000 48.000000 14.394287 0.000000
-44.716110 18.957903 26.146952 0.000000 47.000000 14.855164 20.000000
-45.629318 22.226075 28.336270 0.000000 27.000000 14.309446 0.000000
-44.869565 18.545259 26.337976 0.000000 53.000000 14.867278 20.000000
-43.806216 18.673859 24.996241 0.000000 61.000000 14.793936 25.000000
-45.878280 22.019204 28.640896 0.000000 31.000000 14.332202 0.000000
-43.963558 21.055755 25.855183 0.000000 42.000000 14.417150 0.000000
-44.478723 22.874383 25.995543 0.000000 42.000000 14.751846 5.000000
-42.878866 21.073021 24.236254 0.000000 49.000000 14.489233 10.000000
-43.308002 18.619278 24.057573 0.000000 50.000000 14.941546 16.000000
-46.344465 20.177926 28.883058 0.000000 70.000000 14.567489 11.000000
-43.483667 19.596917 24.853577 0.000000 59.000000 14.616537 26.000000
-44.697144 18.391957 26.845781 0.000000 36.000000 14.429619 0.000000
-43.909777 18.577180 25.769660 0.000000 31.000000 14.423808 0.000000
-43.865629 18.695183 25.726525 0.000000 40.000000 14.413384 0.000000
-43.718754 19.175104 25.547363 0.000000 35.000000 14.399635 0.000000
-46.270045 18.313558 28.168447 0.000000 64.000000 14.926691 23.000000
-44.348492 19.465917 26.480788 0.000000 37.000000 14.361586 0.000000
-43.595373 19.452410 25.542687 0.000000 30.000000 14.302489 0.000000
-43.604703 19.557172 25.457933 0.000000 30.000000 14.359791 0.000000
-46.447734 22.166623 29.021665 0.000000 56.000000 14.569738 4.000000
-44.892351 19.122353 26.791226 0.000000 48.000000 14.619682 21.000000
-43.731537 22.924882 24.553593 0.000000 47.000000 14.993296 17.000000
-44.246329 20.067687 26.286262 0.000000 30.000000 14.393055 0.000000
-43.090809 18.466276 24.146704 0.000000 52.000000 14.713387 16.000000
-46.981642 22.048756 28.850837 0.000000 2.000000 15.102266 4.000000
-43.695376 21.411100 24.547035 0.000000 54.000000 14.967869 18.000000
-46.120125 18.645238 28.809235 0.000000 37.000000 14.429192 15.000000
-45.351720 19.859354 27.589441 0.000000 41.000000 14.523065 8.000000
-43.234150 18.821860 23.811165 0.000000 48.000000 15.026389 16.000000
-46.015622 18.302272 27.857273 0.000000 73.000000 14.903358 24.000000
-43.194433 18.734329 23.825028 0.000000 45.000000 14.986096 16.000000
-44.388905 22.287800 26.572917 0.000000 26.000000 14.340228 0.000000
-44.128695 21.223588 26.123209 0.000000 38.000000 14.393524 0.000000
-43.535020 18.829136 24.226800 0.000000 54.000000 15.026011 16.000000
-44.117352 21.360632 26.128062 0.000000 42.000000 14.381492 0.000000
-45.128678 20.204548 27.151187 0.000000 44.000000 14.599729 7.000000
-45.128242 19.476426 27.422581 0.000000 43.000000 14.440077 8.000000
-44.121955 21.749604 26.117776 0.000000 35.000000 14.391256 0.000000
-44.582135 19.721450 26.457772 0.000000 38.000000 14.564255 9.000000
-44.617584 18.850075 25.944026 0.000000 50.000000 14.894508 20.000000
-42.731176 20.390042 24.201275 0.000000 46.000000 14.390193 0.000000
-44.115566 22.292810 26.188957 0.000000 31.000000 14.344302 0.000000
-44.158492 22.397633 26.160758 0.000000 38.000000 14.395608 0.000000
-42.836602 20.241087 24.318334 0.000000 33.000000 14.406837 0.000000
-44.188463 22.655657 26.197968 0.000000 41.000000 14.398031 0.000000
-44.154861 18.999857 25.570305 0.000000 65.000000 14.739245 20.000000
-43.491469 22.770911 25.213338 0.000000 32.000000 14.411685 0.000000
-44.244353 22.892575 26.219389 0.000000 46.000000 14.430707 0.000000
-45.653246 21.986837 27.605640 0.000000 49.000000 14.757675 6.000000
-45.251367 18.226250 26.739542 0.000000 71.000000 14.940682 24.000000
-43.490032 23.199365 25.385520 0.000000 20.000000 14.309456 0.000000
-45.719925 18.887442 27.440451 0.000000 78.000000 14.908620 22.000000
-46.596854 20.141565 29.012970 0.000000 72.000000 14.695571 11.000000
-46.292197 19.445085 28.534413 0.000000 54.000000 14.729815 12.000000
-44.302956 23.580142 26.494729 0.000000 28.000000 14.316537 0.000000
-44.858370 18.558074 26.322058 0.000000 40.000000 14.867558 20.000000
-44.214914 18.949441 25.582953 0.000000 52.000000 14.780441 20.000000
-43.652334 23.646254 25.498794 0.000000 27.000000 14.374369 0.000000
-44.407259 23.783975 26.532234 0.000000 30.000000 14.378967 0.000000
-43.029046 19.947658 24.528020 0.000000 47.000000 14.439563 14.000000
-44.447922 23.895985 26.574796 0.000000 32.000000 14.386906 0.000000
-45.148439 18.397378 26.969507 0.000000 61.000000 14.722368 24.000000
-44.493927 24.004975 26.616737 0.000000 46.000000 14.399534 0.000000
-46.556542 18.258778 29.051997 0.000000 44.000000 14.640026 23.000000
-44.535366 24.119016 26.671910 0.000000 37.000000 14.400698 0.000000
-43.820696 24.081329 25.690285 0.000000 29.000000 14.398278 0.000000
-44.912337 18.649402 26.218211 0.000000 47.000000 14.972205 20.000000
-46.082865 19.368573 29.089953 0.000000 37.000000 14.234254 0.000000
-45.324611 19.439788 28.024047 0.000000 29.000000 14.246017 0.000000
-45.322897 19.217481 27.021564 0.000000 62.000000 14.833055 21.000000
-43.107578 20.858932 24.448713 0.000000 53.000000 14.549694 10.000000
-45.285830 19.944251 27.762610 0.000000 40.000000 14.368075 0.000000
-45.856997 20.761500 28.739437 0.000000 37.000000 14.257131 0.000000
-45.875450 20.880217 28.651835 0.000000 38.000000 14.323490 0.000000
-45.740703 18.529456 27.478262 0.000000 67.000000 14.903248 22.000000
-45.878574 21.012090 28.602537 0.000000 39.000000 14.354956 0.000000
-45.124760 20.960494 27.615851 0.000000 36.000000 14.323814 0.000000
-45.743303 18.206687 27.126590 0.000000 56.000000 15.111773 24.000000
-45.142911 21.082271 27.548851 0.000000 44.000000 14.377836 0.000000
-45.846392 21.312183 28.582573 0.000000 43.000000 14.340619 0.000000
-43.680614 22.418518 24.787272 0.000000 44.000000 14.814906 27.000000
-46.659873 22.101151 28.920304 0.000000 52.000000 14.800984 4.000000
-44.288373 23.279513 25.923563 0.000000 40.000000 14.639986 5.000000
-43.087128 22.850533 24.067694 0.000000 51.000000 14.756784 28.000000
-45.125745 21.660180 27.463626 0.000000 43.000000 14.413963 0.000000
-44.069901 24.071187 25.839191 0.000000 45.000000 14.512633 29.000000
-45.102213 21.824334 27.483693 0.000000 34.000000 14.383132 0.000000
-45.828055 22.055176 28.515070 0.000000 36.000000 14.365396 0.000000
-45.078829 21.991511 27.511026 0.000000 32.000000 14.348157 0.000000
-43.328312 19.384151 25.181029 0.000000 27.000000 14.298556 0.000000
-43.903644 18.645850 25.029962 0.000000 43.000000 14.853022 25.000000
-45.818676 22.368300 28.530086 0.000000 38.000000 14.348988 0.000000
-45.064104 22.305655 27.526692 0.000000 29.000000 14.327040 0.000000
-43.715577 19.842294 25.574115 0.000000 32.000000 14.381360 0.000000
-46.389979 20.249126 28.583981 0.000000 52.000000 14.779886 11.000000
-45.842831 22.825296 28.525579 0.000000 43.000000 14.371190 0.000000
-43.619874 19.513457 25.504677 0.000000 28.000000 14.344636 0.000000
-44.443023 18.354368 26.292004 0.000000 36.000000 14.548930 19.000000
-45.112584 22.892532 27.498192 0.000000 43.000000 14.383018 0.000000
-45.835375 23.162579 28.595860 0.000000 38.000000 14.323900 0.000000
-43.209214 18.550155 24.534219 0.000000 38.000000 14.581790 16.000000
-44.511938 18.675187 26.192804 0.000000 49.000000 14.662951 20.000000
-45.158894 23.178400 27.482588 0.000000 43.000000 14.429670 0.000000
-45.813229 18.757391 27.321739 0.000000 54.000000 15.053840 22.000000
-46.720934 18.319219 28.943922 0.000000 64.000000 14.836556 23.000000
-46.249887 20.256764 28.344364 0.000000 64.000000 14.807114 11.000000
-45.913738 23.772563 28.634187 0.000000 41.000000 14.364847 0.000000
-46.146430 18.636047 27.766300 0.000000 70.000000 15.062659 22.000000
-45.153913 18.359168 26.709779 0.000000 71.000000 14.879252 24.000000
-45.207481 23.810631 27.586421 0.000000 32.000000 14.408060 0.000000
-45.955699 24.090608 28.689774 0.000000 33.000000 14.366191 0.000000
-45.235121 23.959604 27.604632 0.000000 28.000000 14.419749 0.000000
-45.227995 24.144863 27.683834 0.000000 27.000000 14.367490 0.000000
-43.700919 21.507933 25.527716 0.000000 37.000000 14.396728 0.000000
-42.789460 18.110644 24.297846 0.000000 38.000000 14.380697 0.000000
-45.711258 21.691071 27.771247 0.000000 44.000000 14.707436 6.000000
-42.915027 18.209869 24.453806 0.000000 46.000000 14.390813 0.000000
-42.979575 18.254988 24.534858 0.000000 40.000000 14.395497 0.000000
-46.563639 18.082388 28.511571 0.000000 75.000000 14.962985 23.000000
-45.228154 19.452314 27.422762 0.000000 36.000000 14.520860 8.000000
-44.086561 21.448516 24.798216 0.000000 52.000000 15.137141 18.000000
-43.229935 18.424633 24.896344 0.000000 36.000000 14.386010 0.000000
-44.663217 18.959715 26.023587 0.000000 60.000000 14.884753 20.000000
-45.888666 18.176775 27.592202 0.000000 71.000000 14.956161 24.000000
-43.587799 18.577350 25.359868 0.000000 39.000000 14.403666 0.000000
-46.308824 24.203421 28.526274 0.000000 50.000000 14.748054 1.000000
-43.714963 18.631835 25.583687 0.000000 40.000000 14.375245 0.000000
-44.670285 18.306717 25.999229 0.000000 53.000000 14.904773 19.000000
-43.410402 20.800502 24.325903 0.000000 65.000000 14.866949 10.000000
-46.490918 19.579927 28.158742 0.000000 46.000000 15.111209 12.000000
-43.330174 19.004516 24.470901 0.000000 42.000000 14.716886 16.000000
-43.704007 18.721550 25.506196 0.000000 39.000000 14.411859 0.000000
-43.869438 18.714888 25.721817 0.000000 40.000000 14.419231 0.000000
-44.670486 18.700774 26.826730 0.000000 54.000000 14.419219 0.000000
-44.658132 18.559041 26.889589 0.000000 50.000000 14.372320 0.000000
-43.874517 21.890014 25.006926 0.000000 39.000000 14.842962 18.000000
-43.085413 19.523135 24.309464 0.000000 50.000000 14.613483 14.000000
-46.650615 19.911146 29.077719 0.000000 53.000000 14.701091 12.000000
-43.000714 20.726315 24.804604 0.000000 30.000000 14.254279 0.000000
-43.070358 20.783302 24.854802 0.000000 29.000000 14.281199 0.000000
-43.147583 20.833240 24.899821 0.000000 26.000000 14.317296 0.000000
-43.245634 20.870022 24.924528 0.000000 27.000000 14.382177 0.000000
-46.768657 22.057055 28.907336 0.000000 47.000000 14.896668 4.000000
-43.075658 23.049124 23.931164 0.000000 64.000000 14.827636 28.000000
-45.175061 20.907990 27.713033 0.000000 33.000000 14.307496 0.000000
-46.267369 18.376757 28.172667 0.000000 71.000000 14.922048 23.000000
-44.013390 19.761243 25.720851 0.000000 47.000000 14.536343 9.000000
-43.735061 21.270247 25.589876 0.000000 38.000000 14.387884 0.000000
-43.715763 19.970874 25.584936 0.000000 37.000000 14.375160 0.000000
-43.812219 21.300333 25.670139 0.000000 45.000000 14.403240 0.000000
-43.881952 21.335496 25.762887 0.000000 39.000000 14.405256 0.000000
-44.295926 18.093472 25.762145 0.000000 68.000000 14.740849 19.000000
-44.003326 21.408007 25.977726 0.000000 49.000000 14.377418 0.000000
-44.082995 21.429124 26.068000 0.000000 40.000000 14.388931 0.000000
-46.062680 20.034886 28.665927 0.000000 52.000000 14.466802 12.000000
-44.149826 21.456360 26.175526 0.000000 44.000000 14.379923 0.000000
-43.470856 21.387838 24.587716 0.000000 47.000000 14.762217 18.000000
-45.310501 19.052138 26.759775 0.000000 44.000000 14.976681 21.000000
-43.332313 18.184227 25.043499 0.000000 47.000000 14.382521 0.000000
-43.462374 21.277636 25.200545 0.000000 41.000000 14.395638 0.000000
-43.857401 21.942279 25.137832 0.000000 56.000000 14.752267 27.000000
-44.371739 21.508945 26.487399 0.000000 39.000000 14.376527 0.000000
-44.973968 18.377160 26.736341 0.000000 67.000000 14.717976 24.000000
-44.447484 21.521155 26.596332 0.000000 34.000000 14.373910 0.000000
-43.853349 21.471692 25.760014 0.000000 35.000000 14.383785 0.000000
-44.521523 21.529366 26.703795 0.000000 45.000000 14.370776 0.000000
-43.940346 21.465815 25.857536 0.000000 35.000000 14.396976 0.000000
-43.212210 18.772818 23.937585 0.000000 52.000000 14.934421 16.000000
-44.018435 21.465029 25.969231 0.000000 38.000000 14.394636 0.000000
-43.908695 21.665846 24.893057 0.000000 55.000000 14.937470 18.000000
-44.150723 19.679449 25.802769 0.000000 65.000000 14.599446 9.000000
-45.615224 21.527238 27.436452 0.000000 67.000000 14.826200 6.000000
-44.178446 21.452445 26.193677 0.000000 40.000000 14.392440 0.000000
-45.721581 19.371605 28.506160 0.000000 25.000000 14.284423 0.000000
-43.678005 19.734330 24.896478 0.000000 56.000000 14.748693 26.000000
-44.378537 19.586662 26.026728 0.000000 72.000000 14.652430 9.000000
-45.715949 18.993180 27.596668 0.000000 49.000000 14.813706 22.000000
-44.999199 21.511544 27.358839 0.000000 42.000000 14.373017 0.000000
-44.413131 21.416140 26.542475 0.000000 33.000000 14.377710 0.000000
-45.713793 21.458936 27.725369 0.000000 53.000000 14.736417 6.000000
-45.424377 21.332081 27.460076 0.000000 54.000000 14.657822 6.000000
-43.241166 19.659658 24.337868 0.000000 56.000000 14.722911 14.000000
-44.571053 21.375577 26.770655 0.000000 37.000000 14.371631 0.000000
-44.943237 21.594746 27.247514 0.000000 41.000000 14.393054 0.000000
-43.424474 18.579324 24.862303 0.000000 46.000000 14.563491 25.000000
-43.182849 20.818385 24.254696 0.000000 40.000000 14.724516 10.000000
-45.265141 19.483096 27.757222 0.000000 40.000000 14.354488 0.000000
-44.706577 18.741207 26.824797 0.000000 54.000000 14.449573 21.000000
-45.261758 18.387806 26.764237 0.000000 56.000000 14.934600 24.000000
-44.985514 21.208528 27.322822 0.000000 36.000000 14.383078 0.000000
-45.633988 21.328348 28.286954 0.000000 37.000000 14.342174 0.000000
-45.056254 21.176831 27.450319 0.000000 33.000000 14.365513 0.000000
-45.715548 21.291559 28.400778 0.000000 40.000000 14.341395 0.000000
-45.795552 21.583064 27.827938 0.000000 60.000000 14.742406 6.000000
-45.803831 21.244684 28.500922 0.000000 50.000000 14.354088 0.000000
-45.211271 21.092307 27.685207 0.000000 32.000000 14.353144 0.000000
-46.562560 18.012860 28.506510 0.000000 70.000000 14.965082 23.000000
-45.301752 21.035406 27.780798 0.000000 31.000000 14.370290 0.000000
-45.982783 21.141924 28.699812 0.000000 48.000000 14.382227 0.000000
-45.377117 20.987669 27.902355 0.000000 35.000000 14.359956 0.000000
-45.638675 21.919785 28.035675 0.000000 46.000000 14.493461 6.000000
-44.928978 18.120387 26.621560 0.000000 53.000000 14.748925 24.000000
-44.192225 19.211728 25.806138 0.000000 48.000000 14.631069 20.000000
-45.522890 20.886239 28.152459 0.000000 36.000000 14.331172 0.000000
-46.586572 18.641609 28.773462 0.000000 58.000000 14.827830 15.000000
-43.888076 18.228081 25.556147 0.000000 29.000000 14.531564 19.000000
-46.508329 18.740692 28.665365 0.000000 73.000000 14.827933 15.000000
-45.680835 20.764654 28.375892 0.000000 28.000000 14.327898 0.000000
-45.549125 19.024293 26.685026 0.000000 12.000000 15.213749 21.000000
-43.699025 18.903228 24.756028 0.000000 62.000000 14.848151 25.000000
-45.796022 20.662487 28.663429 0.000000 32.000000 14.252379 0.000000
-44.286698 18.207310 25.714001 0.000000 53.000000 14.761637 19.000000
-43.328549 18.159402 25.001498 0.000000 37.000000 14.404127 0.000000
-44.354759 18.780470 25.742010 0.000000 68.000000 14.800299 20.000000
-45.392690 23.313359 27.339824 0.000000 44.000000 14.702752 3.000000
-43.232588 18.487044 24.832555 0.000000 41.000000 14.425600 0.000000
-43.386349 19.369283 24.740567 0.000000 56.000000 14.604081 26.000000
-43.185225 18.605095 24.801769 0.000000 34.000000 14.405325 0.000000
-44.409548 22.851096 25.807477 0.000000 68.000000 14.806230 5.000000
-43.109551 21.040874 24.468386 0.000000 39.000000 14.539744 10.000000
-43.098360 23.095404 24.483257 0.000000 28.000000 14.521954 28.000000
-45.134963 22.858630 27.238454 0.000000 47.000000 14.553595 3.000000
-43.647262 19.457925 25.602968 0.000000 32.000000 14.309116 0.000000
-43.066445 20.856043 24.663133 0.000000 32.000000 14.390534 0.000000
-43.661558 19.555561 25.530739 0.000000 31.000000 14.363087 0.000000
-42.976366 19.532617 24.499343 0.000000 35.000000 14.413745 0.000000
-43.504331 21.389770 25.042083 0.000000 55.000000 14.522620 18.000000
-45.492022 20.248791 27.563656 0.000000 50.000000 14.651790 7.000000
-43.633746 19.897258 25.432589 0.000000 40.000000 14.398180 0.000000
-43.620665 20.016229 25.412968 0.000000 41.000000 14.399107 0.000000
-44.370155 18.064632 26.114282 0.000000 47.000000 14.594252 19.000000
-45.055532 23.549677 27.422274 0.000000 32.000000 14.381390 0.000000
-43.588901 20.373195 25.372667 0.000000 32.000000 14.397046 0.000000
-44.269972 18.621149 25.849537 0.000000 62.000000 14.668540 20.000000
-42.808220 20.537961 24.418389 0.000000 21.000000 14.325130 0.000000
-43.532586 20.641596 25.412180 0.000000 28.000000 14.328260 0.000000
-46.591652 19.192437 29.082023 0.000000 35.000000 14.650827 15.000000
-45.994092 18.565639 27.748138 0.000000 68.000000 14.949986 22.000000
-42.814087 20.776854 24.394897 0.000000 27.000000 14.343669 0.000000
-43.749446 21.812240 24.640645 0.000000 56.000000 14.956698 18.000000
-43.587662 21.211209 25.362813 0.000000 37.000000 14.401827 0.000000
-42.868735 21.235535 24.361501 0.000000 27.000000 14.407515 0.000000
-45.570393 18.187016 27.009844 0.000000 71.000000 15.040310 24.000000
-42.862818 21.363667 24.385134 0.000000 26.000000 14.388853 0.000000
-42.829076 22.855860 24.104957 0.000000 38.000000 14.525990 28.000000
-46.220620 19.933037 28.395215 0.000000 54.000000 14.753571 12.000000
-42.885357 21.601735 24.415750 0.000000 27.000000 14.389130 0.000000
-42.891982 21.723835 24.442738 0.000000 22.000000 14.378652 0.000000
-44.089521 18.074226 25.829305 0.000000 52.000000 14.534320 19.000000
-43.633192 22.192169 25.606752 0.000000 27.000000 14.295504 0.000000
-43.685471 22.283974 25.605681 0.000000 28.000000 14.338458 0.000000
-42.975454 22.307293 24.609846 0.000000 24.000000 14.348145 0.000000
-43.738648 22.374795 25.608997 0.000000 31.000000 14.379564 0.000000
-43.030259 22.398133 24.618766 0.000000 24.000000 14.387280 0.000000
-43.782405 22.472723 25.628390 0.000000 38.000000 14.403607 0.000000
-43.065550 22.502165 24.654508 0.000000 28.000000 14.394873 0.000000
-44.087358 18.664125 25.649221 0.000000 57.000000 14.638273 20.000000
-44.680705 18.946951 26.245554 0.000000 67.000000 14.768624 20.000000
-46.841528 18.885018 28.784030 0.000000 44.000000 15.028042 15.000000
-43.142505 22.706253 24.737015 0.000000 27.000000 14.408747 0.000000
-43.345203 23.447862 25.267136 0.000000 23.000000 14.261689 0.000000
-43.433305 23.499655 25.294426 0.000000 22.000000 14.316999 0.000000
-44.248796 23.532649 26.224898 0.000000 35.000000 14.431071 0.000000
-43.524494 23.549455 25.325649 0.000000 22.000000 14.372499 0.000000
-44.257510 23.655202 26.356950 0.000000 33.000000 14.360615 0.000000
-43.577249 23.628606 25.404447 0.000000 24.000000 14.368958 0.000000
