15.663944 14.030095 48.474653 0.000000 26.000000 14.315711 0.000000
14.933876 14.172931 47.949114 0.000000 36.000000 14.652622 27.000000
12.639876 13.326744 46.666753 0.000000 39.000000 14.467505 6.000000
15.662748 14.011817 48.876987 0.000000 27.000000 14.299677 0.000000
15.753440 14.612069 48.128542 0.000000 43.000000 14.849450 10.000000
15.686383 14.030281 50.139966 0.000000 36.000000 14.314700 0.000000
13.821025 13.981483 46.153609 0.000000 64.000000 14.769868 11.000000
14.503688 14.668251 48.630314 0.000000 3.000000 15.249350 25.000000
15.570566 14.063903 49.256419 0.000000 44.000000 14.376286 0.000000
15.680759 14.003979 50.411451 0.000000 32.000000 14.291780 0.000000
12.939310 13.681325 46.542502 0.000000 72.000000 14.725470 12.000000
15.629354 14.015588 50.670040 0.000000 37.000000 14.317881 0.000000
13.170889 13.655435 46.075702 0.000000 42.000000 14.635367 12.000000
15.495140 14.016175 49.801149 0.000000 33.000000 14.352824 0.000000
15.610714 13.969745 50.951399 0.000000 55.000000 14.279793 0.000000
17.023267 14.982473 50.678369 0.000000 59.000000 14.863235 22.000000
15.606726 14.645014 50.926279 0.000000 46.000000 14.929937 8.000000
17.007130 15.048663 49.071120 0.000000 36.000000 14.926490 20.000000
15.396514 13.927058 50.361699 0.000000 31.000000 14.296017 0.000000
12.723258 13.459095 46.082118 0.000000 49.000000 14.570001 12.000000
15.304701 13.909590 50.628278 0.000000 35.000000 14.305325 0.000000
15.285155 13.861379 50.777990 0.000000 35.000000 14.264816 0.000000
15.255183 13.823770 50.920155 0.000000 30.000000 14.237349 0.000000
12.400498 13.089998 48.892852 0.000000 40.000000 14.312566 0.000000
14.742818 14.273727 47.634146 0.000000 53.000000 14.801220 27.000000
12.804507 13.898625 45.949619 0.000000 57.000000 14.969725 12.000000
16.061786 14.553831 48.132219 0.000000 57.000000 14.708508 10.000000
16.375829 15.036547 45.299223 0.000000 4.000000 15.077498 16.000000
12.600662 13.160785 47.583429 0.000000 30.000000 14.321527 0.000000
13.329019 13.921359 49.343508 0.000000 57.000000 14.857217 23.000000
12.752794 13.640436 47.257540 0.000000 54.000000 14.739705 19.000000
15.712453 14.630223 47.596868 0.000000 58.000000 14.876601 10.000000
12.819753 13.228335 47.472130 0.000000 30.000000 14.325754 0.000000
12.929361 13.259023 48.615174 0.000000 38.000000 14.328476 0.000000
13.713506 13.330716 47.188707 0.000000 28.000000 14.177032 0.000000
12.888473 13.929387 47.821142 0.000000 52.000000 14.981769 19.000000
14.947000 14.233286 46.029892 0.000000 67.000000 14.701269 18.000000
13.852180 13.535805 47.097491 0.000000 31.000000 14.335693 0.000000
13.966375 13.573866 47.068700 0.000000 40.000000 14.340725 0.000000
14.072043 13.626268 47.041376 0.000000 33.000000 14.361897 0.000000
12.840481 13.537485 51.061575 0.000000 59.000000 14.627984 7.000000
14.916584 14.151289 46.868858 0.000000 36.000000 14.633344 24.000000
14.213974 13.779563 45.201684 0.000000 37.000000 14.464629 3.000000
15.009657 14.062319 46.663133 0.000000 44.000000 14.521555 0.000000
14.779257 14.076207 45.946814 0.000000 48.000000 14.596248 24.000000
15.190701 13.871123 46.974216 0.000000 22.000000 14.288806 0.000000
14.573534 14.389342 46.573417 0.000000 30.000000 14.955826 24.000000
14.633698 14.342816 48.490006 0.000000 35.000000 14.900270 25.000000
13.798632 14.452887 48.544207 0.000000 46.000000 15.236357 26.000000
16.724272 14.730789 50.266231 0.000000 50.000000 14.702454 22.000000
15.521388 13.999306 47.004262 0.000000 27.000000 14.320989 0.000000
13.769708 13.708468 44.976290 0.000000 53.000000 14.518036 4.000000
15.631144 14.039842 47.021615 0.000000 26.000000 14.329762 0.000000
16.777573 14.605792 48.993043 0.000000 54.000000 14.563792 20.000000
12.803222 13.760700 47.680311 0.000000 62.000000 14.842684 19.000000
15.818093 14.075780 48.286685 0.000000 32.000000 14.316585 0.000000
15.857411 14.108404 47.069430 0.000000 23.000000 14.333461 0.000000
12.813997 13.594368 48.094444 0.000000 59.000000 14.681065 19.000000
12.829013 13.599213 45.836609 0.000000 56.000000 14.674815 12.000000
16.177495 14.227507 47.166375 0.000000 27.000000 14.360039 0.000000
13.721690 14.405435 47.696125 0.000000 46.000000 15.209402 27.000000
15.458935 14.110527 46.558584 0.000000 37.000000 14.443777 0.000000
18.249595 15.038097 47.857646 0.000000 41.000000 14.570313 28.000000
16.459699 14.215914 47.267475 0.000000 25.000000 14.271432 0.000000
17.101656 14.951337 50.537921 0.000000 59.000000 14.811282 22.000000
16.586314 14.298359 48.559089 0.000000 28.000000 14.319667 0.000000
16.692040 14.326603 48.612012 0.000000 28.000000 14.317841 0.000000
16.487613 14.645643 47.539953 0.000000 50.000000 14.677646 14.000000
16.892891 14.386647 48.727924 0.000000 28.000000 14.320560 0.000000
13.716214 13.628936 45.801220 0.000000 51.000000 14.458798 11.000000
17.058494 14.473269 48.849139 0.000000 42.000000 14.358557 0.000000
13.883010 14.294112 48.764230 0.000000 57.000000 15.061138 26.000000
17.209833 14.486498 47.749603 0.000000 26.000000 14.326273 0.000000
17.317347 14.493745 47.833208 0.000000 27.000000 14.303862 0.000000
12.826502 13.856580 49.279429 0.000000 61.000000 14.933231 13.000000
17.560400 14.470003 48.019441 0.000000 22.000000 14.214621 0.000000
17.506083 14.623550 48.071678 0.000000 23.000000 14.377347 0.000000
17.286316 14.889597 50.934532 0.000000 44.000000 14.702236 22.000000
17.499274 15.261131 46.021005 0.000000 49.000000 14.985967 1.000000
13.256527 13.869895 49.845287 0.000000 63.000000 14.829227 23.000000
14.948274 14.080450 46.551142 0.000000 37.000000 14.555563 0.000000
13.790749 13.889612 48.830954 0.000000 39.000000 14.697925 26.000000
16.700156 14.756763 50.249906 0.000000 52.000000 14.734019 22.000000
17.901975 14.679333 48.573443 0.000000 29.000000 14.323380 0.000000
15.199259 14.061878 46.597673 0.000000 54.000000 14.468687 18.000000
17.946717 14.710365 48.675596 0.000000 33.000000 14.341187 0.000000
15.256110 14.374702 45.937074 0.000000 56.000000 14.751750 18.000000
12.781432 13.877207 45.952468 0.000000 62.000000 14.955503 12.000000
18.105473 14.742499 50.032328 0.000000 43.000000 14.332397 0.000000
18.066267 14.730836 48.900578 0.000000 30.000000 14.328596 0.000000
18.161898 14.758714 50.142863 0.000000 35.000000 14.332767 0.000000
13.718645 13.751597 46.799785 0.000000 46.000000 14.579034 11.000000
15.636713 14.209531 48.066131 0.000000 45.000000 14.494478 10.000000
18.151129 14.765726 49.128485 0.000000 28.000000 14.339433 0.000000
15.252146 14.014568 48.368623 0.000000 46.000000 14.413945 0.000000
18.192478 14.776187 49.247240 0.000000 28.000000 14.338451 0.000000
14.765223 14.229478 46.220125 0.000000 75.000000 14.748270 24.000000
18.235210 14.781874 49.371022 0.000000 26.000000 14.332514 0.000000
16.916763 14.953939 50.157025 0.000000 51.000000 14.863592 22.000000
18.269019 14.789453 49.493889 0.000000 27.000000 14.330851 0.000000
18.302397 14.794841 49.620757 0.000000 26.000000 14.327213 0.000000
12.797700 13.709809 47.759065 0.000000 60.000000 14.795521 19.000000
12.495201 13.301859 49.364319 0.000000 47.000000 14.491540 0.000000
13.774822 13.692489 48.628692 0.000000 40.000000 14.512218 26.000000
12.648555 13.235310 50.472198 0.000000 53.000000 14.388631 0.000000
12.805204 13.216023 50.433095 0.000000 38.000000 14.326806 0.000000
12.932317 13.239961 50.378517 0.000000 35.000000 14.314625 0.000000
13.727521 14.039617 50.384002 0.000000 74.000000 14.864202 23.000000
13.664391 14.029978 48.595025 0.000000 54.000000 14.866969 26.000000
14.490768 13.668094 51.060667 0.000000 34.000000 14.298769 0.000000
14.615244 13.717262 51.027405 0.000000 36.000000 14.311632 0.000000
14.580441 13.733235 49.810044 0.000000 44.000000 14.332927 0.000000
14.470623 14.335679 47.102038 0.000000 47.000000 14.934185 27.000000
14.721791 13.760606 49.787647 0.000000 34.000000 14.320220 0.000000
14.935679 13.728812 51.010012 0.000000 32.000000 14.234382 0.000000
15.120300 13.708399 51.017087 0.000000 33.000000 14.163905 0.000000
15.219052 13.794688 50.977432 0.000000 33.000000 14.219521 0.000000
12.204517 13.564789 46.283331 0.000000 42.000000 14.815153 6.000000
13.650438 13.965986 47.826432 0.000000 50.000000 14.806995 27.000000
15.261924 13.922479 49.705861 0.000000 29.000000 14.326737 0.000000
12.962247 13.624521 45.343084 0.000000 75.000000 14.660948 12.000000
13.460969 13.981105 49.572341 0.000000 51.000000 14.878975 23.000000
15.580138 13.974642 50.916631 0.000000 43.000000 14.292822 0.000000
16.488615 14.864927 49.010344 0.000000 52.000000 14.892571 20.000000
16.148922 14.101663 49.695217 0.000000 24.000000 14.254524 0.000000
16.940840 15.033468 49.156315 0.000000 27.000000 14.930406 20.000000
16.428126 14.183056 49.706939 0.000000 27.000000 14.255861 0.000000
13.983822 14.049802 49.764932 0.000000 45.000000 14.801508 23.000000
15.700659 14.217526 49.935831 0.000000 49.000000 14.490148 0.000000
16.743935 14.413851 49.705677 0.000000 28.000000 14.390690 0.000000
16.951329 14.385504 49.753861 0.000000 26.000000 14.306434 0.000000
13.624297 13.983100 44.865054 0.000000 54.000000 14.821770 4.000000
13.107472 13.596620 49.368183 0.000000 56.000000 14.606178 13.000000
13.670487 14.354219 47.489105 0.000000 38.000000 15.173658 27.000000
14.879582 14.091121 46.452393 0.000000 53.000000 14.584454 24.000000
13.590128 13.560467 47.784002 0.000000 41.000000 14.433671 0.000000
13.039350 13.773927 48.370379 0.000000 49.000000 14.792399 19.000000
12.387028 13.115153 45.901626 0.000000 36.000000 14.331490 0.000000
12.694974 13.320623 46.063663 0.000000 41.000000 14.444630 0.000000
14.192067 14.346128 45.136160 0.000000 55.000000 15.015095 3.000000
15.704044 14.608466 50.974616 0.000000 54.000000 14.868132 8.000000
12.725160 13.209941 46.050109 0.000000 29.000000 14.329875 0.000000
16.968275 14.964766 50.940622 0.000000 48.000000 14.862154 22.000000
13.352397 13.315636 45.218612 0.000000 22.000000 14.256139 0.000000
16.301165 14.597149 50.853636 0.000000 57.000000 14.692344 21.000000
16.820486 14.604214 49.083058 0.000000 42.000000 14.550719 20.000000
13.740219 14.193361 47.507744 0.000000 49.000000 14.999869 27.000000
12.428230 13.481265 46.655822 0.000000 46.000000 14.674332 6.000000
13.568847 13.282375 46.685029 0.000000 30.000000 14.168916 0.000000
15.430250 14.131406 49.444183 0.000000 42.000000 14.480404 2.000000
13.592813 14.114803 49.806680 0.000000 39.000000 14.971866 23.000000
14.392687 14.217972 46.713268 0.000000 70.000000 14.841347 24.000000
13.726148 13.461570 45.704926 0.000000 23.000000 14.294887 0.000000
13.725108 13.381110 46.923215 0.000000 27.000000 14.221482 0.000000
13.748615 13.445618 47.001219 0.000000 29.000000 14.277248 0.000000
13.781809 13.494902 47.086186 0.000000 35.000000 14.315731 0.000000
13.097352 14.030130 47.492556 0.000000 57.000000 15.020066 19.000000
14.213627 13.664636 46.964639 0.000000 33.000000 14.359534 0.000000
13.690701 14.097474 50.181991 0.000000 50.000000 14.929359 23.000000
14.382575 13.644235 49.215769 0.000000 36.000000 14.300117 0.000000
14.380281 13.653488 49.339157 0.000000 35.000000 14.310013 0.000000
14.392461 13.641869 49.472173 0.000000 32.000000 14.295887 0.000000
16.810514 14.853186 49.963681 0.000000 57.000000 14.795439 22.000000
17.039103 14.986846 49.409670 0.000000 44.000000 14.859271 20.000000
13.726397 14.180045 48.860888 0.000000 46.000000 14.994935 26.000000
13.803038 14.160117 46.334105 0.000000 44.000000 14.947083 11.000000
14.986508 13.967720 50.205572 0.000000 49.000000 14.447620 30.000000
17.005387 15.043061 49.777273 0.000000 43.000000 14.923702 22.000000
13.689599 14.358782 47.500322 0.000000 37.000000 15.172811 27.000000
13.932761 13.495702 50.793709 0.000000 35.000000 14.286020 0.000000
13.889325 13.471034 50.932220 0.000000 34.000000 14.274692 0.000000
14.413583 13.974953 46.364665 0.000000 51.000000 14.600935 24.000000
12.414482 13.091193 47.691754 0.000000 33.000000 14.306260 0.000000
12.516469 13.122116 47.648959 0.000000 34.000000 14.307753 0.000000
13.218325 13.669118 49.820601 0.000000 30.000000 14.646677 23.000000
12.722261 13.191437 47.572200 0.000000 38.000000 14.317450 0.000000
14.323805 14.291653 45.424329 0.000000 56.000000 14.927291 3.000000
13.435420 13.975698 49.321448 0.000000 60.000000 14.880065 23.000000
13.599354 13.323862 46.186166 0.000000 23.000000 14.198894 0.000000
12.531431 13.301994 50.632142 0.000000 46.000000 14.485487 0.000000
13.704413 13.452215 47.376432 0.000000 29.000000 14.296895 0.000000
13.674895 13.952950 46.523622 0.000000 50.000000 14.783818 11.000000
14.289182 13.664624 46.148977 0.000000 21.000000 14.336256 0.000000
14.365221 13.738154 46.154776 0.000000 33.000000 14.386003 0.000000
15.209235 13.834419 47.603621 0.000000 28.000000 14.250303 0.000000
15.257636 13.922548 47.631416 0.000000 32.000000 14.321765 0.000000
14.087082 13.856390 49.414762 0.000000 40.000000 14.586081 23.000000
16.068204 14.736826 46.741673 0.000000 51.000000 14.878479 15.000000
15.556265 13.988762 47.781615 0.000000 27.000000 14.303573 0.000000
15.622713 14.043574 47.830101 0.000000 33.000000 14.338098 0.000000
15.719904 14.048101 46.653162 0.000000 24.000000 14.312138 0.000000
13.705170 13.871577 45.832745 0.000000 52.000000 14.695181 11.000000
15.894372 14.097505 46.784411 0.000000 28.000000 14.311945 0.000000
14.262098 14.317539 44.831482 0.000000 69.000000 14.967402 3.000000
16.056473 14.145778 46.928698 0.000000 20.000000 14.314111 0.000000
15.664579 14.319487 50.931212 0.000000 48.000000 14.601088 8.000000
12.767335 13.664426 45.433887 0.000000 74.000000 14.753291 12.000000
16.785632 14.743584 46.165341 0.000000 46.000000 14.685549 17.000000
16.414668 14.164504 47.275026 0.000000 23.000000 14.234444 0.000000
16.442906 14.153175 48.513371 0.000000 27.000000 14.219486 0.000000
16.454213 14.213345 47.360557 0.000000 27.000000 14.270753 0.000000
16.504204 14.181598 48.599833 0.000000 30.000000 14.230176 0.000000
12.909784 14.052309 47.705031 0.000000 57.000000 15.093710 19.000000
13.770268 14.279100 47.727573 0.000000 46.000000 15.074667 27.000000
14.520319 14.070011 45.745708 0.000000 57.000000 14.661043 24.000000
16.839045 14.931087 50.314633 0.000000 56.000000 14.863514 22.000000
12.741536 13.627379 47.433165 0.000000 44.000000 14.730783 19.000000
16.634274 15.019877 48.137258 0.000000 46.000000 14.998765 9.000000
12.690017 13.888418 46.225039 0.000000 72.000000 14.992288 12.000000
17.014919 14.397292 49.742736 0.000000 29.000000 14.300209 0.000000
13.794975 14.097643 46.160157 0.000000 68.000000 14.888728 11.000000
16.590327 14.959492 48.470078 0.000000 54.000000 14.953826 9.000000
14.204424 13.933830 45.322263 0.000000 35.000000 14.615916 3.000000
16.972816 14.468612 48.893435 0.000000 34.000000 14.377823 0.000000
17.048050 14.452518 49.547501 0.000000 26.000000 14.343581 0.000000
14.743773 14.267404 47.984139 0.000000 27.000000 14.795928 27.000000
13.345462 13.919213 49.296539 0.000000 46.000000 14.850482 23.000000
12.830375 13.479806 46.964682 0.000000 42.000000 14.563039 0.000000
12.402417 13.173169 49.409101 0.000000 38.000000 14.393535 0.000000
13.740277 13.671635 46.785518 0.000000 41.000000 14.496164 11.000000
12.659405 13.223950 50.466487 0.000000 49.000000 14.374703 0.000000
16.741066 14.699035 45.613452 0.000000 39.000000 14.653351 16.000000
12.807733 13.208017 50.426827 0.000000 42.000000 14.318394 0.000000
13.726483 14.233964 49.855349 0.000000 68.000000 15.049724 23.000000
12.930003 13.230981 50.373190 0.000000 39.000000 14.306615 0.000000
14.315661 13.791208 45.344350 0.000000 44.000000 14.448229 0.000000
17.127292 14.949274 51.001612 0.000000 55.000000 14.803625 22.000000
12.343734 13.256529 49.843794 0.000000 56.000000 14.491142 0.000000
13.877218 13.501911 48.805277 0.000000 36.000000 14.301332 0.000000
14.621035 13.730930 49.824844 0.000000 40.000000 14.319569 0.000000
15.085842 14.145810 49.430683 0.000000 64.000000 14.589117 0.000000
15.082829 13.935700 49.742059 0.000000 40.000000 14.388907 0.000000
15.246367 13.929543 49.749035 0.000000 31.000000 14.337944 0.000000
14.555982 14.100016 45.772452 0.000000 46.000000 14.680139 24.000000
14.704356 13.971151 49.743175 0.000000 38.000000 14.527283 0.000000
15.537469 13.983552 48.536514 0.000000 24.000000 14.306008 0.000000
16.441821 14.628853 49.405144 0.000000 47.000000 14.679717 20.000000
14.329825 14.360872 48.796064 0.000000 53.000000 15.002281 25.000000
16.736657 14.776202 50.378217 0.000000 54.000000 14.743031 22.000000
15.906224 14.122066 48.537808 0.000000 33.000000 14.337546 0.000000
16.018612 14.152706 49.763350 0.000000 31.000000 14.339704 0.000000
16.036165 14.158266 48.547885 0.000000 28.000000 14.336567 0.000000
17.145283 14.920024 48.514697 0.000000 25.000000 14.763093 9.000000
16.245325 14.109764 48.587139 0.000000 27.000000 14.232424 0.000000
15.624875 14.300990 49.220392 0.000000 37.000000 14.589119 0.000000
12.931983 13.790743 49.201022 0.000000 84.000000 14.840641 13.000000
14.540134 14.369305 46.257180 0.000000 51.000000 14.944821 24.000000
16.072339 14.802672 45.946984 0.000000 57.000000 14.938253 17.000000
16.581633 14.278007 48.629762 0.000000 28.000000 14.301605 0.000000
16.843539 14.592104 50.867149 0.000000 68.000000 14.538075 22.000000
12.770257 13.311175 49.398922 0.000000 31.000000 14.424803 0.000000
14.133393 14.259185 47.973454 0.000000 57.000000 14.956195 27.000000
17.031702 14.477895 48.742254 0.000000 30.000000 14.370066 0.000000
15.957212 14.282899 46.037830 0.000000 40.000000 14.470605 17.000000
17.311373 14.515464 48.838516 0.000000 32.000000 14.329401 0.000000
17.783232 14.507982 50.252076 0.000000 30.000000 14.196419 0.000000
17.128939 14.802219 50.188630 0.000000 44.000000 14.659373 22.000000
16.322987 14.561718 45.865909 0.000000 55.000000 14.637316 17.000000
15.728674 14.853681 50.923029 0.000000 58.000000 15.096910 8.000000
17.927644 14.663263 50.335158 0.000000 33.000000 14.306141 0.000000
14.949847 14.060534 48.087368 0.000000 43.000000 14.540591 0.000000
18.035473 14.704586 50.397915 0.000000 35.000000 14.316338 0.000000
18.013262 14.713740 49.188299 0.000000 28.000000 14.327631 0.000000
17.047931 14.888998 50.666378 0.000000 66.000000 14.766547 22.000000
18.127754 14.739350 49.260171 0.000000 25.000000 14.320915 0.000000
18.257719 14.771521 50.537557 0.000000 40.000000 14.319857 0.000000
12.746002 13.502897 46.262572 0.000000 41.000000 14.606380 12.000000
18.378251 14.793974 50.618114 0.000000 36.000000 14.308467 0.000000
15.778332 14.552135 47.684401 0.000000 59.000000 14.783645 10.000000
12.353401 13.140362 45.368032 0.000000 37.000000 14.363389 0.000000
13.876035 14.022253 45.022824 0.000000 66.000000 14.790510 4.000000
12.478091 13.154260 45.552367 0.000000 31.000000 14.342941 0.000000
12.537671 13.159781 45.648721 0.000000 26.000000 14.332119 0.000000
12.591813 13.172881 45.748361 0.000000 25.000000 14.330091 0.000000
12.640578 13.186474 45.848922 0.000000 26.000000 14.330021 0.000000
13.684753 14.258821 47.242593 0.000000 51.000000 15.077284 27.000000
14.086818 14.331769 48.528699 0.000000 60.000000 15.040468 25.000000
12.636664 13.165566 47.125506 0.000000 34.000000 14.314829 0.000000
12.845698 13.491396 48.957009 0.000000 60.000000 14.575931 0.000000
14.358243 14.047408 48.177718 0.000000 53.000000 14.691270 25.000000
14.148867 14.444875 47.284852 0.000000 55.000000 15.128366 27.000000
12.723844 13.192387 47.328286 0.000000 36.000000 14.317196 0.000000
12.760869 13.210218 47.431882 0.000000 39.000000 14.324444 0.000000
12.849854 13.253077 46.387464 0.000000 27.000000 14.337991 0.000000
13.413085 13.920200 49.953728 0.000000 59.000000 14.834767 23.000000
12.829493 13.242829 47.643794 0.000000 40.000000 14.337517 0.000000
12.871306 13.240637 47.756670 0.000000 38.000000 14.324226 0.000000
16.673927 14.583460 45.009002 0.000000 59.000000 14.558940 16.000000
12.994456 14.032794 48.272232 0.000000 71.000000 15.053319 19.000000
12.772695 13.761948 45.907916 0.000000 63.000000 14.846981 12.000000
13.009181 13.278496 48.340985 0.000000 45.000000 14.324378 0.000000
13.035857 13.329402 48.695730 0.000000 44.000000 14.367025 0.000000
13.809246 13.655114 49.585257 0.000000 34.000000 14.469672 23.000000
13.101941 13.291911 49.737245 0.000000 40.000000 14.315898 0.000000
12.744268 13.639948 49.305106 0.000000 62.000000 14.747725 13.000000
13.064070 13.354222 48.909433 0.000000 42.000000 14.383750 0.000000
17.911618 15.064337 46.370750 0.000000 51.000000 14.684214 1.000000
13.081200 13.275519 50.139750 0.000000 51.000000 14.307063 0.000000
12.205388 13.670705 46.239594 0.000000 56.000000 14.916596 6.000000
13.049312 13.271585 50.406413 0.000000 45.000000 14.312869 0.000000
13.028314 13.265603 50.538973 0.000000 39.000000 14.313302 0.000000
13.018191 13.243704 50.680511 0.000000 41.000000 14.295465 0.000000
12.981685 13.258535 50.807021 0.000000 43.000000 14.320161 0.000000
12.860236 13.835483 47.639874 0.000000 74.000000 14.898739 19.000000
12.965630 13.235504 50.949264 0.000000 44.000000 14.302872 0.000000
12.773755 14.034193 44.840589 0.000000 58.000000 15.105192 5.000000
14.329472 14.224885 44.828979 0.000000 61.000000 14.859762 3.000000
12.869918 13.207149 50.289134 0.000000 39.000000 14.300011 0.000000
16.877498 14.913869 49.179404 0.000000 44.000000 14.832962 20.000000
17.853524 14.813948 50.804277 0.000000 54.000000 14.472823 29.000000
12.752232 13.172552 50.698829 0.000000 30.000000 14.300412 0.000000
12.699425 13.175438 50.827707 0.000000 39.000000 14.318125 0.000000
12.662184 13.150051 50.968054 0.000000 36.000000 14.304404 0.000000
15.747812 14.612709 50.838981 0.000000 42.000000 14.859743 8.000000
12.375503 13.130730 45.527358 0.000000 30.000000 14.348517 0.000000
14.599144 14.144089 45.859244 0.000000 44.000000 14.710872 24.000000
12.587880 13.183190 45.497077 0.000000 31.000000 14.340331 0.000000
14.334438 14.359951 48.255821 0.000000 53.000000 14.998505 25.000000
14.098911 14.151246 45.193142 0.000000 59.000000 14.853601 3.000000
12.888961 13.898233 49.248658 0.000000 48.000000 14.955967 13.000000
13.511986 13.270600 46.785847 0.000000 26.000000 14.173569 0.000000
13.928351 14.202972 48.002827 0.000000 69.000000 14.958750 27.000000
16.989128 14.662572 46.447865 0.000000 33.000000 14.552444 0.000000
13.703690 13.329027 46.831843 0.000000 29.000000 14.177044 0.000000
15.830389 14.309002 50.870608 0.000000 37.000000 14.545136 8.000000
13.712276 13.475012 46.840086 0.000000 29.000000 14.315035 0.000000
13.158622 13.703720 48.350274 0.000000 56.000000 14.691983 19.000000
13.803207 13.504574 46.871108 0.000000 33.000000 14.318487 0.000000
15.668231 14.397608 50.842120 0.000000 64.000000 14.674910 8.000000
14.040386 13.624487 46.978614 0.000000 39.000000 14.368721 0.000000
14.159505 13.610821 47.032329 0.000000 29.000000 14.322920 0.000000
15.671568 14.330746 50.925719 0.000000 69.000000 14.609969 8.000000
13.803635 14.034284 48.591259 0.000000 52.000000 14.832726 26.000000
16.244951 14.823311 44.879956 0.000000 56.000000 14.907328 16.000000
15.231655 13.897929 46.824244 0.000000 29.000000 14.302839 0.000000
15.959723 14.301473 48.986220 0.000000 48.000000 14.496608 0.000000
16.587527 14.852001 45.794420 0.000000 37.000000 14.843246 17.000000
15.209542 13.977026 48.107653 0.000000 41.000000 14.388814 0.000000
15.319987 13.952495 47.018672 0.000000 27.000000 14.331533 0.000000
12.193817 13.658113 46.481300 0.000000 42.000000 14.908405 6.000000
14.161523 14.325699 47.907439 0.000000 59.000000 15.012184 27.000000
15.308778 14.012512 48.302066 0.000000 38.000000 14.396163 0.000000
16.465565 14.582914 47.737043 0.000000 48.000000 14.624012 14.000000
15.390336 13.988831 48.414611 0.000000 31.000000 14.351262 0.000000
15.561385 14.220431 46.050938 0.000000 29.000000 14.519671 0.000000
15.459018 13.973412 48.525744 0.000000 31.000000 14.317847 0.000000
14.248469 14.400929 48.254524 0.000000 60.000000 15.061582 25.000000
15.642924 14.303689 47.366311 0.000000 53.000000 14.581180 10.000000
15.589364 14.003146 47.677153 0.000000 26.000000 14.307966 0.000000
12.478644 13.264251 49.324565 0.000000 40.000000 14.459832 0.000000
14.333356 14.009911 44.816698 0.000000 47.000000 14.652006 3.000000
15.618673 14.010802 48.968830 0.000000 31.000000 14.311122 0.000000
15.619091 14.052980 47.906687 0.000000 33.000000 14.348367 0.000000
15.655818 14.013361 49.086063 0.000000 33.000000 14.303698 0.000000
15.659104 14.049404 49.195134 0.000000 40.000000 14.337767 0.000000
15.665722 14.066393 48.150124 0.000000 27.000000 14.349141 0.000000
15.719876 14.031961 48.285450 0.000000 26.000000 14.301525 0.000000
13.803909 13.665946 45.937123 0.000000 61.000000 14.470617 11.000000
15.750531 14.035463 48.538652 0.000000 29.000000 14.297203 0.000000
18.237995 15.039261 47.984798 0.000000 53.000000 14.575010 28.000000
15.757443 14.048390 48.795874 0.000000 28.000000 14.308496 0.000000
13.757658 14.069329 49.840715 0.000000 52.000000 14.882830 23.000000
15.792399 14.055357 50.073043 0.000000 38.000000 14.309390 0.000000
15.751969 14.057229 49.055711 0.000000 32.000000 14.319280 0.000000
14.566201 14.486667 47.846346 0.000000 44.000000 15.055220 27.000000
15.707528 14.102470 49.172241 0.000000 33.000000 14.375365 0.000000
14.466107 14.101487 47.080544 0.000000 49.000000 14.710242 27.000000
15.798161 14.047858 50.465314 0.000000 33.000000 14.301769 0.000000
15.982008 14.561006 47.809631 0.000000 46.000000 14.736422 10.000000
15.786571 14.038422 50.730677 0.000000 34.000000 14.296688 0.000000
15.783223 14.025278 50.867505 0.000000 45.000000 14.285386 0.000000
15.776264 14.010217 51.004883 0.000000 41.000000 14.273238 0.000000
16.890148 14.999727 48.972265 0.000000 64.000000 14.911388 20.000000
14.876366 14.223502 49.999707 0.000000 53.000000 14.723232 30.000000
15.618371 14.003719 50.262871 0.000000 34.000000 14.308277 0.000000
13.859463 13.786220 45.548285 0.000000 31.000000 14.569759 11.000000
15.832609 14.627415 47.826275 0.000000 56.000000 14.841479 10.000000
15.531881 13.954644 50.673985 0.000000 32.000000 14.286168 0.000000
15.496294 13.937535 50.812514 0.000000 29.000000 14.279944 0.000000
15.457797 13.919762 50.949603 0.000000 28.000000 14.273878 0.000000
12.382304 13.082129 48.263538 0.000000 33.000000 14.308128 0.000000
18.153839 15.037909 47.948584 0.000000 57.000000 14.596792 28.000000
13.613183 13.978957 47.934949 0.000000 60.000000 14.830055 27.000000
16.268011 14.784161 47.688317 0.000000 43.000000 14.871760 14.000000
17.499753 15.053519 46.231642 0.000000 42.000000 14.786894 1.000000
13.661494 13.382605 48.962369 0.000000 35.000000 14.246563 0.000000
14.238318 14.529424 48.608908 0.000000 54.000000 15.188962 25.000000
13.867290 13.494184 48.890377 0.000000 39.000000 14.296895 0.000000
15.130825 13.921370 48.769529 0.000000 33.000000 14.358990 0.000000
14.944050 14.320820 49.816561 0.000000 52.000000 14.797581 30.000000
15.247464 13.956790 48.777160 0.000000 42.000000 14.360919 0.000000
14.128620 14.007076 45.021087 0.000000 61.000000 14.706311 3.000000
15.379270 13.972359 48.793885 0.000000 34.000000 14.339615 0.000000
16.378581 14.742397 45.924741 0.000000 61.000000 14.795856 17.000000
15.454969 14.054400 48.796025 0.000000 30.000000 14.397625 0.000000
14.465526 14.192227 48.299761 0.000000 53.000000 14.801284 25.000000
14.193301 13.839466 45.618666 0.000000 43.000000 14.529160 0.000000
15.751663 14.046519 48.859036 0.000000 31.000000 14.308480 0.000000
16.826067 14.675961 50.512830 0.000000 58.000000 14.622437 22.000000
15.998846 14.096313 48.920380 0.000000 26.000000 14.288414 0.000000
16.132569 14.107788 48.959336 0.000000 29.000000 14.262712 0.000000
16.299244 14.081385 49.014460 0.000000 28.000000 14.191567 0.000000
14.334362 13.948658 46.025706 0.000000 41.000000 14.596472 24.000000
12.514966 13.224900 44.863491 0.000000 46.000000 14.398619 0.000000
16.462928 14.211700 49.077380 0.000000 32.000000 14.271918 0.000000
16.512088 14.527640 49.681480 0.000000 68.000000 14.563889 0.000000
16.539037 14.343152 47.901334 0.000000 27.000000 14.373781 0.000000
14.929408 14.052729 49.627389 0.000000 40.000000 14.543338 0.000000
16.876973 14.619812 47.833982 0.000000 45.000000 14.546402 0.000000
13.786783 13.725899 45.719882 0.000000 30.000000 14.532316 11.000000
17.461535 14.522518 49.703912 0.000000 25.000000 14.297397 0.000000
15.911130 14.377452 46.902576 0.000000 60.000000 14.576788 0.000000
17.676456 14.546177 48.713276 0.000000 23.000000 14.257945 0.000000
17.775441 15.098620 46.317853 0.000000 45.000000 14.754536 1.000000
12.684187 13.881957 46.065956 0.000000 53.000000 14.987207 12.000000
14.420783 14.267050 46.828592 0.000000 44.000000 14.881128 24.000000
16.464368 14.603769 45.799014 0.000000 53.000000 14.638579 17.000000
17.884732 14.637671 50.146748 0.000000 33.000000 14.292800 0.000000
17.875573 14.633878 48.992273 0.000000 23.000000 14.288216 0.000000
17.950504 14.667643 50.242001 0.000000 44.000000 14.303773 0.000000
16.770261 14.683101 47.513603 0.000000 28.000000 14.635686 14.000000
16.561839 14.509815 48.863946 0.000000 68.000000 14.530593 0.000000
15.277164 14.277602 49.535427 0.000000 57.000000 14.663398 2.000000
13.759513 14.111969 49.375020 0.000000 75.000000 14.921911 23.000000
18.042493 14.712759 49.296581 0.000000 27.000000 14.318958 0.000000
18.148333 14.733641 50.550210 0.000000 37.000000 14.313624 0.000000
18.097799 14.731568 49.406288 0.000000 26.000000 14.322127 0.000000
18.216515 14.744184 50.661341 0.000000 34.000000 14.305304 0.000000
18.158386 14.739447 49.520099 0.000000 24.000000 14.313346 0.000000
18.279539 14.757807 50.776580 0.000000 34.000000 14.301377 0.000000
15.893638 14.589046 47.991408 0.000000 43.000000 14.788273 10.000000
18.337226 14.771732 50.894120 0.000000 31.000000 14.299219 0.000000
17.704885 15.577918 46.103299 0.000000 1.000000 15.234074 1.000000
15.282508 14.387873 49.629914 0.000000 53.000000 14.768210 2.000000
18.335253 14.789981 49.996661 0.000000 32.000000 14.314614 0.000000
18.371844 14.797252 50.121686 0.000000 31.000000 14.311895 0.000000
12.565320 13.195730 51.051995 0.000000 40.000000 14.375258 0.000000
13.781854 14.062172 46.522534 0.000000 45.000000 14.859333 11.000000
12.837354 13.219394 50.957199 0.000000 49.000000 14.322759 0.000000
12.953526 13.263443 50.898256 0.000000 42.000000 14.332912 0.000000
13.082170 13.289564 50.850132 0.000000 36.000000 14.322427 0.000000
13.194065 13.347990 50.791099 0.000000 36.000000 14.347580 0.000000
12.951733 14.212166 47.971421 0.000000 67.000000 15.236616 19.000000
13.473981 13.382860 50.712628 0.000000 34.000000 14.303728 0.000000
13.592182 13.433621 50.663114 0.000000 34.000000 14.319803 0.000000
13.754556 14.474201 50.210419 0.000000 3.000000 15.273987 23.000000
15.154671 13.741658 50.386301 0.000000 27.000000 14.184513 0.000000
15.215069 13.874534 50.334379 0.000000 29.000000 14.295445 0.000000
13.254297 13.724025 49.732974 0.000000 81.000000 14.689283 23.000000
15.031655 13.990502 50.071463 0.000000 55.000000 14.456677 30.000000
15.620493 14.011100 50.303084 0.000000 36.000000 14.314908 0.000000
13.715428 13.595061 45.028890 0.000000 33.000000 14.424136 0.000000
12.691664 13.634394 44.835702 0.000000 54.000000 14.743481 5.000000
12.769530 13.709981 45.375052 0.000000 63.000000 14.796301 12.000000
16.284688 14.062611 50.356651 0.000000 27.000000 14.181555 0.000000
14.355197 14.226068 46.654147 0.000000 53.000000 14.859283 24.000000
16.476973 14.241411 50.338456 0.000000 29.000000 14.300390 0.000000
14.370668 14.322091 47.133461 0.000000 45.000000 14.948762 27.000000
14.602816 13.946679 49.859533 0.000000 56.000000 14.532089 0.000000
15.661780 14.166423 45.802254 0.000000 57.000000 14.439344 0.000000
18.106925 14.778068 50.729258 0.000000 34.000000 14.368279 0.000000
18.279451 14.783517 50.802866 0.000000 32.000000 14.326195 0.000000
12.342443 13.128445 45.038515 0.000000 24.000000 14.353965 0.000000
12.417737 13.182559 45.063443 0.000000 27.000000 14.385310 0.000000
12.520164 13.187406 45.093840 0.000000 30.000000 14.361835 0.000000
12.949606 13.875651 50.890917 0.000000 75.000000 14.922472 7.000000
15.880944 14.473450 47.319887 0.000000 38.000000 14.678638 10.000000
15.115476 14.769077 46.330606 0.000000 2.000000 15.170788 18.000000
18.235641 15.083909 47.764226 0.000000 56.000000 14.617916 28.000000
12.842222 13.265842 46.496341 0.000000 28.000000 14.352691 0.000000
12.971459 13.282873 45.301989 0.000000 25.000000 14.329868 0.000000
13.361252 13.322336 46.842494 0.000000 23.000000 14.265008 0.000000
13.487557 13.265272 46.923113 0.000000 22.000000 14.175590 0.000000
14.608610 14.201696 45.427846 0.000000 61.000000 14.762346 3.000000
13.563999 13.277813 46.995864 0.000000 28.000000 14.166799 0.000000
13.608801 13.415276 45.829289 0.000000 23.000000 14.283095 0.000000
13.637012 13.291225 47.070960 0.000000 26.000000 14.159797 0.000000
16.388737 14.491830 46.298051 0.000000 41.000000 14.553312 0.000000
13.695897 13.320464 47.146420 0.000000 27.000000 14.171903 0.000000
13.741940 13.449396 45.995067 0.000000 22.000000 14.279703 0.000000
13.001916 13.821187 49.156733 0.000000 43.000000 14.850502 13.000000
13.769149 13.514501 46.076178 0.000000 37.000000 14.335032 0.000000
12.807508 13.611778 45.834936 0.000000 67.000000 14.692814 12.000000
14.216776 13.634645 46.986087 0.000000 24.000000 14.329901 0.000000
14.420236 13.665178 49.079590 0.000000 37.000000 14.309462 0.000000
13.352425 13.896903 50.332806 0.000000 53.000000 14.830224 23.000000
14.054512 13.884045 46.003884 0.000000 51.000000 14.611413 11.000000
14.460252 13.677550 49.450266 0.000000 33.000000 14.311440 0.000000
13.974691 14.100765 49.731937 0.000000 41.000000 14.852915 23.000000
13.781698 14.064188 49.113735 0.000000 41.000000 14.869083 23.000000
16.783027 14.754766 45.974978 0.000000 51.000000 14.696445 17.000000
14.465858 13.674411 49.116560 0.000000 32.000000 14.305877 0.000000
13.267343 13.756391 47.188095 0.000000 70.000000 14.709170 19.000000
16.855828 14.919810 50.490422 0.000000 68.000000 14.848575 22.000000
16.814322 14.594388 49.028148 0.000000 43.000000 14.542808 20.000000
12.721224 13.389038 49.253050 0.000000 45.000000 14.512725 0.000000
15.675973 14.471968 47.376152 0.000000 48.000000 14.733865 10.000000
12.645781 13.689381 46.044075 0.000000 44.000000 14.812606 12.000000
12.593807 13.265292 49.423930 0.000000 39.000000 14.429395 0.000000
13.046266 13.603480 49.020599 0.000000 78.000000 14.628596 13.000000
12.749431 14.162905 45.679561 0.000000 3.000000 15.238138 12.000000
14.296171 13.755781 50.586934 0.000000 66.000000 14.435265 0.000000
17.806759 14.766726 50.782564 0.000000 62.000000 14.440251 29.000000
12.423647 13.098473 48.232333 0.000000 37.000000 14.312353 0.000000
12.536887 13.116638 48.193016 0.000000 39.000000 14.298492 0.000000
16.529219 14.678720 46.170706 0.000000 54.000000 14.693871 17.000000
12.632574 13.165849 48.149759 0.000000 39.000000 14.319300 0.000000
12.634252 13.218499 46.934821 0.000000 30.000000 14.365805 0.000000
12.736290 13.201840 48.111664 0.000000 39.000000 14.325202 0.000000
12.768408 13.215177 46.902079 0.000000 25.000000 14.325545 0.000000
12.844442 13.233136 48.079250 0.000000 38.000000 14.325386 0.000000
16.513212 15.127354 48.265044 0.000000 19.000000 15.135824 9.000000
13.831644 13.701246 45.383257 0.000000 65.000000 14.495246 0.000000
16.376027 14.419819 47.781168 0.000000 42.000000 14.492039 14.000000
16.413368 14.553128 47.299151 0.000000 45.000000 14.608451 14.000000
12.712567 13.519764 46.025739 0.000000 39.000000 14.631098 12.000000
15.220439 13.881155 46.882300 0.000000 24.000000 14.289979 0.000000
14.319958 14.136124 44.823265 0.000000 47.000000 14.777043 3.000000
13.688044 14.119504 49.285406 0.000000 66.000000 14.948580 23.000000
15.265754 14.000290 48.147579 0.000000 40.000000 14.395807 0.000000
13.156466 13.675348 45.418532 0.000000 46.000000 14.656513 12.000000
15.362802 14.029319 48.190776 0.000000 39.000000 14.397099 0.000000
14.769421 14.178959 46.769299 0.000000 39.000000 14.700197 24.000000
13.950397 13.792803 50.414759 0.000000 38.000000 14.565620 23.000000
13.550875 13.821533 49.075884 0.000000 69.000000 14.699318 23.000000
12.422135 13.410516 46.589117 0.000000 49.000000 14.607803 6.000000
16.635714 14.713469 45.134242 0.000000 37.000000 14.694820 16.000000
12.869843 13.766306 46.330873 0.000000 71.000000 14.825668 12.000000
16.371153 14.601952 49.227965 0.000000 60.000000 14.672800 20.000000
16.747078 14.516361 46.361955 0.000000 48.000000 14.478338 0.000000
15.874281 14.100011 47.240235 0.000000 23.000000 14.321257 0.000000
15.879341 14.110760 48.480152 0.000000 39.000000 14.333913 0.000000
15.972988 14.132232 48.548084 0.000000 35.000000 14.328951 0.000000
15.035306 13.934551 47.989292 0.000000 43.000000 14.395643 0.000000
16.189593 14.128324 48.703314 0.000000 34.000000 14.265971 0.000000
16.300834 14.121332 48.788375 0.000000 31.000000 14.228850 0.000000
16.406758 14.114448 48.877147 0.000000 29.000000 14.193310 0.000000
16.355198 14.252725 47.690836 0.000000 29.000000 14.336884 0.000000
13.899198 14.066734 46.247449 0.000000 42.000000 14.830557 11.000000
16.413894 14.288900 47.775155 0.000000 27.000000 14.355736 0.000000
13.034044 13.684980 50.902031 0.000000 65.000000 14.715949 7.000000
17.006060 14.943054 48.924523 0.000000 57.000000 14.824825 20.000000
12.328404 13.168109 47.199330 0.000000 54.000000 14.402441 0.000000
16.632330 14.323638 48.059883 0.000000 25.000000 14.329790 0.000000
14.347727 14.524543 47.632120 0.000000 51.000000 15.151191 27.000000
13.007876 13.598539 50.763529 0.000000 38.000000 14.639651 7.000000
15.626749 14.847741 48.112148 0.000000 6.000000 15.110859 10.000000
13.267946 13.752470 49.789691 0.000000 65.000000 14.713035 23.000000
12.714038 13.825605 46.067157 0.000000 63.000000 14.924815 12.000000
14.282914 13.798029 49.428871 0.000000 25.000000 14.476058 0.000000
16.936522 14.420900 48.697579 0.000000 24.000000 14.341372 0.000000
12.741381 13.783002 46.016132 0.000000 47.000000 14.876174 12.000000
12.802832 13.191131 51.045974 0.000000 56.000000 14.305369 0.000000
12.856005 13.828410 45.815112 0.000000 73.000000 14.887634 12.000000
18.203175 14.921122 50.656127 0.000000 41.000000 14.479051 29.000000
13.021347 13.284379 50.926730 0.000000 42.000000 14.334433 0.000000
13.112288 13.341039 49.678386 0.000000 34.000000 14.360096 0.000000
14.361535 14.025471 46.611176 0.000000 54.000000 14.664578 24.000000
13.403761 13.341156 49.603395 0.000000 30.000000 14.279664 0.000000
15.815074 14.272469 48.943724 0.000000 64.000000 14.508460 0.000000
13.183148 13.809285 50.930913 0.000000 65.000000 14.794440 7.000000
14.663852 14.017318 49.346776 0.000000 53.000000 14.581635 0.000000
14.482214 13.741658 49.261139 0.000000 41.000000 14.366446 0.000000
15.116108 13.735396 50.459514 0.000000 26.000000 14.189340 0.000000
14.527604 14.145774 50.107860 0.000000 67.000000 14.744945 23.000000
15.218345 13.806885 50.435530 0.000000 29.000000 14.229816 0.000000
15.216599 13.829953 49.211077 0.000000 24.000000 14.248800 0.000000
15.307067 13.899361 50.408273 0.000000 34.000000 14.294181 0.000000
15.598990 14.303143 49.446681 0.000000 57.000000 14.599000 2.000000
16.267004 14.633286 44.940786 0.000000 45.000000 14.718766 16.000000
15.425660 13.970646 49.178398 0.000000 32.000000 14.326337 0.000000
15.563478 13.981319 50.401538 0.000000 35.000000 14.302286 0.000000
16.381959 14.636560 45.887528 0.000000 53.000000 14.693074 17.000000
15.690788 14.023308 50.402247 0.000000 33.000000 14.307570 0.000000
13.170178 13.608008 49.188328 0.000000 49.000000 14.599306 13.000000
13.723223 14.104755 48.693809 0.000000 72.000000 14.922934 26.000000
13.656470 13.864542 46.466781 0.000000 67.000000 14.703740 11.000000
14.323722 14.322558 46.911444 0.000000 70.000000 14.961482 24.000000
16.113053 14.106460 50.439803 0.000000 28.000000 14.271252 0.000000
16.110405 14.132776 49.211545 0.000000 24.000000 14.293596 0.000000
12.749253 13.677408 45.008178 0.000000 48.000000 14.769477 5.000000
14.913087 13.920295 50.138358 0.000000 53.000000 14.422062 0.000000
13.591166 14.067897 47.781027 0.000000 60.000000 14.921157 27.000000
14.622820 14.418974 46.518683 0.000000 65.000000 14.970565 24.000000
16.634899 14.868040 50.293217 0.000000 47.000000 14.859099 22.000000
15.070096 14.362003 46.001444 0.000000 33.000000 14.790995 18.000000
15.267974 14.577831 46.133622 0.000000 54.000000 14.944334 18.000000
13.875400 13.895513 45.766535 0.000000 59.000000 14.671082 11.000000
17.809068 14.557005 49.692508 0.000000 26.000000 14.234746 0.000000
17.859280 14.663825 50.939926 0.000000 39.000000 14.327334 0.000000
17.861538 14.651634 49.730613 0.000000 32.000000 14.311366 0.000000
16.432229 14.632481 47.268323 0.000000 70.000000 14.679441 14.000000
18.069534 14.737583 49.855448 0.000000 30.000000 14.337045 0.000000
14.323413 14.353253 46.281985 0.000000 64.000000 14.989186 24.000000
18.096820 14.996544 46.155084 0.000000 42.000000 14.567364 1.000000
16.548410 14.882131 45.714580 0.000000 41.000000 14.882750 17.000000
16.933339 14.573097 49.867433 0.000000 58.000000 14.492061 22.000000
13.326150 13.744232 48.752131 0.000000 44.000000 14.685966 19.000000
12.410702 13.179094 47.040901 0.000000 38.000000 14.389847 0.000000
12.557988 13.172269 45.934371 0.000000 30.000000 14.339381 0.000000
12.618434 13.180932 46.029189 0.000000 27.000000 14.331336 0.000000
12.766285 13.741701 47.456792 0.000000 49.000000 14.833929 19.000000
12.674391 13.194103 46.124721 0.000000 26.000000 14.328864 0.000000
12.622118 13.157408 47.315522 0.000000 33.000000 14.311565 0.000000
16.607196 14.674023 49.745578 0.000000 48.000000 14.678587 22.000000
12.673371 13.172498 47.408556 0.000000 36.000000 14.312226 0.000000
12.772064 13.229204 46.323693 0.000000 24.000000 14.336287 0.000000
12.720570 13.190567 47.503507 0.000000 38.000000 14.316874 0.000000
15.468481 14.168604 49.426177 0.000000 29.000000 14.505573 2.000000
12.814484 13.794019 45.909728 0.000000 55.000000 14.866300 12.000000
12.847507 13.278829 46.530800 0.000000 26.000000 14.363822 0.000000
12.815195 13.214777 47.704645 0.000000 34.000000 14.314674 0.000000
13.928620 14.079150 46.565869 0.000000 58.000000 14.835340 11.000000
12.892209 13.248792 47.909626 0.000000 33.000000 14.326764 0.000000
18.235534 14.990350 48.326551 0.000000 56.000000 14.529696 28.000000
13.016935 13.300008 46.978408 0.000000 29.000000 14.338834 0.000000
13.646160 14.054176 47.430772 0.000000 68.000000 14.891763 27.000000
13.270609 13.730333 48.849577 0.000000 43.000000 14.688203 19.000000
13.120902 13.337926 48.814212 0.000000 40.000000 14.352139 0.000000
13.920617 13.930686 45.773853 0.000000 70.000000 14.692455 11.000000
13.209602 13.345523 50.213552 0.000000 34.000000 14.339195 0.000000
12.795002 13.718833 47.883084 0.000000 72.000000 14.805311 19.000000
13.203222 13.322712 50.485546 0.000000 39.000000 14.319841 0.000000
15.536107 14.552779 47.727292 0.000000 50.000000 14.851142 10.000000
13.188926 13.314677 49.677884 0.000000 30.000000 14.313635 0.000000
15.945204 14.308765 46.034829 0.000000 34.000000 14.498769 17.000000
14.621038 14.370152 46.228634 0.000000 59.000000 14.923255 24.000000
16.311550 14.618486 47.233234 0.000000 40.000000 14.699138 14.000000
12.895335 13.826837 49.239837 0.000000 71.000000 14.885553 13.000000
13.061086 13.286409 50.355951 0.000000 44.000000 14.323723 0.000000
16.607970 14.972421 48.338587 0.000000 56.000000 14.960999 9.000000
13.769455 13.989909 45.805497 0.000000 46.000000 14.791135 11.000000
13.563415 14.054853 47.483272 0.000000 55.000000 14.915372 27.000000
12.932089 13.231370 50.903350 0.000000 48.000000 14.308004 0.000000
12.891007 13.221157 51.037125 0.000000 43.000000 14.309908 0.000000
15.569733 14.459082 48.000625 0.000000 58.000000 14.752627 10.000000
14.022653 14.292860 47.798756 0.000000 49.000000 15.018559 27.000000
12.565006 13.174354 46.080013 0.000000 27.000000 14.339888 0.000000
16.113936 14.513377 48.055109 0.000000 50.000000 14.655019 10.000000
13.780836 13.818721 46.109343 0.000000 66.000000 14.624350 11.000000
14.558107 14.322604 45.019622 0.000000 47.000000 14.891265 3.000000
12.781448 13.227106 46.055959 0.000000 23.000000 14.330881 0.000000
16.696941 14.725542 50.368360 0.000000 44.000000 14.705248 22.000000
13.594238 13.309932 46.097235 0.000000 19.000000 14.186647 0.000000
13.671523 13.371926 46.113085 0.000000 22.000000 14.224991 0.000000
13.709804 13.487822 46.128385 0.000000 25.000000 14.325896 0.000000
12.884121 13.695414 50.843592 0.000000 71.000000 14.767118 7.000000
12.799041 13.510740 49.605790 0.000000 60.000000 14.609329 13.000000
15.858311 14.338344 49.130479 0.000000 57.000000 14.560429 0.000000
15.152234 13.809330 47.022828 0.000000 21.000000 14.240151 0.000000
15.136609 13.799137 48.254024 0.000000 27.000000 14.238350 0.000000
15.197553 13.855537 47.104364 0.000000 20.000000 14.272325 0.000000
15.143270 13.892093 48.317649 0.000000 35.000000 14.326062 0.000000
15.231360 13.912310 47.186837 0.000000 24.000000 14.317831 0.000000
15.213660 13.906375 48.404383 0.000000 31.000000 14.320654 0.000000
15.337149 14.143090 48.741041 0.000000 35.000000 14.515183 0.000000
15.226326 13.985570 48.478178 0.000000 35.000000 14.393514 0.000000
14.350043 14.086490 44.807254 0.000000 51.000000 14.720992 3.000000
13.889476 14.376043 50.132740 0.000000 8.000000 15.142218 23.000000
12.984629 13.506855 48.734777 0.000000 62.000000 14.551841 19.000000
16.519632 14.690505 50.152618 0.000000 59.000000 14.719781 22.000000
15.524954 13.983580 47.677446 0.000000 24.000000 14.306908 0.000000
15.450229 14.052141 48.857611 0.000000 30.000000 14.396944 0.000000
15.571065 13.997698 47.782533 0.000000 24.000000 14.308088 0.000000
12.624670 13.329115 49.359320 0.000000 47.000000 14.482048 0.000000
13.430701 13.584700 49.963608 0.000000 33.000000 14.507433 23.000000
13.840660 13.662472 45.696764 0.000000 49.000000 14.456429 11.000000
15.826270 14.610964 45.953030 0.000000 56.000000 14.821795 17.000000
16.993864 14.934452 50.795750 0.000000 43.000000 14.825528 22.000000
13.644431 13.771132 44.906406 0.000000 39.000000 14.612586 4.000000
15.094215 14.522864 46.159837 0.000000 45.000000 14.939456 18.000000
15.787626 14.067303 48.466581 0.000000 30.000000 14.317372 0.000000
15.811971 14.076537 48.586475 0.000000 34.000000 14.319899 0.000000
15.840465 14.074970 48.712687 0.000000 29.000000 14.310919 0.000000
14.394849 13.930561 45.759380 0.000000 62.000000 14.561609 24.000000
17.960342 15.061346 46.039294 0.000000 39.000000 14.666918 1.000000
16.541118 14.599876 50.644245 0.000000 65.000000 14.628215 21.000000
15.893511 14.096578 50.125801 0.000000 33.000000 14.321310 0.000000
15.868370 14.109805 49.084303 0.000000 31.000000 14.337830 0.000000
16.540491 14.621425 45.236923 0.000000 49.000000 14.632889 16.000000
15.921109 14.108230 50.374425 0.000000 40.000000 14.325651 0.000000
15.932686 14.107275 50.502519 0.000000 35.000000 14.321927 0.000000
15.909697 14.142631 50.616217 0.000000 37.000000 14.362590 0.000000
13.686283 14.200749 48.355870 0.000000 73.000000 15.024377 26.000000
12.536056 13.445178 46.713831 0.000000 55.000000 14.610104 6.000000
15.859203 14.098836 50.137970 0.000000 32.000000 14.332971 0.000000
12.982499 13.757487 46.070278 0.000000 34.000000 14.785365 12.000000
14.113600 14.569702 47.521760 0.000000 65.000000 15.258788 27.000000
15.807586 14.072579 50.546733 0.000000 32.000000 14.323180 0.000000
13.362759 13.720257 48.324598 0.000000 37.000000 14.651549 19.000000
15.762613 14.045969 50.822538 0.000000 34.000000 14.310821 0.000000
15.738271 14.028362 50.960613 0.000000 34.000000 14.301017 0.000000
12.378236 13.093339 48.894987 0.000000 30.000000 14.321918 0.000000
12.500585 13.110060 48.839850 0.000000 36.000000 14.304111 0.000000
12.605327 13.154695 48.781653 0.000000 34.000000 14.317980 0.000000
17.244090 14.999836 50.787580 0.000000 57.000000 14.819402 22.000000
14.616083 14.006396 49.178119 0.000000 49.000000 14.583794 0.000000
16.839575 14.569581 49.559322 0.000000 51.000000 14.513595 0.000000
12.829200 13.230161 48.672411 0.000000 31.000000 14.328505 0.000000
12.957274 13.233228 49.827504 0.000000 41.000000 14.299623 0.000000
13.243925 13.575671 46.219489 0.000000 37.000000 14.538997 0.000000
14.408246 14.085175 46.684410 0.000000 46.000000 14.709318 24.000000
