-52.937353 25.527566 -32.967691 0.000000 39.000000 14.130519 0.000000
-53.474425 24.933934 -31.242017 0.000000 60.000000 14.296436 21.000000
-49.951168 25.795619 -32.210506 0.000000 50.000000 14.164753 0.000000
-47.864440 25.386601 -30.446411 0.000000 44.000000 14.087466 0.000000
-50.094985 25.189954 -29.462347 0.000000 84.000000 14.625195 18.000000
-52.385451 26.294582 -34.021973 0.000000 51.000000 14.364011 7.000000
-52.573881 25.069224 -30.602641 0.000000 70.000000 14.505295 21.000000
-49.726596 24.870181 -28.275292 0.000000 69.000000 14.700688 30.000000
-49.079538 25.412315 -30.654069 0.000000 46.000000 14.233587 0.000000
-49.591428 25.495191 -31.368282 0.000000 50.000000 14.134799 0.000000
-50.063414 25.714084 -32.117167 0.000000 38.000000 14.141874 0.000000
-50.599632 25.946115 -31.727551 0.000000 73.000000 14.582891 1.000000
-51.477898 25.821867 -33.354415 0.000000 39.000000 14.023686 0.000000
-51.543768 25.038479 -29.910347 0.000000 71.000000 14.559770 20.000000
-50.213425 24.518672 -28.178769 0.000000 71.000000 14.491989 29.000000
-53.468505 25.102415 -32.105207 0.000000 53.000000 14.138218 0.000000
-52.030095 25.213955 -30.327660 0.000000 71.000000 14.649140 20.000000
-52.933663 24.642537 -29.284223 0.000000 73.000000 14.648489 23.000000
-49.855999 26.675137 -33.689985 0.000000 57.000000 14.422136 14.000000
-47.797871 26.122982 -32.057235 0.000000 51.000000 14.170613 0.000000
-49.032277 26.478235 -32.723718 0.000000 71.000000 14.456622 9.000000
-52.160060 26.383655 -34.342957 0.000000 45.000000 14.293148 0.000000
-48.790428 26.577215 -33.769040 0.000000 54.000000 14.130416 0.000000
-49.133784 25.108511 -30.087920 0.000000 44.000000 14.168071 0.000000
-51.929049 25.382725 -31.942041 0.000000 62.000000 14.204254 0.000000
-47.094514 26.511468 -32.913239 0.000000 49.000000 14.103594 0.000000
-53.971608 24.588392 -31.123690 0.000000 34.000000 14.102778 0.000000
-49.997257 24.522871 -28.225909 0.000000 51.000000 14.443663 30.000000
-51.232382 24.744544 -30.563036 0.000000 22.000000 14.003401 0.000000
-49.953188 24.938491 -29.939306 0.000000 40.000000 14.198899 0.000000
-50.152611 25.019203 -29.176061 0.000000 67.000000 14.581250 18.000000
-49.100905 24.781447 -29.566594 0.000000 39.000000 14.050835 0.000000
-52.604439 25.661270 -33.135865 0.000000 28.000000 14.138375 0.000000
-52.229783 24.238977 -29.566885 0.000000 46.000000 14.061378 0.000000
-50.157329 26.796415 -33.893145 0.000000 69.000000 14.509058 14.000000
-50.875063 24.855828 -28.772678 0.000000 73.000000 14.694486 30.000000
-51.252654 25.797421 -33.224263 0.000000 24.000000 14.011654 0.000000
-49.172437 25.668104 -31.614260 0.000000 24.000000 14.136542 0.000000
-49.490941 24.919188 -29.837903 0.000000 50.000000 14.142667 0.000000
-52.494143 25.409289 -32.566048 0.000000 31.000000 14.095013 0.000000
-53.049832 25.384559 -32.527246 0.000000 39.000000 14.176676 0.000000
-50.056992 25.086855 -29.999474 0.000000 64.000000 14.330250 2.000000
-51.005388 25.122400 -29.879028 0.000000 75.000000 14.560607 19.000000
-51.079134 25.475471 -31.775603 0.000000 37.000000 14.211372 0.000000
-47.915051 25.292907 -29.722425 0.000000 36.000000 14.271307 17.000000
-49.295759 26.194790 -32.981504 0.000000 31.000000 14.146060 0.000000
-53.589053 25.221847 -31.072453 0.000000 65.000000 14.640693 21.000000
-50.593446 24.910617 -29.013120 0.000000 74.000000 14.612111 30.000000
-52.182256 25.302250 -31.783255 0.000000 52.000000 14.228917 0.000000
-51.521572 24.343185 -29.063516 0.000000 38.000000 14.223820 24.000000
-48.164874 24.730248 -28.954392 0.000000 45.000000 14.072883 0.000000
-52.955753 25.052389 -30.686220 0.000000 69.000000 14.521721 21.000000
-50.781925 24.695868 -28.737086 0.000000 78.000000 14.545341 30.000000
-49.938212 25.112206 -29.372625 0.000000 42.000000 14.560746 18.000000
-50.203820 25.805599 -32.310770 0.000000 52.000000 14.178761 0.000000
-51.768174 24.688382 -29.979062 0.000000 44.000000 14.249987 20.000000
-50.501245 25.446353 -31.684064 0.000000 63.000000 14.123763 0.000000
-48.644427 25.846708 -32.022550 0.000000 36.000000 14.067128 0.000000
-48.744126 24.737161 -27.782863 0.000000 61.000000 14.596779 25.000000
-52.958879 25.276432 -32.215452 0.000000 56.000000 14.175291 0.000000
-52.280523 25.926647 -33.996781 0.000000 39.000000 14.018242 0.000000
-48.643989 24.848040 -29.091520 0.000000 52.000000 14.209373 0.000000
-49.239000 24.735449 -29.550401 0.000000 39.000000 14.036907 0.000000
-52.471436 25.362405 -32.369554 0.000000 48.000000 14.119285 0.000000
-51.540783 24.533096 -29.777787 0.000000 41.000000 14.143181 0.000000
-52.033800 25.426360 -32.257964 0.000000 49.000000 14.147178 0.000000
-51.980211 24.913071 -29.539409 0.000000 73.000000 14.649639 28.000000
-52.263653 26.447071 -34.909490 0.000000 46.000000 14.163479 0.000000
-48.098854 26.691743 -33.155584 0.000000 38.000000 14.344822 13.000000
-53.231855 24.660943 -29.454873 0.000000 77.000000 14.652200 23.000000
-52.508938 25.390101 -32.162927 0.000000 62.000000 14.225482 0.000000
-51.356125 26.607968 -34.656454 0.000000 39.000000 14.255097 12.000000
-51.931120 25.598852 -32.478136 0.000000 50.000000 14.209288 0.000000
-53.050068 25.354775 -32.459889 0.000000 33.000000 14.173711 0.000000
-52.135935 25.652907 -32.535670 0.000000 56.000000 14.271426 0.000000
-52.969072 25.204228 -31.668777 0.000000 58.000000 14.308215 15.000000
-50.400028 25.911831 -32.692290 0.000000 49.000000 14.170321 0.000000
-52.057140 25.263510 -31.749216 0.000000 60.000000 14.185308 0.000000
-51.147230 25.462011 -31.738046 0.000000 51.000000 14.223658 0.000000
-51.235868 25.269866 -29.754033 0.000000 66.000000 14.778644 19.000000
-48.674078 25.975670 -32.164757 0.000000 45.000000 14.138962 0.000000
-50.089127 25.302872 -30.998748 0.000000 48.000000 14.172686 0.000000
-49.761186 25.708033 -31.977960 0.000000 33.000000 14.137488 0.000000
-47.120115 26.495517 -32.954210 0.000000 22.000000 14.078305 0.000000
-51.511990 25.846549 -33.499512 0.000000 39.000000 13.999454 0.000000
-47.679687 25.700296 -30.863938 0.000000 45.000000 14.194554 0.000000
-54.188846 24.563459 -30.134493 0.000000 75.000000 14.472685 22.000000
-50.388924 26.263601 -33.747777 0.000000 36.000000 14.110052 0.000000
-48.127250 26.202845 -31.564319 0.000000 62.000000 14.475621 5.000000
-49.968646 25.130312 -30.518434 0.000000 48.000000 14.168242 0.000000
-53.363860 24.632960 -30.007055 0.000000 76.000000 14.448420 27.000000
-51.818880 25.101579 -31.266465 0.000000 56.000000 14.172355 0.000000
-53.395922 24.690968 -31.452882 0.000000 29.000000 13.984394 0.000000
-53.553192 25.243105 -31.077110 0.000000 34.000000 14.652697 21.000000
-50.059861 26.474439 -33.184849 0.000000 54.000000 14.453561 6.000000
-52.272350 25.105196 -31.495080 0.000000 48.000000 14.166785 0.000000
-49.455643 25.649185 -31.762294 0.000000 26.000000 14.111719 0.000000
-48.830127 25.674485 -31.468417 0.000000 31.000000 14.139452 0.000000
-48.264952 25.674384 -31.217102 0.000000 25.000000 14.138291 0.000000
-47.668326 25.698632 -30.930603 0.000000 29.000000 14.167088 0.000000
-48.347987 24.965988 -29.389172 0.000000 39.000000 14.161973 0.000000
-49.008878 25.007483 -29.723011 0.000000 55.000000 14.186878 0.000000
-51.059821 24.493618 -29.410639 0.000000 43.000000 14.161419 0.000000
-48.752635 25.073576 -29.705564 0.000000 52.000000 14.212204 0.000000
-50.070850 25.509642 -31.697909 0.000000 36.000000 14.106891 0.000000
-48.224350 26.283357 -32.538529 0.000000 52.000000 14.213266 0.000000
-49.509940 24.907727 -29.843585 0.000000 46.000000 14.133180 0.000000
-52.097603 24.873231 -29.640595 0.000000 80.000000 14.595580 28.000000
-53.829696 24.657896 -30.144996 0.000000 39.000000 14.497203 27.000000
-50.596606 25.066756 -30.650810 0.000000 32.000000 14.164147 0.000000
-52.527386 25.254947 -31.957782 0.000000 56.000000 14.178529 0.000000
-48.882263 26.435027 -33.227048 0.000000 50.000000 14.210666 0.000000
-51.659671 25.037779 -31.151204 0.000000 45.000000 14.129546 0.000000
-51.925718 24.626932 -30.080767 0.000000 36.000000 14.182428 0.000000
-49.747483 26.593013 -34.209772 0.000000 47.000000 14.141250 0.000000
-50.086954 24.682431 -28.235929 0.000000 47.000000 14.601122 30.000000
-49.216044 25.909789 -32.545776 0.000000 34.000000 14.028896 0.000000
-52.293043 25.157160 -31.177046 0.000000 21.000000 14.332792 16.000000
-49.225794 24.735399 -28.757374 0.000000 53.000000 14.321301 30.000000
-48.156128 25.217001 -29.745532 0.000000 47.000000 14.232461 0.000000
-50.713312 24.779342 -29.264867 0.000000 74.000000 14.420094 30.000000
-50.635359 24.889462 -29.909873 0.000000 51.000000 14.275431 19.000000
-49.897122 25.119503 -29.188728 0.000000 73.000000 14.627223 18.000000
-51.243152 24.563805 -29.555729 0.000000 44.000000 14.203234 0.000000
-50.547521 24.783348 -28.481330 0.000000 78.000000 14.679975 30.000000
-51.052331 25.410521 -31.814837 0.000000 58.000000 14.133203 0.000000
-50.563203 25.430960 -31.671512 0.000000 60.000000 14.124239 0.000000
-50.161796 25.305723 -30.698091 0.000000 34.000000 14.295771 0.000000
-49.548675 25.476541 -31.333091 0.000000 48.000000 14.123442 0.000000
-49.064085 25.490120 -31.171182 0.000000 33.000000 14.115634 0.000000
-48.661726 26.468828 -33.664488 0.000000 33.000000 14.047761 0.000000
-52.048980 25.972945 -33.555065 0.000000 29.000000 14.182733 0.000000
-49.807338 25.103454 -29.485287 0.000000 63.000000 14.490719 18.000000
-50.625782 24.604403 -28.252801 0.000000 71.000000 14.610990 30.000000
-53.926386 24.419045 -30.137215 0.000000 61.000000 14.296438 22.000000
-52.876461 24.698854 -29.702078 0.000000 66.000000 14.539890 27.000000
-48.404412 25.970827 -31.830360 0.000000 63.000000 14.211518 0.000000
-50.847794 24.553363 -29.522695 0.000000 44.000000 14.141306 0.000000
-47.460766 25.874934 -31.414901 0.000000 46.000000 14.120193 0.000000
-52.225932 24.476960 -29.512287 0.000000 62.000000 14.298983 27.000000
-50.055623 25.941934 -32.716526 0.000000 43.000000 14.133206 0.000000
-50.800560 24.812816 -29.663219 0.000000 81.000000 14.321055 19.000000
-51.982814 25.779195 -33.107214 0.000000 45.000000 14.155933 0.000000
-51.393306 24.931801 -29.929343 0.000000 80.000000 14.430498 19.000000
-47.341387 26.198581 -32.126696 0.000000 43.000000 14.140704 0.000000
-51.248233 24.564791 -28.744966 0.000000 67.000000 14.497962 24.000000
-49.518645 26.690025 -33.799486 0.000000 55.000000 14.341385 14.000000
-52.559279 24.566942 -30.313129 0.000000 45.000000 14.146384 0.000000
-49.226733 25.919439 -32.386319 0.000000 59.000000 14.097119 0.000000
-51.955407 26.031330 -33.687593 0.000000 47.000000 14.173231 0.000000
-49.084238 24.710683 -28.216026 0.000000 43.000000 14.471228 25.000000
-50.782122 25.878351 -32.854831 0.000000 26.000000 14.142965 0.000000
-47.687369 26.276510 -32.513174 0.000000 34.000000 14.128837 0.000000
-47.766057 26.422285 -32.768362 0.000000 40.000000 14.183251 0.000000
-47.938294 26.517860 -33.129404 0.000000 52.000000 14.168530 0.000000
-53.564329 24.474010 -29.676131 0.000000 87.000000 14.454666 23.000000
-48.546578 25.905221 -31.948032 0.000000 56.000000 14.131872 0.000000
-53.717582 24.934549 -31.884598 0.000000 34.000000 14.104316 0.000000
-52.285515 24.545072 -30.096979 0.000000 46.000000 14.159908 0.000000
-49.287568 24.872480 -29.775462 0.000000 38.000000 14.089283 0.000000
-51.656610 24.160201 -29.271842 0.000000 37.000000 14.002486 0.000000
-50.843774 25.978171 -32.016443 0.000000 64.000000 14.547616 1.000000
-53.674804 24.194690 -30.145900 0.000000 24.000000 14.046408 0.000000
-49.010839 24.778660 -28.872815 0.000000 44.000000 14.284354 4.000000
-47.861866 25.906795 -31.828167 0.000000 47.000000 14.065311 0.000000
-48.807873 24.867204 -28.264178 0.000000 55.000000 14.552601 25.000000
-48.985231 24.793359 -27.408923 0.000000 65.000000 14.822712 26.000000
-51.768903 25.242019 -31.557776 0.000000 52.000000 14.187897 0.000000
-52.354682 25.409512 -32.353687 0.000000 50.000000 14.149287 0.000000
-52.694067 25.469031 -32.808243 0.000000 49.000000 14.094843 0.000000
-51.333605 24.979500 -29.065526 0.000000 72.000000 14.776755 28.000000
-50.769600 25.736104 -32.526692 0.000000 33.000000 14.128911 0.000000
-52.211196 26.735139 -34.811180 0.000000 69.000000 14.454963 12.000000
-52.892373 25.524622 -32.994703 0.000000 45.000000 14.110742 0.000000
-49.868738 24.827767 -28.257850 0.000000 49.000000 14.691160 30.000000
-52.293938 25.819586 -33.595856 0.000000 44.000000 14.067014 0.000000
-52.072760 24.682502 -29.610758 0.000000 63.000000 14.427209 28.000000
-51.934496 25.461630 -32.392473 0.000000 41.000000 14.114806 0.000000
-47.914917 25.711358 -30.674832 0.000000 55.000000 14.311295 0.000000
-52.516152 24.665686 -30.889352 0.000000 31.000000 14.021795 0.000000
-53.945470 24.481661 -30.339138 0.000000 58.000000 14.284059 27.000000
-52.933475 24.762408 -30.619163 0.000000 58.000000 14.276091 21.000000
-53.491727 24.585468 -30.751453 0.000000 41.000000 14.156592 0.000000
-51.573622 25.670191 -32.682479 0.000000 42.000000 14.142817 0.000000
-50.702927 24.851730 -28.871454 0.000000 69.000000 14.627041 30.000000
-52.387288 24.876048 -29.684270 0.000000 72.000000 14.629481 27.000000
-47.248428 26.403024 -31.779281 0.000000 62.000000 14.438846 10.000000
-51.658661 26.335111 -34.385731 0.000000 31.000000 14.151601 0.000000
-52.471090 25.217711 -31.934633 0.000000 44.000000 14.143554 0.000000
-46.864601 26.337645 -31.898593 0.000000 46.000000 14.273298 10.000000
-52.615806 25.944819 -34.190973 0.000000 43.000000 14.019260 0.000000
-53.356232 24.928974 -31.777209 0.000000 37.000000 14.079255 0.000000
-49.567302 25.014380 -28.175365 0.000000 76.000000 14.843295 30.000000
-53.311236 25.171736 -32.222387 0.000000 49.000000 14.133948 0.000000
-51.825929 25.466731 -32.065885 0.000000 61.000000 14.219862 0.000000
-49.497656 24.405098 -28.060025 0.000000 26.000000 14.314252 30.000000
-52.833800 25.088209 -31.832257 0.000000 25.000000 14.120622 0.000000
-48.402185 25.365228 -30.657079 0.000000 50.000000 14.079139 0.000000
-50.545651 25.126380 -29.599888 0.000000 78.000000 14.590391 18.000000
-51.542419 24.669516 -29.519377 0.000000 38.000000 14.362084 28.000000
-51.811517 24.703900 -28.943713 0.000000 55.000000 14.645440 24.000000
-50.271531 26.337884 -33.141803 0.000000 59.000000 14.378156 6.000000
-49.547421 24.918157 -29.434958 0.000000 56.000000 14.296521 18.000000
-54.069674 24.388016 -30.588497 0.000000 46.000000 14.128160 0.000000
-53.253594 24.329414 -29.743853 0.000000 58.000000 14.246914 23.000000
-50.664140 26.315220 -34.041897 0.000000 36.000000 14.095900 0.000000
-48.073903 25.319121 -29.855270 0.000000 55.000000 14.273194 17.000000
-52.473791 26.305562 -34.128144 0.000000 67.000000 14.350086 7.000000
-51.910832 24.957232 -31.132102 0.000000 42.000000 14.103332 0.000000
-53.747114 24.878742 -31.057809 0.000000 64.000000 14.356667 21.000000
-51.889995 25.172932 -30.087213 0.000000 64.000000 14.675591 20.000000
-52.766779 25.324541 -32.368550 0.000000 61.000000 14.132902 0.000000
-53.017721 25.520356 -33.010283 0.000000 52.000000 14.121573 0.000000
-48.104588 25.286602 -29.332214 0.000000 59.000000 14.437350 3.000000
-53.640085 24.710948 -31.629345 0.000000 32.000000 13.978665 0.000000
-51.962746 24.738262 -30.929702 0.000000 37.000000 13.983873 0.000000
-49.502585 25.346907 -30.698172 0.000000 58.000000 14.226376 0.000000
-53.512344 24.078491 -29.984663 0.000000 33.000000 13.971577 0.000000
-48.142820 25.012050 -29.612393 0.000000 44.000000 14.090239 0.000000
-47.856398 26.167436 -32.118658 0.000000 37.000000 14.198746 0.000000
-49.098512 25.351387 -30.679859 0.000000 61.000000 14.171412 0.000000
-51.901545 26.705313 -34.626085 0.000000 67.000000 14.444125 12.000000
-52.480460 25.215753 -31.466300 0.000000 62.000000 14.312527 16.000000
-51.174815 24.752565 -30.538354 0.000000 39.000000 14.010326 0.000000
-50.126468 25.158310 -29.996514 0.000000 71.000000 14.408221 2.000000
-53.218062 25.264927 -32.278757 0.000000 53.000000 14.183990 0.000000
-50.884124 25.416648 -31.434201 0.000000 50.000000 14.249036 0.000000
-51.178703 24.999272 -29.738387 0.000000 75.000000 14.526563 19.000000
-51.214730 25.763584 -32.530472 0.000000 60.000000 14.225147 0.000000
-50.852532 25.213968 -31.092182 0.000000 67.000000 14.181412 0.000000
-47.771039 26.009232 -32.039016 0.000000 42.000000 14.068397 0.000000
-53.191719 25.186776 -32.139828 0.000000 48.000000 14.158160 0.000000
-50.288951 25.302254 -30.978668 0.000000 39.000000 14.211863 0.000000
-54.131148 24.428065 -30.630705 0.000000 57.000000 14.159672 0.000000
-52.688113 25.370535 -32.138473 0.000000 61.000000 14.245487 0.000000
-50.660520 26.262177 -33.843757 0.000000 27.000000 14.118216 0.000000
-49.009879 26.325790 -33.212177 0.000000 62.000000 14.136495 0.000000
-50.995812 24.931419 -30.479631 0.000000 54.000000 14.166656 0.000000
-49.444555 25.708320 -31.711593 0.000000 25.000000 14.182533 0.000000
-51.384340 26.639561 -34.432676 0.000000 67.000000 14.369561 12.000000
-52.590753 25.424762 -32.677375 0.000000 41.000000 14.084695 0.000000
-51.833693 25.405005 -32.030863 0.000000 49.000000 14.177108 0.000000
-52.305600 25.670639 -32.707501 0.000000 60.000000 14.253194 0.000000
-47.875597 26.237231 -32.566972 0.000000 47.000000 14.103935 0.000000
-53.559798 24.683748 -31.547133 0.000000 26.000000 13.970348 0.000000
-50.532359 25.771854 -32.436541 0.000000 46.000000 14.155742 0.000000
-48.572422 26.291427 -32.423140 0.000000 39.000000 14.318966 9.000000
-54.022693 24.606016 -29.841459 0.000000 73.000000 14.590642 22.000000
-50.187574 25.409921 -31.525219 0.000000 47.000000 14.096719 0.000000
-48.175613 24.751329 -29.052767 0.000000 30.000000 14.058434 0.000000
-51.641164 24.570650 -29.182794 0.000000 64.000000 14.409002 28.000000
-51.778854 24.235355 -29.365163 0.000000 41.000000 14.057637 0.000000
-51.949259 25.023195 -29.976403 0.000000 72.000000 14.587793 20.000000
-46.975744 26.098729 -31.538201 0.000000 52.000000 14.202251 0.000000
-48.825174 24.796291 -29.364828 0.000000 47.000000 14.092549 0.000000
-52.511361 25.251007 -32.370589 0.000000 27.000000 14.023124 0.000000
-51.154353 25.124958 -30.930192 0.000000 54.000000 14.207302 0.000000
-52.709378 25.843712 -34.110940 0.000000 37.000000 13.970566 0.000000
-53.168285 24.801789 -31.554672 0.000000 41.000000 14.012347 0.000000
-50.466626 26.290720 -33.179951 0.000000 66.000000 14.352787 6.000000
-52.589929 24.330777 -29.469724 0.000000 41.000000 14.239329 0.000000
-51.587223 25.203410 -31.417776 0.000000 28.000000 14.173504 0.000000
-49.734203 25.399998 -31.319141 0.000000 63.000000 14.088371 0.000000
-49.744094 25.470589 -31.442712 0.000000 36.000000 14.110134 0.000000
-53.688378 24.652415 -30.992761 0.000000 45.000000 14.162826 0.000000
-52.662964 25.646775 -33.343044 0.000000 45.000000 14.059711 0.000000
-48.339858 26.676166 -32.969766 0.000000 56.000000 14.436855 13.000000
-52.837647 24.951964 -29.911480 0.000000 71.000000 14.690293 27.000000
-49.408206 25.242021 -30.495751 0.000000 32.000000 14.187884 0.000000
-49.631586 25.479019 -31.566358 0.000000 46.000000 14.054899 0.000000
-49.204773 24.745764 -28.529696 0.000000 41.000000 14.409679 30.000000
-50.451909 24.948765 -28.706190 0.000000 67.000000 14.735044 30.000000
-49.968801 25.875626 -32.327780 0.000000 54.000000 14.198697 0.000000
-53.686704 24.940226 -30.872748 0.000000 71.000000 14.470174 21.000000
-50.053975 25.485433 -31.554168 0.000000 62.000000 14.133866 0.000000
-50.513329 25.047300 -29.747386 0.000000 64.000000 14.459227 18.000000
-50.794379 25.690018 -32.406868 0.000000 41.000000 14.133929 0.000000
-51.158230 25.802500 -32.838665 0.000000 45.000000 14.140315 0.000000
-50.856539 25.718090 -32.459165 0.000000 46.000000 14.150910 0.000000
-48.025135 26.621811 -33.043431 0.000000 44.000000 14.309159 13.000000
-50.888370 24.537424 -29.458936 0.000000 44.000000 14.156310 0.000000
-47.714644 25.941962 -31.578027 0.000000 58.000000 14.164059 0.000000
-48.082501 25.995848 -32.054900 0.000000 47.000000 14.101008 0.000000
-52.577892 25.060309 -31.495591 0.000000 48.000000 14.175065 0.000000
-48.929790 26.523294 -33.436096 0.000000 61.000000 14.223888 0.000000
-48.252708 26.796842 -33.007482 0.000000 69.000000 14.519852 13.000000
-52.608883 24.665735 -30.981831 0.000000 40.000000 14.003496 0.000000
-48.327452 25.187169 -29.860148 0.000000 41.000000 14.191505 0.000000
-50.362810 25.182910 -30.098064 0.000000 54.000000 14.432534 2.000000
-48.879533 26.537425 -33.828370 0.000000 64.000000 14.086930 0.000000
-49.127201 25.638486 -31.499511 0.000000 40.000000 14.143462 0.000000
-51.975964 25.228499 -31.594579 0.000000 63.000000 14.195849 0.000000
-47.170393 26.452522 -32.518729 0.000000 58.000000 14.204380 0.000000
-46.735638 26.364934 -32.207342 0.000000 47.000000 14.165809 0.000000
-52.070450 24.705136 -30.258815 0.000000 55.000000 14.213417 0.000000
-52.325656 24.909406 -31.187464 0.000000 46.000000 14.106858 0.000000
-53.416873 24.746049 -30.124295 0.000000 75.000000 14.518501 27.000000
-50.277542 25.392381 -31.600714 0.000000 24.000000 14.067960 0.000000
-48.319933 25.362784 -30.016781 0.000000 66.000000 14.294916 17.000000
-48.707732 26.737962 -33.197882 0.000000 61.000000 14.470965 13.000000
-53.208928 24.980381 -30.001322 0.000000 74.000000 14.744281 27.000000
-49.522369 25.336699 -30.718082 0.000000 60.000000 14.213025 0.000000
-50.011682 25.347022 -31.244311 0.000000 55.000000 14.111888 0.000000
-50.557359 25.158898 -30.890491 0.000000 50.000000 14.155748 0.000000
-51.412221 26.457396 -34.996857 0.000000 29.000000 14.002956 0.000000
-48.338622 26.618271 -33.373270 0.000000 32.000000 14.237679 0.000000
-51.654860 25.733312 -32.931078 0.000000 34.000000 14.124139 0.000000
-51.692948 24.947270 -30.927191 0.000000 53.000000 14.132812 0.000000
-52.007916 25.915393 -33.723267 0.000000 42.000000 14.062431 0.000000
-52.389720 25.234396 -31.167209 0.000000 36.000000 14.422978 16.000000
-50.765795 26.242899 -33.772885 0.000000 25.000000 14.143244 0.000000
-51.865959 25.623529 -32.530747 0.000000 59.000000 14.202338 0.000000
-50.216856 25.582778 -31.764808 0.000000 48.000000 14.173602 0.000000
-49.738438 25.540693 -31.550202 0.000000 45.000000 14.134734 0.000000
-53.652447 24.712616 -31.689266 0.000000 29.000000 13.960551 0.000000
-54.234119 24.630033 -30.035683 0.000000 81.000000 14.576878 22.000000
-50.988108 26.595611 -34.283682 0.000000 51.000000 14.318632 12.000000
-51.491612 25.171775 -31.331366 0.000000 52.000000 14.160141 0.000000
-52.090180 25.808375 -33.345666 0.000000 42.000000 14.114008 0.000000
-51.249543 25.639338 -32.501682 0.000000 29.000000 14.127136 0.000000
-52.332425 26.476973 -34.101269 0.000000 61.000000 14.494193 7.000000
-51.122359 25.136842 -30.989526 0.000000 58.000000 14.191568 0.000000
-50.297212 25.719429 -32.333824 0.000000 38.000000 14.106497 0.000000
-49.703198 25.703336 -31.980616 0.000000 40.000000 14.122788 0.000000
-49.162025 25.666124 -31.662924 0.000000 33.000000 14.115445 0.000000
-51.398116 24.792647 -30.720791 0.000000 40.000000 14.017502 0.000000
-50.788849 24.816535 -28.523004 0.000000 74.000000 14.734621 30.000000
-52.093277 25.225483 -30.273283 0.000000 76.000000 14.689648 20.000000
-48.607405 25.698042 -31.383724 0.000000 40.000000 14.155476 0.000000
-52.978095 24.707793 -29.288034 0.000000 74.000000 14.714250 23.000000
-53.516183 24.962712 -31.863765 0.000000 45.000000 14.104957 0.000000
-53.380647 24.744402 -31.482595 0.000000 33.000000 14.020232 0.000000
-51.022903 24.822226 -29.020739 0.000000 72.000000 14.598026 28.000000
-47.588373 26.275556 -32.402926 0.000000 40.000000 14.151708 0.000000
-53.330143 25.122306 -30.906284 0.000000 72.000000 14.567257 21.000000
-51.478729 24.443086 -28.965541 0.000000 46.000000 14.343983 24.000000
-51.495322 24.875330 -29.358324 0.000000 73.000000 14.601593 28.000000
-46.860250 26.534586 -32.673676 0.000000 56.000000 14.173306 0.000000
-49.737225 24.805092 -28.165776 0.000000 72.000000 14.682233 30.000000
-47.726693 26.149588 -31.938354 0.000000 51.000000 14.226430 0.000000
-53.113025 25.283200 -32.310171 0.000000 49.000000 14.172337 0.000000
-53.622695 24.845304 -30.419675 0.000000 67.000000 14.536349 27.000000
-49.944193 25.391178 -31.264264 0.000000 61.000000 14.134245 0.000000
-53.556874 24.500490 -29.635352 0.000000 78.000000 14.492504 23.000000
-51.012171 25.671985 -32.523541 0.000000 44.000000 14.110618 0.000000
-48.739297 25.408128 -30.824239 0.000000 24.000000 14.112928 0.000000
-48.490664 26.352048 -32.971855 0.000000 33.000000 14.163035 0.000000
-50.993678 24.945090 -28.927683 0.000000 54.000000 14.739709 28.000000
-50.384924 25.318554 -30.178736 0.000000 62.000000 14.531515 2.000000
-47.361228 25.881647 -31.091628 0.000000 55.000000 14.226999 0.000000
-50.072339 25.379975 -31.153174 0.000000 52.000000 14.184940 0.000000
-50.652382 25.244664 -31.072802 0.000000 45.000000 14.184058 0.000000
-48.068484 25.948214 -32.046050 0.000000 50.000000 14.058193 0.000000
-50.007201 26.687618 -34.239922 0.000000 34.000000 14.259440 0.000000
-47.567335 26.490361 -33.221646 0.000000 51.000000 14.049635 0.000000
-52.261762 24.887723 -30.371765 0.000000 64.000000 14.371342 20.000000
-48.445102 26.205495 -31.573302 0.000000 72.000000 14.526486 5.000000
-49.721954 25.077077 -28.441318 0.000000 75.000000 14.829892 30.000000
-48.379130 25.376510 -30.141231 0.000000 50.000000 14.272169 0.000000
-51.386523 25.480401 -32.114934 0.000000 51.000000 14.143246 0.000000
-47.908718 26.493782 -32.836912 0.000000 48.000000 14.247317 13.000000
-51.798231 24.908550 -30.455413 0.000000 63.000000 14.284872 20.000000
-48.904374 25.962564 -31.821778 0.000000 53.000000 14.288319 5.000000
-52.836726 25.240320 -32.120025 0.000000 54.000000 14.156761 0.000000
-52.473661 25.248403 -31.234724 0.000000 63.000000 14.425087 16.000000
-53.595639 24.771438 -30.867788 0.000000 51.000000 14.302190 21.000000
-53.681031 24.811901 -31.346968 0.000000 72.000000 14.180056 0.000000
-48.439179 25.316128 -30.032778 0.000000 42.000000 14.265686 0.000000
-53.493988 24.663414 -31.496971 0.000000 20.000000 13.959107 0.000000
-51.848972 24.690113 -29.326022 0.000000 60.000000 14.500711 28.000000
-52.176027 24.382810 -29.215594 0.000000 40.000000 14.311647 24.000000
-49.121585 24.893580 -28.115830 0.000000 72.000000 14.681433 25.000000
-52.862331 25.256122 -32.155772 0.000000 52.000000 14.162514 0.000000
-53.146340 24.828232 -30.667953 0.000000 61.000000 14.353503 21.000000
-48.049715 25.506504 -29.933692 0.000000 62.000000 14.412964 17.000000
-49.938877 25.832931 -32.652121 0.000000 35.000000 14.037421 0.000000
-53.657774 25.096305 -30.945849 0.000000 41.000000 14.582354 21.000000
-51.605802 24.543512 -29.991888 0.000000 38.000000 14.085943 0.000000
-53.202004 25.163461 -31.491791 0.000000 75.000000 14.372616 15.000000
-49.209085 25.569604 -31.299709 0.000000 36.000000 14.165738 0.000000
-53.222954 24.916183 -30.075548 0.000000 71.000000 14.660795 27.000000
-51.897551 25.254827 -31.530665 0.000000 57.000000 14.230370 0.000000
-51.020333 26.421322 -34.199585 0.000000 44.000000 14.194242 0.000000
-52.818279 24.789046 -29.886044 0.000000 74.000000 14.546756 27.000000
-49.053737 25.387260 -30.938431 0.000000 45.000000 14.103624 0.000000
-51.329001 26.266883 -34.079119 0.000000 23.000000 14.146165 0.000000
-50.333766 25.360804 -31.341045 0.000000 61.000000 14.141949 0.000000
-50.657018 25.432292 -31.746518 0.000000 46.000000 14.113609 0.000000
-51.169060 25.827294 -33.325191 0.000000 34.000000 13.989017 0.000000
-51.351418 24.855456 -28.980374 0.000000 75.000000 14.696535 28.000000
-50.109584 25.372351 -31.072464 0.000000 44.000000 14.213163 0.000000
-50.392999 24.800756 -29.922561 0.000000 46.000000 14.149998 0.000000
-53.560524 24.602497 -30.809943 0.000000 30.000000 14.162275 0.000000
-51.377122 24.612095 -28.974584 0.000000 56.000000 14.479368 28.000000
-50.656176 24.761902 -30.140934 0.000000 44.000000 14.078197 0.000000
-49.621572 24.838694 -29.020468 0.000000 79.000000 14.385409 18.000000
-49.606647 24.945922 -28.126572 0.000000 59.000000 14.804472 30.000000
-51.400106 26.508920 -34.769365 0.000000 34.000000 14.130505 0.000000
-53.969930 24.566685 -31.024269 0.000000 39.000000 14.118504 0.000000
-47.527626 25.648498 -30.817908 0.000000 33.000000 14.138909 0.000000
-51.166152 25.129468 -30.005271 0.000000 43.000000 14.547612 19.000000
-50.767939 25.776579 -32.574539 0.000000 46.000000 14.148511 0.000000
-50.927180 25.776419 -33.031710 0.000000 40.000000 14.009040 0.000000
-53.995378 24.583125 -31.037995 0.000000 50.000000 14.132775 0.000000
-49.276224 26.400631 -33.413476 0.000000 43.000000 14.175766 0.000000
-50.096093 25.327071 -30.979526 0.000000 47.000000 14.202983 0.000000
-47.878197 25.651208 -30.572059 0.000000 46.000000 14.287240 0.000000
-52.615517 25.389432 -32.460422 0.000000 51.000000 14.134686 0.000000
-49.121071 25.524383 -31.219869 0.000000 38.000000 14.138762 0.000000
-51.580679 25.475976 -32.109052 0.000000 55.000000 14.172876 0.000000
-51.054860 25.524221 -31.911529 0.000000 62.000000 14.203063 0.000000
-50.416902 24.892278 -28.529913 0.000000 65.000000 14.741193 30.000000
-53.956075 24.680507 -30.583655 0.000000 65.000000 14.379986 27.000000
-50.910295 25.933338 -31.890684 0.000000 47.000000 14.562716 1.000000
-49.296860 25.524369 -31.365435 0.000000 42.000000 14.114724 0.000000
-52.492309 25.867856 -34.039341 0.000000 33.000000 13.983316 0.000000
-49.006905 24.349979 -27.923907 0.000000 36.000000 14.233047 25.000000
-47.302176 25.973773 -31.172234 0.000000 73.000000 14.272852 0.000000
-51.152006 25.232265 -31.285347 0.000000 59.000000 14.177095 0.000000
-50.431308 26.068023 -33.184946 0.000000 39.000000 14.140774 0.000000
-53.854133 24.870518 -30.295194 0.000000 79.000000 14.642112 27.000000
-50.246947 25.899424 -32.734110 0.000000 50.000000 14.118928 0.000000
-51.014380 25.853127 -32.807167 0.000000 53.000000 14.174792 0.000000
-53.755981 24.999754 -31.126410 0.000000 75.000000 14.444422 21.000000
-48.245455 25.317520 -30.343215 0.000000 43.000000 14.123281 0.000000
-49.004002 24.778025 -29.530148 0.000000 27.000000 14.045110 0.000000
-50.266474 24.950767 -29.235067 0.000000 69.000000 14.515606 18.000000
-49.339433 24.736680 -28.262625 0.000000 66.000000 14.519747 30.000000
-52.069480 24.408990 -29.215319 0.000000 51.000000 14.318460 24.000000
-48.641424 25.423540 -30.870755 0.000000 39.000000 14.094356 0.000000
-49.191950 25.921545 -32.000477 0.000000 50.000000 14.232834 0.000000
-51.690399 25.684060 -32.774132 0.000000 27.000000 14.141415 0.000000
-51.991150 25.784752 -33.177067 0.000000 44.000000 14.137147 0.000000
-52.283817 25.891650 -33.581719 0.000000 49.000000 14.136642 0.000000
-47.630205 25.711735 -30.950837 0.000000 29.000000 14.165608 0.000000
-54.266780 24.214974 -30.489632 0.000000 35.000000 14.037059 0.000000
-53.358368 24.818878 -30.307053 0.000000 57.000000 14.509810 27.000000
-50.806759 25.250492 -31.185696 0.000000 69.000000 14.173710 0.000000
-47.512288 26.409590 -32.673583 0.000000 44.000000 14.164588 0.000000
-54.136760 24.388620 -30.621151 0.000000 51.000000 14.127821 0.000000
-52.497645 25.156776 -31.725468 0.000000 47.000000 14.167514 0.000000
-48.469449 25.008892 -28.718806 0.000000 80.000000 14.463372 4.000000
-51.293702 25.780794 -32.818753 0.000000 54.000000 14.149607 0.000000
-49.958743 24.903837 -29.791697 0.000000 51.000000 14.221329 0.000000
-49.805080 24.720417 -29.914690 0.000000 28.000000 13.983494 0.000000
-52.969640 24.695896 -30.560127 0.000000 52.000000 14.242238 21.000000
-51.747097 25.971690 -33.610805 0.000000 39.000000 14.112356 0.000000
-49.645689 25.054859 -29.236810 0.000000 75.000000 14.509616 18.000000
-51.899178 24.211712 -29.410617 0.000000 39.000000 14.039067 0.000000
-52.551603 24.622997 -30.071763 0.000000 57.000000 14.283828 27.000000
-50.325213 26.293262 -33.119040 0.000000 61.000000 14.354141 6.000000
-53.442799 24.218529 -29.870143 0.000000 47.000000 14.130230 0.000000
-49.170823 25.250057 -30.380214 0.000000 55.000000 14.198420 0.000000
-50.542985 26.630062 -34.381753 0.000000 38.000000 14.242451 0.000000
-50.009597 24.974752 -29.125252 0.000000 77.000000 14.535548 18.000000
-49.216028 25.906003 -32.099998 0.000000 44.000000 14.186514 0.000000
-48.667867 26.263420 -32.825250 0.000000 40.000000 14.163454 0.000000
-51.026565 25.779633 -32.643925 0.000000 33.000000 14.168289 0.000000
-49.689897 25.140020 -30.467391 0.000000 44.000000 14.150281 0.000000
-48.619453 24.585992 -28.489445 0.000000 36.000000 14.182369 0.000000
-53.881979 24.690573 -31.282485 0.000000 44.000000 14.124635 0.000000
-49.940911 25.020192 -29.502241 0.000000 53.000000 14.429863 18.000000
-49.854667 24.971837 -30.049816 0.000000 39.000000 14.173560 0.000000
-51.752105 24.699064 -30.591236 0.000000 37.000000 14.035953 0.000000
-50.547636 25.214517 -31.031185 0.000000 42.000000 14.154388 0.000000
-47.639987 25.583906 -30.551527 0.000000 47.000000 14.194138 0.000000
-49.559320 26.270308 -32.997504 0.000000 55.000000 14.252465 6.000000
-47.774092 26.041963 -30.559562 0.000000 41.000000 14.633595 0.000000
-52.459949 25.696070 -33.201732 0.000000 46.000000 14.123031 0.000000
-47.396722 26.431428 -31.909525 0.000000 68.000000 14.441967 10.000000
-51.838269 25.854806 -33.320096 0.000000 39.000000 14.124921 0.000000
-51.055921 24.773472 -29.063458 0.000000 71.000000 14.543194 28.000000
-52.982357 24.960537 -30.659487 0.000000 37.000000 14.451375 21.000000
-52.588088 25.713953 -33.371923 0.000000 33.000000 14.098779 0.000000
-51.841605 25.210663 -30.076051 0.000000 63.000000 14.706399 20.000000
-52.698496 25.261878 -32.051278 0.000000 46.000000 14.178924 0.000000
-50.987460 24.928051 -29.628509 0.000000 80.000000 14.469787 19.000000
-48.194331 26.226486 -32.135202 0.000000 60.000000 14.301926 9.000000
-50.324954 25.109571 -30.006435 0.000000 39.000000 14.392157 2.000000
-47.071080 26.067423 -31.546238 0.000000 50.000000 14.186104 0.000000
-52.134709 24.932724 -29.471770 0.000000 67.000000 14.717245 28.000000
-50.751861 26.506556 -34.698192 0.000000 40.000000 14.048660 0.000000
-48.940477 25.519767 -31.153413 0.000000 37.000000 14.129178 0.000000
-53.784838 25.038960 -30.317452 0.000000 75.000000 14.777454 27.000000
-50.458446 25.918969 -31.913576 0.000000 63.000000 14.467787 1.000000
-51.803399 25.890886 -33.552995 0.000000 41.000000 14.068212 0.000000
-52.682906 24.592004 -30.380939 0.000000 47.000000 14.164989 0.000000
-52.516339 25.480355 -32.768845 0.000000 49.000000 14.090582 0.000000
-50.636866 25.304153 -31.176633 0.000000 53.000000 14.198631 0.000000
-53.892626 24.619143 -30.583380 0.000000 85.000000 14.313429 27.000000
-48.650802 25.934790 -32.104053 0.000000 27.000000 14.119582 0.000000
-48.232999 25.886974 -31.955772 0.000000 44.000000 14.061339 0.000000
-53.671796 24.680880 -31.578498 0.000000 36.000000 13.974589 0.000000
-47.221813 25.904890 -31.413897 0.000000 42.000000 14.109210 0.000000
-51.698998 26.381750 -34.090333 0.000000 53.000000 14.307732 8.000000
-50.707575 24.539300 -29.405601 0.000000 45.000000 14.147912 0.000000
-48.437786 25.420738 -30.710876 0.000000 53.000000 14.116452 0.000000
-51.069254 25.284301 -31.310377 0.000000 58.000000 14.202371 0.000000
-51.379116 24.683164 -28.599704 0.000000 77.000000 14.680419 24.000000
-47.511320 25.740976 -30.617248 0.000000 20.000000 14.293680 0.000000
-48.146908 26.226063 -32.573542 0.000000 41.000000 14.135418 0.000000
-54.035545 24.763594 -30.423750 0.000000 60.000000 14.526978 27.000000
-50.091979 26.374932 -33.764836 0.000000 43.000000 14.157825 0.000000
-53.815983 24.788841 -31.131652 0.000000 56.000000 14.258637 21.000000
-52.510917 25.317268 -31.396408 0.000000 53.000000 14.435941 16.000000
-51.829361 25.103372 -29.946820 0.000000 70.000000 14.652603 20.000000
-52.484789 24.477816 -30.132232 0.000000 45.000000 14.117817 0.000000
-51.939158 24.916969 -29.476232 0.000000 65.000000 14.669374 28.000000
-50.187001 24.828804 -30.123936 0.000000 36.000000 14.069484 0.000000
-49.681796 24.853226 -29.941687 0.000000 25.000000 14.075629 0.000000
-52.873038 24.415031 -29.440109 0.000000 52.000000 14.373417 23.000000
-50.623775 24.787376 -29.925124 0.000000 32.000000 14.174307 0.000000
-48.394561 25.157368 -28.628517 0.000000 75.000000 14.620146 4.000000
-47.642624 26.307320 -32.234605 0.000000 45.000000 14.250521 0.000000
-52.402177 25.883342 -33.594109 0.000000 36.000000 14.143780 0.000000
-51.525163 26.375849 -34.461252 0.000000 38.000000 14.140007 0.000000
-48.468910 25.038610 -29.366677 0.000000 61.000000 14.256439 3.000000
-53.050537 25.057942 -30.835377 0.000000 67.000000 14.488327 21.000000
-49.407704 24.941518 -29.369059 0.000000 53.000000 14.319069 18.000000
-48.359384 26.655560 -33.542839 0.000000 57.000000 14.214011 0.000000
-49.421333 25.414884 -30.862773 0.000000 52.000000 14.216094 0.000000
-51.885740 24.691737 -30.720824 0.000000 18.000000 14.004122 0.000000
-48.632035 24.683346 -28.634326 0.000000 44.000000 14.221441 0.000000
-49.887364 25.213654 -30.660250 0.000000 51.000000 14.180296 0.000000
-51.394133 24.385580 -28.942584 0.000000 48.000000 14.285728 24.000000
-49.651768 25.007653 -29.510940 0.000000 50.000000 14.368197 18.000000
-51.845112 25.020441 -30.139129 0.000000 70.000000 14.509525 20.000000
-49.148417 24.834196 -28.093474 0.000000 77.000000 14.639352 25.000000
-51.587398 24.855100 -29.842563 0.000000 78.000000 14.422993 20.000000
-51.338062 24.598964 -29.829874 0.000000 41.000000 14.151874 0.000000
-52.092270 24.921778 -30.205919 0.000000 67.000000 14.434986 20.000000
-51.304515 25.464479 -31.926881 0.000000 49.000000 14.183254 0.000000
-49.501979 25.635901 -31.748773 0.000000 28.000000 14.111943 0.000000
-54.156419 24.496646 -30.366712 0.000000 52.000000 14.322149 0.000000
-52.248805 24.566979 -30.187529 0.000000 46.000000 14.141330 0.000000
-49.907240 25.902624 -32.651296 0.000000 52.000000 14.096562 0.000000
-52.031994 24.421118 -29.444429 0.000000 36.000000 14.240704 28.000000
-48.794538 25.641933 -31.360529 0.000000 39.000000 14.142767 0.000000
-50.234196 26.298603 -33.753846 0.000000 38.000000 14.114838 0.000000
-53.451265 25.148344 -32.243700 0.000000 41.000000 14.127535 0.000000
-48.077201 26.190365 -32.127675 0.000000 48.000000 14.252439 9.000000
-49.931884 26.683420 -33.768175 0.000000 54.000000 14.413822 14.000000
-49.803939 26.823472 -33.826944 0.000000 18.000000 14.500368 14.000000
-48.011433 25.600002 -30.743045 0.000000 23.000000 14.200097 0.000000
-51.068851 24.996049 -30.685575 0.000000 50.000000 14.163445 0.000000
-51.504169 25.448156 -32.092946 0.000000 42.000000 14.140715 0.000000
-50.240154 25.501859 -31.639782 0.000000 43.000000 14.148278 0.000000
-51.709828 24.692713 -29.685221 0.000000 59.000000 14.350667 28.000000
-49.421463 25.560783 -31.421749 0.000000 33.000000 14.148065 0.000000
-51.783703 25.244390 -29.986126 0.000000 75.000000 14.760449 20.000000
-53.491019 24.431401 -29.726644 0.000000 53.000000 14.385372 23.000000
-52.413529 24.760197 -30.910019 0.000000 39.000000 14.084415 0.000000
-52.543725 24.749783 -29.914828 0.000000 77.000000 14.455667 27.000000
-53.269776 25.110558 -32.033827 0.000000 46.000000 14.139180 0.000000
-53.292500 24.723673 -30.672085 0.000000 59.000000 14.279774 21.000000
-47.420294 25.654876 -30.787990 0.000000 28.000000 14.138126 0.000000
-54.159802 24.332727 -30.575141 0.000000 43.000000 14.096877 0.000000
-51.100940 25.034773 -30.661351 0.000000 53.000000 14.212970 0.000000
-50.819673 24.760739 -29.152951 0.000000 85.000000 14.460752 30.000000
-52.064386 25.683608 -32.816606 0.000000 57.000000 14.186455 0.000000
-50.902897 24.793247 -28.810705 0.000000 64.000000 14.627811 28.000000
-48.360441 26.619292 -32.988867 0.000000 67.000000 14.381081 13.000000
-48.694860 25.058547 -27.868612 0.000000 61.000000 14.852856 25.000000
-48.091759 25.408795 -30.148920 0.000000 56.000000 14.252310 17.000000
-47.463141 26.006597 -31.734205 0.000000 45.000000 14.126072 0.000000
-52.095551 24.522831 -30.017246 0.000000 35.000000 14.137417 0.000000
-52.978809 24.783011 -31.336427 0.000000 24.000000 14.043171 0.000000
-49.291558 25.417718 -31.102008 0.000000 38.000000 14.111141 0.000000
-53.344186 25.232831 -32.341834 0.000000 40.000000 14.152232 0.000000
-49.814955 25.068456 -29.226869 0.000000 36.000000 14.553212 18.000000
-54.030456 24.499687 -30.740452 0.000000 57.000000 14.169399 0.000000
-53.223691 24.541208 -30.572691 0.000000 27.000000 14.136979 0.000000
-49.611890 24.236476 -28.087452 0.000000 21.000000 14.168095 0.000000
-52.856073 25.328785 -32.632669 0.000000 40.000000 14.055868 0.000000
-52.789005 24.958650 -29.906576 0.000000 79.000000 14.690296 27.000000
-48.401488 25.678655 -31.178191 0.000000 22.000000 14.178473 0.000000
-53.346969 25.152658 -32.220337 0.000000 51.000000 14.122982 0.000000
-53.406831 24.200695 -29.841472 0.000000 44.000000 14.118369 0.000000
-53.702764 24.719078 -31.729143 0.000000 18.000000 13.960255 0.000000
-52.932679 24.869934 -31.374732 0.000000 36.000000 14.101635 0.000000
-51.372894 24.834168 -30.744328 0.000000 44.000000 14.043017 0.000000
-48.015861 25.352179 -29.854124 0.000000 62.000000 14.294523 17.000000
-52.802933 24.730535 -30.198862 0.000000 58.000000 14.377493 27.000000
-50.659184 24.905273 -30.409235 0.000000 46.000000 14.113360 0.000000
-50.785406 24.786536 -30.334155 0.000000 31.000000 14.051998 0.000000
-49.883578 25.021834 -30.010715 0.000000 47.000000 14.238295 0.000000
-53.481464 24.908564 -30.705349 0.000000 46.000000 14.468230 21.000000
-52.080685 24.707779 -30.826683 0.000000 40.000000 14.012289 0.000000
-47.378907 26.410847 -31.799774 0.000000 71.000000 14.459837 10.000000
-52.187252 25.795734 -33.305831 0.000000 39.000000 14.132580 0.000000
-47.910222 25.682400 -30.564184 0.000000 76.000000 14.323931 0.000000
-50.929853 26.069648 -33.474353 0.000000 42.000000 14.118735 0.000000
-47.322915 26.363215 -31.826977 0.000000 58.000000 14.397170 10.000000
-51.796731 26.409485 -33.814354 0.000000 55.000000 14.448820 8.000000
-53.244484 25.352924 -32.810542 0.000000 38.000000 14.076900 0.000000
-53.542182 24.645674 -31.488589 0.000000 24.000000 13.953684 0.000000
-53.256171 25.121236 -32.080992 0.000000 47.000000 14.129727 0.000000
-50.651751 25.234284 -31.038243 0.000000 57.000000 14.186914 0.000000
-53.537579 24.707056 -30.063649 0.000000 78.000000 14.524242 27.000000
-51.084805 24.589571 -29.706278 0.000000 46.000000 14.146740 0.000000
-49.568624 25.751657 -32.112635 0.000000 40.000000 14.097564 0.000000
-51.047727 25.413478 -32.000091 0.000000 23.000000 14.068222 0.000000
-47.839860 25.361261 -29.761405 0.000000 45.000000 14.307754 17.000000
-52.778647 24.757233 -29.715827 0.000000 78.000000 14.572618 27.000000
-51.597345 25.347011 -31.634394 0.000000 49.000000 14.228712 0.000000
-50.164819 26.347384 -33.804281 0.000000 41.000000 14.130120 0.000000
-53.497420 24.399212 -29.999426 0.000000 58.000000 14.258280 27.000000
-52.341333 25.549401 -32.606709 0.000000 56.000000 14.184116 0.000000
-51.957151 25.576943 -32.538279 0.000000 48.000000 14.171670 0.000000
-50.852942 25.613101 -32.357716 0.000000 35.000000 14.090593 0.000000
-51.838601 24.934691 -30.519532 0.000000 49.000000 14.292265 20.000000
-53.769671 24.624300 -30.992683 0.000000 55.000000 14.150258 0.000000
-52.732332 25.371213 -32.214944 0.000000 69.000000 14.225663 0.000000
-53.569916 25.107402 -32.228237 0.000000 45.000000 14.114824 0.000000
-52.147469 25.378584 -32.166027 0.000000 47.000000 14.155019 0.000000
-53.912761 24.431241 -30.256144 0.000000 50.000000 14.262441 27.000000
-53.922264 24.706775 -31.117779 0.000000 62.000000 14.205583 0.000000
-50.797377 24.268227 -28.763306 0.000000 46.000000 14.145747 0.000000
-53.138296 24.929773 -31.426394 0.000000 45.000000 14.171335 0.000000
-48.900093 24.739235 -28.486250 0.000000 32.000000 14.369849 25.000000
-51.590605 24.890493 -28.800632 0.000000 1.000000 14.832547 24.000000
-49.249228 25.031267 -29.870100 0.000000 54.000000 14.194637 0.000000
-54.298475 24.177927 -30.462343 0.000000 26.000000 14.018060 0.000000
-48.576394 25.849231 -31.659303 0.000000 51.000000 14.189655 0.000000
-53.320217 25.317647 -31.644010 0.000000 62.000000 14.478390 15.000000
-47.803925 25.746495 -31.063876 0.000000 42.000000 14.184916 0.000000
-49.773461 26.283011 -33.569299 0.000000 30.000000 14.092307 0.000000
-46.472327 26.467432 -32.739518 0.000000 37.000000 14.024785 0.000000
-49.532009 25.611531 -31.637117 0.000000 38.000000 14.134801 0.000000
-51.814251 25.255851 -30.040618 0.000000 57.000000 14.756245 20.000000
-52.323620 25.648743 -32.655135 0.000000 35.000000 14.254945 0.000000
-52.315486 25.470314 -32.424465 0.000000 43.000000 14.173161 0.000000
-51.718062 25.151279 -29.937557 0.000000 73.000000 14.681840 20.000000
-48.792470 24.831062 -29.302091 0.000000 46.000000 14.141829 0.000000
-49.466170 24.986802 -29.921571 0.000000 35.000000 14.170482 0.000000
-52.541442 25.138675 -31.763448 0.000000 48.000000 14.144290 0.000000
-53.685552 25.160023 -30.877727 0.000000 73.000000 14.669990 21.000000
-50.565310 24.916810 -28.739233 0.000000 70.000000 14.712201 30.000000
-51.843858 24.869133 -29.425569 0.000000 58.000000 14.628269 28.000000
-49.103765 25.714700 -31.686410 0.000000 25.000000 14.142084 0.000000
-48.591333 26.565823 -33.319373 0.000000 56.000000 14.250089 13.000000
-52.167697 26.385120 -34.763716 0.000000 54.000000 14.143680 0.000000
-52.801489 24.976991 -29.724031 0.000000 76.000000 14.775134 27.000000
-52.014636 25.005341 -31.206147 0.000000 45.000000 14.137620 0.000000
-52.344667 25.081312 -31.592108 0.000000 38.000000 14.121550 0.000000
-53.896674 24.543150 -30.107845 0.000000 34.000000 14.416166 27.000000
-49.859887 25.127506 -29.499953 0.000000 54.000000 14.516045 18.000000
-51.910185 25.709512 -32.914713 0.000000 43.000000 14.149713 0.000000
-53.188257 25.382499 -32.672991 0.000000 45.000000 14.144621 0.000000
-51.825114 26.180502 -33.884802 0.000000 50.000000 14.217739 0.000000
-49.937788 25.206875 -30.719425 0.000000 45.000000 14.160885 0.000000
-50.200066 24.980513 -29.194956 0.000000 65.000000 14.546615 18.000000
-50.046799 24.824056 -29.969811 0.000000 37.000000 14.098028 0.000000
-50.417013 25.219405 -30.229590 0.000000 63.000000 14.427322 2.000000
-51.498581 26.273045 -34.279619 0.000000 24.000000 14.106937 0.000000
-53.485090 24.914388 -31.283302 0.000000 58.000000 14.265304 21.000000
-48.132099 25.104389 -29.126886 0.000000 37.000000 14.348729 3.000000
-51.561370 25.825842 -33.461770 0.000000 35.000000 14.002110 0.000000
-47.821435 26.518825 -32.817651 0.000000 46.000000 14.263079 13.000000
-52.539056 25.853192 -33.618814 0.000000 40.000000 14.129425 0.000000
-48.873343 25.338514 -30.308185 0.000000 66.000000 14.257300 0.000000
-50.189227 24.859150 -28.420164 0.000000 72.000000 14.713423 30.000000
-49.726466 26.250994 -33.327307 0.000000 41.000000 14.142722 0.000000
-51.022011 25.388080 -31.437939 0.000000 45.000000 14.243875 0.000000
-49.534281 25.078968 -28.450057 0.000000 76.000000 14.797958 30.000000
-49.396706 25.410985 -31.155154 0.000000 42.000000 14.102848 0.000000
-49.599228 25.999777 -32.697714 0.000000 49.000000 14.118909 0.000000
-51.931081 25.785248 -33.118738 0.000000 53.000000 14.148915 0.000000
-51.837755 25.668040 -32.675328 0.000000 44.000000 14.186370 0.000000
-48.686302 24.839271 -29.454787 0.000000 32.000000 14.076923 0.000000
-50.556091 24.963033 -29.535047 0.000000 69.000000 14.465547 18.000000
-51.060395 24.563634 -28.806343 0.000000 73.000000 14.444179 28.000000
-51.046543 26.329737 -33.789483 0.000000 44.000000 14.262620 0.000000
-48.883172 25.242950 -30.174701 0.000000 63.000000 14.219397 0.000000
-53.126165 24.914737 -31.409363 0.000000 30.000000 14.161712 0.000000
-53.311870 25.064678 -31.202549 0.000000 61.000000 14.404310 21.000000
-51.589464 25.442236 -32.069824 0.000000 53.000000 14.157503 0.000000
-47.796379 26.351558 -32.692634 0.000000 39.000000 14.150611 0.000000
-48.279956 26.332113 -32.248308 0.000000 55.000000 14.371952 9.000000
-52.492925 26.278534 -34.257397 0.000000 69.000000 14.281672 7.000000
-52.070115 25.359728 -31.821107 0.000000 50.000000 14.249778 0.000000
-48.161623 26.203058 -32.153278 0.000000 56.000000 14.268566 9.000000
