61.049795 19.315585 41.942116 0.000000 75.000000 14.339269 22.000000
58.979504 18.304162 38.576392 0.000000 30.000000 14.084165 0.000000
59.995143 18.942375 39.252909 0.000000 47.000000 14.768249 14.000000
59.851667 18.017125 39.416401 0.000000 41.000000 14.182796 0.000000
58.526871 19.048317 37.266599 0.000000 74.000000 14.733756 13.000000
59.442702 19.408105 39.470245 0.000000 55.000000 14.443758 26.000000
59.983556 15.562253 37.720649 0.000000 51.000000 14.100653 0.000000
60.883997 15.440911 38.778780 0.000000 55.000000 14.179560 0.000000
62.411727 15.787580 40.348184 0.000000 67.000000 14.664712 15.000000
59.420504 18.304218 38.877621 0.000000 45.000000 14.259147 12.000000
60.837813 18.622734 40.527760 0.000000 38.000000 14.608633 24.000000
61.527460 15.913449 40.208639 0.000000 44.000000 14.130130 0.000000
59.309746 17.892797 38.514011 0.000000 41.000000 14.186872 0.000000
61.691135 15.111162 39.135565 0.000000 38.000000 14.458529 5.000000
62.431674 15.378589 40.360041 0.000000 65.000000 14.499001 15.000000
61.605772 14.272573 39.042332 0.000000 31.000000 14.084671 0.000000
60.891217 18.976255 40.746012 0.000000 77.000000 14.687737 24.000000
61.348837 19.133888 42.568575 0.000000 58.000000 14.164506 0.000000
60.321342 14.222348 36.509138 0.000000 64.000000 14.400299 1.000000
60.601745 15.463734 38.323683 0.000000 54.000000 14.211436 0.000000
62.031489 16.179143 41.049030 0.000000 46.000000 14.189814 0.000000
61.546477 18.959011 41.750982 0.000000 79.000000 14.655349 18.000000
61.251337 18.352435 41.981539 0.000000 47.000000 14.058455 0.000000
59.383330 18.208485 38.267972 0.000000 59.000000 14.502276 12.000000
60.076054 18.746468 39.610266 0.000000 80.000000 14.562292 24.000000
60.914251 19.373921 41.277662 0.000000 76.000000 14.602784 22.000000
61.726939 18.516780 42.519930 0.000000 44.000000 14.208096 0.000000
61.081103 18.329976 41.567447 0.000000 39.000000 14.133605 0.000000
60.057570 17.826258 39.591134 0.000000 37.000000 14.165606 0.000000
59.146972 18.380879 38.797317 0.000000 42.000000 14.128871 0.000000
61.258407 18.488104 42.029573 0.000000 48.000000 14.097063 0.000000
61.223567 19.410098 41.814983 0.000000 81.000000 14.574233 22.000000
61.661187 14.207109 38.443241 0.000000 58.000000 14.404387 29.000000
62.990057 14.795302 41.395916 0.000000 43.000000 14.136997 0.000000
58.700737 19.643930 37.767394 0.000000 64.000000 14.861566 26.000000
59.706171 16.348695 36.674912 0.000000 57.000000 14.764009 19.000000
60.787878 19.386851 41.348131 0.000000 75.000000 14.478000 22.000000
60.467019 15.847956 38.593731 0.000000 20.000000 14.136818 0.000000
59.535997 18.475016 39.367840 0.000000 45.000000 14.167538 0.000000
60.899797 18.889547 40.667675 0.000000 79.000000 14.697190 24.000000
60.205977 18.508171 40.250568 0.000000 48.000000 14.230139 0.000000
60.977547 14.674901 37.938694 0.000000 39.000000 14.352002 7.000000
59.633074 16.744489 36.612623 0.000000 35.000000 14.910225 19.000000
61.812455 17.929515 42.270723 0.000000 49.000000 14.148705 0.000000
59.795987 18.390304 39.898156 0.000000 45.000000 14.054186 0.000000
61.438347 17.868695 41.656070 0.000000 39.000000 14.157946 0.000000
60.948394 14.779110 37.661283 0.000000 56.000000 14.516562 8.000000
58.822072 18.356262 38.457887 0.000000 54.000000 14.049548 0.000000
59.702635 17.157372 36.476123 0.000000 48.000000 15.208096 19.000000
62.801358 15.625925 40.936246 0.000000 55.000000 14.585709 17.000000
59.562353 18.109196 38.477196 0.000000 66.000000 14.486477 12.000000
59.083274 19.548325 38.761726 0.000000 48.000000 14.597733 26.000000
58.517958 18.314652 37.919116 0.000000 40.000000 14.080402 0.000000
59.236736 18.297327 38.962695 0.000000 44.000000 14.075621 0.000000
62.276791 15.932388 41.353681 0.000000 31.000000 14.111739 0.000000
59.023781 18.241911 38.620987 0.000000 56.000000 14.067829 0.000000
59.614451 19.054677 39.312171 0.000000 54.000000 14.501884 14.000000
62.746176 14.134927 39.363136 0.000000 41.000000 14.712621 29.000000
61.159205 15.535330 39.374408 0.000000 24.000000 14.120608 0.000000
61.207385 14.077772 38.198206 0.000000 48.000000 14.135956 0.000000
60.517942 14.072713 36.492206 0.000000 80.000000 14.491762 1.000000
62.545414 14.981939 40.392137 0.000000 75.000000 14.398176 21.000000
61.161701 17.944431 40.413993 0.000000 33.000000 14.618963 27.000000
63.103656 14.576165 40.663249 0.000000 66.000000 14.502838 21.000000
62.725315 14.173942 39.374437 0.000000 70.000000 14.707930 29.000000
61.271382 15.428664 38.911222 0.000000 69.000000 14.395596 5.000000
62.332209 16.042552 41.488902 0.000000 39.000000 14.130951 0.000000
61.976808 15.177420 40.168486 0.000000 38.000000 14.171780 0.000000
60.005333 16.752989 38.541846 0.000000 23.000000 14.205143 0.000000
59.825819 15.651452 37.523054 0.000000 40.000000 14.122078 0.000000
60.633253 15.550575 38.770757 0.000000 41.000000 14.043410 0.000000
60.999843 18.877438 40.623193 0.000000 41.000000 14.789398 24.000000
59.646245 18.417170 39.459270 0.000000 38.000000 14.178348 0.000000
62.426610 14.741977 39.574829 0.000000 65.000000 14.625040 21.000000
58.765935 18.193588 37.180725 0.000000 58.000000 14.591263 11.000000
61.216552 16.489766 40.119724 0.000000 42.000000 14.189593 0.000000
60.802535 17.606576 40.139936 0.000000 80.000000 14.346987 27.000000
61.339804 18.814986 41.305624 0.000000 71.000000 14.667426 18.000000
60.185875 16.696760 38.801588 0.000000 58.000000 14.183023 0.000000
60.083255 18.291597 40.217635 0.000000 31.000000 14.063012 0.000000
61.733705 14.763865 39.143991 0.000000 73.000000 14.337776 21.000000
60.244105 18.258173 40.211300 0.000000 47.000000 14.171978 0.000000
60.002710 16.921810 39.011111 0.000000 43.000000 14.035293 0.000000
62.838205 14.912831 40.250851 0.000000 65.000000 14.659340 21.000000
59.086748 18.072184 37.711608 0.000000 58.000000 14.507336 11.000000
59.733789 17.592807 38.864001 0.000000 63.000000 14.196234 0.000000
58.654680 18.623687 37.440027 0.000000 47.000000 14.559223 13.000000
60.772274 19.587503 41.132376 0.000000 75.000000 14.662298 22.000000
59.901331 17.832872 39.351654 0.000000 40.000000 14.174323 0.000000
63.079557 15.068274 40.676400 0.000000 75.000000 14.688133 21.000000
58.897339 19.038052 38.786508 0.000000 53.000000 14.228611 0.000000
58.098909 19.062935 37.730770 0.000000 44.000000 14.183416 0.000000
61.889476 17.114501 41.305398 0.000000 52.000000 14.351939 23.000000
61.160686 18.094381 41.613294 0.000000 47.000000 14.068996 0.000000
58.985793 17.703523 37.847870 0.000000 47.000000 14.205038 0.000000
63.467702 14.463053 40.256672 0.000000 72.000000 14.934020 20.000000
61.978210 16.107108 40.891337 0.000000 50.000000 14.199958 0.000000
59.163584 17.588931 37.434191 0.000000 42.000000 14.500279 10.000000
62.930894 14.982057 40.381990 0.000000 62.000000 14.690973 21.000000
63.298052 14.260373 40.113532 0.000000 75.000000 14.794163 20.000000
59.672306 18.273506 39.658812 0.000000 42.000000 14.034459 0.000000
62.117968 15.874079 41.104113 0.000000 30.000000 14.095982 0.000000
59.674390 17.267358 38.661808 0.000000 29.000000 14.116426 0.000000
62.918210 15.011233 40.197468 0.000000 64.000000 14.788307 21.000000
60.538805 19.179301 41.348240 0.000000 50.000000 14.203574 0.000000
59.671174 17.534124 38.189977 0.000000 49.000000 14.469110 9.000000
60.945197 18.936211 41.859069 0.000000 53.000000 14.141814 0.000000
63.184612 14.307256 40.158425 0.000000 67.000000 14.706592 20.000000
60.447578 17.434402 39.164341 0.000000 61.000000 14.507545 4.000000
59.299845 18.343757 38.953668 0.000000 48.000000 14.147128 0.000000
60.774296 14.744868 37.714014 0.000000 58.000000 14.345116 8.000000
61.247468 17.866091 41.397475 0.000000 47.000000 14.146662 0.000000
60.355709 18.896027 39.750172 0.000000 76.000000 14.763195 24.000000
62.827234 14.320681 39.942817 0.000000 71.000000 14.555966 20.000000
59.198686 17.524880 38.026868 0.000000 46.000000 14.196097 0.000000
60.090027 17.776665 38.991509 0.000000 67.000000 14.475242 4.000000
59.489036 17.077748 38.301039 0.000000 42.000000 14.081705 0.000000
61.584945 16.182529 40.500832 0.000000 25.000000 14.138440 0.000000
62.404247 17.757173 41.476099 0.000000 73.000000 14.922912 23.000000
60.488575 16.840644 39.508463 0.000000 45.000000 14.108806 0.000000
60.618280 16.929244 39.854292 0.000000 37.000000 14.066549 0.000000
59.308606 16.858092 37.924949 0.000000 37.000000 14.045669 0.000000
61.237584 18.367824 40.594190 0.000000 70.000000 14.764109 27.000000
63.684868 14.024621 40.910162 0.000000 59.000000 14.574802 20.000000
62.312881 15.746594 40.687254 0.000000 68.000000 14.400120 15.000000
60.867519 16.464382 39.623876 0.000000 46.000000 14.171917 0.000000
60.006195 18.031605 39.566846 0.000000 47.000000 14.227327 0.000000
61.800871 17.799803 42.058636 0.000000 46.000000 14.193151 0.000000
61.170025 14.303697 38.331010 0.000000 41.000000 14.136593 0.000000
58.622762 18.679523 37.303141 0.000000 71.000000 14.629230 13.000000
61.563409 16.488493 40.718619 0.000000 37.000000 14.141584 0.000000
60.154746 15.798937 37.905402 0.000000 44.000000 14.234892 0.000000
62.368437 15.654784 41.437664 0.000000 22.000000 14.018703 0.000000
62.495546 15.024208 40.724872 0.000000 27.000000 14.208887 0.000000
60.899837 18.693722 40.871320 0.000000 64.000000 14.509533 24.000000
61.342785 19.559375 42.135297 0.000000 83.000000 14.563092 22.000000
63.386658 14.997115 40.883598 0.000000 76.000000 14.780917 21.000000
59.992698 17.603379 38.689202 0.000000 74.000000 14.483259 4.000000
61.141405 18.752646 41.147624 0.000000 75.000000 14.573608 18.000000
61.415997 13.907077 37.768359 0.000000 59.000000 14.438514 30.000000
59.236958 18.107577 38.249193 0.000000 64.000000 14.359627 12.000000
61.928460 15.369715 40.253203 0.000000 42.000000 14.174454 0.000000
60.666902 18.094499 40.515069 0.000000 37.000000 14.262214 27.000000
58.928681 16.965208 37.396257 0.000000 35.000000 14.078282 0.000000
60.609297 16.056294 38.843054 0.000000 54.000000 14.204379 0.000000
61.900691 16.768907 41.480731 0.000000 32.000000 14.123183 0.000000
61.633705 18.201409 42.465543 0.000000 35.000000 14.031776 0.000000
59.061990 18.360411 38.612913 0.000000 44.000000 14.151027 0.000000
60.505696 15.053051 36.461770 0.000000 62.000000 14.916526 6.000000
59.242368 17.021040 37.984714 0.000000 35.000000 14.035234 0.000000
60.442868 17.591420 39.017584 0.000000 46.000000 14.646071 4.000000
60.365759 19.055496 41.110516 0.000000 45.000000 14.143202 0.000000
59.476989 18.983894 39.740147 0.000000 40.000000 14.150313 0.000000
60.515613 15.165003 36.516477 0.000000 61.000000 14.943725 6.000000
58.680220 18.465582 37.722731 0.000000 54.000000 14.366263 13.000000
61.808299 16.206140 39.980730 0.000000 69.000000 14.581058 2.000000
61.162394 17.728689 41.161725 0.000000 39.000000 14.145104 0.000000
62.320162 14.508356 39.529794 0.000000 40.000000 14.468965 21.000000
60.442780 17.966250 39.934031 0.000000 78.000000 14.337379 28.000000
59.889736 16.997148 38.704841 0.000000 48.000000 14.139761 0.000000
59.111022 19.643546 38.746564 0.000000 69.000000 14.666818 26.000000
61.449931 14.384480 38.600038 0.000000 49.000000 14.242315 0.000000
61.435611 17.926747 41.679635 0.000000 44.000000 14.168629 0.000000
60.425998 17.606106 39.603609 0.000000 60.000000 14.340121 27.000000
63.254645 15.553221 41.245663 0.000000 43.000000 14.734622 17.000000
59.703399 18.128937 38.636010 0.000000 71.000000 14.518917 12.000000
60.677599 15.528488 38.669665 0.000000 47.000000 14.118754 0.000000
60.155244 15.067255 37.335700 0.000000 35.000000 14.214321 0.000000
61.470782 18.778593 41.777233 0.000000 44.000000 14.508470 18.000000
63.189009 14.758082 41.228549 0.000000 42.000000 14.355102 21.000000
59.011331 18.143596 38.415303 0.000000 29.000000 14.121753 0.000000
59.924321 16.872739 37.040905 0.000000 66.000000 14.963236 19.000000
60.412429 16.046402 38.448424 0.000000 58.000000 14.255072 0.000000
61.255116 15.952594 39.780467 0.000000 50.000000 14.162596 0.000000
58.777240 18.123204 37.446294 0.000000 52.000000 14.433877 11.000000
61.163504 18.372977 41.877813 0.000000 43.000000 14.054735 0.000000
60.195865 16.289860 38.482798 0.000000 47.000000 14.179836 0.000000
60.526644 18.858567 41.080201 0.000000 32.000000 14.194683 0.000000
60.096160 16.434425 38.447640 0.000000 66.000000 14.185124 0.000000
61.480444 15.237836 38.908405 0.000000 57.000000 14.471560 5.000000
59.026275 17.830338 38.034207 0.000000 34.000000 14.194079 0.000000
60.568968 18.059616 40.380458 0.000000 52.000000 14.243098 28.000000
62.231646 17.812226 41.583506 0.000000 58.000000 14.762732 23.000000
61.840803 16.334696 40.938585 0.000000 47.000000 14.170416 0.000000
61.265395 14.773541 38.312917 0.000000 43.000000 14.417482 7.000000
60.530381 19.118620 41.354435 0.000000 50.000000 14.168228 0.000000
61.646715 18.169162 42.298107 0.000000 41.000000 14.113329 0.000000
61.215540 17.800327 40.427889 0.000000 68.000000 14.590528 27.000000
61.422376 15.606631 38.824254 0.000000 62.000000 14.628644 5.000000
60.053573 19.392868 41.057269 0.000000 20.000000 14.081511 0.000000
59.116833 18.865747 38.870637 0.000000 67.000000 14.275806 14.000000
61.167750 17.758589 40.527560 0.000000 58.000000 14.486105 27.000000
60.989453 19.586161 41.335453 0.000000 72.000000 14.719903 22.000000
59.675793 16.517938 37.114881 0.000000 62.000000 14.588614 19.000000
60.248628 16.145076 38.325563 0.000000 32.000000 14.237806 0.000000
59.809024 17.797147 39.194729 0.000000 43.000000 14.170455 0.000000
61.494938 17.484410 40.452589 0.000000 66.000000 14.651512 27.000000
61.149629 18.370210 40.779523 0.000000 70.000000 14.604755 27.000000
58.630413 18.897373 37.950210 0.000000 64.000000 14.397056 13.000000
61.464169 17.001780 40.846760 0.000000 51.000000 14.221069 0.000000
62.333846 17.448125 41.567279 0.000000 72.000000 14.691895 23.000000
59.924092 17.789999 39.357853 0.000000 38.000000 14.169838 0.000000
61.539272 16.416170 40.580887 0.000000 51.000000 14.163138 0.000000
61.715573 13.976672 38.122024 0.000000 41.000000 14.510861 30.000000
62.709851 15.718276 41.229490 0.000000 56.000000 14.406922 17.000000
60.820721 18.644127 40.967171 0.000000 52.000000 14.380342 24.000000
59.231540 19.386697 38.986962 0.000000 71.000000 14.524202 26.000000
61.407048 17.433858 41.031776 0.000000 61.000000 14.268241 23.000000
61.466956 17.905133 41.579892 0.000000 45.000000 14.233786 0.000000
61.826385 17.630605 40.980614 0.000000 38.000000 14.691171 23.000000
59.690426 18.163064 39.347067 0.000000 43.000000 14.160241 0.000000
59.811593 15.134971 36.800648 0.000000 43.000000 14.260432 0.000000
61.501335 16.651066 40.699929 0.000000 36.000000 14.174208 0.000000
61.529109 18.912782 42.103775 0.000000 60.000000 14.442283 18.000000
63.400683 14.930514 41.060408 0.000000 43.000000 14.672556 21.000000
59.869753 17.872046 39.362230 0.000000 47.000000 14.162076 0.000000
59.140645 17.852778 38.243318 0.000000 44.000000 14.182053 0.000000
62.988805 15.612116 41.017916 0.000000 63.000000 14.677890 17.000000
60.737313 15.277718 38.318704 0.000000 35.000000 14.235734 0.000000
59.987573 18.229483 39.694131 0.000000 45.000000 14.232795 0.000000
59.662251 17.587603 38.052930 0.000000 63.000000 14.555346 9.000000
61.353586 19.401632 42.250237 0.000000 66.000000 14.445067 22.000000
60.242127 14.623756 36.844228 0.000000 61.000000 14.341168 6.000000
59.996051 17.066475 39.149353 0.000000 39.000000 14.021376 0.000000
60.929390 16.941370 40.443992 0.000000 42.000000 14.002293 0.000000
60.283481 15.701901 38.420610 0.000000 28.000000 14.026093 0.000000
62.921334 15.572422 41.319632 0.000000 68.000000 14.456354 17.000000
60.371206 14.118129 36.466021 0.000000 61.000000 14.415069 1.000000
62.714647 14.064970 39.334248 0.000000 34.000000 14.674019 29.000000
62.750972 15.015405 40.479708 0.000000 65.000000 14.521023 21.000000
60.400996 14.506440 37.284491 0.000000 31.000000 14.184514 0.000000
62.282139 17.718850 41.770662 0.000000 76.000000 14.664860 23.000000
61.337083 19.372572 42.286235 0.000000 63.000000 14.401950 22.000000
62.520081 15.662963 40.370620 0.000000 79.000000 14.680892 15.000000
61.064325 18.397246 40.544038 0.000000 58.000000 14.673060 27.000000
60.864188 16.542089 39.717101 0.000000 45.000000 14.154926 0.000000
61.860730 16.380976 41.071799 0.000000 42.000000 14.136917 0.000000
62.533572 17.510370 42.019993 0.000000 66.000000 14.635977 23.000000
62.024192 16.297870 41.168416 0.000000 65.000000 14.173993 0.000000
60.425035 17.472803 39.147354 0.000000 44.000000 14.515800 4.000000
61.724518 17.838823 42.010353 0.000000 35.000000 14.177531 0.000000
61.023171 19.227395 42.028708 0.000000 40.000000 14.237501 22.000000
62.143620 17.137922 41.469745 0.000000 54.000000 14.467488 23.000000
61.233498 14.186600 37.978735 0.000000 48.000000 14.314090 30.000000
59.042003 18.246137 38.635710 0.000000 47.000000 14.075697 0.000000
62.089474 17.617738 41.400997 0.000000 65.000000 14.666998 23.000000
58.853822 18.057384 37.422773 0.000000 71.000000 14.474944 11.000000
61.697902 17.798655 42.007665 0.000000 56.000000 14.141910 0.000000
61.295059 14.041971 37.691985 0.000000 35.000000 14.444910 30.000000
59.720628 19.097111 40.208931 0.000000 41.000000 14.140686 0.000000
62.362879 17.812520 41.588651 0.000000 48.000000 14.858123 23.000000
60.405803 19.038917 41.121978 0.000000 50.000000 14.160139 0.000000
61.256184 17.675561 40.862500 0.000000 53.000000 14.345391 27.000000
58.589048 18.262308 38.002413 0.000000 40.000000 14.068508 0.000000
61.637219 15.092338 39.449126 0.000000 54.000000 14.249954 0.000000
59.218079 17.713332 38.229250 0.000000 51.000000 14.187505 0.000000
59.191513 17.602973 38.096068 0.000000 55.000000 14.188689 0.000000
59.164374 18.163957 38.407215 0.000000 58.000000 14.248744 12.000000
60.141230 18.690556 39.655909 0.000000 62.000000 14.563716 24.000000
60.318014 18.533540 40.158797 0.000000 58.000000 14.371464 24.000000
62.800605 14.236354 40.785968 0.000000 37.000000 14.069016 0.000000
60.205292 19.489735 40.020776 0.000000 75.000000 14.765981 25.000000
61.346701 17.676044 40.737207 0.000000 68.000000 14.477183 27.000000
60.737995 15.031667 38.158457 0.000000 46.000000 14.213180 0.000000
61.936841 14.384808 38.371354 0.000000 72.000000 14.722603 29.000000
58.477972 19.036881 38.244411 0.000000 38.000000 14.192446 0.000000
59.608104 16.601904 36.520728 0.000000 26.000000 14.877739 19.000000
59.636223 18.592552 39.055542 0.000000 33.000000 14.452137 14.000000
62.433594 15.611168 41.553751 0.000000 36.000000 13.989341 0.000000
61.349226 15.864914 39.960922 0.000000 38.000000 14.103118 0.000000
62.292833 15.790771 41.377371 0.000000 36.000000 14.051161 0.000000
61.232997 16.043789 39.778229 0.000000 54.000000 14.186155 0.000000
60.149195 17.461558 38.722705 0.000000 44.000000 14.522353 4.000000
61.501562 15.528007 39.446356 0.000000 56.000000 14.336086 5.000000
61.094711 16.118708 39.590121 0.000000 46.000000 14.211146 0.000000
61.801130 15.487656 39.231479 0.000000 48.000000 14.652202 5.000000
60.495933 18.942363 40.961278 0.000000 57.000000 14.268337 24.000000
59.392025 19.418041 39.459838 0.000000 32.000000 14.415515 26.000000
61.731728 16.383733 40.870756 0.000000 50.000000 14.144654 0.000000
61.792480 16.959424 41.483159 0.000000 26.000000 14.122518 0.000000
61.204443 14.215958 37.759694 0.000000 51.000000 14.416939 30.000000
58.581908 18.364288 38.096397 0.000000 30.000000 14.058645 0.000000
61.368509 19.001252 41.520076 0.000000 68.000000 14.658675 18.000000
60.460772 18.630865 40.196325 0.000000 64.000000 14.500301 24.000000
61.298541 16.750388 40.606431 0.000000 45.000000 14.113118 0.000000
61.449006 14.099998 37.751169 0.000000 54.000000 14.554252 30.000000
61.946960 17.942765 42.449088 0.000000 48.000000 14.163499 0.000000
61.624683 15.235064 39.627473 0.000000 28.000000 14.210319 0.000000
59.616016 19.089916 39.970882 0.000000 36.000000 14.181292 0.000000
59.404068 18.225615 38.331699 0.000000 81.000000 14.492472 12.000000
60.875870 17.111689 40.292286 0.000000 47.000000 14.112615 0.000000
60.522887 19.153223 40.286712 0.000000 71.000000 14.723327 24.000000
59.366042 17.639787 38.159445 0.000000 33.000000 14.302189 9.000000
61.413304 15.636188 39.970158 0.000000 31.000000 14.048593 0.000000
58.197092 19.007461 37.437518 0.000000 52.000000 14.382925 13.000000
59.131340 17.603617 37.698839 0.000000 56.000000 14.347178 10.000000
59.877803 18.438190 38.770430 0.000000 75.000000 14.712256 12.000000
60.869524 19.360310 41.370725 0.000000 64.000000 14.516027 22.000000
58.674977 18.837979 37.141768 0.000000 70.000000 14.818308 13.000000
59.922935 16.242846 36.835587 0.000000 65.000000 14.798388 19.000000
59.804824 17.999785 39.332381 0.000000 44.000000 14.183412 0.000000
60.575842 15.463870 38.370227 0.000000 45.000000 14.168373 0.000000
60.310325 19.378629 40.347715 0.000000 79.000000 14.629758 25.000000
59.747945 18.179989 38.774928 0.000000 34.000000 14.502904 12.000000
58.808468 18.096363 37.294274 0.000000 70.000000 14.523445 11.000000
60.213341 14.796859 36.866708 0.000000 71.000000 14.382069 6.000000
60.651984 19.376577 41.245355 0.000000 82.000000 14.424791 22.000000
61.029656 19.370427 41.536280 0.000000 72.000000 14.555152 22.000000
60.365536 16.949033 39.590792 0.000000 35.000000 14.021179 0.000000
59.171012 17.147920 37.818081 0.000000 36.000000 14.121347 0.000000
60.257282 19.228775 41.002472 0.000000 54.000000 14.191467 0.000000
62.098836 15.288617 40.195197 0.000000 54.000000 14.296603 15.000000
62.478880 15.817770 41.447328 0.000000 32.000000 14.165700 0.000000
59.341082 17.846879 38.541204 0.000000 46.000000 14.176749 0.000000
59.963230 14.178939 36.602722 0.000000 27.000000 14.066784 0.000000
58.683907 18.761092 38.378656 0.000000 42.000000 14.159743 0.000000
63.237608 14.896702 40.971125 0.000000 65.000000 14.582128 21.000000
60.441453 19.228830 40.821825 0.000000 79.000000 14.421241 25.000000
60.319209 18.467345 40.227539 0.000000 32.000000 14.308961 24.000000
61.351193 18.720284 41.603212 0.000000 42.000000 14.483354 18.000000
59.570389 17.807803 38.842841 0.000000 44.000000 14.176906 0.000000
61.575405 14.155125 37.806273 0.000000 59.000000 14.643893 30.000000
62.585034 16.764069 41.551549 0.000000 53.000000 14.595413 23.000000
60.796260 17.523446 40.029299 0.000000 64.000000 14.363400 27.000000
59.028277 18.458650 38.679683 0.000000 47.000000 14.133660 0.000000
61.026045 18.725406 41.040301 0.000000 57.000000 14.530802 18.000000
59.159940 18.390397 38.797950 0.000000 50.000000 14.142283 0.000000
59.644536 18.094732 38.526171 0.000000 62.000000 14.516570 12.000000
60.981335 19.054797 41.981898 0.000000 42.000000 14.156574 0.000000
59.432036 18.953977 39.068558 0.000000 63.000000 14.447393 14.000000
59.691313 18.364534 39.133576 0.000000 42.000000 14.356033 12.000000
60.338075 13.880136 36.627729 0.000000 49.000000 14.206115 0.000000
61.072325 18.998456 41.077179 0.000000 80.000000 14.662988 18.000000
59.613730 16.719560 37.060750 0.000000 47.000000 14.656031 19.000000
62.178860 15.527001 40.771417 0.000000 28.000000 14.163405 0.000000
59.258223 18.171189 38.346471 0.000000 73.000000 14.352897 12.000000
62.837819 15.055952 40.658578 0.000000 73.000000 14.511656 21.000000
60.533938 17.720699 40.220717 0.000000 45.000000 14.154016 0.000000
60.337684 17.741834 39.860080 0.000000 42.000000 14.201027 0.000000
58.727470 18.329630 37.743054 0.000000 55.000000 14.333105 11.000000
61.805784 15.523659 40.314861 0.000000 28.000000 14.117109 0.000000
61.347486 19.316188 42.409467 0.000000 56.000000 14.322642 22.000000
61.490541 17.162227 40.972227 0.000000 37.000000 14.245059 0.000000
60.347856 18.893795 39.967372 0.000000 70.000000 14.645331 24.000000
60.559013 17.876489 40.383253 0.000000 40.000000 14.156098 0.000000
63.173823 14.294401 39.742814 0.000000 45.000000 14.905559 20.000000
61.110023 14.894197 38.351348 0.000000 53.000000 14.333416 7.000000
60.294595 19.587151 40.183608 0.000000 69.000000 14.790913 25.000000
58.641986 19.028212 38.504138 0.000000 57.000000 14.178301 0.000000
60.676782 18.340584 41.103787 0.000000 53.000000 14.073586 0.000000
61.181316 14.836620 38.157877 0.000000 62.000000 14.460951 7.000000
58.772334 17.389275 37.310682 0.000000 31.000000 14.186367 0.000000
61.018241 19.126743 41.976628 0.000000 54.000000 14.217501 0.000000
60.907324 14.546370 37.637700 0.000000 59.000000 14.398667 8.000000
58.648195 19.497001 38.217334 0.000000 68.000000 14.529619 26.000000
59.559806 16.773045 38.101276 0.000000 44.000000 14.106611 0.000000
58.833787 18.870340 37.414338 0.000000 59.000000 14.811222 13.000000
59.721103 16.140045 37.589896 0.000000 54.000000 14.218283 0.000000
59.809976 15.704271 37.413069 0.000000 45.000000 14.189034 0.000000
59.846657 15.566084 37.342807 0.000000 42.000000 14.193353 0.000000
58.387538 18.381321 37.367718 0.000000 47.000000 14.293489 11.000000
61.116779 19.573549 41.899765 0.000000 87.000000 14.520972 22.000000
60.212653 14.203621 36.945153 0.000000 47.000000 14.088296 0.000000
62.652002 16.024584 41.878116 0.000000 55.000000 14.162838 0.000000
58.286201 19.118363 37.791290 0.000000 49.000000 14.315840 26.000000
61.196059 17.846810 41.296512 0.000000 39.000000 14.151707 0.000000
59.772905 18.537361 38.701288 0.000000 74.000000 14.711676 12.000000
60.995867 18.829594 40.929906 0.000000 23.000000 14.609194 18.000000
61.860277 16.573302 41.168091 0.000000 47.000000 14.169418 0.000000
61.707733 16.669390 41.035527 0.000000 37.000000 14.164406 0.000000
61.205443 19.455888 41.719315 0.000000 84.000000 14.629168 22.000000
60.477173 17.858582 40.102745 0.000000 41.000000 14.230828 0.000000
61.230296 16.893980 40.762456 0.000000 35.000000 14.043709 0.000000
61.258152 18.866326 41.267092 0.000000 78.000000 14.648125 18.000000
60.480117 19.066384 41.287313 0.000000 45.000000 14.142762 0.000000
60.471225 17.398902 39.218623 0.000000 58.000000 14.482282 4.000000
59.976746 17.693943 39.285932 0.000000 39.000000 14.204899 0.000000
59.140665 17.638321 37.546839 0.000000 67.000000 14.446661 10.000000
62.502397 15.187818 40.367285 0.000000 56.000000 14.466648 15.000000
59.703262 17.815657 39.031630 0.000000 46.000000 14.182850 0.000000
60.115446 19.201236 40.205930 0.000000 48.000000 14.481178 25.000000
61.799365 18.078594 42.340898 0.000000 47.000000 14.166676 0.000000
60.147582 17.277868 39.261889 0.000000 48.000000 14.167082 0.000000
59.716679 18.157622 38.939032 0.000000 64.000000 14.386130 12.000000
61.215574 16.642978 40.369368 0.000000 23.000000 14.126602 0.000000
59.703607 19.217416 40.108623 0.000000 32.000000 14.230614 0.000000
59.119163 18.356398 38.683786 0.000000 50.000000 14.155727 0.000000
61.716791 18.924797 42.144790 0.000000 31.000000 14.566445 18.000000
61.189505 17.598475 39.864576 0.000000 25.000000 14.772990 27.000000
59.672442 17.029213 36.411981 0.000000 72.000000 15.163679 19.000000
59.056032 18.382331 38.600700 0.000000 45.000000 14.162181 0.000000
61.869859 15.123281 39.587667 0.000000 58.000000 14.365867 21.000000
60.926686 18.934241 41.872797 0.000000 45.000000 14.120146 0.000000
58.424157 19.044834 38.219829 0.000000 35.000000 14.168265 0.000000
59.370542 18.183631 38.288887 0.000000 72.000000 14.471436 12.000000
60.763185 18.346595 41.227871 0.000000 53.000000 14.077161 0.000000
59.593448 18.932658 38.972090 0.000000 51.000000 14.608030 14.000000
61.325768 19.347929 42.353539 0.000000 57.000000 14.348581 22.000000
59.937034 19.402840 39.980902 0.000000 74.000000 14.549174 25.000000
62.020419 13.977831 38.672226 0.000000 55.000000 14.457447 29.000000
61.637987 14.303210 39.104293 0.000000 25.000000 14.090096 0.000000
61.918672 14.191389 38.788973 0.000000 62.000000 14.412985 29.000000
62.586340 16.215899 41.992205 0.000000 42.000000 14.137162 0.000000
61.457353 16.422108 40.500331 0.000000 50.000000 14.145750 0.000000
61.594824 15.403736 39.777760 0.000000 47.000000 14.183181 0.000000
61.063479 17.951022 41.233310 0.000000 45.000000 14.129590 0.000000
60.956553 16.182837 39.549135 0.000000 33.000000 14.156406 0.000000
61.286467 17.835240 40.605490 0.000000 43.000000 14.567529 27.000000
60.568033 17.600214 39.710661 0.000000 65.000000 14.388826 27.000000
59.649504 16.265708 37.600336 0.000000 50.000000 14.213157 0.000000
60.377135 16.879280 39.367528 0.000000 47.000000 14.114221 0.000000
59.926487 18.220633 39.844884 0.000000 40.000000 14.106370 0.000000
59.973860 18.801396 39.626172 0.000000 77.000000 14.501364 24.000000
60.583537 18.794285 40.160837 0.000000 70.000000 14.679761 24.000000
59.665919 18.850207 38.725812 0.000000 71.000000 14.752828 14.000000
62.574299 17.400831 41.694930 0.000000 68.000000 14.785818 23.000000
59.884471 18.128611 39.569208 0.000000 54.000000 14.176712 0.000000
62.657388 17.424757 41.874064 0.000000 71.000000 14.766420 23.000000
60.811181 18.906065 41.695745 0.000000 30.000000 14.112485 0.000000
61.536593 18.085517 41.919364 0.000000 56.000000 14.189137 0.000000
61.690094 17.948026 42.106528 0.000000 45.000000 14.149278 0.000000
61.675230 18.075644 42.169817 0.000000 60.000000 14.160288 0.000000
61.058308 19.101662 42.153476 0.000000 43.000000 14.146265 0.000000
61.953902 17.707118 42.242311 0.000000 50.000000 14.173844 0.000000
60.466795 18.464906 40.799378 0.000000 47.000000 14.125636 0.000000
61.562924 18.198549 42.198659 0.000000 37.000000 14.114211 0.000000
60.399304 17.497834 38.984496 0.000000 74.000000 14.590556 4.000000
59.166165 19.125386 39.366605 0.000000 45.000000 14.169815 0.000000
63.240828 14.193950 40.369719 0.000000 51.000000 14.592143 20.000000
62.615468 15.031404 39.704165 0.000000 68.000000 14.823301 21.000000
62.395716 14.983627 39.497283 0.000000 68.000000 14.744761 21.000000
60.356371 19.313901 40.853178 0.000000 69.000000 14.378044 25.000000
61.235037 17.622675 41.160800 0.000000 40.000000 14.154528 0.000000
59.873359 18.468264 38.746024 0.000000 71.000000 14.734253 12.000000
59.840216 15.527047 36.368157 0.000000 64.000000 14.670225 3.000000
60.046084 19.707770 39.925309 0.000000 73.000000 14.789069 25.000000
59.336582 19.049462 39.137452 0.000000 50.000000 14.381708 14.000000
58.366018 18.924268 38.062049 0.000000 39.000000 14.154118 0.000000
59.085598 16.974059 37.678270 0.000000 42.000000 14.054923 0.000000
62.903412 14.911979 40.402830 0.000000 42.000000 14.629912 21.000000
60.295870 17.448488 39.325613 0.000000 34.000000 14.317927 4.000000
61.882196 17.897763 41.586522 0.000000 67.000000 14.537010 23.000000
60.134847 16.481088 38.536654 0.000000 61.000000 14.188383 0.000000
60.700943 14.998501 38.030722 0.000000 39.000000 14.236697 0.000000
62.151887 16.018291 41.106847 0.000000 26.000000 14.181426 0.000000
58.700252 18.820772 38.401162 0.000000 40.000000 14.185896 0.000000
61.201165 18.974519 41.413625 0.000000 77.000000 14.576861 18.000000
63.538365 14.146460 40.618195 0.000000 71.000000 14.666788 20.000000
59.169381 19.059035 39.254836 0.000000 57.000000 14.201047 0.000000
59.802767 15.602296 37.257203 0.000000 43.000000 14.219834 0.000000
58.904249 19.129686 38.983623 0.000000 44.000000 14.172084 0.000000
59.606795 17.926900 38.984504 0.000000 36.000000 14.182454 0.000000
60.025249 19.133084 40.319512 0.000000 57.000000 14.326737 25.000000
62.342968 15.988630 41.453243 0.000000 35.000000 14.134200 0.000000
61.616331 18.101228 42.127969 0.000000 51.000000 14.148666 0.000000
60.119055 15.027361 37.190878 0.000000 46.000000 14.244349 0.000000
63.647401 14.178201 40.894664 0.000000 49.000000 14.620313 20.000000
61.173209 18.316877 41.859672 0.000000 53.000000 14.047310 0.000000
60.519966 16.098188 38.650527 0.000000 63.000000 14.254056 0.000000
61.287965 14.746528 38.374797 0.000000 67.000000 14.391153 7.000000
60.886018 19.597243 41.278154 0.000000 76.000000 14.676769 22.000000
58.572449 17.858946 37.207306 0.000000 47.000000 14.290535 11.000000
60.719505 13.960038 37.227142 0.000000 58.000000 14.218271 0.000000
62.350220 14.167751 38.800502 0.000000 65.000000 14.718927 29.000000
58.849027 19.032097 37.532466 0.000000 68.000000 14.831218 13.000000
60.649265 14.009818 37.222720 0.000000 46.000000 14.189377 0.000000
59.660704 16.808824 37.228888 0.000000 71.000000 14.643195 19.000000
59.486642 16.580371 37.623178 0.000000 59.000000 14.214262 0.000000
60.263490 18.046676 39.913884 0.000000 69.000000 14.248255 28.000000
60.922000 14.750345 37.316402 0.000000 49.000000 14.660935 8.000000
61.083308 14.315767 38.111237 0.000000 50.000000 14.189423 0.000000
61.318444 17.887484 41.495019 0.000000 42.000000 14.158863 0.000000
60.109559 18.123295 39.875537 0.000000 51.000000 14.185728 0.000000
61.611598 16.724434 41.026207 0.000000 30.000000 14.120945 0.000000
61.524402 19.030206 42.756610 0.000000 53.000000 14.155087 0.000000
60.707975 18.319992 41.020690 0.000000 50.000000 14.130555 0.000000
59.955591 18.216053 39.864196 0.000000 44.000000 14.116253 0.000000
60.478214 19.444896 40.701637 0.000000 62.000000 14.602318 25.000000
59.476915 18.912961 39.515607 0.000000 50.000000 14.234795 0.000000
58.949592 18.194124 38.508158 0.000000 38.000000 14.049782 0.000000
60.917485 18.966748 40.813126 0.000000 63.000000 14.668960 24.000000
62.402458 17.775104 42.104171 0.000000 78.000000 14.608099 23.000000
63.476379 14.178619 41.313369 0.000000 52.000000 14.278831 20.000000
62.153088 15.310874 39.519943 0.000000 69.000000 14.691826 21.000000
61.619328 16.613672 40.893141 0.000000 49.000000 14.147483 0.000000
61.822884 15.072345 39.784250 0.000000 34.000000 14.208576 0.000000
61.083777 19.296599 41.963527 0.000000 68.000000 14.345570 22.000000
59.725539 16.733144 38.150574 0.000000 58.000000 14.188011 0.000000
59.426587 19.144370 39.742624 0.000000 40.000000 14.179927 0.000000
60.490672 19.180336 39.953521 0.000000 69.000000 14.881225 24.000000
60.789668 14.128669 37.640882 0.000000 59.000000 14.131026 0.000000
59.827083 16.963067 37.053960 0.000000 48.000000 14.922570 19.000000
61.205922 18.442895 41.958151 0.000000 44.000000 14.075137 0.000000
62.720790 15.534430 40.358227 0.000000 66.000000 14.782104 15.000000
59.363945 19.066468 39.343945 0.000000 37.000000 14.303798 14.000000
61.172285 18.274126 41.877565 0.000000 39.000000 14.019229 0.000000
61.050517 19.530846 41.484961 0.000000 66.000000 14.665408 22.000000
59.469121 18.372141 38.696507 0.000000 28.000000 14.417001 12.000000
63.188303 15.489475 40.942771 0.000000 64.000000 14.812798 17.000000
59.518556 18.227037 39.201540 0.000000 27.000000 14.133737 0.000000
62.435283 16.881045 41.884002 0.000000 61.000000 14.363637 23.000000
60.945197 14.805170 37.368762 0.000000 70.000000 14.674863 8.000000
59.137257 19.360027 38.748613 0.000000 51.000000 14.564356 26.000000
62.305700 15.407108 40.019457 0.000000 23.000000 14.591337 15.000000
59.954918 15.457281 37.492211 0.000000 37.000000 14.151294 0.000000
61.296478 14.238424 38.541732 0.000000 40.000000 14.095328 0.000000
60.050098 16.787431 38.700371 0.000000 47.000000 14.172180 0.000000
62.550077 15.669066 41.666515 0.000000 44.000000 14.043285 0.000000
59.132512 17.003584 37.789638 0.000000 34.000000 14.045577 0.000000
61.041981 18.473269 41.401022 0.000000 35.000000 14.250661 18.000000
60.049965 19.171915 40.198232 0.000000 56.000000 14.423755 24.000000
59.939947 19.621578 39.745130 0.000000 53.000000 14.765237 25.000000
59.359071 19.485169 39.238151 0.000000 62.000000 14.532926 26.000000
58.738480 19.539405 38.267769 0.000000 50.000000 14.589277 26.000000
59.684429 15.677185 37.386390 0.000000 41.000000 14.097462 0.000000
61.848898 14.863764 39.052047 0.000000 70.000000 14.513348 21.000000
61.035527 17.570191 39.885230 0.000000 67.000000 14.635497 27.000000
58.287140 19.041864 37.974568 0.000000 44.000000 14.190187 0.000000
62.284126 14.160806 39.949917 0.000000 30.000000 14.078967 0.000000
59.064597 18.133922 38.565975 0.000000 41.000000 14.080322 0.000000
58.762707 18.244448 38.207066 0.000000 41.000000 14.085793 0.000000
59.717893 18.985487 40.111258 0.000000 30.000000 14.140953 0.000000
60.910456 18.260590 41.426674 0.000000 40.000000 14.048674 0.000000
59.728915 18.930740 39.551626 0.000000 29.000000 14.411951 14.000000
59.803653 18.286358 39.882454 0.000000 42.000000 14.023577 0.000000
62.512874 14.182048 40.175943 0.000000 30.000000 14.143105 0.000000
61.707059 18.418890 42.420582 0.000000 44.000000 14.202290 0.000000
59.954585 18.348805 38.751417 0.000000 77.000000 14.741112 12.000000
60.057388 18.417601 40.087335 0.000000 52.000000 14.164107 0.000000
61.231449 15.475417 38.958876 0.000000 47.000000 14.361393 5.000000
60.363116 19.014881 40.974246 0.000000 43.000000 14.193574 0.000000
63.062196 15.567119 40.893600 0.000000 63.000000 14.776999 17.000000
62.443145 14.594942 39.913601 0.000000 47.000000 14.401418 21.000000
61.387989 13.807358 38.104364 0.000000 40.000000 14.203269 0.000000
60.545623 19.127340 41.427608 0.000000 41.000000 14.145907 0.000000
62.761562 15.396713 41.421936 0.000000 51.000000 14.209880 0.000000
61.660930 15.910463 40.285836 0.000000 30.000000 14.188951 0.000000
60.884914 17.252376 40.001078 0.000000 34.000000 14.328290 27.000000
60.387877 15.514173 38.100620 0.000000 45.000000 14.187471 0.000000
61.415261 17.490783 41.096383 0.000000 66.000000 14.265625 23.000000
61.511567 16.182721 40.307704 0.000000 55.000000 14.182529 0.000000
59.094449 17.599302 37.948697 0.000000 44.000000 14.190066 0.000000
62.858256 15.062493 41.372273 0.000000 39.000000 14.164783 0.000000
59.720783 18.658205 39.238972 0.000000 61.000000 14.449445 14.000000
61.633263 16.339967 40.607382 0.000000 46.000000 14.187188 0.000000
58.303222 19.075363 37.371487 0.000000 55.000000 14.524832 13.000000
62.307997 15.885095 41.375495 0.000000 41.000000 14.103683 0.000000
59.657878 16.766181 38.086479 0.000000 50.000000 14.184407 0.000000
60.515222 16.631580 39.266616 0.000000 42.000000 14.163126 0.000000
61.334311 18.739223 41.631100 0.000000 67.000000 14.464583 18.000000
59.857030 16.489330 38.148296 0.000000 63.000000 14.183222 0.000000
59.006100 18.930801 37.574389 0.000000 73.000000 14.883730 13.000000
59.322954 16.997337 37.430914 0.000000 42.000000 14.368390 19.000000
61.427478 17.289241 40.517191 0.000000 69.000000 14.484874 27.000000
60.641729 17.335208 39.713116 0.000000 65.000000 14.329461 27.000000
59.416343 17.747983 38.585005 0.000000 40.000000 14.168295 0.000000
62.628200 14.781002 39.688081 0.000000 41.000000 14.734168 21.000000
58.995062 17.659721 37.908169 0.000000 42.000000 14.162430 0.000000
60.273616 15.914939 38.324530 0.000000 50.000000 14.158769 0.000000
61.620916 17.656479 41.307858 0.000000 71.000000 14.381619 23.000000
61.615601 18.941632 42.128376 0.000000 80.000000 14.506536 18.000000
62.676888 15.606335 41.684422 0.000000 22.000000 14.101959 0.000000
62.250582 14.646854 39.070603 0.000000 47.000000 14.710945 21.000000
63.404248 14.894575 40.798036 0.000000 72.000000 14.794029 21.000000
61.351309 18.078207 41.783110 0.000000 46.000000 14.117467 0.000000
60.331833 18.971157 39.711215 0.000000 72.000000 14.797363 24.000000
62.671446 17.091795 41.301950 0.000000 75.000000 14.927343 23.000000
59.259132 19.318862 39.663854 0.000000 35.000000 14.169745 0.000000
59.403661 17.645987 38.480742 0.000000 24.000000 14.168620 0.000000
61.342299 14.707771 38.682042 0.000000 66.000000 14.258053 0.000000
62.450826 14.318313 40.043703 0.000000 48.000000 14.222582 0.000000
60.588377 17.626725 40.275858 0.000000 39.000000 14.126332 0.000000
62.856997 15.832855 40.970304 0.000000 49.000000 14.698104 17.000000
59.953605 16.646892 38.483779 0.000000 38.000000 14.150970 0.000000
61.140337 18.447471 40.778654 0.000000 70.000000 14.631238 27.000000
61.593444 17.889398 41.356383 0.000000 54.000000 14.435708 23.000000
59.823586 18.379934 39.936637 0.000000 45.000000 14.050674 0.000000
60.899894 18.965970 41.828653 0.000000 41.000000 14.136270 0.000000
62.370265 17.677783 41.936769 0.000000 70.000000 14.628146 23.000000
58.882457 18.303800 38.505188 0.000000 50.000000 14.048021 0.000000
59.640737 18.312792 39.499229 0.000000 50.000000 14.109267 0.000000
60.320479 19.705949 40.050595 0.000000 73.000000 14.928925 25.000000
58.727242 18.249454 38.081580 0.000000 46.000000 14.125634 0.000000
60.687935 19.076457 41.582706 0.000000 43.000000 14.151054 0.000000
60.996305 14.357256 38.066572 0.000000 48.000000 14.165063 0.000000
60.519156 19.028140 40.879140 0.000000 48.000000 14.364261 24.000000
62.343345 17.584717 41.807840 0.000000 39.000000 14.634271 23.000000
60.158250 17.617006 39.185183 0.000000 52.000000 14.358978 4.000000
60.713769 15.005606 38.073160 0.000000 52.000000 14.227598 0.000000
61.142289 19.265674 42.248207 0.000000 44.000000 14.230466 0.000000
59.068850 19.111753 37.628989 0.000000 45.000000 14.979841 13.000000
60.598729 14.204085 36.188948 0.000000 53.000000 14.763142 1.000000
60.759349 19.043848 41.637547 0.000000 41.000000 14.162372 0.000000
60.769873 18.415989 41.241819 0.000000 53.000000 14.104632 0.000000
60.431621 15.476111 38.240888 0.000000 54.000000 14.132142 0.000000
60.273880 15.633063 38.351327 0.000000 32.000000 14.024980 0.000000
61.137452 15.619280 39.483279 0.000000 45.000000 14.084539 0.000000
61.779333 16.317397 39.990432 0.000000 47.000000 14.601967 2.000000
60.872333 18.862469 41.084083 0.000000 66.000000 14.452239 18.000000
62.227692 17.671822 41.180756 0.000000 59.000000 14.905793 23.000000
60.984290 16.009369 39.308960 0.000000 51.000000 14.225874 0.000000
61.671417 18.955948 42.535648 0.000000 74.000000 14.346047 16.000000
60.884271 16.138593 39.356245 0.000000 55.000000 14.182229 0.000000
60.694335 19.377442 41.366025 0.000000 80.000000 14.395054 22.000000
59.065381 19.141446 37.480702 0.000000 59.000000 15.065742 13.000000
59.890422 16.453513 38.162374 0.000000 55.000000 14.185650 0.000000
60.828901 18.745944 40.787854 0.000000 63.000000 14.521576 24.000000
59.805342 16.595227 38.154435 0.000000 42.000000 14.186715 0.000000
63.201627 14.831822 40.643733 0.000000 74.000000 14.694996 21.000000
62.618032 15.939145 41.847004 0.000000 51.000000 14.116945 0.000000
60.505942 16.723257 39.341649 0.000000 44.000000 14.156960 0.000000
59.604610 16.832965 38.234453 0.000000 38.000000 14.097510 0.000000
62.075978 16.033135 41.073123 0.000000 34.000000 14.148378 0.000000
63.406981 14.194262 41.334287 0.000000 50.000000 14.223042 0.000000
59.427636 17.118688 38.192555 0.000000 38.000000 14.108840 0.000000
59.594688 15.616513 36.872426 0.000000 22.000000 14.267414 3.000000
61.274095 18.202667 41.903793 0.000000 38.000000 14.051274 0.000000
60.087896 16.132715 38.156683 0.000000 40.000000 14.198977 0.000000
61.536168 17.822272 41.741842 0.000000 41.000000 14.167253 0.000000
59.960360 17.384091 38.643147 0.000000 53.000000 14.389108 4.000000
62.151774 17.842683 41.715520 0.000000 52.000000 14.648648 23.000000
62.316825 15.130166 39.520491 0.000000 52.000000 14.736576 21.000000
58.027721 19.090192 37.658223 0.000000 43.000000 14.179036 0.000000
60.480073 18.309077 40.146579 0.000000 64.000000 14.402818 28.000000
60.271656 17.117930 39.582178 0.000000 23.000000 14.027625 0.000000
58.771765 18.124850 38.135403 0.000000 31.000000 14.078156 0.000000
59.580366 18.338139 39.408507 0.000000 61.000000 14.121434 0.000000
63.454416 14.077655 40.404160 0.000000 53.000000 14.684238 20.000000
60.211101 19.193713 40.691040 0.000000 49.000000 14.301289 25.000000
59.300203 18.987387 39.371359 0.000000 47.000000 14.208485 0.000000
59.347998 19.062534 39.581463 0.000000 42.000000 14.168781 0.000000
61.469529 19.211998 42.796883 0.000000 63.000000 14.171138 0.000000
59.467468 19.251398 39.905828 0.000000 50.000000 14.172650 0.000000
59.809636 17.484442 38.323749 0.000000 54.000000 14.482801 9.000000
60.287030 14.712965 36.949440 0.000000 82.000000 14.358938 6.000000
60.510020 18.306098 40.532058 0.000000 38.000000 14.226793 0.000000
63.034431 15.231181 40.849669 0.000000 83.000000 14.635395 21.000000
60.151522 19.007466 40.071690 0.000000 70.000000 14.494040 24.000000
59.971397 17.706975 39.357036 0.000000 44.000000 14.170115 0.000000
62.160713 16.030689 41.199452 0.000000 39.000000 14.145952 0.000000
60.483904 17.243904 39.619347 0.000000 41.000000 14.220709 0.000000
58.787784 18.607292 38.334040 0.000000 40.000000 14.194414 0.000000
60.903089 18.389004 41.085400 0.000000 27.000000 14.272469 27.000000
59.738785 18.990087 39.503284 0.000000 58.000000 14.469356 14.000000
60.504585 18.012769 40.071706 0.000000 53.000000 14.332943 28.000000
59.858098 18.951628 39.082626 0.000000 42.000000 14.757030 14.000000
60.848240 16.807707 40.062750 0.000000 40.000000 14.079647 0.000000
60.074520 16.826807 38.882366 0.000000 38.000000 14.114147 0.000000
58.819771 17.050035 37.351782 0.000000 42.000000 14.055976 0.000000
61.401868 19.119992 42.700678 0.000000 51.000000 14.130592 0.000000
60.913366 18.661008 41.087883 0.000000 69.000000 14.394937 18.000000
60.728813 16.178480 39.060551 0.000000 35.000000 14.234470 0.000000
63.170013 14.850837 41.222682 0.000000 65.000000 14.383512 21.000000
60.482729 16.529050 39.056494 0.000000 62.000000 14.202569 0.000000
60.270100 18.407244 40.596699 0.000000 39.000000 14.057929 0.000000
59.195129 16.877718 37.876370 0.000000 36.000000 13.994231 0.000000
60.756217 16.318183 39.216134 0.000000 57.000000 14.234979 0.000000
62.308656 17.774860 42.181201 0.000000 46.000000 14.498635 23.000000
59.895587 16.820216 37.172620 0.000000 69.000000 14.852043 19.000000
62.711726 14.299892 39.344079 0.000000 65.000000 14.767061 29.000000
62.330562 17.278626 41.352085 0.000000 70.000000 14.727144 23.000000
62.139207 15.670584 41.131141 0.000000 39.000000 14.011169 0.000000
61.293878 15.792656 39.790050 0.000000 59.000000 14.118362 0.000000
62.310318 15.623657 41.090686 0.000000 47.000000 14.139473 0.000000
61.422642 15.627641 40.015949 0.000000 45.000000 14.028499 0.000000
60.644231 19.040756 40.059038 0.000000 72.000000 14.882263 24.000000
61.734133 15.453142 40.143802 0.000000 40.000000 14.121029 0.000000
59.301546 19.521053 38.761667 0.000000 64.000000 14.748951 26.000000
61.738935 18.526891 42.328477 0.000000 25.000000 14.319248 16.000000
61.790472 17.788891 42.153292 0.000000 50.000000 14.132340 0.000000
62.526600 14.969812 40.633823 0.000000 44.000000 14.255393 0.000000
59.190467 17.624174 38.085579 0.000000 40.000000 14.202319 0.000000
58.791720 18.005485 37.293460 0.000000 58.000000 14.472588 11.000000
60.136436 14.520957 36.720833 0.000000 42.000000 14.281550 6.000000
60.394224 18.225203 39.971658 0.000000 57.000000 14.392422 28.000000
60.175355 18.424647 40.117011 0.000000 55.000000 14.239941 24.000000
62.779393 15.288511 40.759393 0.000000 52.000000 14.515765 17.000000
61.526895 18.837234 42.142124 0.000000 76.000000 14.388785 18.000000
58.947992 18.995273 37.403346 0.000000 75.000000 14.955349 13.000000
61.335378 14.845544 38.369603 0.000000 49.000000 14.471431 7.000000
59.523287 18.311881 39.296623 0.000000 61.000000 14.124856 0.000000
60.766270 18.345170 40.609219 0.000000 87.000000 14.395170 27.000000
60.307883 15.354296 37.759557 0.000000 52.000000 14.233958 0.000000
61.384428 15.410815 39.677161 0.000000 38.000000 14.080687 0.000000
61.633678 16.881717 41.298296 0.000000 37.000000 14.065416 0.000000
61.377472 14.748880 38.796602 0.000000 46.000000 14.243259 0.000000
60.728219 14.871558 38.013553 0.000000 37.000000 14.211653 0.000000
62.346369 17.107122 41.332759 0.000000 68.000000 14.675631 23.000000
59.914163 15.255722 36.467893 0.000000 63.000000 14.558612 3.000000
62.525752 14.773341 39.548720 0.000000 41.000000 14.725731 21.000000
61.268351 19.553163 42.034855 0.000000 67.000000 14.556271 22.000000
58.950582 19.081081 39.010729 0.000000 45.000000 14.172048 0.000000
61.944238 15.647524 40.817313 0.000000 36.000000 14.016346 0.000000
60.985031 17.863348 40.988678 0.000000 49.000000 14.158737 0.000000
58.947744 18.044582 37.489181 0.000000 70.000000 14.505590 11.000000
59.448020 18.220099 38.580927 0.000000 74.000000 14.395475 12.000000
60.556683 18.486969 40.952828 0.000000 50.000000 14.123646 0.000000
61.322402 16.446912 40.285695 0.000000 41.000000 14.165408 0.000000
62.229073 17.374262 41.258883 0.000000 68.000000 14.739900 23.000000
61.194970 16.584236 40.208713 0.000000 39.000000 14.168307 0.000000
60.200496 14.945843 36.893387 0.000000 62.000000 14.422421 6.000000
