-20.350034 1.742036 14.110431 0.000000 49.000000 14.708864 28.000000
-18.387852 1.745186 16.879056 0.000000 43.000000 14.413444 0.000000
-18.924138 1.903235 15.817456 0.000000 36.000000 14.342072 0.000000
-20.239211 1.838716 14.559382 0.000000 66.000000 14.841043 28.000000
-19.826759 1.991597 14.407394 0.000000 46.000000 14.410102 0.000000
-19.799141 1.905668 14.286743 0.000000 40.000000 14.324342 0.000000
-20.363345 1.937587 13.338151 0.000000 35.000000 14.332661 0.000000
-19.910689 1.845451 14.172523 0.000000 42.000000 14.362238 0.000000
-20.445967 1.872188 13.225766 0.000000 32.000000 14.346458 0.000000
-19.959599 1.775922 14.054426 0.000000 43.000000 14.344007 0.000000
-20.589510 0.895750 14.643129 0.000000 80.000000 15.174684 29.000000
-20.799741 -3.771403 13.507573 0.000000 50.000000 14.728384 2.000000
-20.709981 1.765797 13.015477 0.000000 34.000000 14.466894 0.000000
-21.131980 1.428116 12.331006 0.000000 54.000000 14.481547 0.000000
-20.602272 1.745159 13.511682 0.000000 31.000000 14.624256 20.000000
-18.218111 1.266000 17.238878 0.000000 43.000000 14.443061 0.000000
-21.010386 1.143244 12.535597 0.000000 47.000000 14.476597 0.000000
-18.658305 -0.317869 16.598923 0.000000 39.000000 14.481389 0.000000
-20.471887 -3.835302 13.442693 0.000000 35.000000 14.411918 0.000000
-18.518868 1.539970 17.180599 0.000000 57.000000 14.676397 6.000000
-21.265245 1.009499 12.061722 0.000000 42.000000 14.455713 0.000000
-19.488526 1.078847 15.129679 0.000000 41.000000 14.472280 0.000000
-18.389639 -0.103971 17.039563 0.000000 49.000000 14.474507 0.000000
-20.235324 -3.839554 13.806914 0.000000 36.000000 14.391615 0.000000
-20.276989 1.148004 13.834080 0.000000 47.000000 14.499360 0.000000
-18.847773 -4.055318 16.063177 0.000000 41.000000 14.330870 0.000000
-18.913251 -1.725787 16.245565 0.000000 40.000000 14.506602 0.000000
-19.501746 -0.731491 15.908018 0.000000 47.000000 14.855641 9.000000
-20.635099 -2.172100 13.678945 0.000000 22.000000 14.691442 24.000000
-20.759708 -0.623597 13.167203 0.000000 52.000000 14.558609 22.000000
-19.729465 -3.256811 14.801148 0.000000 35.000000 14.463855 0.000000
-20.002824 -1.427240 14.698169 0.000000 55.000000 14.669083 27.000000
-18.924153 -2.489754 15.844274 0.000000 44.000000 14.304482 0.000000
-20.260832 -2.726297 13.699090 0.000000 33.000000 14.372145 0.000000
-21.358708 1.409317 13.843455 0.000000 50.000000 15.440732 20.000000
-20.185338 -2.600615 13.686817 0.000000 29.000000 14.302254 0.000000
-18.597726 -0.996902 16.475179 0.000000 54.000000 14.358714 0.000000
-20.181156 1.381031 15.177735 0.000000 55.000000 15.097850 28.000000
-21.219114 -1.604782 12.563616 0.000000 49.000000 14.638897 19.000000
-20.986875 -1.994665 12.642585 0.000000 46.000000 14.473797 0.000000
-19.230677 -3.809000 16.033184 0.000000 54.000000 14.649065 1.000000
-19.155972 1.393109 16.135414 0.000000 53.000000 14.696776 7.000000
-18.415479 -1.932519 16.938160 0.000000 37.000000 14.424316 0.000000
-19.314766 1.277142 15.432782 0.000000 43.000000 14.477677 0.000000
-19.394166 -3.383326 15.327996 0.000000 38.000000 14.439033 0.000000
-20.619144 0.464159 13.344432 0.000000 52.000000 14.539450 0.000000
-19.439006 -1.878131 15.254883 0.000000 41.000000 14.458338 0.000000
-18.896791 -2.403312 16.042803 0.000000 43.000000 14.382121 0.000000
-19.647042 -1.234251 14.794758 0.000000 37.000000 14.413040 0.000000
-20.836547 1.428254 13.713602 0.000000 70.000000 14.924722 20.000000
-19.531686 -1.116042 14.805500 0.000000 34.000000 14.320280 0.000000
-19.328118 -0.560803 15.406785 0.000000 27.000000 14.454675 0.000000
-20.302150 -0.698172 13.805010 0.000000 39.000000 14.484903 0.000000
-19.413796 -3.952671 15.009972 0.000000 31.000000 14.288758 0.000000
-19.707605 0.691123 15.447835 0.000000 64.000000 14.817502 29.000000
-19.713857 -2.029070 15.129151 0.000000 61.000000 14.630306 26.000000
-21.049383 -1.361236 12.792625 0.000000 63.000000 14.610884 19.000000
-19.601335 -0.330778 14.915054 0.000000 48.000000 14.444855 0.000000
-18.841872 -1.822133 16.206015 0.000000 38.000000 14.423904 0.000000
-20.385766 0.992546 14.639996 0.000000 53.000000 14.998384 29.000000
-19.286625 0.188544 15.812268 0.000000 67.000000 14.632340 16.000000
-21.312374 -3.304563 12.029976 0.000000 34.000000 14.430133 0.000000
-20.853612 0.178954 13.243665 0.000000 71.000000 14.687607 21.000000
-21.132299 -1.506213 12.875090 0.000000 56.000000 14.722399 19.000000
-20.813499 0.784791 12.916916 0.000000 54.000000 14.495046 0.000000
-19.520698 0.244505 15.034505 0.000000 39.000000 14.442275 0.000000
-18.553351 1.693331 17.019222 0.000000 30.000000 14.626455 6.000000
-20.558860 -1.672637 13.479079 0.000000 50.000000 14.530535 0.000000
-20.181476 0.598372 14.068477 0.000000 44.000000 14.528887 0.000000
-19.425208 0.514221 15.104095 0.000000 35.000000 14.398140 0.000000
-20.032896 1.135826 14.229527 0.000000 39.000000 14.488234 0.000000
-20.310993 0.027117 13.763353 0.000000 56.000000 14.479943 0.000000
-19.207310 1.756640 15.517450 0.000000 44.000000 14.433272 0.000000
-19.064291 1.873221 15.573152 0.000000 41.000000 14.339320 0.000000
-18.549626 -2.166948 16.773998 0.000000 41.000000 14.454469 0.000000
-19.256821 -0.375487 15.624983 0.000000 40.000000 14.505479 0.000000
-21.159680 -3.689741 12.331535 0.000000 35.000000 14.446138 0.000000
-19.368018 -3.725395 15.544877 0.000000 34.000000 14.521999 1.000000
-21.148848 -3.402730 12.316281 0.000000 42.000000 14.432428 0.000000
-19.446123 -0.087263 15.206638 0.000000 48.000000 14.460969 0.000000
-21.196185 -3.089528 12.321468 0.000000 37.000000 14.479548 0.000000
-21.184178 -2.947653 12.323038 0.000000 48.000000 14.471630 0.000000
-19.361535 -0.594872 16.244832 0.000000 79.000000 14.906298 9.000000
-19.684440 -3.453056 14.867096 0.000000 36.000000 14.456012 0.000000
-20.783538 -3.197313 12.989441 0.000000 43.000000 14.459449 0.000000
-20.983741 -2.448147 12.328171 0.000000 29.000000 14.307047 0.000000
-18.844943 -2.797272 16.784865 0.000000 63.000000 14.707496 10.000000
-18.616475 1.591304 17.232135 0.000000 62.000000 14.787259 6.000000
-18.579240 -4.068432 16.635594 0.000000 23.000000 14.388003 0.000000
-20.739725 1.402564 13.715902 0.000000 72.000000 14.842020 20.000000
-21.071303 -1.687833 12.447083 0.000000 41.000000 14.451516 0.000000
-18.475620 1.040532 17.284511 0.000000 55.000000 14.685727 8.000000
-21.253472 0.669022 12.414432 0.000000 71.000000 14.619692 21.000000
-20.990500 -1.291172 12.523448 0.000000 36.000000 14.424957 0.000000
-20.920580 -1.174883 12.546775 0.000000 38.000000 14.377744 0.000000
-20.892667 -1.043401 12.579024 0.000000 42.000000 14.371469 0.000000
-20.428657 -0.417998 13.564692 0.000000 41.000000 14.475998 0.000000
-18.769763 -3.392386 16.375867 0.000000 40.000000 14.429156 0.000000
-21.087800 1.602551 13.948622 0.000000 75.000000 15.262274 20.000000
-19.159141 -1.472734 16.125411 0.000000 41.000000 14.661095 14.000000
-20.578463 0.753766 13.256531 0.000000 51.000000 14.463325 0.000000
-18.670957 0.489633 16.646360 0.000000 67.000000 14.525663 0.000000
-18.614748 0.877226 17.607032 0.000000 74.000000 14.966761 8.000000
-21.065262 1.158593 12.431694 0.000000 49.000000 14.471671 0.000000
-20.468155 0.638142 14.468825 0.000000 76.000000 14.978932 29.000000
-20.917673 1.730827 13.525550 0.000000 62.000000 14.903303 20.000000
-20.128715 1.170534 14.312630 0.000000 43.000000 14.613299 28.000000
-18.234702 0.721454 17.358444 0.000000 36.000000 14.511417 0.000000
-18.249055 0.252957 17.297174 0.000000 49.000000 14.487411 0.000000
-18.231787 -0.227630 17.221007 0.000000 44.000000 14.428452 0.000000
-18.259775 -0.379192 17.188822 0.000000 49.000000 14.434591 0.000000
-19.349584 -1.987683 15.400612 0.000000 34.000000 14.453473 0.000000
-18.503171 -1.366199 17.199454 0.000000 50.000000 14.638535 11.000000
-20.949642 1.676611 14.009439 0.000000 75.000000 15.174607 20.000000
-18.243933 -1.016227 17.047007 0.000000 47.000000 14.341891 0.000000
-21.136437 -2.136677 13.032304 0.000000 60.000000 14.798017 24.000000
-18.454239 1.144283 16.840049 0.000000 37.000000 14.444047 0.000000
-18.613839 -2.203753 17.411679 0.000000 63.000000 14.831462 13.000000
-18.477541 -1.726630 16.804314 0.000000 36.000000 14.412690 0.000000
-18.528118 -1.863823 16.748780 0.000000 40.000000 14.426702 0.000000
-18.638338 -1.981540 16.688189 0.000000 46.000000 14.489862 0.000000
-19.000386 1.737721 16.649177 0.000000 44.000000 14.825935 7.000000
-19.204902 1.794980 15.371386 0.000000 33.000000 14.357883 0.000000
-18.715541 -2.717470 16.380157 0.000000 34.000000 14.392383 0.000000
-18.539988 0.642998 16.816290 0.000000 69.000000 14.500221 0.000000
-19.803590 0.736549 15.656737 0.000000 76.000000 15.006358 29.000000
-18.392448 -3.040386 17.202476 0.000000 41.000000 14.525008 4.000000
-18.925455 -3.227556 16.089173 0.000000 33.000000 14.420680 0.000000
-18.323419 -3.641497 17.159111 0.000000 39.000000 14.436536 0.000000
-18.962667 -3.358644 16.011952 0.000000 30.000000 14.412276 0.000000
-21.095586 -4.032416 12.151992 0.000000 22.000000 14.296169 0.000000
-19.082676 -3.451111 15.931446 0.000000 44.000000 14.474123 0.000000
-18.202850 -3.990102 17.008226 0.000000 25.000000 14.252228 0.000000
-20.301669 -2.844868 14.356435 0.000000 73.000000 14.737941 5.000000
-21.114553 1.233635 12.405858 0.000000 64.000000 14.502040 0.000000
-20.756878 1.533921 14.264126 0.000000 71.000000 15.135183 28.000000
-19.158901 1.946817 15.786314 0.000000 46.000000 14.529469 0.000000
-18.876258 1.852211 16.027732 0.000000 42.000000 14.406334 0.000000
-18.565766 1.939903 16.371182 0.000000 36.000000 14.312808 0.000000
-21.340789 1.712305 13.143646 0.000000 75.000000 15.075420 20.000000
-18.992532 0.936981 16.649543 0.000000 71.000000 14.810019 17.000000
-20.871039 0.499060 13.013420 0.000000 37.000000 14.590111 21.000000
-18.303823 1.057815 17.079260 0.000000 45.000000 14.434013 0.000000
-19.824766 1.493660 15.410181 0.000000 59.000000 14.908949 28.000000
-19.001647 1.037496 15.951379 0.000000 39.000000 14.466513 0.000000
-20.812026 -1.299735 13.625962 0.000000 72.000000 14.827544 23.000000
-20.298161 -2.769464 13.721198 0.000000 44.000000 14.415024 0.000000
-20.491701 1.023480 13.435046 0.000000 48.000000 14.481726 0.000000
-19.442048 0.304549 14.955381 0.000000 36.000000 14.335139 0.000000
-18.529904 0.265932 16.652514 0.000000 52.000000 14.404428 0.000000
-19.843025 -2.762201 14.462168 0.000000 28.000000 14.396454 0.000000
-19.216889 0.271498 15.528994 0.000000 32.000000 14.430077 0.000000
-19.778876 0.676017 15.258567 0.000000 63.000000 14.783265 29.000000
-19.343430 0.173043 15.454447 0.000000 50.000000 14.500501 0.000000
-18.766323 -0.082355 16.411672 0.000000 51.000000 14.482804 0.000000
-20.724768 -0.152769 13.353428 0.000000 50.000000 14.627970 21.000000
-20.768498 1.529574 14.153583 0.000000 73.000000 15.089343 28.000000
-18.818040 -1.397246 16.724894 0.000000 65.000000 14.670294 14.000000
-18.850076 -0.325391 16.246215 0.000000 60.000000 14.468710 0.000000
-21.542608 1.508816 12.858025 0.000000 66.000000 15.103008 20.000000
-18.447359 -0.074769 16.916227 0.000000 45.000000 14.462383 0.000000
-19.816353 -0.943803 14.512739 0.000000 49.000000 14.420141 0.000000
-19.542307 -0.417239 15.052084 0.000000 37.000000 14.462097 0.000000
-19.647870 -0.511791 14.969748 0.000000 52.000000 14.510528 0.000000
-20.281055 1.379791 14.986906 0.000000 63.000000 15.087695 28.000000
-19.069267 -1.149741 15.621863 0.000000 51.000000 14.333018 0.000000
-19.884356 1.578885 15.373245 0.000000 62.000000 14.942721 28.000000
-19.685718 -1.115798 14.509105 0.000000 30.000000 14.303556 0.000000
-18.532659 -3.416165 16.809459 0.000000 32.000000 14.443188 0.000000
-21.179917 -2.671765 12.114231 0.000000 42.000000 14.365726 0.000000
-19.293811 1.320922 15.539033 0.000000 39.000000 14.513753 0.000000
-19.624859 -3.452780 14.955285 0.000000 43.000000 14.449125 0.000000
-20.042317 -1.348925 14.235062 0.000000 33.000000 14.470231 0.000000
-19.591523 -1.682072 15.032441 0.000000 39.000000 14.479929 0.000000
-20.623191 1.908092 12.916908 0.000000 37.000000 14.343872 0.000000
-20.069518 1.632591 15.144115 0.000000 73.000000 14.987452 28.000000
-20.232967 -1.621109 13.939312 0.000000 38.000000 14.482265 0.000000
-19.671999 -1.877761 14.821403 0.000000 37.000000 14.440542 0.000000
-19.324156 1.240447 15.359294 0.000000 30.000000 14.448246 0.000000
-21.193812 1.816674 13.327042 0.000000 75.000000 15.042391 20.000000
-20.211744 1.244381 15.139975 0.000000 74.000000 15.103592 28.000000
-18.888484 1.122153 16.436165 0.000000 56.000000 14.614628 17.000000
-18.489957 -0.656241 16.912226 0.000000 62.000000 14.490358 0.000000
-19.934676 -2.098246 14.507252 0.000000 49.000000 14.506050 0.000000
-19.043664 -3.301224 15.900278 0.000000 32.000000 14.426461 0.000000
-19.739267 0.984822 15.435771 0.000000 65.000000 14.842156 29.000000
-20.643416 -2.103972 13.314974 0.000000 46.000000 14.515624 0.000000
-21.354973 0.156665 12.792240 0.000000 45.000000 14.892106 21.000000
-19.965185 -2.486309 14.050931 0.000000 33.000000 14.297441 0.000000
-19.970318 0.300706 14.274316 0.000000 42.000000 14.447118 0.000000
-20.107247 -2.613437 13.828771 0.000000 38.000000 14.306389 0.000000
-19.992803 -2.546988 14.066819 0.000000 40.000000 14.328593 0.000000
-20.348285 1.756204 13.953019 0.000000 31.000000 14.628033 28.000000
-19.477397 -2.116824 15.720700 0.000000 57.000000 14.723911 25.000000
-20.844916 -2.587868 12.627570 0.000000 31.000000 14.336789 0.000000
-18.737841 -4.049622 16.420085 0.000000 34.000000 14.416282 0.000000
-21.536970 0.429085 12.190186 0.000000 70.000000 14.748341 21.000000
-18.896000 1.461558 16.623344 0.000000 70.000000 14.719584 7.000000
-21.016129 -2.686792 12.407512 0.000000 33.000000 14.372285 0.000000
-20.780685 1.162779 13.874069 0.000000 44.000000 14.954448 20.000000
-21.097910 -2.733262 12.294898 0.000000 30.000000 14.385461 0.000000
-20.665764 -2.878789 13.157989 0.000000 37.000000 14.446621 0.000000
-19.110993 0.282137 15.788573 0.000000 37.000000 14.469882 0.000000
-20.836448 1.110648 13.701442 0.000000 70.000000 14.914799 20.000000
-21.290123 -2.806036 12.075795 0.000000 32.000000 14.439869 0.000000
-20.930104 -2.974072 12.822466 0.000000 41.000000 14.504230 0.000000
-20.744167 0.121636 13.760124 0.000000 54.000000 14.853272 21.000000
-20.158639 1.265370 14.912550 0.000000 70.000000 14.943163 28.000000
-21.145296 -3.065655 12.479172 0.000000 43.000000 14.515539 0.000000
-21.179143 1.849998 13.287223 0.000000 38.000000 15.010013 20.000000
-18.753977 1.486079 16.490838 0.000000 65.000000 14.530384 0.000000
-21.287779 -3.160678 12.123542 0.000000 37.000000 14.457827 0.000000
-20.911365 0.899106 12.735199 0.000000 67.000000 14.489084 0.000000
-19.197167 -2.479845 15.463061 0.000000 42.000000 14.347731 0.000000
-18.540648 0.956447 17.526371 0.000000 48.000000 14.863000 8.000000
-18.290333 -0.696021 17.143051 0.000000 44.000000 14.434163 0.000000
-20.099179 1.048837 14.881304 0.000000 59.000000 14.873547 29.000000
-18.335508 -0.361016 17.067507 0.000000 44.000000 14.438906 0.000000
-18.363567 -0.195503 17.033656 0.000000 55.000000 14.447956 0.000000
-19.158457 -3.733590 16.197932 0.000000 60.000000 14.670803 1.000000
-18.424273 0.139509 16.971518 0.000000 50.000000 14.472873 0.000000
-19.613003 -2.973714 15.225481 0.000000 55.000000 14.580907 5.000000
-19.026132 -4.116016 15.713734 0.000000 29.000000 14.307646 0.000000
-18.270685 0.577894 16.908363 0.000000 34.000000 14.313530 0.000000
-19.258848 -0.517721 15.756451 0.000000 51.000000 14.571959 9.000000
-19.927422 -2.643063 14.228520 0.000000 50.000000 14.352699 0.000000
-21.070083 1.124545 12.400155 0.000000 37.000000 14.459509 0.000000
-20.958807 0.379745 13.056262 0.000000 66.000000 14.686105 21.000000
-19.935976 1.491308 15.412587 0.000000 81.000000 15.006118 28.000000
-20.062578 1.109996 14.992347 0.000000 65.000000 14.898741 28.000000
-18.351184 1.855427 16.799621 0.000000 36.000000 14.342969 0.000000
-18.822913 -2.930538 16.854521 0.000000 51.000000 14.722105 10.000000
-21.219193 -0.695113 12.213095 0.000000 50.000000 14.472559 0.000000
-19.113328 0.909093 16.516843 0.000000 58.000000 14.846942 17.000000
-19.302397 1.490345 15.513884 0.000000 44.000000 14.510437 0.000000
-19.895911 -2.807851 15.226605 0.000000 56.000000 14.827574 5.000000
-21.194413 1.454011 13.777474 0.000000 71.000000 15.266137 20.000000
-18.728074 -1.426269 17.256247 0.000000 66.000000 14.860620 11.000000
-19.994585 -2.785458 14.148892 0.000000 28.000000 14.368799 0.000000
-18.614194 1.505742 17.224020 0.000000 60.000000 14.780196 6.000000
-20.477324 0.644480 13.369676 0.000000 32.000000 14.431896 0.000000
-19.844491 -2.105478 15.146565 0.000000 61.000000 14.750955 26.000000
-19.814721 1.448679 15.390685 0.000000 57.000000 14.889911 28.000000
-21.205999 -0.526788 12.762210 0.000000 57.000000 14.740411 22.000000
-18.911621 0.120161 16.261564 0.000000 50.000000 14.534765 0.000000
-19.352718 1.518207 16.132468 0.000000 70.000000 14.866549 7.000000
-20.392699 0.224643 13.632692 0.000000 43.000000 14.486783 0.000000
-21.059155 0.236477 12.603684 0.000000 42.000000 14.542512 0.000000
-19.838963 1.595032 15.292912 0.000000 78.000000 14.863166 28.000000
-21.085484 0.752387 12.428609 0.000000 72.000000 14.482837 0.000000
-20.424283 0.905875 13.540952 0.000000 43.000000 14.475648 0.000000
-21.321598 -0.031586 12.019211 0.000000 32.000000 14.470763 0.000000
-21.135121 -0.254801 12.351029 0.000000 46.000000 14.474776 0.000000
-21.209330 -0.282255 12.236188 0.000000 47.000000 14.480514 0.000000
-19.681557 -1.248265 14.767213 0.000000 37.000000 14.428757 0.000000
-19.239077 -4.068269 15.535495 0.000000 34.000000 14.401985 0.000000
-19.201102 -3.925245 15.494442 0.000000 32.000000 14.350144 0.000000
-19.567106 -2.099700 15.295454 0.000000 72.000000 14.586804 26.000000
-19.416181 -0.357463 15.260948 0.000000 59.000000 14.459405 0.000000
-18.478576 -3.931837 16.574943 0.000000 26.000000 14.272087 0.000000
-19.222606 0.982495 15.978944 0.000000 37.000000 14.670494 18.000000
-20.365991 0.089861 13.705439 0.000000 53.000000 14.498897 0.000000
-19.344893 -3.373261 15.392422 0.000000 31.000000 14.429157 0.000000
-18.718364 -3.495250 16.494793 0.000000 35.000000 14.443651 0.000000
-21.307622 1.793112 13.156814 0.000000 55.000000 15.054385 20.000000
-18.696680 -3.335194 16.466170 0.000000 33.000000 14.412345 0.000000
-18.684813 1.247555 16.482575 0.000000 53.000000 14.463741 0.000000
-20.186443 1.526067 15.295769 0.000000 70.000000 15.163704 28.000000
-19.325165 -2.734618 15.292770 0.000000 34.000000 14.369246 0.000000
-19.907206 1.451358 15.434109 0.000000 78.000000 14.991690 28.000000
-19.992966 -4.047915 14.110521 0.000000 33.000000 14.333327 0.000000
-20.333334 1.440509 14.959908 0.000000 64.000000 15.119889 28.000000
-18.723391 -2.498025 16.347865 0.000000 38.000000 14.385406 0.000000
-19.719067 1.663708 15.418734 0.000000 66.000000 14.824022 28.000000
-18.826264 -1.969825 16.302426 0.000000 53.000000 14.457397 0.000000
-20.420505 -1.698831 13.632803 0.000000 48.000000 14.488443 0.000000
-20.933350 -2.066873 12.867663 0.000000 47.000000 14.540416 24.000000
-20.980711 0.248195 13.176074 0.000000 59.000000 14.763978 21.000000
-19.005469 0.867489 16.565208 0.000000 61.000000 14.777790 17.000000
-19.416213 -1.258147 15.200464 0.000000 35.000000 14.418405 0.000000
-21.143999 0.440792 12.652101 0.000000 37.000000 14.642565 21.000000
-19.078446 1.796602 16.404591 0.000000 64.000000 14.770486 7.000000
-18.570613 -2.807582 16.740207 0.000000 36.000000 14.448061 0.000000
-18.925136 0.314581 15.932583 0.000000 36.000000 14.382572 0.000000
-19.850314 0.988500 15.447165 0.000000 85.000000 14.943793 29.000000
-19.399426 1.573640 16.081936 0.000000 63.000000 14.881991 7.000000
-18.843248 -0.368744 16.307641 0.000000 61.000000 14.493330 0.000000
-19.516230 0.771755 15.891957 0.000000 70.000000 14.877533 18.000000
-18.631811 1.878536 16.264953 0.000000 34.000000 14.315454 0.000000
-19.289533 -1.214276 15.305264 0.000000 35.000000 14.362502 0.000000
-18.238306 1.191757 17.183681 0.000000 31.000000 14.431755 0.000000
-20.203462 1.213253 15.188987 0.000000 58.000000 15.120830 28.000000
-18.797495 0.088530 16.351279 0.000000 51.000000 14.481200 0.000000
-19.394777 0.285852 15.300980 0.000000 42.000000 14.468636 0.000000
-19.775088 -2.027151 14.663205 0.000000 38.000000 14.447893 0.000000
-20.785858 1.564980 14.192036 0.000000 77.000000 15.124154 28.000000
-19.807921 -1.268905 14.944929 0.000000 50.000000 14.627316 27.000000
-18.583746 0.653068 16.441171 0.000000 52.000000 14.348685 0.000000
-20.144866 1.720375 15.016996 0.000000 78.000000 14.989314 28.000000
-18.650532 1.124949 16.521966 0.000000 49.000000 14.452618 0.000000
-19.256430 1.454980 15.516001 0.000000 42.000000 14.471422 0.000000
-18.636453 -3.276431 16.570316 0.000000 29.000000 14.413639 0.000000
-20.107189 1.567064 15.361765 0.000000 73.000000 15.129105 28.000000
-19.052480 1.856429 15.626733 0.000000 40.000000 14.355988 0.000000
-18.434683 1.833702 16.706723 0.000000 41.000000 14.367871 0.000000
-19.020413 1.995837 15.667490 0.000000 40.000000 14.350515 0.000000
-20.414279 1.411372 14.571965 0.000000 71.000000 14.993517 28.000000
-21.185143 2.007874 11.912895 0.000000 37.000000 14.323052 0.000000
-20.822158 -2.088639 13.483119 0.000000 75.000000 14.754975 24.000000
-20.116254 -4.171380 13.893207 0.000000 28.000000 14.328561 0.000000
-20.735779 -3.935351 12.811279 0.000000 26.000000 14.319674 0.000000
-20.432727 1.317977 14.812093 0.000000 81.000000 15.129605 28.000000
-19.837639 -1.494107 15.027050 0.000000 63.000000 14.691809 27.000000
-20.221945 -3.810225 13.874130 0.000000 35.000000 14.414351 0.000000
-19.094265 0.851167 16.590144 0.000000 60.000000 14.866828 17.000000
-19.943753 1.358623 15.260173 0.000000 65.000000 14.934323 28.000000
-20.898736 -3.397768 12.809315 0.000000 34.000000 14.465583 0.000000
-21.234000 -1.367232 12.494674 0.000000 51.000000 14.619698 19.000000
-20.802882 1.452412 13.962004 0.000000 79.000000 15.021381 20.000000
-19.032492 -2.922586 16.646625 0.000000 71.000000 14.798099 10.000000
-20.136451 0.840634 15.022308 0.000000 54.000000 14.974492 29.000000
-19.702821 1.897528 15.034201 0.000000 64.000000 14.618551 28.000000
-19.456336 -4.001046 14.931644 0.000000 26.000000 14.285357 0.000000
-19.320479 -3.834853 15.303748 0.000000 34.000000 14.357935 0.000000
-18.778806 0.325734 16.262272 0.000000 46.000000 14.422888 0.000000
-19.662630 -2.506551 14.574096 0.000000 26.000000 14.300256 0.000000
-20.744015 -2.546346 12.803347 0.000000 30.000000 14.338948 0.000000
-20.754984 0.721871 12.981935 0.000000 53.000000 14.476644 0.000000
-20.214144 -2.424444 13.875936 0.000000 32.000000 14.424664 0.000000
-21.466867 1.388750 13.018259 0.000000 68.000000 15.117152 20.000000
-20.386978 -0.690909 13.682671 0.000000 30.000000 14.496423 0.000000
-19.852205 -0.554903 14.712435 0.000000 55.000000 14.556449 15.000000
-20.866108 -1.885779 12.883019 0.000000 40.000000 14.492244 0.000000
-20.663366 0.584015 12.996969 0.000000 52.000000 14.403558 0.000000
-20.835191 -1.749219 12.899299 0.000000 35.000000 14.475371 0.000000
-20.208254 -1.816023 13.938855 0.000000 40.000000 14.458436 0.000000
-20.837117 -1.597389 12.923212 0.000000 40.000000 14.490875 0.000000
-21.491789 1.798909 12.716531 0.000000 70.000000 14.991077 20.000000
-21.233841 1.902185 12.867680 0.000000 70.000000 14.845976 20.000000
-20.240192 -1.505085 13.986723 0.000000 48.000000 14.513792 0.000000
-20.750029 -1.331576 12.963475 0.000000 36.000000 14.439139 0.000000
-19.044387 1.078236 16.461214 0.000000 67.000000 14.761320 17.000000
-20.634475 -1.222824 12.975605 0.000000 35.000000 14.346799 0.000000
-20.740904 -0.105721 13.292632 0.000000 22.000000 14.611745 21.000000
-20.601846 -1.085368 13.004142 0.000000 31.000000 14.334649 0.000000
-19.088740 0.843340 16.038271 0.000000 41.000000 14.583297 18.000000
-18.853880 0.806903 16.569348 0.000000 77.000000 14.648344 17.000000
-19.978097 -0.999418 14.079541 0.000000 39.000000 14.340343 0.000000
-20.768948 -0.734425 13.097077 0.000000 44.000000 14.529882 0.000000
-20.135951 -0.800220 14.127221 0.000000 46.000000 14.502976 0.000000
-20.733923 -0.602035 13.130872 0.000000 51.000000 14.518260 0.000000
-20.153413 -0.650333 14.164537 0.000000 56.000000 14.538635 0.000000
-18.506515 1.732626 17.111662 0.000000 69.000000 14.633168 6.000000
-21.448466 0.341683 12.212018 0.000000 69.000000 14.681963 21.000000
-20.665281 -0.337266 13.202331 0.000000 43.000000 14.498184 0.000000
-20.020107 -0.262500 14.273920 0.000000 46.000000 14.483332 0.000000
-19.947409 0.140771 14.406046 0.000000 45.000000 14.492002 0.000000
-19.879317 0.261766 14.449351 0.000000 39.000000 14.456510 0.000000
-19.378406 1.365735 16.042724 0.000000 75.000000 14.841629 7.000000
-20.507813 0.593703 13.526033 0.000000 35.000000 14.536572 0.000000
-20.247066 1.055539 14.558351 0.000000 73.000000 14.838183 29.000000
-20.804374 -1.492881 13.449252 0.000000 69.000000 14.729460 23.000000
-19.752261 -3.497040 14.976098 0.000000 38.000000 14.569075 3.000000
-20.872524 1.276841 13.853707 0.000000 74.000000 15.024756 20.000000
-19.977501 0.055191 14.733054 0.000000 43.000000 14.682103 30.000000
-21.055411 0.854956 12.456750 0.000000 51.000000 14.472286 0.000000
-19.336603 0.365523 15.095860 0.000000 32.000000 14.315779 0.000000
-20.227695 -1.456385 13.935493 0.000000 34.000000 14.477704 0.000000
-20.039379 -3.560936 15.447959 0.000000 7.000000 15.054403 3.000000
-21.121479 1.833918 12.084775 0.000000 29.000000 14.352873 0.000000
-18.894351 -2.127264 16.718868 0.000000 51.000000 14.724613 25.000000
-21.063285 1.933750 12.162990 0.000000 34.000000 14.343305 0.000000
-20.482234 1.877827 13.172768 0.000000 41.000000 14.351062 0.000000
-19.192173 1.614869 16.415900 0.000000 55.000000 14.872235 7.000000
-21.025675 -3.935132 12.310819 0.000000 33.000000 14.317164 0.000000
-20.846055 1.263295 13.823058 0.000000 73.000000 14.986278 20.000000
-18.881224 -1.265697 16.471842 0.000000 42.000000 14.598577 14.000000
-19.853945 -0.675810 15.350583 0.000000 31.000000 14.878780 15.000000
-18.387748 1.033678 16.967463 0.000000 38.000000 14.449712 0.000000
-21.029356 1.584780 13.951247 0.000000 73.000000 15.212952 20.000000
-18.628875 -0.141394 16.582216 0.000000 42.000000 14.449607 0.000000
-19.956055 1.121801 15.014340 0.000000 63.000000 14.818048 28.000000
-19.128369 -1.369557 15.932749 0.000000 43.000000 14.538452 14.000000
-20.594384 0.348031 13.403043 0.000000 66.000000 14.546324 0.000000
-21.364666 1.322452 13.760683 0.000000 70.000000 15.403066 20.000000
-20.113669 1.675948 15.050832 0.000000 67.000000 14.978957 28.000000
-18.663970 -0.092833 16.575944 0.000000 44.000000 14.477294 0.000000
-18.381811 -4.180284 16.894666 0.000000 39.000000 14.347126 0.000000
-18.773954 -0.353909 16.458471 0.000000 51.000000 14.509859 0.000000
-18.462762 -2.352399 17.294262 0.000000 40.000000 14.640052 13.000000
-20.307340 0.199007 13.700135 0.000000 44.000000 14.446870 0.000000
-20.588642 1.950818 12.910502 0.000000 37.000000 14.311317 0.000000
-21.206400 1.808421 13.251546 0.000000 64.000000 15.015037 20.000000
-18.974916 -1.152224 16.064392 0.000000 46.000000 14.475017 0.000000
-19.059984 -1.264862 15.992490 0.000000 49.000000 14.510817 0.000000
-20.139419 1.481710 15.337049 0.000000 54.000000 15.143448 28.000000
-19.111699 -1.386836 15.918053 0.000000 51.000000 14.516442 0.000000
-19.069986 1.642609 16.452353 0.000000 51.000000 14.785509 7.000000
-19.483658 1.866018 14.911807 0.000000 48.000000 14.367228 0.000000
-18.471571 -1.867297 16.837643 0.000000 38.000000 14.422729 0.000000
-19.129382 -1.656649 15.764095 0.000000 42.000000 14.450821 0.000000
-18.482548 1.854315 16.566506 0.000000 29.000000 14.338618 0.000000
-20.749315 0.465150 13.035535 0.000000 62.000000 14.495828 0.000000
-18.679914 -2.070012 16.667755 0.000000 53.000000 14.514397 0.000000
-19.202317 -1.904834 15.602352 0.000000 38.000000 14.429206 0.000000
-19.280180 -2.010483 15.520188 0.000000 37.000000 14.453687 0.000000
-21.393262 1.628290 13.142150 0.000000 76.000000 15.118974 20.000000
-20.433191 1.659072 14.829862 0.000000 64.000000 15.142950 28.000000
-20.717678 1.797049 13.716680 0.000000 32.000000 14.827978 20.000000
-21.302821 1.475801 13.505105 0.000000 59.000000 15.222418 20.000000
-20.068359 -2.828277 14.833155 0.000000 71.000000 14.777495 5.000000
-21.181449 1.110851 13.447780 0.000000 82.000000 15.084472 20.000000
-19.513322 -2.446785 15.172637 0.000000 33.000000 14.474327 0.000000
-19.282972 1.339561 16.078113 0.000000 74.000000 14.776827 7.000000
-20.854894 1.615177 13.983038 0.000000 76.000000 15.078787 20.000000
-18.977486 -2.884806 16.037092 0.000000 36.000000 14.443277 0.000000
-21.285227 1.251314 13.807582 0.000000 50.000000 15.357359 20.000000
-18.277282 -0.703150 17.223510 0.000000 36.000000 14.463445 0.000000
-19.923064 -2.748593 14.304645 0.000000 26.000000 14.386149 0.000000
-19.233906 1.642466 16.449198 0.000000 56.000000 14.925389 7.000000
-19.263336 -3.377571 15.536885 0.000000 35.000000 14.431664 0.000000
-19.848355 -3.711595 14.924544 0.000000 40.000000 14.623480 3.000000
-20.779752 1.976333 12.584938 0.000000 37.000000 14.312159 0.000000
-21.089890 -3.248661 12.483427 0.000000 40.000000 14.467738 0.000000
-20.856150 0.820113 12.789999 0.000000 67.000000 14.468181 0.000000
-19.507672 -3.615965 15.220243 0.000000 38.000000 14.479877 0.000000
-20.710604 1.190847 13.900125 0.000000 42.000000 14.907447 20.000000
-19.383785 0.769961 16.047045 0.000000 68.000000 14.841516 18.000000
-19.760032 -1.495266 14.754223 0.000000 39.000000 14.487051 0.000000
-20.262072 -3.664484 13.866780 0.000000 29.000000 14.446969 0.000000
-21.027428 -0.447022 12.513753 0.000000 48.000000 14.461760 0.000000
-20.272989 -3.765623 13.751531 0.000000 27.000000 14.397018 0.000000
-19.763892 1.470883 15.420584 0.000000 47.000000 14.861399 28.000000
-20.321224 -3.845392 13.639462 0.000000 29.000000 14.381129 0.000000
-21.186452 -0.632111 13.068357 0.000000 62.000000 14.876905 22.000000
-18.930857 -1.363541 16.270594 0.000000 54.000000 14.538653 14.000000
-20.910968 -0.293706 12.704746 0.000000 39.000000 14.459476 0.000000
-20.123916 -1.338025 14.506932 0.000000 31.000000 14.678066 27.000000
-20.301795 1.696847 14.809635 0.000000 74.000000 15.019772 28.000000
-20.653027 1.715304 13.854453 0.000000 73.000000 14.840798 20.000000
-19.851049 1.699213 15.332196 0.000000 76.000000 14.894647 28.000000
-18.775535 1.916732 16.032825 0.000000 33.000000 14.322727 0.000000
-18.329921 1.751588 16.991704 0.000000 48.000000 14.420403 0.000000
-20.505760 1.055040 14.488116 0.000000 78.000000 15.025982 29.000000
-20.796547 1.153414 13.696666 0.000000 33.000000 14.878448 20.000000
-20.148129 1.202167 14.057427 0.000000 43.000000 14.501556 0.000000
-20.707240 1.361007 14.604936 0.000000 72.000000 15.262424 28.000000
-18.510709 -3.636178 16.864435 0.000000 43.000000 14.449442 0.000000
-19.340929 1.029920 15.374419 0.000000 37.000000 14.467908 0.000000
-20.654036 -1.531300 13.470462 0.000000 40.000000 14.609972 23.000000
-19.885248 1.299518 15.278058 0.000000 62.000000 14.892172 28.000000
-19.251306 0.212747 15.526405 0.000000 31.000000 14.457790 0.000000
-19.317964 0.041229 15.515598 0.000000 51.000000 14.507867 0.000000
-20.814227 1.628730 14.296393 0.000000 77.000000 15.202076 28.000000
-18.363071 0.077259 17.395929 0.000000 64.000000 14.633636 12.000000
-19.712514 -0.696762 15.918066 0.000000 36.000000 15.043026 9.000000
-21.161870 0.837850 12.295256 0.000000 63.000000 14.482420 0.000000
-20.717432 -3.477615 13.151810 0.000000 49.000000 14.481121 0.000000
-19.976859 -2.780237 14.678356 0.000000 48.000000 14.620918 5.000000
-19.579442 -0.409858 14.995136 0.000000 40.000000 14.465477 0.000000
-20.456087 -3.754013 13.578476 0.000000 34.000000 14.467793 0.000000
-19.993024 -0.482905 14.621789 0.000000 56.000000 14.633051 15.000000
-19.405684 0.458383 14.984334 0.000000 22.000000 14.320166 0.000000
-20.004357 0.301209 14.076166 0.000000 42.000000 14.376445 0.000000
-20.362117 -0.545135 13.719316 0.000000 44.000000 14.495168 0.000000
-19.239816 0.376800 15.256531 0.000000 42.000000 14.313509 0.000000
-19.973880 -1.042367 14.105809 0.000000 47.000000 14.349467 0.000000
-19.945175 -2.327947 14.232448 0.000000 37.000000 14.373673 0.000000
-20.206795 0.956289 15.314945 0.000000 70.000000 15.184319 29.000000
-18.532764 1.663867 17.337894 0.000000 75.000000 14.769259 6.000000
-20.566824 0.953373 13.268108 0.000000 53.000000 14.461449 0.000000
-18.746787 -1.323946 16.840408 0.000000 51.000000 14.667981 14.000000
-20.232474 0.287732 13.843837 0.000000 46.000000 14.455852 0.000000
-18.445012 -0.466283 16.943857 0.000000 38.000000 14.469751 0.000000
-20.222683 1.551954 15.194335 0.000000 67.000000 15.144063 28.000000
-18.952357 1.310294 16.210206 0.000000 54.000000 14.557845 7.000000
-19.818884 -3.730511 14.884698 0.000000 45.000000 14.577704 3.000000
-21.233968 -3.282771 12.271110 0.000000 53.000000 14.484479 0.000000
-20.723147 -0.075831 13.700962 0.000000 67.000000 14.802957 21.000000
-20.443662 1.513396 14.915869 0.000000 73.000000 15.193721 28.000000
-21.010344 1.237820 13.762673 0.000000 70.000000 15.097282 20.000000
-21.226580 -1.420582 12.151077 0.000000 32.000000 14.439171 0.000000
-20.028059 -1.859552 14.241071 0.000000 47.000000 14.455014 0.000000
-21.235074 0.160291 12.459430 0.000000 41.000000 14.620613 21.000000
-21.099717 1.560904 13.884155 0.000000 73.000000 15.239521 20.000000
-21.237165 -1.736258 12.164549 0.000000 42.000000 14.451435 0.000000
-21.306427 -1.754838 12.050461 0.000000 43.000000 14.453387 0.000000
-20.064828 0.124992 14.626084 0.000000 62.000000 14.704269 30.000000
-20.860597 -1.768408 12.833437 0.000000 52.000000 14.463817 0.000000
-18.451484 -3.634825 16.968853 0.000000 43.000000 14.451070 0.000000
-21.138858 -0.451952 12.365821 0.000000 44.000000 14.483175 0.000000
-20.772904 -0.878045 12.866894 0.000000 40.000000 14.415392 0.000000
-20.420917 -2.958960 14.172276 0.000000 43.000000 14.746539 5.000000
-20.166424 0.415688 13.810305 0.000000 40.000000 14.383403 0.000000
-20.465648 0.921802 13.422768 0.000000 47.000000 14.451857 0.000000
-18.748385 -1.737295 16.534771 0.000000 42.000000 14.510214 0.000000
-18.513324 -3.032923 17.219048 0.000000 52.000000 14.637787 4.000000
-19.790419 1.546976 15.411150 0.000000 80.000000 14.880415 28.000000
-20.480918 -1.020439 13.189495 0.000000 21.000000 14.324631 0.000000
-18.687392 -0.791445 16.422079 0.000000 39.000000 14.411680 0.000000
-18.649838 1.686786 16.516276 0.000000 43.000000 14.455687 0.000000
-19.732008 -0.111146 14.735607 0.000000 49.000000 14.469578 0.000000
-20.520563 1.751762 14.638588 0.000000 79.000000 15.122851 28.000000
-18.814799 0.036168 16.381800 0.000000 50.000000 14.510938 0.000000
-20.783028 -2.343919 12.982147 0.000000 36.000000 14.465261 0.000000
-20.807733 0.033942 13.525409 0.000000 48.000000 14.788591 21.000000
-21.454929 1.517883 13.035381 0.000000 66.000000 15.116998 20.000000
-21.512916 0.086029 12.944042 0.000000 30.000000 15.104252 21.000000
-18.503643 1.780358 16.926651 0.000000 40.000000 14.537822 0.000000
-19.377011 0.519273 16.068331 0.000000 70.000000 14.843500 18.000000
-20.268024 1.534555 15.135093 0.000000 65.000000 15.153078 28.000000
-19.251971 1.989524 15.307609 0.000000 39.000000 14.368568 0.000000
-18.818902 -0.641216 16.334596 0.000000 54.000000 14.482756 0.000000
-19.960283 -2.877029 14.875904 0.000000 45.000000 14.705237 5.000000
-19.139021 0.920871 15.962554 0.000000 70.000000 14.589361 18.000000
-19.977913 1.804857 13.994910 0.000000 36.000000 14.330097 0.000000
-20.722930 1.468470 14.075606 0.000000 40.000000 15.009927 20.000000
-20.874827 1.480387 14.049184 0.000000 75.000000 15.127821 20.000000
-21.112242 1.123175 12.384866 0.000000 40.000000 14.488159 0.000000
-19.289105 -0.546057 15.484980 0.000000 36.000000 14.460661 0.000000
-18.992563 0.947750 16.428726 0.000000 59.000000 14.698668 17.000000
-20.716457 -1.118235 12.720108 0.000000 41.000000 14.289758 0.000000
-19.806729 0.311668 14.749017 0.000000 51.000000 14.545761 0.000000
-18.386357 -0.688272 16.909363 0.000000 46.000000 14.399126 0.000000
-20.664377 -3.308325 13.181397 0.000000 36.000000 14.452242 0.000000
-20.951751 0.965776 12.703202 0.000000 56.000000 14.508559 0.000000
-18.508105 0.265163 17.089796 0.000000 57.000000 14.606414 12.000000
-21.051046 0.911302 12.457849 0.000000 51.000000 14.469730 0.000000
-21.111534 0.891675 12.338533 0.000000 48.000000 14.461457 0.000000
-20.728036 -3.345269 13.071972 0.000000 41.000000 14.451499 0.000000
-20.069576 1.893830 14.866450 0.000000 60.000000 14.850334 28.000000
-20.483253 1.812490 13.873066 0.000000 52.000000 14.704802 20.000000
-19.837541 -4.092830 14.413890 0.000000 29.000000 14.351850 0.000000
-19.246090 -4.182183 15.504453 0.000000 40.000000 14.391036 0.000000
-18.418657 -2.735257 17.217210 0.000000 36.000000 14.558620 4.000000
-20.027689 -4.011351 14.073311 0.000000 30.000000 14.344932 0.000000
-18.849237 -1.107685 16.058335 0.000000 50.000000 14.364007 0.000000
-19.976260 -3.391749 14.353454 0.000000 36.000000 14.449219 0.000000
-18.696352 0.469304 16.173397 0.000000 38.000000 14.308519 0.000000
-19.318797 -2.039277 15.751813 0.000000 66.000000 14.603642 25.000000
-20.574201 1.081033 13.713309 0.000000 65.000000 14.694110 20.000000
-19.350540 -3.006064 15.395732 0.000000 32.000000 14.439976 0.000000
-18.520125 0.845995 17.387154 0.000000 62.000000 14.773703 8.000000
-19.405090 -1.868923 15.315208 0.000000 41.000000 14.459635 0.000000
-18.498379 -0.314500 16.805588 0.000000 52.000000 14.447758 0.000000
-19.921433 0.951955 15.257689 0.000000 83.000000 14.909070 29.000000
-21.578933 1.548532 13.404109 0.000000 12.000000 15.410569 20.000000
-19.089944 0.786429 16.024186 0.000000 68.000000 14.576561 18.000000
-18.330091 1.540857 17.394114 0.000000 65.000000 14.621296 6.000000
-20.643860 1.343492 14.266075 0.000000 52.000000 15.036409 28.000000
-19.911342 0.468737 14.758581 0.000000 69.000000 14.642707 30.000000
-20.539681 1.654473 14.790880 0.000000 43.000000 15.215119 28.000000
-20.242149 0.018573 14.546673 0.000000 68.000000 14.815970 30.000000
-20.469757 -2.030983 13.568601 0.000000 48.000000 14.494666 0.000000
-19.002353 -2.752053 16.678356 0.000000 79.000000 14.790095 10.000000
-19.735812 1.715277 15.414454 0.000000 33.000000 14.836914 28.000000
-19.091289 -3.597883 16.164494 0.000000 31.000000 14.597528 1.000000
-18.634583 0.084954 16.648350 0.000000 58.000000 14.490563 0.000000
-19.911684 -1.216983 14.400062 0.000000 35.000000 14.442340 0.000000
-19.281324 -1.288582 15.458823 0.000000 40.000000 14.432093 0.000000
-19.529013 0.576640 15.718117 0.000000 50.000000 14.798512 18.000000
-19.317265 1.554076 15.381348 0.000000 36.000000 14.457086 0.000000
-19.932955 -0.905880 14.444447 0.000000 39.000000 14.486733 0.000000
-19.331871 1.320315 16.032403 0.000000 69.000000 14.795725 7.000000
-20.415231 -2.896142 13.602493 0.000000 37.000000 14.454647 0.000000
-19.464127 -0.321008 15.194751 0.000000 40.000000 14.467783 0.000000
-19.271637 -0.532028 15.572164 0.000000 48.000000 14.489773 0.000000
-20.379472 1.153152 13.648143 0.000000 57.000000 14.493979 0.000000
-19.332335 -3.366594 15.432831 0.000000 29.000000 14.438801 0.000000
-19.835392 -0.192410 14.577421 0.000000 45.000000 14.477982 0.000000
-20.410044 1.735735 14.852000 0.000000 78.000000 15.135044 28.000000
-19.180979 -0.110356 15.662736 0.000000 50.000000 14.462173 0.000000
-20.692890 -2.605189 12.834612 0.000000 26.000000 14.309926 0.000000
-18.527207 -4.161369 16.609101 0.000000 23.000000 14.328635 0.000000
-19.101424 0.806186 16.564872 0.000000 71.000000 14.859722 17.000000
-19.289879 1.802807 15.217017 0.000000 37.000000 14.353366 0.000000
-18.731009 1.786249 16.284330 0.000000 39.000000 14.409778 0.000000
-18.504830 1.198678 16.754083 0.000000 31.000000 14.444935 0.000000
-19.220896 1.977494 15.303165 0.000000 42.000000 14.339364 0.000000
-20.844677 1.822669 13.619171 0.000000 65.000000 14.888647 20.000000
-20.705942 -4.013135 12.847959 0.000000 27.000000 14.311539 0.000000
-20.788777 -3.825263 12.852021 0.000000 30.000000 14.387269 0.000000
-20.483688 1.849278 14.301175 0.000000 62.000000 14.921782 28.000000
-21.350777 1.477781 12.773868 0.000000 61.000000 14.894588 20.000000
-20.863921 -3.353550 12.852038 0.000000 38.000000 14.457623 0.000000
-18.612616 1.467748 16.573336 0.000000 37.000000 14.449825 0.000000
-19.182979 -2.906618 16.070338 0.000000 45.000000 14.637165 10.000000
-20.799588 -2.796439 12.864405 0.000000 34.000000 14.414831 0.000000
-19.704837 0.596562 15.261500 0.000000 69.000000 14.719920 29.000000
-18.919906 -0.331835 16.044984 0.000000 53.000000 14.427290 0.000000
-20.797554 -1.926847 12.972695 0.000000 44.000000 14.477881 0.000000
-18.986386 1.077186 16.086138 0.000000 41.000000 14.521852 0.000000
-21.186410 0.566975 12.686541 0.000000 37.000000 14.698028 21.000000
-21.281425 -1.354347 12.041602 0.000000 29.000000 14.431997 0.000000
-19.003941 -1.324569 16.051921 0.000000 52.000000 14.491763 0.000000
-19.985962 -2.905413 14.919840 0.000000 42.000000 14.749255 5.000000
-19.506604 0.080407 15.112105 0.000000 44.000000 14.467385 0.000000
-20.541260 -1.162145 13.127986 0.000000 45.000000 14.344001 0.000000
-21.031956 0.925542 12.494052 0.000000 55.000000 14.471701 0.000000
-20.545230 -1.019199 13.169873 0.000000 52.000000 14.370243 0.000000
-21.223955 -0.809352 12.198085 0.000000 34.000000 14.467759 0.000000
-20.335869 1.476300 15.018629 0.000000 75.000000 15.152145 28.000000
-21.210508 -2.878426 12.283204 0.000000 41.000000 14.475046 0.000000
-20.181210 1.029531 14.878534 0.000000 82.000000 14.942721 29.000000
-18.688095 -2.958167 16.751286 0.000000 60.000000 14.553297 10.000000
-19.699540 1.419984 15.414022 0.000000 72.000000 14.801952 28.000000
-20.554986 -0.324617 13.404553 0.000000 50.000000 14.505252 0.000000
-20.423602 1.519088 14.797111 0.000000 75.000000 15.116507 28.000000
-20.415412 0.167389 13.605245 0.000000 40.000000 14.491860 0.000000
-21.480878 1.391108 12.894579 0.000000 75.000000 15.066819 20.000000
-20.598352 -3.707896 13.434857 0.000000 51.000000 14.518594 2.000000
-21.545045 1.381479 12.302289 0.000000 42.000000 14.823006 20.000000
-19.310370 1.022201 15.935304 0.000000 50.000000 14.724667 18.000000
-20.761001 -0.535625 12.996705 0.000000 44.000000 14.474655 0.000000
-21.371467 1.916785 12.836831 0.000000 65.000000 14.949349 20.000000
-18.270197 -1.211834 17.222973 0.000000 44.000000 14.451136 0.000000
-20.430422 1.227198 13.632159 0.000000 49.000000 14.530743 0.000000
-20.796717 1.062169 13.020613 0.000000 50.000000 14.536154 0.000000
-20.182292 1.010909 14.035708 0.000000 46.000000 14.517847 0.000000
-20.789950 -0.435579 12.916530 0.000000 51.000000 14.460320 0.000000
-18.600981 -0.511967 16.672942 0.000000 51.000000 14.467031 0.000000
-19.855249 0.455970 14.188431 0.000000 41.000000 14.306245 0.000000
-21.176134 1.651393 13.487542 0.000000 69.000000 15.106256 20.000000
-20.841934 1.384484 13.606398 0.000000 74.000000 14.874729 20.000000
-18.204669 -2.559746 17.048174 0.000000 33.000000 14.290622 0.000000
-19.183372 1.871050 15.960568 0.000000 63.000000 14.637699 7.000000
-18.443984 -2.773664 16.904549 0.000000 35.000000 14.422153 0.000000
-20.898486 -1.398674 13.272519 0.000000 61.000000 14.722539 23.000000
-18.794115 0.987710 16.648630 0.000000 75.000000 14.638902 17.000000
-18.759494 -3.529210 16.442079 0.000000 32.000000 14.452135 0.000000
-19.652284 0.598137 15.387521 0.000000 55.000000 14.738217 29.000000
-20.558544 0.146480 13.697143 0.000000 73.000000 14.661553 21.000000
-18.910617 -4.161788 16.007507 0.000000 29.000000 14.355759 0.000000
-21.308294 1.572377 11.989474 0.000000 51.000000 14.462938 0.000000
-21.238332 1.663464 12.059445 0.000000 46.000000 14.438949 0.000000
-18.693566 1.628148 17.263299 0.000000 68.000000 14.869959 6.000000
-21.060738 1.838198 12.194424 0.000000 38.000000 14.355868 0.000000
-20.989434 1.929262 12.270575 0.000000 32.000000 14.333840 0.000000
-19.723180 -1.719771 14.730565 0.000000 43.000000 14.440685 0.000000
-18.476749 1.334671 16.852434 0.000000 46.000000 14.471945 0.000000
-18.402672 -1.295179 17.106288 0.000000 28.000000 14.505580 0.000000
-18.477687 1.572276 16.781131 0.000000 46.000000 14.439516 0.000000
-18.617797 -1.169555 16.549206 0.000000 46.000000 14.411407 0.000000
-19.430886 0.354098 14.885233 0.000000 38.000000 14.290661 0.000000
-19.973835 -3.234801 14.333566 0.000000 33.000000 14.438910 0.000000
-18.914066 -1.671032 16.276530 0.000000 45.000000 14.523579 0.000000
-19.990300 -3.024874 15.108895 0.000000 39.000000 14.847073 5.000000
-20.204348 1.174222 13.901803 0.000000 47.000000 14.471169 0.000000
-20.131266 -3.528277 14.551620 0.000000 52.000000 14.681475 3.000000
-19.034443 1.022266 16.479038 0.000000 56.000000 14.761086 17.000000
-18.978633 0.178055 16.034298 0.000000 47.000000 14.478515 0.000000
-18.401892 -0.064609 16.991865 0.000000 51.000000 14.461455 0.000000
-20.223210 1.083557 13.897121 0.000000 42.000000 14.484028 0.000000
-18.987603 0.251950 16.028978 0.000000 43.000000 14.484431 0.000000
-21.164427 -0.028049 13.340278 0.000000 67.000000 15.002237 21.000000
-20.608763 1.247089 13.878843 0.000000 80.000000 14.809459 20.000000
-19.296117 1.997638 15.099266 0.000000 42.000000 14.301559 0.000000
-19.139044 -0.297733 15.714005 0.000000 35.000000 14.449687 0.000000
-19.182079 -2.836083 16.490023 0.000000 54.000000 14.849133 10.000000
-21.284130 -1.427720 12.593643 0.000000 53.000000 14.712235 19.000000
-19.222890 -0.600536 15.882337 0.000000 45.000000 14.603527 9.000000
-19.280581 -0.510848 15.547226 0.000000 37.000000 14.485146 0.000000
-18.597960 -0.792844 16.479031 0.000000 39.000000 14.363236 0.000000
-18.664626 0.774253 17.599422 0.000000 67.000000 15.004768 8.000000
-19.696300 0.332495 14.841541 0.000000 60.000000 14.497417 0.000000
-19.071533 1.023724 16.350799 0.000000 60.000000 14.728359 17.000000
-21.222039 0.697884 12.407553 0.000000 61.000000 14.589426 21.000000
-19.287118 -0.880616 15.276528 0.000000 34.000000 14.349791 0.000000
-20.258761 -0.543362 14.388096 0.000000 57.000000 14.743690 15.000000
-19.339946 -0.985896 15.185514 0.000000 44.000000 14.348202 0.000000
-21.066493 0.157963 13.228739 0.000000 42.000000 14.863557 21.000000
-20.672558 0.857948 13.104188 0.000000 36.000000 14.468822 0.000000
-19.037024 -1.270030 16.010091 0.000000 55.000000 14.499828 0.000000
-19.572720 0.838043 15.416211 0.000000 59.000000 14.686828 29.000000
-19.096095 -1.369229 15.912362 0.000000 57.000000 14.500306 0.000000
-19.612057 -1.255297 14.908228 0.000000 32.000000 14.439898 0.000000
-18.920996 1.981582 15.795798 0.000000 47.000000 14.329336 0.000000
-20.678520 0.946333 13.105226 0.000000 58.000000 14.475520 0.000000
-19.193826 -1.684827 15.607645 0.000000 41.000000 14.427112 0.000000
-19.822789 1.574576 15.383020 0.000000 80.000000 14.894470 28.000000
-20.891679 -2.622360 12.522129 0.000000 29.000000 14.323504 0.000000
-19.941554 -1.708860 14.414857 0.000000 35.000000 14.469864 0.000000
-21.079496 1.840893 13.557913 0.000000 55.000000 15.060591 20.000000
-19.938987 -0.592305 14.683244 0.000000 65.000000 14.616172 15.000000
-19.521184 -2.003458 15.193764 0.000000 48.000000 14.496941 0.000000
-20.372187 -3.188734 13.633188 0.000000 32.000000 14.429590 0.000000
-18.638484 1.524057 17.209890 0.000000 62.000000 14.794238 6.000000
-19.141278 1.947310 15.416577 0.000000 38.000000 14.327565 0.000000
-20.286697 -2.101208 13.896604 0.000000 49.000000 14.501482 0.000000
-18.799942 -2.646048 16.122831 0.000000 26.000000 14.336119 0.000000
-21.331342 0.350243 12.461895 0.000000 70.000000 14.707154 21.000000
-21.241531 0.461393 12.660409 0.000000 60.000000 14.731177 21.000000
-20.627988 0.036439 13.694660 0.000000 65.000000 14.718953 21.000000
-20.682913 -0.682271 13.563279 0.000000 68.000000 14.691648 22.000000
-21.715012 0.112927 12.366024 0.000000 51.000000 14.987113 21.000000
-18.612524 1.592244 16.955426 0.000000 40.000000 14.644133 6.000000
-19.955455 -2.696415 14.190715 0.000000 30.000000 14.357182 0.000000
