45.676491 9.491191 34.503904 0.000000 46.000000 14.134878 0.000000
46.260095 8.757690 34.673307 0.000000 37.000000 14.109310 0.000000
44.512141 10.360950 34.043789 0.000000 23.000000 14.070127 0.000000
45.148563 11.103899 34.335686 0.000000 40.000000 14.143812 0.000000
43.033957 11.390640 33.524676 0.000000 43.000000 14.049548 0.000000
44.324093 11.660902 34.264896 0.000000 58.000000 14.339661 6.000000
46.491606 10.955538 35.036279 0.000000 44.000000 14.379494 5.000000
47.895478 12.490017 35.236616 0.000000 19.000000 14.121643 0.000000
44.164277 10.270415 33.913659 0.000000 38.000000 14.057734 0.000000
48.233520 10.350829 35.293742 0.000000 14.000000 14.067977 0.000000
43.638173 13.919758 34.073188 0.000000 53.000000 14.376719 24.000000
46.865611 9.686807 34.697618 0.000000 21.000000 13.939239 0.000000
42.900421 14.373981 34.031991 0.000000 73.000000 14.572959 23.000000
44.348093 9.774384 34.009035 0.000000 33.000000 14.089507 0.000000
45.098687 11.345335 34.504674 0.000000 28.000000 14.319882 0.000000
43.595614 13.626421 33.803939 0.000000 43.000000 14.135103 0.000000
44.945044 13.724263 34.205564 0.000000 21.000000 14.085392 0.000000
46.178943 9.711971 34.571307 0.000000 26.000000 14.038518 0.000000
48.001935 13.186480 35.162483 0.000000 24.000000 14.017430 0.000000
45.308958 11.698277 34.569587 0.000000 49.000000 14.314345 12.000000
45.893147 14.353003 34.409992 0.000000 40.000000 13.976773 0.000000
44.808041 12.312871 34.786723 0.000000 63.000000 14.679897 19.000000
43.984169 13.811493 34.109517 0.000000 37.000000 14.300805 24.000000
43.017378 14.402774 33.948283 0.000000 66.000000 14.456322 23.000000
47.560719 10.846468 35.097826 0.000000 44.000000 14.096863 0.000000
47.714602 13.244134 35.560473 0.000000 55.000000 14.486274 9.000000
48.341400 9.805843 35.191026 0.000000 17.000000 13.936220 0.000000
45.527522 11.349499 34.310948 0.000000 37.000000 13.999507 0.000000
43.772893 14.257957 34.374872 0.000000 63.000000 14.619684 24.000000
46.860246 12.086433 34.930442 0.000000 46.000000 14.161616 0.000000
44.664044 8.958393 34.183889 0.000000 28.000000 14.154466 0.000000
48.030022 14.257483 35.333813 0.000000 21.000000 14.170856 0.000000
42.802842 11.837768 33.817480 0.000000 71.000000 14.400770 2.000000
43.624462 13.287577 34.038816 0.000000 34.000000 14.348515 7.000000
44.008724 9.489609 33.962936 0.000000 53.000000 14.154047 0.000000
42.830226 11.383298 33.399416 0.000000 27.000000 13.995803 0.000000
45.256709 12.499123 34.891697 0.000000 60.000000 14.636298 18.000000
47.296996 11.512939 34.964163 0.000000 39.000000 14.054287 0.000000
48.430163 9.810773 35.209857 0.000000 13.000000 13.925758 0.000000
48.246814 9.185983 35.285933 0.000000 22.000000 14.056336 0.000000
47.195783 12.552837 35.005724 0.000000 44.000000 14.125957 0.000000
46.109511 12.239305 34.635862 0.000000 43.000000 14.121845 0.000000
44.033242 13.685324 33.926412 0.000000 35.000000 14.111611 0.000000
47.547487 13.406090 35.128250 0.000000 28.000000 14.129918 0.000000
47.203883 8.564668 34.859099 0.000000 32.000000 13.984405 0.000000
44.894731 8.875752 34.246813 0.000000 41.000000 14.140533 0.000000
47.321247 11.725367 35.335280 0.000000 52.000000 14.398290 1.000000
47.945661 13.568348 35.609203 0.000000 63.000000 14.458770 9.000000
44.542880 14.094945 34.614947 0.000000 73.000000 14.601656 24.000000
48.210929 14.112700 35.444102 0.000000 62.000000 14.217690 21.000000
47.713323 8.952658 35.164505 0.000000 54.000000 14.111391 0.000000
45.134669 11.147621 34.273512 0.000000 25.000000 14.089316 0.000000
46.720856 10.424467 34.867410 0.000000 39.000000 14.146330 0.000000
44.478795 13.797022 34.387351 0.000000 57.000000 14.406383 24.000000
46.579149 9.740750 34.649499 0.000000 26.000000 13.984992 0.000000
44.123429 9.096261 33.949814 0.000000 32.000000 14.105028 0.000000
46.649096 8.792697 34.807234 0.000000 22.000000 14.112183 0.000000
47.562316 13.704996 35.364623 0.000000 73.000000 14.349219 21.000000
47.984723 12.624977 35.296765 0.000000 22.000000 14.150189 0.000000
48.010752 10.198787 35.133243 0.000000 29.000000 13.986905 0.000000
44.774186 11.376236 34.098158 0.000000 24.000000 14.038085 0.000000
44.421511 11.731286 34.607874 0.000000 69.000000 14.633660 6.000000
46.832126 13.546992 34.871646 0.000000 63.000000 14.114859 0.000000
44.506522 10.896132 34.066517 0.000000 24.000000 14.093460 0.000000
43.869475 11.428685 33.842643 0.000000 28.000000 14.084445 0.000000
43.461570 11.750005 33.849963 0.000000 58.000000 14.221473 0.000000
47.503978 12.011163 35.095741 0.000000 44.000000 14.112983 0.000000
47.475713 9.074913 35.051420 0.000000 40.000000 14.079991 0.000000
46.475078 12.413777 34.733594 0.000000 38.000000 14.097886 0.000000
45.651174 14.500066 34.512159 0.000000 46.000000 14.150776 0.000000
44.801843 13.162041 34.675676 0.000000 2.000000 14.576625 8.000000
45.775042 9.076263 34.539960 0.000000 21.000000 14.137621 0.000000
45.373955 12.703969 34.297652 0.000000 49.000000 14.035882 0.000000
48.071108 13.672571 35.293166 0.000000 24.000000 14.119228 0.000000
46.241957 12.155132 34.658383 0.000000 39.000000 14.100950 0.000000
43.949548 10.060141 33.758885 0.000000 27.000000 13.979524 0.000000
46.051874 13.661900 34.638231 0.000000 42.000000 14.142472 0.000000
44.915260 14.144738 34.656069 0.000000 64.000000 14.521870 24.000000
46.359253 12.684471 34.626128 0.000000 34.000000 14.032971 0.000000
47.890272 13.464761 35.491793 0.000000 64.000000 14.365156 9.000000
44.058382 12.531424 34.163002 0.000000 64.000000 14.327829 10.000000
46.781621 12.788109 34.683547 0.000000 26.000000 13.952689 0.000000
46.284046 11.021397 35.097634 0.000000 49.000000 14.503841 5.000000
47.428217 11.324972 35.056690 0.000000 29.000000 14.100133 0.000000
46.249230 11.587773 34.617656 0.000000 30.000000 14.060030 0.000000
43.543205 10.007539 33.669057 0.000000 19.000000 14.023979 0.000000
43.909209 9.069019 33.934506 0.000000 22.000000 14.158839 0.000000
46.815726 14.224123 34.734675 0.000000 18.000000 13.990271 0.000000
48.467241 14.273862 35.418913 0.000000 36.000000 14.112073 0.000000
42.806858 14.659557 33.788441 0.000000 59.000000 14.371966 23.000000
47.955629 12.649176 35.275384 0.000000 22.000000 14.139203 0.000000
48.110214 12.328030 35.351824 0.000000 21.000000 14.162351 0.000000
45.996811 14.299493 34.422890 0.000000 37.000000 13.955937 0.000000
43.161961 12.911527 33.471602 0.000000 21.000000 13.958422 0.000000
46.867413 14.619620 34.777114 0.000000 24.000000 14.014009 0.000000
47.913456 11.265696 35.125800 0.000000 34.000000 14.010880 0.000000
44.067402 11.291110 33.955772 0.000000 32.000000 14.128543 0.000000
45.262312 12.878269 34.154598 0.000000 21.000000 13.935903 0.000000
46.402652 13.678094 34.739414 0.000000 44.000000 14.126501 0.000000
42.830908 13.370901 33.788715 0.000000 39.000000 14.364556 7.000000
47.244957 13.877100 35.417294 0.000000 52.000000 14.500352 21.000000
47.591756 12.984312 35.114581 0.000000 41.000000 14.102845 0.000000
44.827449 12.205896 34.488148 0.000000 52.000000 14.390723 19.000000
46.304618 13.600565 34.659431 0.000000 27.000000 14.081959 0.000000
47.421474 12.635391 35.017999 0.000000 25.000000 14.065613 0.000000
45.149998 13.716239 34.313194 0.000000 48.000000 14.122037 0.000000
43.040788 12.954595 33.451792 0.000000 28.000000 13.978291 0.000000
47.090080 12.406449 34.988773 0.000000 30.000000 14.143602 0.000000
47.817786 9.664974 35.206963 0.000000 42.000000 14.118316 0.000000
47.466805 14.096719 35.447516 0.000000 57.000000 14.458244 21.000000
43.861682 9.169222 33.879295 0.000000 21.000000 14.121669 0.000000
46.507264 14.448135 34.576940 0.000000 40.000000 13.939148 0.000000
45.815827 10.644061 34.700177 0.000000 38.000000 14.276464 0.000000
45.979898 12.356812 34.548866 0.000000 40.000000 14.080729 0.000000
47.323735 12.461040 35.037897 0.000000 46.000000 14.115643 0.000000
45.395819 13.762849 34.372717 0.000000 47.000000 14.100054 0.000000
46.739253 12.764728 34.813908 0.000000 28.000000 14.089755 0.000000
47.566565 12.112699 35.053422 0.000000 21.000000 14.052913 0.000000
48.276888 11.132348 35.336621 0.000000 26.000000 14.094786 0.000000
48.221380 12.577162 35.248891 0.000000 30.000000 14.029340 0.000000
47.635341 9.116793 35.062561 0.000000 25.000000 14.039641 0.000000
46.881564 8.971632 34.876059 0.000000 26.000000 14.103274 0.000000
47.216709 13.930558 35.512222 0.000000 69.000000 14.599332 21.000000
45.431436 12.628581 34.895454 0.000000 50.000000 14.584135 18.000000
45.423259 12.023889 34.415495 0.000000 24.000000 14.131847 0.000000
43.781280 12.985476 33.641079 0.000000 18.000000 13.921534 0.000000
43.651535 13.818447 33.805710 0.000000 46.000000 14.118947 0.000000
43.975761 13.895696 34.273232 0.000000 49.000000 14.458652 24.000000
46.257258 11.398822 34.709654 0.000000 37.000000 14.144664 0.000000
44.463065 14.188993 34.330582 0.000000 58.000000 14.357595 24.000000
43.645833 13.145380 34.175775 0.000000 64.000000 14.471506 7.000000
47.987263 10.302829 35.276993 0.000000 21.000000 14.130640 0.000000
43.589600 12.207763 33.809108 0.000000 40.000000 14.141920 0.000000
43.969611 11.040228 33.942407 0.000000 46.000000 14.147064 0.000000
44.586396 13.356198 34.667097 0.000000 41.000000 14.637205 8.000000
43.172898 10.318602 33.973812 0.000000 37.000000 14.430919 3.000000
45.378983 9.286171 34.395217 0.000000 32.000000 14.126748 0.000000
45.045202 13.779137 34.258543 0.000000 54.000000 14.103662 0.000000
44.542106 12.602157 34.460171 0.000000 60.000000 14.455209 19.000000
42.745036 10.667384 33.493023 0.000000 22.000000 14.111691 0.000000
48.279728 9.125067 35.354088 0.000000 38.000000 14.110435 0.000000
44.428373 8.614422 34.099198 0.000000 42.000000 14.149358 0.000000
46.135822 11.157915 34.635466 0.000000 26.000000 14.113079 0.000000
46.376652 10.845830 34.758241 0.000000 23.000000 14.152636 0.000000
43.523711 13.475710 34.116040 0.000000 64.000000 14.453838 7.000000
42.793718 9.037764 33.543294 0.000000 38.000000 14.143811 0.000000
47.976433 9.761643 35.070144 0.000000 21.000000 13.938046 0.000000
46.464947 14.223127 34.623327 0.000000 40.000000 13.996608 0.000000
44.280845 12.747521 33.936142 0.000000 45.000000 14.041867 0.000000
44.609831 11.926744 34.364233 0.000000 61.000000 14.342682 6.000000
42.844726 13.760288 33.550407 0.000000 54.000000 14.134285 0.000000
47.462391 12.849779 34.940511 0.000000 30.000000 13.979122 0.000000
46.880332 9.919453 34.716377 0.000000 32.000000 13.952324 0.000000
44.902648 10.393769 34.228190 0.000000 27.000000 14.120357 0.000000
43.544498 10.157560 33.806309 0.000000 17.000000 14.153651 0.000000
46.703394 13.439064 34.804425 0.000000 56.000000 14.092203 0.000000
42.994946 10.856822 33.597643 0.000000 49.000000 14.131146 0.000000
45.037404 9.013508 34.289757 0.000000 35.000000 14.135733 0.000000
45.460731 13.917187 34.410064 0.000000 48.000000 14.114749 0.000000
42.871465 13.284395 33.738036 0.000000 46.000000 14.303589 7.000000
45.473605 12.731173 34.345538 0.000000 34.000000 14.049486 0.000000
45.166563 10.285646 34.298820 0.000000 48.000000 14.103131 0.000000
46.175749 10.327264 34.610367 0.000000 26.000000 14.076557 0.000000
45.556711 11.891582 34.423835 0.000000 44.000000 14.097190 0.000000
44.219667 11.324740 33.959350 0.000000 26.000000 14.083374 0.000000
43.226005 9.258154 33.660420 0.000000 43.000000 14.116955 0.000000
45.156445 11.300758 34.269080 0.000000 37.000000 14.078170 0.000000
43.144126 12.603531 33.952932 0.000000 68.000000 14.420305 10.000000
46.012009 13.285766 34.572549 0.000000 49.000000 14.092934 0.000000
42.942498 13.546322 33.612250 0.000000 38.000000 14.161717 0.000000
44.483191 11.589911 34.224749 0.000000 53.000000 14.250870 6.000000
46.828419 10.309875 34.874290 0.000000 26.000000 14.118547 0.000000
48.059465 12.445297 35.299638 0.000000 38.000000 14.129075 0.000000
42.682400 13.368886 33.666823 0.000000 50.000000 14.296392 7.000000
47.680289 9.614351 35.117133 0.000000 24.000000 14.077028 0.000000
43.681597 13.809711 33.820388 0.000000 48.000000 14.123271 0.000000
43.468776 10.249807 33.764387 0.000000 56.000000 14.138068 0.000000
47.375850 9.996661 34.923931 0.000000 30.000000 13.991008 0.000000
44.153145 11.167533 34.022048 0.000000 44.000000 14.164013 0.000000
46.591581 10.780892 35.016839 0.000000 58.000000 14.329185 5.000000
44.324627 12.692640 34.440766 0.000000 46.000000 14.506177 19.000000
42.901963 11.919430 33.581690 0.000000 43.000000 14.145680 0.000000
44.292754 12.768168 33.959748 0.000000 23.000000 14.060442 0.000000
46.537900 9.204492 34.718377 0.000000 25.000000 14.063429 0.000000
42.825251 13.466474 33.831480 0.000000 61.000000 14.406892 7.000000
45.658241 8.654963 34.331259 0.000000 26.000000 13.977068 0.000000
43.130716 10.363606 33.672535 0.000000 47.000000 14.158827 0.000000
45.645458 13.703339 34.446661 0.000000 25.000000 14.090521 0.000000
44.299877 14.529170 33.956015 0.000000 44.000000 14.054632 0.000000
44.370250 14.246621 34.390777 0.000000 69.000000 14.444248 24.000000
42.800784 12.856252 33.460695 0.000000 22.000000 14.063272 0.000000
47.642998 9.493380 35.170109 0.000000 29.000000 14.139131 0.000000
42.783569 13.341419 33.842748 0.000000 57.000000 14.430865 7.000000
44.741628 11.307022 34.077026 0.000000 32.000000 14.028440 0.000000
42.851985 11.413699 33.501447 0.000000 52.000000 14.085567 0.000000
45.121477 9.002940 34.328409 0.000000 35.000000 14.145553 0.000000
45.370134 12.268679 34.913239 0.000000 64.000000 14.620542 18.000000
47.636432 14.375909 34.997480 0.000000 40.000000 13.977610 0.000000
42.945360 13.778621 33.569297 0.000000 49.000000 14.120094 0.000000
47.937730 13.172067 35.524142 0.000000 34.000000 14.380680 9.000000
45.178561 10.672840 34.332707 0.000000 47.000000 14.131422 0.000000
45.658136 10.338436 34.455205 0.000000 26.000000 14.094576 0.000000
44.153337 14.265766 34.149698 0.000000 35.000000 14.284936 24.000000
46.276237 9.701068 34.713968 0.000000 21.000000 14.142700 0.000000
44.269694 10.564766 33.994189 0.000000 41.000000 14.100439 0.000000
45.278509 12.031897 34.351786 0.000000 45.000000 14.117629 0.000000
44.208872 13.051095 33.837034 0.000000 26.000000 13.970888 0.000000
46.550456 13.558582 34.788806 0.000000 48.000000 14.126175 0.000000
45.701846 12.883877 34.435014 0.000000 21.000000 14.061499 0.000000
42.661761 13.697846 33.512808 0.000000 48.000000 14.157001 0.000000
43.061920 12.324564 33.569988 0.000000 24.000000 14.083576 0.000000
48.183565 13.951642 35.844310 0.000000 60.000000 14.605727 21.000000
45.829508 14.113117 34.592346 0.000000 36.000000 14.169901 0.000000
44.830391 13.297838 34.641383 0.000000 64.000000 14.535018 8.000000
42.891560 14.327526 33.674779 0.000000 70.000000 14.237226 23.000000
43.627218 12.138717 33.850799 0.000000 27.000000 14.169437 0.000000
43.752638 14.033461 34.346506 0.000000 67.000000 14.599259 24.000000
43.904553 11.538322 33.871000 0.000000 25.000000 14.100134 0.000000
46.814516 11.196681 34.811378 0.000000 37.000000 14.063354 0.000000
46.680942 13.215671 34.830049 0.000000 46.000000 14.123650 0.000000
43.761717 13.761323 33.847249 0.000000 43.000000 14.123177 0.000000
45.698689 12.907880 34.307031 0.000000 29.000000 13.941206 0.000000
46.108675 11.310175 34.619061 0.000000 36.000000 14.106188 0.000000
46.510599 13.108372 34.604064 0.000000 29.000000 13.963792 0.000000
44.459340 11.449912 34.069991 0.000000 34.000000 14.111800 0.000000
45.077394 14.599707 34.724766 0.000000 37.000000 14.535272 13.000000
44.704841 13.736262 34.173622 0.000000 49.000000 14.131724 0.000000
46.610055 12.501419 34.836799 0.000000 45.000000 14.152655 0.000000
43.188100 12.136689 33.621806 0.000000 31.000000 14.092446 0.000000
43.390603 11.625577 33.752891 0.000000 28.000000 14.152103 0.000000
46.671248 13.545663 34.826876 0.000000 51.000000 14.123734 0.000000
43.932303 10.746058 33.892306 0.000000 46.000000 14.111478 0.000000
43.898877 10.820398 33.873610 0.000000 26.000000 14.104418 0.000000
44.855220 10.380215 34.207830 0.000000 44.000000 14.116186 0.000000
44.215090 13.095789 33.853626 0.000000 25.000000 13.984630 0.000000
44.747662 13.778180 34.675528 0.000000 65.000000 14.593764 24.000000
43.745086 9.086755 33.890022 0.000000 31.000000 14.169021 0.000000
45.144454 12.428538 34.642813 0.000000 64.000000 14.436212 19.000000
46.882857 13.577555 34.896428 0.000000 45.000000 14.122167 0.000000
44.575982 11.637618 34.293926 0.000000 47.000000 14.286842 6.000000
47.993961 11.013102 35.231560 0.000000 29.000000 14.085443 0.000000
48.476631 12.040593 35.442391 0.000000 45.000000 14.131330 0.000000
44.971349 11.830766 34.266787 0.000000 42.000000 14.135028 0.000000
43.543384 13.066058 34.342203 0.000000 34.000000 14.661916 7.000000
45.904086 11.372310 34.518603 0.000000 36.000000 14.076224 0.000000
45.559915 11.170237 34.442398 0.000000 34.000000 14.113762 0.000000
43.198526 12.189048 33.661773 0.000000 45.000000 14.127001 0.000000
43.408735 10.028067 33.674029 0.000000 44.000000 14.071576 0.000000
43.231399 10.533702 33.675367 0.000000 39.000000 14.129401 0.000000
45.610014 13.571701 34.878965 0.000000 72.000000 14.511554 8.000000
46.411728 11.277084 34.775934 0.000000 44.000000 14.158219 0.000000
44.369238 12.377363 34.420122 0.000000 68.000000 14.472383 19.000000
43.708535 12.157865 33.757269 0.000000 29.000000 14.054857 0.000000
44.171192 11.869803 33.937410 0.000000 32.000000 14.078039 0.000000
44.735769 14.196857 34.523413 0.000000 76.000000 14.453385 24.000000
46.094686 8.798820 34.668575 0.000000 46.000000 14.157578 0.000000
44.629756 14.147964 34.376069 0.000000 63.000000 14.347546 24.000000
45.627611 9.614388 34.676915 0.000000 47.000000 14.314443 30.000000
45.124587 14.616609 34.734197 0.000000 61.000000 14.529160 13.000000
47.532417 9.923376 34.927160 0.000000 23.000000 13.944135 0.000000
45.476122 14.075425 34.410350 0.000000 28.000000 14.110111 0.000000
46.528470 13.750148 34.746804 0.000000 38.000000 14.093378 0.000000
43.057398 11.820554 33.767704 0.000000 36.000000 14.272409 2.000000
42.921823 13.655147 33.591444 0.000000 42.000000 14.148591 0.000000
42.955673 14.668755 34.223998 0.000000 73.000000 14.737318 23.000000
47.216367 10.647956 35.002806 0.000000 37.000000 14.116626 0.000000
45.330403 9.630184 34.491433 0.000000 33.000000 14.233433 30.000000
43.665347 9.065344 33.824854 0.000000 43.000000 14.132686 0.000000
47.547028 13.462780 35.136766 0.000000 53.000000 14.138136 0.000000
43.525204 12.621839 34.022181 0.000000 59.000000 14.364404 10.000000
46.118728 9.078050 34.604642 0.000000 25.000000 14.089316 0.000000
44.834881 13.239623 34.748969 0.000000 67.000000 14.635554 8.000000
43.060747 13.945975 33.611225 0.000000 47.000000 14.123033 0.000000
43.239284 8.888097 33.888194 0.000000 61.000000 14.328600 27.000000
44.208533 10.258885 33.861512 0.000000 37.000000 13.994196 0.000000
47.788220 9.449130 35.323251 0.000000 58.000000 14.237961 11.000000
44.295351 11.482164 33.988461 0.000000 42.000000 14.086827 0.000000
46.702657 10.440909 34.850250 0.000000 47.000000 14.135870 0.000000
42.773138 10.571696 33.560940 0.000000 37.000000 14.167099 0.000000
43.356152 9.799773 33.739081 0.000000 49.000000 14.150002 0.000000
45.141837 10.117808 34.256779 0.000000 31.000000 14.071171 0.000000
44.590514 14.054724 34.593763 0.000000 75.000000 14.566387 24.000000
45.252121 11.470555 34.225626 0.000000 36.000000 14.006472 0.000000
43.165598 13.171225 33.561099 0.000000 34.000000 14.042086 0.000000
47.171191 13.539659 34.966902 0.000000 43.000000 14.097005 0.000000
45.105505 12.708915 34.318988 0.000000 23.000000 14.141718 0.000000
43.506622 14.615035 34.221391 0.000000 70.000000 14.559137 15.000000
47.279527 14.611448 34.908787 0.000000 29.000000 14.007374 0.000000
44.581068 12.614190 34.680301 0.000000 72.000000 14.651419 19.000000
44.800109 14.329241 34.053390 0.000000 43.000000 13.987387 0.000000
48.245807 12.397056 35.341530 0.000000 52.000000 14.109351 0.000000
43.691954 13.839239 34.222387 0.000000 60.000000 14.500975 24.000000
47.861345 13.029125 35.156938 0.000000 32.000000 14.057012 0.000000
46.999954 13.368378 34.909804 0.000000 56.000000 14.097500 0.000000
45.517712 8.711217 34.457032 0.000000 30.000000 14.141092 0.000000
48.322963 9.307122 35.365573 0.000000 33.000000 14.107532 0.000000
46.726344 8.852565 34.836888 0.000000 33.000000 14.115652 0.000000
46.564097 9.269358 34.783077 0.000000 27.000000 14.116395 0.000000
46.075952 11.811788 34.615834 0.000000 37.000000 14.113566 0.000000
47.143977 11.047252 34.965721 0.000000 26.000000 14.104565 0.000000
44.952814 12.313319 34.837923 0.000000 50.000000 14.682252 19.000000
45.877585 8.767378 34.567263 0.000000 42.000000 14.130795 0.000000
46.525399 10.146945 34.643523 0.000000 38.000000 13.996470 0.000000
48.211686 13.429338 35.332909 0.000000 55.000000 14.112062 0.000000
44.754124 12.902558 34.019723 0.000000 25.000000 13.970144 0.000000
43.638014 13.942821 33.971964 0.000000 45.000000 14.280831 24.000000
44.055063 12.004273 33.959189 0.000000 50.000000 14.135717 0.000000
44.735720 9.263030 34.086208 0.000000 23.000000 14.039027 0.000000
43.469072 11.062418 33.789848 0.000000 36.000000 14.162105 0.000000
45.975450 10.952199 34.546153 0.000000 37.000000 14.079576 0.000000
42.992465 12.149934 33.550281 0.000000 31.000000 14.087048 0.000000
44.061739 11.161611 33.930570 0.000000 24.000000 14.106464 0.000000
42.890582 11.579900 33.603645 0.000000 56.000000 14.170119 0.000000
45.656341 10.636992 34.412142 0.000000 37.000000 14.054334 0.000000
47.366954 14.062666 35.491541 0.000000 35.000000 14.531815 21.000000
46.351452 13.469223 34.721508 0.000000 49.000000 14.125858 0.000000
47.085320 9.651746 34.897971 0.000000 26.000000 14.059060 0.000000
47.561062 9.307544 35.048603 0.000000 21.000000 14.050101 0.000000
42.886207 12.338397 33.571217 0.000000 31.000000 14.140779 0.000000
44.008169 13.928334 34.267683 0.000000 68.000000 14.443058 24.000000
44.321195 10.070406 33.884553 0.000000 21.000000 13.980103 0.000000
47.077035 14.122451 34.890389 0.000000 39.000000 14.054516 0.000000
46.513697 13.684618 34.684971 0.000000 39.000000 14.039486 0.000000
43.613616 14.143316 34.191592 0.000000 53.000000 14.496772 24.000000
44.528482 12.721987 34.065436 0.000000 38.000000 14.085432 0.000000
43.277564 12.222163 33.624200 0.000000 29.000000 14.066183 0.000000
42.746952 12.083078 33.476876 0.000000 35.000000 14.095776 0.000000
43.125497 10.986305 33.649530 0.000000 44.000000 14.138688 0.000000
48.347270 9.759007 35.285491 0.000000 31.000000 14.023879 0.000000
48.426462 14.161351 35.411255 0.000000 43.000000 14.117820 0.000000
45.521727 12.458932 34.779516 0.000000 62.000000 14.445455 18.000000
45.220900 9.923409 34.219705 0.000000 38.000000 14.010818 0.000000
44.498968 9.868097 33.975188 0.000000 25.000000 14.009309 0.000000
43.447448 9.869641 33.752729 0.000000 43.000000 14.133821 0.000000
46.961682 10.168612 34.915798 0.000000 40.000000 14.115387 0.000000
43.595525 12.800281 33.635241 0.000000 28.000000 13.975243 0.000000
46.831748 9.315858 34.861002 0.000000 35.000000 14.104891 0.000000
42.762071 12.819208 33.419192 0.000000 24.000000 14.036283 0.000000
46.379995 11.254141 34.709120 0.000000 41.000000 14.105014 0.000000
47.048158 12.525735 34.944296 0.000000 45.000000 14.114817 0.000000
44.137481 14.217437 34.437195 0.000000 53.000000 14.562477 24.000000
44.288641 11.477995 33.895466 0.000000 31.000000 14.000829 0.000000
44.176962 11.238942 33.990788 0.000000 30.000000 14.126790 0.000000
43.193011 12.213886 33.657947 0.000000 46.000000 14.125134 0.000000
47.002231 12.914576 34.758622 0.000000 36.000000 13.953486 0.000000
44.947601 10.396369 34.172871 0.000000 30.000000 14.053591 0.000000
45.484061 10.093088 34.360873 0.000000 38.000000 14.060686 0.000000
48.006094 10.831899 35.261698 0.000000 39.000000 14.110138 0.000000
43.820861 14.602497 34.068761 0.000000 68.000000 14.314260 15.000000
45.439988 9.298290 34.319131 0.000000 20.000000 14.035180 0.000000
45.402670 9.048147 34.339893 0.000000 25.000000 14.066759 0.000000
46.730850 11.054635 34.950837 0.000000 46.000000 14.222214 5.000000
43.007805 12.422336 33.907809 0.000000 60.000000 14.421014 10.000000
45.256750 9.989910 34.286364 0.000000 31.000000 14.062562 0.000000
47.333771 13.575079 35.027906 0.000000 25.000000 14.102973 0.000000
45.455187 12.386099 34.808200 0.000000 37.000000 14.493863 18.000000
42.948041 9.742761 33.535299 0.000000 42.000000 14.087017 0.000000
45.153433 9.032565 34.344203 0.000000 51.000000 14.150331 0.000000
47.790770 12.248465 35.175607 0.000000 24.000000 14.097214 0.000000
46.591189 13.654654 34.810862 0.000000 31.000000 14.134089 0.000000
43.363407 13.339306 34.224628 0.000000 63.000000 14.607880 7.000000
46.897862 12.385448 34.919727 0.000000 45.000000 14.139464 0.000000
47.453948 11.317370 35.041823 0.000000 24.000000 14.077836 0.000000
46.925113 10.316265 34.938521 0.000000 29.000000 14.148586 0.000000
48.328615 9.232932 35.326194 0.000000 39.000000 14.068407 0.000000
44.528193 12.796861 33.946947 0.000000 28.000000 13.973223 0.000000
47.690959 9.594707 35.378666 0.000000 53.000000 14.321501 11.000000
45.284224 9.923407 34.249663 0.000000 37.000000 14.019016 0.000000
45.426814 11.336326 34.355675 0.000000 30.000000 14.074017 0.000000
44.784585 14.038782 34.724689 0.000000 74.000000 14.628582 24.000000
47.930000 14.196795 35.368319 0.000000 53.000000 14.235459 21.000000
44.632467 14.013825 34.505472 0.000000 60.000000 14.469327 24.000000
44.087888 10.851228 33.887093 0.000000 22.000000 14.056917 0.000000
44.631769 10.532435 34.049720 0.000000 29.000000 14.037596 0.000000
46.947672 10.947939 34.914516 0.000000 28.000000 14.118640 0.000000
44.119451 9.855816 33.850159 0.000000 30.000000 14.011846 0.000000
46.564385 9.220276 34.668397 0.000000 33.000000 14.007612 0.000000
46.773692 12.014877 34.896601 0.000000 48.000000 14.157146 0.000000
44.498347 11.714793 34.508805 0.000000 70.000000 14.515259 6.000000
43.311930 14.643440 33.999705 0.000000 63.000000 14.411119 23.000000
43.495439 13.224578 34.136855 0.000000 50.000000 14.482582 7.000000
47.602325 13.100745 35.026210 0.000000 38.000000 14.015718 0.000000
44.894587 11.135956 34.244657 0.000000 44.000000 14.138535 0.000000
45.395100 12.643929 34.290984 0.000000 38.000000 14.022818 0.000000
42.936356 11.773281 33.835134 0.000000 58.000000 14.374921 2.000000
43.452095 10.743414 33.748871 0.000000 43.000000 14.128682 0.000000
48.086556 11.720138 35.341275 0.000000 46.000000 14.159898 0.000000
43.576606 11.334111 33.713473 0.000000 46.000000 14.055423 0.000000
43.065172 11.206452 33.560323 0.000000 37.000000 14.073378 0.000000
43.955498 14.179307 34.461529 0.000000 75.000000 14.643579 24.000000
44.780148 10.968219 34.187277 0.000000 45.000000 14.120649 0.000000
46.599048 9.219360 34.734348 0.000000 32.000000 14.059064 0.000000
45.946972 9.159915 34.488040 0.000000 22.000000 14.033580 0.000000
48.053864 13.475429 35.263508 0.000000 46.000000 14.096618 0.000000
44.199389 11.407364 33.895383 0.000000 38.000000 14.029214 0.000000
43.461758 9.109544 33.777997 0.000000 36.000000 14.153205 0.000000
42.774067 9.089967 33.541170 0.000000 47.000000 14.148065 0.000000
47.397441 10.239677 34.991719 0.000000 19.000000 14.048370 0.000000
47.088664 13.913299 34.937529 0.000000 30.000000 14.095486 0.000000
47.125329 10.523670 35.022292 0.000000 46.000000 14.164129 0.000000
43.351633 13.003747 33.529912 0.000000 23.000000 13.953196 0.000000
43.088103 11.559038 33.664202 0.000000 34.000000 14.164519 0.000000
43.611525 11.255847 33.740122 0.000000 48.000000 14.069544 0.000000
48.254193 9.581227 35.343423 0.000000 22.000000 14.108471 0.000000
44.633560 11.698486 34.604250 0.000000 72.000000 14.562598 6.000000
43.448480 13.223585 34.148877 0.000000 70.000000 14.508953 7.000000
48.161110 14.261315 35.273939 0.000000 35.000000 14.072301 0.000000
47.471139 11.750057 35.211175 0.000000 37.000000 14.232862 1.000000
44.540118 12.859308 33.936315 0.000000 32.000000 13.959343 0.000000
47.690116 12.601476 35.141061 0.000000 21.000000 14.096573 0.000000
47.717562 12.999500 35.121744 0.000000 26.000000 14.069511 0.000000
46.093520 13.880601 34.633625 0.000000 47.000000 14.124825 0.000000
43.777051 10.830231 33.856077 0.000000 46.000000 14.126654 0.000000
45.721875 14.401113 34.495318 0.000000 17.000000 14.112266 0.000000
44.485482 12.079062 34.069355 0.000000 40.000000 14.102860 0.000000
47.771208 13.249079 35.499998 0.000000 68.000000 14.410904 9.000000
48.177501 14.465419 35.132720 0.000000 42.000000 13.933229 0.000000
45.216025 11.600706 34.287086 0.000000 31.000000 14.076235 0.000000
43.799873 11.970107 33.863730 0.000000 42.000000 14.126629 0.000000
47.610709 11.268302 35.131721 0.000000 36.000000 14.113045 0.000000
47.586421 9.534406 35.250523 0.000000 47.000000 14.233389 11.000000
45.650406 13.385635 34.757636 0.000000 75.000000 14.383679 8.000000
45.390363 9.611609 34.669086 0.000000 57.000000 14.382687 30.000000
45.376021 13.465620 34.888565 0.000000 45.000000 14.595279 8.000000
44.425661 9.367569 34.059819 0.000000 43.000000 14.112900 0.000000
44.281141 10.698925 34.013277 0.000000 40.000000 14.114880 0.000000
44.977919 13.946536 34.708152 0.000000 55.000000 14.551250 24.000000
47.115376 9.284199 34.959575 0.000000 41.000000 14.107861 0.000000
48.065421 9.784362 35.158758 0.000000 31.000000 13.993652 0.000000
47.645486 12.299540 35.149342 0.000000 45.000000 14.118655 0.000000
44.028434 10.063538 33.870368 0.000000 22.000000 14.060027 0.000000
48.023569 14.261575 35.175149 0.000000 41.000000 14.022535 0.000000
44.755325 10.199277 34.155360 0.000000 50.000000 14.098315 0.000000
43.586484 9.754000 34.135008 0.000000 57.000000 14.451796 16.000000
47.900449 14.223032 35.274689 0.000000 38.000000 14.156143 0.000000
47.597348 13.502550 35.150136 0.000000 44.000000 14.134760 0.000000
43.141401 9.044876 33.665971 0.000000 40.000000 14.149198 0.000000
44.057739 12.263548 33.945542 0.000000 42.000000 14.121929 0.000000
47.313206 13.925717 35.609977 0.000000 39.000000 14.661207 21.000000
45.368953 11.611805 34.496766 0.000000 50.000000 14.226193 12.000000
45.945675 11.994271 34.574930 0.000000 42.000000 14.116346 0.000000
45.017603 11.447085 34.221212 0.000000 39.000000 14.077082 0.000000
44.465315 11.299763 34.102638 0.000000 33.000000 14.140837 0.000000
44.094214 11.140978 33.969439 0.000000 39.000000 14.132946 0.000000
44.639778 12.560739 34.644575 0.000000 63.000000 14.598834 19.000000
43.235704 13.658990 33.690059 0.000000 48.000000 14.141953 0.000000
42.863974 10.715920 33.543659 0.000000 25.000000 14.121751 0.000000
44.104146 11.740217 34.110966 0.000000 23.000000 14.263915 0.000000
43.078522 14.523008 34.070149 0.000000 65.000000 14.552324 23.000000
47.663070 9.708537 35.079960 0.000000 33.000000 14.047288 0.000000
47.032165 12.584808 34.923527 0.000000 26.000000 14.100233 0.000000
46.935928 9.842534 34.923173 0.000000 25.000000 14.130590 0.000000
47.257436 9.638909 35.021566 0.000000 36.000000 14.121309 0.000000
44.252409 14.482828 34.141315 0.000000 32.000000 14.245395 0.000000
47.557702 10.701590 35.098635 0.000000 46.000000 14.098592 0.000000
48.183562 11.021103 35.299294 0.000000 40.000000 14.089172 0.000000
47.719115 12.467864 35.205427 0.000000 33.000000 14.148329 0.000000
47.030020 12.164040 34.985042 0.000000 45.000000 14.159220 0.000000
44.617934 12.773715 34.008756 0.000000 34.000000 14.003184 0.000000
42.875762 9.946177 33.396577 0.000000 32.000000 13.978590 0.000000
48.335863 10.530921 35.394673 0.000000 41.000000 14.130998 0.000000
43.496838 12.326016 34.218865 0.000000 59.000000 14.559864 10.000000
45.519372 9.747386 34.376386 0.000000 31.000000 14.064128 0.000000
46.136786 11.836793 34.647432 0.000000 34.000000 14.124113 0.000000
44.703821 10.695090 34.120580 0.000000 33.000000 14.081777 0.000000
46.306613 11.066869 34.728141 0.000000 31.000000 14.146445 0.000000
46.483857 9.989202 34.583107 0.000000 19.000000 13.952458 0.000000
43.463091 14.150383 34.241743 0.000000 62.000000 14.592310 24.000000
46.428567 10.316249 34.726393 0.000000 32.000000 14.105895 0.000000
45.900279 13.662291 34.577260 0.000000 42.000000 14.133032 0.000000
46.688681 9.783663 34.670098 0.000000 33.000000 13.969583 0.000000
46.137859 9.612945 34.656083 0.000000 28.000000 14.131970 0.000000
48.427729 9.469117 35.379979 0.000000 22.000000 14.087773 0.000000
45.725979 8.960765 34.508766 0.000000 29.000000 14.123703 0.000000
44.160100 11.887230 33.992048 0.000000 47.000000 14.133362 0.000000
42.956072 11.637072 33.613652 0.000000 55.000000 14.158717 0.000000
44.506791 12.349755 34.535527 0.000000 47.000000 14.537893 19.000000
43.838444 12.902618 34.070551 0.000000 36.000000 14.310349 0.000000
42.718728 11.477365 33.483364 0.000000 45.000000 14.110927 0.000000
44.624591 14.514199 34.027919 0.000000 27.000000 14.019223 0.000000
47.781303 12.937317 35.094031 0.000000 19.000000 14.022917 0.000000
47.924823 9.050303 35.292920 0.000000 28.000000 14.165648 0.000000
46.540217 11.864471 34.770314 0.000000 35.000000 14.111914 0.000000
48.168423 13.455566 35.327873 0.000000 44.000000 14.121087 0.000000
47.200976 13.956372 35.283202 0.000000 46.000000 14.387289 21.000000
43.316786 12.646361 34.019219 0.000000 65.000000 14.428066 10.000000
46.622548 10.276532 34.727954 0.000000 29.000000 14.045509 0.000000
46.495514 11.446909 34.967202 0.000000 50.000000 14.312778 0.000000
43.950873 10.456689 33.875493 0.000000 40.000000 14.089620 0.000000
46.375858 10.950167 34.954010 0.000000 53.000000 14.338436 5.000000
43.316060 14.564032 34.021759 0.000000 63.000000 14.430705 23.000000
42.841504 11.315872 33.536659 0.000000 45.000000 14.122283 0.000000
46.573901 11.887144 34.821904 0.000000 40.000000 14.150068 0.000000
43.295774 11.655646 33.675889 0.000000 45.000000 14.109365 0.000000
43.121881 12.265225 33.628340 0.000000 48.000000 14.119757 0.000000
42.923450 8.896477 33.754522 0.000000 54.000000 14.302635 27.000000
43.583375 14.070718 34.382919 0.000000 57.000000 14.687752 24.000000
45.495876 14.463867 34.346333 0.000000 24.000000 14.043137 0.000000
47.511599 11.079521 35.120793 0.000000 26.000000 14.134296 0.000000
43.915636 14.042289 34.458706 0.000000 65.000000 14.653616 24.000000
43.669882 13.064758 34.068373 0.000000 58.000000 14.362043 7.000000
46.943373 8.596159 34.778041 0.000000 26.000000 13.990662 0.000000
44.387124 11.906827 34.352473 0.000000 65.000000 14.402563 6.000000
43.889901 11.192955 33.901960 0.000000 45.000000 14.134150 0.000000
45.259597 13.505524 34.460431 0.000000 53.000000 14.226632 8.000000
42.718315 8.917711 33.668054 0.000000 46.000000 14.286104 0.000000
47.338762 13.908764 35.474369 0.000000 57.000000 14.524530 21.000000
45.636265 11.965240 34.429963 0.000000 37.000000 14.077627 0.000000
43.815967 8.869907 34.030680 0.000000 55.000000 14.279728 26.000000
45.370376 9.725741 34.315486 0.000000 34.000000 14.053926 0.000000
46.373847 14.591303 34.663832 0.000000 36.000000 14.064052 0.000000
42.825798 14.059190 33.750767 0.000000 57.000000 14.330219 25.000000
44.861551 9.758618 34.113514 0.000000 29.000000 14.024776 0.000000
45.259874 13.220768 34.798564 0.000000 70.000000 14.547019 8.000000
46.374931 9.654793 34.656445 0.000000 36.000000 14.056705 0.000000
46.810950 12.297184 34.881661 0.000000 46.000000 14.131104 0.000000
45.834208 10.668344 34.510896 0.000000 34.000000 14.091205 0.000000
45.843015 13.020951 34.422068 0.000000 34.000000 14.004207 0.000000
44.734912 10.195163 34.138227 0.000000 46.000000 14.088587 0.000000
47.403327 10.470254 35.048364 0.000000 26.000000 14.100180 0.000000
45.587408 12.843034 34.284835 0.000000 26.000000 13.955659 0.000000
44.659438 13.774910 34.159754 0.000000 48.000000 14.133060 0.000000
43.510156 14.551342 34.426142 0.000000 61.000000 14.752069 15.000000
45.244538 13.220444 34.635488 0.000000 26.000000 14.397350 8.000000
46.905809 13.327566 34.887568 0.000000 53.000000 14.106450 0.000000
43.241988 12.296023 33.676098 0.000000 47.000000 14.126717 0.000000
47.797511 14.148729 35.597373 0.000000 59.000000 14.494806 21.000000
45.591771 10.037611 34.297346 0.000000 32.000000 13.966125 0.000000
44.915483 12.686889 34.082418 0.000000 27.000000 13.978104 0.000000
43.083244 13.523669 33.627282 0.000000 25.000000 14.131077 0.000000
44.076194 13.409253 33.948161 0.000000 56.000000 14.118526 0.000000
47.726972 11.547256 35.115213 0.000000 30.000000 14.060320 0.000000
43.665918 13.289002 34.178381 0.000000 51.000000 14.467570 7.000000
44.283874 14.325119 34.387792 0.000000 77.000000 14.468966 24.000000
43.097019 14.191467 33.911619 0.000000 75.000000 14.396173 23.000000
43.291431 9.822031 33.698605 0.000000 33.000000 14.132280 0.000000
48.298146 14.227492 35.349973 0.000000 36.000000 14.100661 0.000000
44.804317 12.618471 34.850492 0.000000 62.000000 14.741523 19.000000
44.614843 10.743198 34.140472 0.000000 37.000000 14.129007 0.000000
47.537851 13.463981 35.049092 0.000000 39.000000 14.057967 0.000000
44.488699 12.474558 34.498581 0.000000 61.000000 14.508646 19.000000
48.384168 9.561751 35.306596 0.000000 29.000000 14.032115 0.000000
46.100879 9.925450 34.466880 0.000000 25.000000 13.964440 0.000000
43.919692 12.202642 33.847684 0.000000 34.000000 14.073208 0.000000
48.213990 13.656357 35.366658 0.000000 35.000000 14.143314 0.000000
45.311956 13.555961 34.787153 0.000000 61.000000 14.519594 8.000000
45.298876 10.431828 34.357216 0.000000 45.000000 14.116280 0.000000
46.510582 10.708976 34.726814 0.000000 28.000000 14.080137 0.000000
46.305129 10.336702 34.608035 0.000000 38.000000 14.033084 0.000000
43.859934 10.502162 33.874155 0.000000 45.000000 14.117355 0.000000
43.216608 13.965492 34.088495 0.000000 45.000000 14.525673 23.000000
44.762957 12.691649 34.497949 0.000000 58.000000 14.420580 19.000000
48.183056 11.911481 35.471006 0.000000 40.000000 14.252079 0.000000
44.560592 13.544333 34.139959 0.000000 33.000000 14.145823 0.000000
44.538353 12.544972 34.601317 0.000000 47.000000 14.590182 19.000000
48.472424 9.580948 35.447120 0.000000 38.000000 14.137154 0.000000
48.031854 14.640016 35.602185 0.000000 33.000000 14.424629 22.000000
47.355798 10.587055 35.035311 0.000000 45.000000 14.102966 0.000000
47.584211 11.131337 35.096454 0.000000 33.000000 14.088070 0.000000
47.842328 10.850081 35.147882 0.000000 40.000000 14.054494 0.000000
47.906774 10.589199 35.199052 0.000000 29.000000 14.082438 0.000000
43.157771 14.444551 34.022211 0.000000 59.000000 14.481615 23.000000
48.149848 10.047875 35.267577 0.000000 41.000000 14.069863 0.000000
43.280158 13.749907 33.691509 0.000000 49.000000 14.129150 0.000000
45.433701 13.279480 34.917789 0.000000 67.000000 14.604581 8.000000
45.935594 11.293540 34.514174 0.000000 20.000000 14.061978 0.000000
46.337364 13.625766 34.672205 0.000000 29.000000 14.083623 0.000000
43.073509 13.772241 33.604089 0.000000 52.000000 14.112200 0.000000
44.917530 13.416941 34.208292 0.000000 40.000000 14.096752 0.000000
42.920833 14.180016 33.506496 0.000000 27.000000 14.068395 0.000000
43.957104 14.579461 33.905178 0.000000 52.000000 14.115768 0.000000
45.467628 12.515484 34.900022 0.000000 67.000000 14.576922 18.000000
44.428477 13.927166 34.499902 0.000000 71.000000 14.529105 24.000000
46.717052 13.116499 34.707143 0.000000 37.000000 13.995646 0.000000
44.388126 13.613997 34.055440 0.000000 43.000000 14.120721 0.000000
45.858692 12.709436 34.477030 0.000000 32.000000 14.051299 0.000000
44.076700 14.059998 34.355469 0.000000 64.000000 14.504403 24.000000
44.949664 10.954669 34.238796 0.000000 42.000000 14.115415 0.000000
47.634373 11.243934 35.205264 0.000000 37.000000 14.175201 0.000000
43.045963 9.045155 33.646666 0.000000 36.000000 14.161339 0.000000
44.091674 14.292176 34.457276 0.000000 41.000000 14.596118 24.000000
45.220414 12.180413 34.281578 0.000000 33.000000 14.069615 0.000000
44.204152 13.602121 33.999021 0.000000 45.000000 14.125921 0.000000
46.535544 10.873457 34.802168 0.000000 41.000000 14.143595 0.000000
42.721817 12.665193 33.626616 0.000000 63.000000 14.245713 0.000000
47.654535 9.466639 35.114151 0.000000 36.000000 14.082415 0.000000
44.981361 10.849705 34.195286 0.000000 38.000000 14.064068 0.000000
44.491699 10.519993 33.999782 0.000000 31.000000 14.034937 0.000000
46.819190 11.313707 34.800023 0.000000 33.000000 14.051101 0.000000
43.549662 12.387150 34.024182 0.000000 62.000000 14.358500 10.000000
44.608263 12.364566 34.776938 0.000000 63.000000 14.734336 19.000000
47.199365 13.814064 34.976997 0.000000 49.000000 14.097587 0.000000
44.742194 13.658899 34.149168 0.000000 37.000000 14.096634 0.000000
44.842620 9.098587 34.132167 0.000000 44.000000 14.048493 0.000000
46.985293 12.133446 34.895364 0.000000 53.000000 14.088490 0.000000
43.859109 11.749380 33.826703 0.000000 21.000000 14.072644 0.000000
46.472140 13.866612 34.760793 0.000000 41.000000 14.124602 0.000000
47.752892 14.207273 35.136383 0.000000 51.000000 14.072118 0.000000
46.301469 13.913668 34.726083 0.000000 36.000000 14.146135 0.000000
45.951455 12.887080 34.383405 0.000000 31.000000 13.932979 0.000000
44.028777 10.500992 33.883008 0.000000 47.000000 14.071897 0.000000
43.166733 9.690356 33.996438 0.000000 51.000000 14.454330 17.000000
46.250660 9.575480 34.666658 0.000000 32.000000 14.106018 0.000000
43.546563 10.689749 33.748402 0.000000 41.000000 14.098109 0.000000
43.736819 10.775304 33.849474 0.000000 44.000000 14.133227 0.000000
47.579154 13.416143 35.170521 0.000000 61.000000 14.159883 0.000000
42.794849 12.239030 33.506010 0.000000 42.000000 14.108114 0.000000
43.245342 13.341190 34.112143 0.000000 74.000000 14.538922 7.000000
45.424925 11.842691 34.582952 0.000000 38.000000 14.290028 12.000000
45.035399 10.222836 34.217080 0.000000 38.000000 14.067490 0.000000
47.226955 11.764388 35.038202 0.000000 30.000000 14.146797 0.000000
43.262129 11.737932 33.677628 0.000000 56.000000 14.121744 0.000000
45.301846 9.908002 34.237678 0.000000 25.000000 14.002037 0.000000
44.526651 8.752730 34.071956 0.000000 40.000000 14.092196 0.000000
43.028486 12.587143 33.890655 0.000000 70.000000 14.398160 10.000000
43.816038 9.464472 33.978459 0.000000 42.000000 14.230211 0.000000
44.772155 11.983214 34.217659 0.000000 57.000000 14.151993 0.000000
43.603640 14.403397 33.757025 0.000000 36.000000 14.088079 0.000000
47.408150 9.678709 35.249715 0.000000 41.000000 14.289478 0.000000
42.842366 9.218439 33.444055 0.000000 43.000000 14.034240 0.000000
44.117132 12.780620 33.804229 0.000000 32.000000 13.969054 0.000000
45.418107 11.612713 34.952339 0.000000 44.000000 14.642300 12.000000
44.356202 9.883190 33.955678 0.000000 22.000000 14.036350 0.000000
43.750181 12.752420 33.703955 0.000000 29.000000 13.991045 0.000000
43.398748 13.946341 34.471452 0.000000 30.000000 14.830544 24.000000
44.144340 14.472128 33.885252 0.000000 50.000000 14.037169 0.000000
48.068604 11.802636 35.303481 0.000000 48.000000 14.129803 0.000000
48.425202 8.620919 35.218024 0.000000 27.000000 13.935081 0.000000
42.985153 13.469150 33.809394 0.000000 53.000000 14.334963 7.000000
43.138722 13.349430 34.092194 0.000000 54.000000 14.554018 7.000000
46.361492 12.113220 34.715473 0.000000 48.000000 14.116937 0.000000
43.784355 13.680535 33.868462 0.000000 41.000000 14.136063 0.000000
47.575452 10.251738 35.102796 0.000000 24.000000 14.096875 0.000000
45.792175 14.011658 34.497298 0.000000 36.000000 14.091723 0.000000
43.649276 12.599519 34.091835 0.000000 57.000000 14.390851 10.000000
47.634037 13.632035 35.516991 0.000000 71.000000 14.470757 21.000000
43.891791 12.951345 33.719102 0.000000 23.000000 13.960238 0.000000
47.122132 11.230741 34.889333 0.000000 48.000000 14.039133 0.000000
46.431847 8.715333 34.643350 0.000000 39.000000 14.026142 0.000000
43.651229 11.767756 33.814372 0.000000 54.000000 14.127254 0.000000
46.210600 11.796545 34.629711 0.000000 26.000000 14.083776 0.000000
46.555845 13.458551 34.795781 0.000000 50.000000 14.131067 0.000000
48.180526 14.570498 35.576584 0.000000 62.000000 14.352950 22.000000
45.416997 12.798526 34.314037 0.000000 49.000000 14.037684 0.000000
47.739954 13.571650 35.551828 0.000000 60.000000 14.469995 9.000000
47.980295 10.264484 35.128808 0.000000 39.000000 13.992415 0.000000
46.964641 10.343560 34.850355 0.000000 40.000000 14.052417 0.000000
46.262310 10.387354 34.567732 0.000000 44.000000 14.008542 0.000000
43.064992 10.481362 33.798651 0.000000 50.000000 14.299318 3.000000
44.718796 10.509449 34.022038 0.000000 34.000000 13.983605 0.000000
43.343383 11.982718 33.749781 0.000000 27.000000 14.164215 0.000000
43.703476 11.513535 33.752878 0.000000 48.000000 14.052309 0.000000
45.077293 13.602328 34.207240 0.000000 42.000000 14.044803 0.000000
43.300938 12.792480 33.554949 0.000000 41.000000 13.993094 0.000000
47.991945 12.410424 35.241335 0.000000 43.000000 14.095350 0.000000
43.298909 9.072626 33.707243 0.000000 51.000000 14.138082 0.000000
45.766799 12.171103 34.503957 0.000000 39.000000 14.106127 0.000000
45.675681 14.392323 34.395696 0.000000 22.000000 14.032579 0.000000
45.590138 12.945148 34.284616 0.000000 24.000000 13.954581 0.000000
42.634274 10.410919 33.495696 0.000000 45.000000 14.149549 0.000000
46.617698 8.656715 34.717944 0.000000 34.000000 14.037569 0.000000
45.855646 10.656727 34.476584 0.000000 39.000000 14.051848 0.000000
43.639104 14.138835 34.271918 0.000000 63.000000 14.564774 24.000000
45.675853 14.126064 34.418914 0.000000 46.000000 14.054529 0.000000
43.929323 12.839535 33.736221 0.000000 25.000000 13.964494 0.000000
43.203452 9.223886 33.581371 0.000000 32.000000 14.049226 0.000000
43.493194 11.003990 33.799859 0.000000 55.000000 14.163900 0.000000
42.657500 12.176647 33.492673 0.000000 37.000000 14.139277 0.000000
47.467436 11.275044 35.047333 0.000000 47.000000 14.078757 0.000000
44.408227 14.183681 34.417192 0.000000 69.000000 14.457172 24.000000
46.003100 11.201999 34.588139 0.000000 55.000000 14.110551 0.000000
45.328035 11.170577 34.358787 0.000000 47.000000 14.108469 0.000000
46.179396 9.253531 34.672278 0.000000 28.000000 14.134072 0.000000
42.649548 9.469041 33.505493 0.000000 42.000000 14.153963 0.000000
45.902078 9.578383 34.578684 0.000000 49.000000 14.133808 0.000000
48.308299 12.057169 35.388937 0.000000 38.000000 14.134352 0.000000
47.961408 10.054996 35.197569 0.000000 51.000000 14.063609 0.000000
46.447681 13.261863 34.763533 0.000000 46.000000 14.134999 0.000000
42.857639 13.992429 33.701021 0.000000 62.000000 14.272916 25.000000
43.539852 13.840093 33.904439 0.000000 48.000000 14.248138 24.000000
44.356697 10.164047 33.871056 0.000000 26.000000 13.955989 0.000000
43.454485 10.480657 33.853390 0.000000 65.000000 14.226981 0.000000
43.309218 9.789090 33.733085 0.000000 48.000000 14.159287 0.000000
44.600827 11.899333 34.318170 0.000000 64.000000 14.301896 6.000000
46.545832 13.061592 34.641480 0.000000 35.000000 13.988017 0.000000
43.333227 13.137262 33.902563 0.000000 56.000000 14.312258 7.000000
43.665470 11.795259 33.849747 0.000000 51.000000 14.156240 0.000000
43.549368 12.159533 33.789418 0.000000 46.000000 14.136089 0.000000
46.863253 13.461395 34.896818 0.000000 52.000000 14.128789 0.000000
47.668519 13.330412 35.826579 0.000000 59.000000 14.753181 9.000000
46.238066 10.407473 34.632461 0.000000 45.000000 14.077623 0.000000
46.750663 10.109945 34.785334 0.000000 47.000000 14.059034 0.000000
45.819270 9.918611 34.372020 0.000000 31.000000 13.964345 0.000000
43.372980 14.309198 34.032163 0.000000 50.000000 14.422412 23.000000
43.348973 14.457494 34.139778 0.000000 65.000000 14.532064 23.000000
45.245552 13.293702 34.762398 0.000000 70.000000 14.517310 8.000000
46.567989 13.511525 34.772825 0.000000 42.000000 14.105437 0.000000
43.075270 11.976027 33.754684 0.000000 38.000000 14.254369 2.000000
43.844724 13.351952 33.877851 0.000000 29.000000 14.125709 0.000000
47.534780 13.123707 34.924131 0.000000 37.000000 13.940511 0.000000
43.584457 12.632208 33.695881 0.000000 34.000000 14.036246 0.000000
43.815778 11.791714 33.851556 0.000000 45.000000 14.110018 0.000000
44.726168 12.241037 34.126820 0.000000 33.000000 14.080564 0.000000
43.108414 8.997151 33.755726 0.000000 68.000000 14.244787 27.000000
47.520663 12.180811 35.082064 0.000000 45.000000 14.094699 0.000000
46.788178 12.086681 34.903884 0.000000 63.000000 14.159429 0.000000
