18.824049 -5.154361 1.501549 0.000000 72.000000 15.235274 19.000000
23.473333 -6.080773 1.719200 0.000000 41.000000 14.853870 15.000000
20.534707 -5.788131 1.874507 0.000000 59.000000 14.697465 17.000000
22.210903 -4.514369 2.356689 0.000000 71.000000 14.984606 23.000000
21.394172 -2.560320 4.038992 0.000000 35.000000 14.414612 0.000000
23.716799 -3.536319 2.794935 0.000000 69.000000 15.157757 11.000000
18.556668 -3.423731 3.299241 0.000000 49.000000 14.486779 0.000000
23.641182 -5.221578 2.210399 0.000000 66.000000 14.849432 16.000000
18.675305 -4.410115 2.918053 0.000000 46.000000 14.349429 0.000000
18.807728 -4.489788 2.853063 0.000000 37.000000 14.374994 0.000000
20.316409 -4.764013 1.874737 0.000000 52.000000 15.180365 9.000000
18.045807 -3.482743 2.647732 0.000000 71.000000 14.999210 26.000000
19.068891 -5.352616 1.958912 0.000000 48.000000 14.753380 19.000000
21.795551 -1.667275 3.824597 0.000000 50.000000 15.055844 1.000000
20.787299 -2.948755 2.904851 0.000000 50.000000 15.184102 4.000000
21.051058 -4.463261 2.302762 0.000000 58.000000 14.992402 24.000000
21.715381 -5.924315 2.138009 0.000000 53.000000 14.466599 0.000000
22.244861 -6.070980 1.904255 0.000000 58.000000 14.629125 15.000000
22.049999 -4.389323 2.276710 0.000000 73.000000 15.106053 23.000000
18.863681 -6.127027 1.396691 0.000000 64.000000 14.858793 7.000000
19.024371 -4.965578 2.535133 0.000000 37.000000 14.434660 0.000000
21.006787 -2.233318 4.191126 0.000000 48.000000 14.418424 0.000000
20.596996 -1.684660 4.611514 0.000000 32.000000 14.293820 0.000000
20.830310 -2.329399 4.120806 0.000000 48.000000 14.423660 0.000000
22.694262 -4.038385 2.522229 0.000000 69.000000 15.096806 23.000000
22.060051 -2.405394 4.175669 0.000000 46.000000 14.406872 0.000000
21.872279 -2.503180 4.091240 0.000000 53.000000 14.422986 0.000000
23.586329 -6.501510 1.656305 0.000000 42.000000 14.711631 15.000000
19.636700 -5.363985 1.932049 0.000000 39.000000 14.802695 19.000000
20.122120 -2.875581 3.918883 0.000000 38.000000 14.296895 0.000000
20.987566 -4.284151 2.583683 0.000000 72.000000 14.830081 24.000000
21.185356 -2.613565 3.217834 0.000000 42.000000 15.094711 4.000000
22.757776 -3.447306 2.955157 0.000000 66.000000 15.007883 12.000000
19.897813 -2.943955 3.875248 0.000000 36.000000 14.289575 0.000000
24.037729 -1.883565 4.018514 0.000000 68.000000 14.905634 2.000000
23.422615 -1.645302 3.896685 0.000000 51.000000 15.093307 2.000000
21.385834 -2.168029 4.260815 0.000000 24.000000 14.410034 0.000000
19.020746 -3.521226 3.326119 0.000000 55.000000 14.441778 0.000000
21.321961 -6.222494 1.252077 0.000000 64.000000 15.074672 13.000000
19.038350 -4.625701 2.692281 0.000000 53.000000 14.462472 0.000000
18.779040 -1.670632 4.037342 0.000000 62.000000 14.701849 21.000000
18.421104 -5.487576 2.349170 0.000000 41.000000 14.311437 0.000000
22.069545 -5.618262 1.884288 0.000000 57.000000 14.855776 29.000000
23.799182 -6.480962 1.732789 0.000000 36.000000 14.666498 15.000000
18.069682 -5.754934 2.034677 0.000000 46.000000 14.437516 0.000000
19.844807 -4.505266 2.339178 0.000000 57.000000 14.873693 25.000000
18.523772 -2.149402 3.955422 0.000000 74.000000 14.527843 21.000000
21.597316 -5.185849 2.498347 0.000000 55.000000 14.502328 0.000000
19.168505 -5.761879 1.768532 0.000000 54.000000 14.727322 19.000000
20.776192 -3.439112 2.930892 0.000000 62.000000 14.923656 10.000000
20.710569 -3.354153 2.928479 0.000000 59.000000 14.963218 10.000000
20.180194 -3.292510 2.789630 0.000000 69.000000 15.085044 10.000000
18.739471 -4.356648 2.950883 0.000000 43.000000 14.350142 0.000000
24.131539 -4.066040 2.842266 0.000000 39.000000 14.883188 22.000000
22.043258 -4.754794 2.451165 0.000000 43.000000 14.776574 23.000000
18.146796 -5.727624 2.090091 0.000000 47.000000 14.406567 0.000000
22.534722 -1.749276 4.009357 0.000000 48.000000 14.895593 1.000000
22.026216 -6.165605 1.655708 0.000000 72.000000 14.788438 15.000000
18.525275 -5.453186 2.327172 0.000000 43.000000 14.353032 0.000000
22.813001 -3.049130 3.506736 0.000000 48.000000 14.721582 12.000000
21.878062 -4.800411 1.996783 0.000000 46.000000 15.142351 18.000000
18.769215 -3.493557 3.314855 0.000000 47.000000 14.451110 0.000000
24.036484 -2.550658 3.711068 0.000000 50.000000 14.851620 3.000000
18.128262 -3.615784 2.660482 0.000000 71.000000 14.928299 26.000000
21.658781 -4.828752 2.621157 0.000000 37.000000 14.571087 23.000000
19.532448 -4.331964 2.036967 0.000000 44.000000 15.204254 25.000000
21.687840 -5.155462 2.048010 0.000000 49.000000 14.915435 18.000000
21.896237 -4.239942 2.299365 0.000000 75.000000 15.149998 23.000000
20.623142 -2.940384 3.918160 0.000000 47.000000 14.293852 0.000000
19.787675 -5.127160 1.865808 0.000000 71.000000 14.983400 9.000000
20.653312 -2.777832 3.938234 0.000000 48.000000 14.356573 0.000000
19.251768 -2.752824 3.820780 0.000000 42.000000 14.393905 0.000000
22.594518 -1.592268 3.921735 0.000000 35.000000 15.051352 1.000000
19.222816 -2.482007 3.614322 0.000000 69.000000 14.703608 27.000000
23.201046 -2.334477 4.028634 0.000000 43.000000 14.632596 3.000000
23.525602 -5.511532 1.998239 0.000000 61.000000 14.888207 16.000000
19.750217 -4.514886 2.277379 0.000000 60.000000 14.917809 25.000000
22.672087 -4.136700 2.172818 0.000000 37.000000 15.353295 23.000000
18.802321 -2.110767 4.091413 0.000000 52.000000 14.443096 0.000000
18.347327 -4.746974 2.205014 0.000000 53.000000 14.791373 20.000000
21.277074 -1.660366 4.688878 0.000000 41.000000 14.275521 0.000000
19.463464 -2.684132 3.679877 0.000000 57.000000 14.561897 27.000000
17.973476 -3.496635 3.234481 0.000000 60.000000 14.475912 0.000000
24.074360 -1.766695 4.068123 0.000000 62.000000 14.920823 2.000000
22.815447 -3.140197 3.283047 0.000000 61.000000 14.873103 12.000000
22.713720 -6.225126 1.647890 0.000000 53.000000 14.804442 15.000000
23.149288 -5.044492 2.424739 0.000000 44.000000 14.720650 18.000000
20.141733 -2.270918 3.430127 0.000000 34.000000 15.017307 27.000000
23.811842 -2.348787 3.798609 0.000000 61.000000 14.860346 3.000000
23.798604 -2.337970 3.850240 0.000000 64.000000 14.819739 3.000000
21.339695 -3.342945 2.590311 0.000000 74.000000 15.298792 10.000000
20.796064 -6.047843 1.530083 0.000000 53.000000 14.887216 13.000000
21.854077 -3.692618 2.835512 0.000000 35.000000 14.943914 10.000000
20.010912 -1.789491 4.435754 0.000000 36.000000 14.364327 0.000000
20.761408 -3.936631 2.596372 0.000000 72.000000 14.974534 10.000000
21.175182 -3.817206 2.727867 0.000000 49.000000 14.940240 10.000000
18.775379 -6.945849 1.424896 0.000000 30.000000 14.433386 0.000000
22.298564 -4.721138 2.492745 0.000000 65.000000 14.770615 23.000000
21.543643 -3.410375 3.384025 0.000000 64.000000 14.584054 4.000000
21.136703 -2.895244 3.952454 0.000000 49.000000 14.314067 0.000000
20.982736 -2.143901 4.226148 0.000000 45.000000 14.429733 0.000000
20.236581 -4.244980 2.420340 0.000000 67.000000 14.950262 25.000000
20.874056 -2.272574 4.142297 0.000000 49.000000 14.434775 0.000000
19.246326 -2.643875 3.814540 0.000000 49.000000 14.451732 0.000000
21.896625 -6.137886 1.496461 0.000000 67.000000 14.933806 15.000000
22.760349 -6.280400 1.704051 0.000000 36.000000 14.731229 15.000000
21.957568 -3.543127 3.257791 0.000000 64.000000 14.652998 10.000000
20.546443 -4.662711 1.913528 0.000000 75.000000 15.208152 9.000000
19.137280 -3.424476 2.870669 0.000000 67.000000 14.892873 26.000000
22.565607 -4.121026 2.734737 0.000000 72.000000 14.864098 23.000000
22.866001 -4.431212 2.345834 0.000000 56.000000 15.070458 23.000000
21.492209 -5.991669 1.381835 0.000000 69.000000 15.082314 13.000000
21.414598 -3.063137 3.037799 0.000000 67.000000 15.047282 4.000000
22.251328 -2.007185 3.947967 0.000000 69.000000 14.808883 1.000000
20.500728 -3.374718 2.888492 0.000000 62.000000 14.976625 10.000000
18.644179 -2.508499 3.711750 0.000000 58.000000 14.573743 27.000000
19.151877 -6.280242 1.365406 0.000000 48.000000 14.827955 14.000000
19.778441 -3.957371 2.805063 0.000000 33.000000 14.727931 10.000000
20.116570 -6.107608 1.194677 0.000000 71.000000 15.113824 13.000000
20.210711 -2.063325 4.251490 0.000000 40.000000 14.403935 0.000000
24.174334 -6.269950 1.739825 0.000000 66.000000 14.783083 15.000000
23.983429 -5.707899 1.742664 0.000000 61.000000 15.041811 16.000000
20.480238 -3.750930 2.614845 0.000000 50.000000 15.032659 10.000000
20.752897 -4.298095 2.572206 0.000000 75.000000 14.820411 25.000000
22.969812 -4.984699 2.752213 0.000000 47.000000 14.453567 0.000000
22.738498 -4.907565 2.766609 0.000000 51.000000 14.465516 0.000000
18.394672 -6.976453 1.359490 0.000000 46.000000 14.454713 0.000000
18.994949 -3.172991 3.262831 0.000000 38.000000 14.664011 30.000000
23.993998 -2.182568 4.054078 0.000000 39.000000 14.727586 2.000000
21.637113 -2.022440 4.091200 0.000000 34.000000 14.642473 1.000000
23.502450 -4.176861 2.439946 0.000000 48.000000 15.146350 22.000000
23.826175 -6.737323 1.404151 0.000000 57.000000 14.831141 5.000000
24.128546 -2.311512 4.219657 0.000000 41.000000 14.528020 3.000000
22.653857 -4.077682 2.237455 0.000000 74.000000 15.324356 23.000000
22.806207 -3.590733 3.179506 0.000000 65.000000 14.745218 12.000000
22.720869 -4.130446 2.270327 0.000000 51.000000 15.273827 23.000000
19.212714 -2.520341 3.562607 0.000000 42.000000 14.729695 27.000000
20.686902 -4.864784 1.912862 0.000000 52.000000 15.118788 9.000000
21.902506 -4.789089 1.926068 0.000000 56.000000 15.210952 18.000000
19.657496 -6.300958 1.398063 0.000000 52.000000 14.817320 14.000000
22.259165 -1.628841 4.097452 0.000000 48.000000 14.861650 1.000000
18.560808 -1.968618 4.080506 0.000000 42.000000 14.508020 21.000000
21.372450 -3.758680 2.640540 0.000000 52.000000 15.055717 10.000000
20.511504 -6.019266 1.353584 0.000000 59.000000 15.039516 13.000000
19.420311 -3.019464 3.507743 0.000000 51.000000 14.547763 30.000000
22.472135 -3.364839 3.239079 0.000000 37.000000 14.783951 12.000000
19.222074 -3.133304 3.481037 0.000000 44.000000 14.505111 30.000000
23.439184 -4.230310 2.630428 0.000000 64.000000 14.950609 22.000000
22.079004 -5.711406 1.990176 0.000000 45.000000 14.718759 29.000000
19.872681 -1.479112 4.522655 0.000000 49.000000 14.430844 0.000000
19.951939 -4.354032 3.036315 0.000000 24.000000 14.343703 0.000000
22.890123 -4.367891 2.494700 0.000000 47.000000 14.972354 23.000000
20.886201 -5.979985 1.318521 0.000000 53.000000 15.109822 13.000000
21.261620 -4.032492 2.697419 0.000000 57.000000 14.867522 10.000000
22.337686 -6.089384 1.851911 0.000000 73.000000 14.671080 15.000000
19.620236 -5.581316 1.932931 0.000000 76.000000 14.695938 19.000000
22.705755 -4.016882 3.274508 0.000000 54.000000 14.450640 0.000000
21.157010 -4.232868 2.172551 0.000000 51.000000 15.223397 24.000000
20.149845 -1.617685 4.593302 0.000000 42.000000 14.317428 0.000000
20.088445 -1.750197 4.488421 0.000000 41.000000 14.341595 0.000000
19.964378 -1.851651 4.294947 0.000000 59.000000 14.454715 0.000000
23.475642 -4.251809 2.542533 0.000000 57.000000 15.019013 22.000000
18.354474 -6.306501 1.163647 0.000000 65.000000 14.947498 7.000000
18.635965 -4.523868 2.773132 0.000000 36.000000 14.418864 0.000000
19.868653 -2.279891 4.065600 0.000000 56.000000 14.442740 0.000000
18.535541 -2.395022 3.920531 0.000000 53.000000 14.440219 0.000000
19.781183 -2.827948 3.906333 0.000000 28.000000 14.312069 0.000000
19.170973 -6.185584 1.557431 0.000000 46.000000 14.707020 14.000000
20.678313 -5.112390 1.996596 0.000000 61.000000 14.925448 9.000000
19.632925 -5.658691 1.669311 0.000000 56.000000 14.889529 19.000000
19.686914 -5.768999 1.962494 0.000000 55.000000 14.583050 19.000000
19.604348 -4.260036 3.143490 0.000000 19.000000 14.276333 0.000000
20.409506 -2.064222 4.261805 0.000000 37.000000 14.405464 0.000000
19.108918 -2.143285 4.107255 0.000000 46.000000 14.430459 0.000000
21.228048 -2.889498 3.509751 0.000000 21.000000 14.708636 4.000000
18.377012 -4.564705 2.692818 0.000000 45.000000 14.454988 0.000000
20.375379 -6.043951 1.212364 0.000000 75.000000 15.143436 13.000000
20.717409 -4.042894 2.891184 0.000000 42.000000 14.663178 10.000000
18.872519 -2.448819 3.652485 0.000000 46.000000 14.666977 27.000000
20.862597 -3.582570 2.644179 0.000000 75.000000 15.109540 10.000000
19.461357 -4.142536 2.419667 0.000000 63.000000 14.957587 26.000000
23.914777 -3.627481 2.902610 0.000000 80.000000 15.030544 11.000000
18.907646 -6.017067 1.084419 0.000000 38.000000 15.187187 7.000000
17.986913 -3.479722 2.610318 0.000000 78.000000 15.030104 26.000000
22.793443 -4.005915 3.035811 0.000000 65.000000 14.669311 23.000000
18.810857 -1.564493 4.157162 0.000000 75.000000 14.650246 21.000000
22.710667 -4.197678 3.268460 0.000000 46.000000 14.368782 0.000000
22.477563 -4.186355 3.267806 0.000000 43.000000 14.361959 0.000000
21.870182 -4.164067 2.445475 0.000000 39.000000 15.057601 23.000000
21.954807 -3.958265 3.062047 0.000000 54.000000 14.623134 10.000000
19.483587 -3.107273 3.324434 0.000000 47.000000 14.668941 30.000000
18.140115 -6.046465 1.698592 0.000000 59.000000 14.594059 7.000000
23.765333 -5.312959 2.388129 0.000000 55.000000 14.656837 16.000000
20.617295 -6.702266 1.246257 0.000000 53.000000 14.808893 8.000000
23.930012 -3.351713 3.565414 0.000000 59.000000 14.585685 11.000000
19.255796 -6.142058 1.402741 0.000000 61.000000 14.867885 14.000000
20.592120 -3.992353 2.775615 0.000000 64.000000 14.781660 10.000000
23.876172 -4.259087 2.689477 0.000000 67.000000 14.909233 22.000000
18.597007 -1.872871 4.050630 0.000000 64.000000 14.582411 21.000000
18.444829 -4.597006 2.656351 0.000000 49.000000 14.474972 0.000000
24.089738 -2.894057 3.047173 0.000000 14.000000 15.268514 11.000000
19.021578 -5.204289 1.964529 0.000000 54.000000 14.817575 19.000000
24.005899 -2.426053 4.284404 0.000000 29.000000 14.409306 0.000000
19.341245 -2.977435 3.763858 0.000000 52.000000 14.339975 0.000000
18.039538 -2.960548 3.700641 0.000000 43.000000 14.331510 0.000000
18.349132 -2.990743 3.454048 0.000000 50.000000 14.549427 28.000000
18.282353 -4.876171 2.226529 0.000000 80.000000 14.706525 20.000000
23.414493 -5.582003 2.038566 0.000000 57.000000 14.812772 16.000000
21.702233 -5.180847 2.447889 0.000000 58.000000 14.554619 18.000000
18.890208 -2.145637 4.057312 0.000000 43.000000 14.460879 0.000000
18.595922 -1.556187 4.483554 0.000000 51.000000 14.357259 0.000000
24.095334 -3.290886 3.246094 0.000000 57.000000 14.903181 11.000000
21.180209 -4.078795 2.372968 0.000000 74.000000 15.124085 24.000000
21.300755 -2.898125 3.114768 0.000000 69.000000 15.053539 4.000000
21.309367 -5.893127 1.229704 0.000000 64.000000 15.252768 13.000000
23.109929 -4.480924 2.615419 0.000000 56.000000 14.824376 22.000000
22.397149 -4.128525 2.267075 0.000000 41.000000 15.259727 23.000000
22.005824 -4.752907 2.144939 0.000000 62.000000 15.042942 18.000000
20.758058 -4.871962 1.831132 0.000000 69.000000 15.190645 9.000000
21.359116 -3.019316 3.670925 0.000000 45.000000 14.512303 4.000000
21.239838 -6.317796 1.289598 0.000000 56.000000 14.991283 13.000000
24.013612 -3.059555 3.959662 0.000000 57.000000 14.387137 0.000000
18.595698 -1.711120 4.125629 0.000000 64.000000 14.595024 21.000000
20.183461 -6.153645 1.163657 0.000000 78.000000 15.122357 13.000000
21.294399 -6.034155 1.370773 0.000000 49.000000 15.060517 13.000000
23.045261 -2.803416 4.075689 0.000000 42.000000 14.356162 0.000000
23.233884 -2.710885 4.119528 0.000000 39.000000 14.373014 0.000000
21.199224 -3.650927 2.661387 0.000000 75.000000 15.080039 10.000000
22.608324 -1.518984 4.457495 0.000000 64.000000 14.619503 1.000000
21.234707 -3.509792 3.310286 0.000000 46.000000 14.583352 4.000000
20.077740 -5.626949 2.023805 0.000000 60.000000 14.619741 17.000000
22.147584 -6.698780 1.120614 0.000000 77.000000 15.004816 6.000000
20.419171 -4.315662 2.344554 0.000000 59.000000 14.992374 25.000000
21.673475 -3.549773 2.795399 0.000000 64.000000 15.038052 10.000000
19.210764 -3.058924 3.595087 0.000000 42.000000 14.440812 0.000000
19.279532 -3.306663 3.408470 0.000000 58.000000 14.487860 0.000000
19.664967 -2.807427 3.791988 0.000000 41.000000 14.415467 0.000000
18.533118 -4.362370 2.947412 0.000000 38.000000 14.339017 0.000000
20.217140 -3.701156 2.567946 0.000000 71.000000 15.083172 10.000000
18.587186 -4.554302 2.692278 0.000000 48.000000 14.472091 0.000000
20.837994 -2.560592 3.987957 0.000000 44.000000 14.428362 0.000000
20.950702 -6.094167 1.995162 0.000000 52.000000 14.467058 0.000000
22.046819 -4.828891 1.792682 0.000000 67.000000 15.316202 18.000000
22.527602 -6.155318 1.958153 0.000000 58.000000 14.556871 15.000000
23.825943 -1.599637 4.544198 0.000000 51.000000 14.571978 2.000000
23.564481 -3.232614 3.785945 0.000000 45.000000 14.430433 0.000000
24.018889 -5.398663 1.621521 0.000000 63.000000 15.299112 16.000000
23.581851 -3.290924 3.694373 0.000000 60.000000 14.483197 0.000000
22.853606 -1.351349 4.177912 0.000000 63.000000 14.958339 1.000000
22.228309 -3.533724 3.533221 0.000000 42.000000 14.431872 0.000000
21.399841 -5.562578 1.956152 0.000000 61.000000 14.782949 17.000000
23.017394 -3.899847 3.147675 0.000000 51.000000 14.635230 12.000000
24.187441 -3.276625 3.131226 0.000000 39.000000 15.015510 11.000000
21.742957 -6.168446 1.372121 0.000000 37.000000 15.019172 15.000000
23.529611 -1.688109 3.891783 0.000000 46.000000 15.082800 2.000000
21.296311 -6.848773 1.634023 0.000000 37.000000 14.436786 0.000000
22.546535 -6.752155 1.353563 0.000000 46.000000 14.797527 6.000000
19.547816 -6.073957 1.896253 0.000000 46.000000 14.485795 0.000000
20.965366 -6.118903 2.006671 0.000000 51.000000 14.445854 0.000000
24.127987 -2.379658 3.721207 0.000000 74.000000 14.930490 3.000000
20.384165 -3.459650 2.549069 0.000000 74.000000 15.225649 10.000000
18.687384 -4.532323 2.723828 0.000000 51.000000 14.460687 0.000000
24.069096 -3.028237 3.229606 0.000000 77.000000 15.043125 11.000000
18.552433 -4.316070 2.899559 0.000000 43.000000 14.404273 0.000000
21.915556 -2.859653 4.053189 0.000000 28.000000 14.286266 0.000000
19.079839 -3.405374 3.399280 0.000000 50.000000 14.437139 0.000000
20.979058 -3.187338 3.027071 0.000000 69.000000 14.972562 4.000000
21.514730 -1.666956 3.933371 0.000000 66.000000 14.945470 1.000000
18.657150 -3.503916 2.929437 0.000000 44.000000 14.776620 26.000000
19.982048 -2.018645 4.246943 0.000000 29.000000 14.416887 0.000000
19.283940 -2.539695 3.670377 0.000000 59.000000 14.630120 27.000000
21.915869 -6.130406 1.624879 0.000000 49.000000 14.826298 15.000000
19.940628 -5.016980 2.132596 0.000000 51.000000 14.812046 9.000000
22.817123 -3.932318 2.991543 0.000000 69.000000 14.744874 12.000000
19.894090 -2.477863 3.703083 0.000000 55.000000 14.665124 27.000000
22.969687 -3.577849 2.951292 0.000000 71.000000 14.959841 12.000000
22.796468 -5.699277 1.963721 0.000000 73.000000 14.787340 29.000000
19.930155 -3.268365 3.466959 0.000000 58.000000 14.491196 0.000000
20.390049 -5.420063 2.116120 0.000000 35.000000 14.656362 9.000000
21.147584 -2.913201 2.925087 0.000000 80.000000 15.203501 4.000000
22.462603 -6.214515 1.481364 0.000000 68.000000 14.941189 15.000000
22.003516 -5.170153 2.020729 0.000000 48.000000 14.949591 18.000000
20.762187 -2.825023 3.888477 0.000000 58.000000 14.383235 0.000000
19.194008 -3.464628 3.163658 0.000000 37.000000 14.620634 26.000000
20.931962 -2.731667 3.981436 0.000000 40.000000 14.356534 0.000000
23.756158 -5.163941 2.257672 0.000000 50.000000 14.842348 16.000000
21.405117 -3.460614 2.562094 0.000000 57.000000 15.270162 10.000000
19.376882 -3.675935 3.085818 0.000000 55.000000 14.596565 26.000000
21.165102 -2.413727 4.100313 0.000000 40.000000 14.419272 0.000000
23.059976 -2.269691 4.344285 0.000000 43.000000 14.380377 0.000000
18.983794 -4.017399 2.793435 0.000000 41.000000 14.665200 26.000000
23.035957 -5.026288 2.619964 0.000000 59.000000 14.552644 18.000000
19.750105 -6.264506 1.202739 0.000000 69.000000 15.010693 14.000000
20.604574 -4.627771 2.223848 0.000000 70.000000 14.957157 9.000000
20.794735 -4.210914 2.460470 0.000000 49.000000 14.962485 25.000000
20.628346 -4.138530 2.508218 0.000000 54.000000 14.946584 25.000000
17.942235 -2.106575 4.056797 0.000000 46.000000 14.427886 0.000000
24.171945 -6.033857 1.953211 0.000000 58.000000 14.710684 16.000000
22.499624 -2.415758 4.197723 0.000000 39.000000 14.406860 0.000000
22.678080 -3.969553 3.131758 0.000000 67.000000 14.596702 12.000000
23.920806 -6.165587 1.766692 0.000000 50.000000 14.796075 15.000000
19.070130 -3.164459 3.510091 0.000000 40.000000 14.456277 0.000000
19.684006 -5.732979 1.845700 0.000000 66.000000 14.702336 19.000000
18.645771 -6.321720 1.198262 0.000000 49.000000 14.925981 7.000000
22.953373 -1.387912 4.539533 0.000000 46.000000 14.630253 1.000000
20.008096 -4.792912 2.557394 0.000000 51.000000 14.552998 25.000000
21.872206 -1.613304 3.834203 0.000000 65.000000 15.077777 1.000000
21.890197 -4.872348 1.992850 0.000000 70.000000 15.111677 18.000000
19.196869 -4.742284 2.671039 0.000000 53.000000 14.433414 0.000000
18.078775 -6.299504 1.655030 0.000000 45.000000 14.506387 7.000000
20.989205 -4.465360 2.445744 0.000000 63.000000 14.863063 24.000000
19.200473 -4.045036 2.286616 0.000000 79.000000 15.106560 26.000000
23.003841 -6.156097 1.771715 0.000000 67.000000 14.745658 15.000000
22.411442 -4.132311 2.462253 0.000000 70.000000 15.088176 23.000000
19.879512 -1.748591 4.518649 0.000000 26.000000 14.304430 0.000000
23.406602 -6.863001 1.667833 0.000000 25.000000 14.516862 6.000000
20.552315 -4.090440 2.682948 0.000000 54.000000 14.812993 25.000000
22.323549 -3.538527 3.132578 0.000000 56.000000 14.784813 12.000000
23.918819 -3.508488 2.887254 0.000000 36.000000 15.101714 11.000000
23.594898 -5.449366 2.116163 0.000000 69.000000 14.819070 16.000000
21.648633 -2.586232 4.065953 0.000000 41.000000 14.392576 0.000000
21.149140 -5.859099 1.349184 0.000000 72.000000 15.155997 13.000000
23.213705 -2.449516 4.228897 0.000000 46.000000 14.402723 0.000000
20.980575 -4.222149 2.447111 0.000000 44.000000 14.978983 24.000000
23.864949 -2.865820 3.198146 0.000000 82.000000 15.137866 11.000000
20.149709 -6.416628 1.178163 0.000000 69.000000 14.980672 13.000000
21.161686 -4.112033 2.133521 0.000000 50.000000 15.316175 24.000000
19.010869 -3.893754 2.631145 0.000000 67.000000 14.868254 26.000000
22.493662 -2.836417 4.093679 0.000000 38.000000 14.294040 0.000000
21.193851 -4.085201 2.616885 0.000000 65.000000 14.908653 24.000000
20.674100 -2.988117 3.789127 0.000000 51.000000 14.386311 0.000000
19.184807 -4.090004 2.507408 0.000000 68.000000 14.891068 26.000000
19.923653 -3.279128 3.470903 0.000000 58.000000 14.482187 0.000000
22.321487 -6.836070 1.446824 0.000000 55.000000 14.663058 6.000000
20.314351 -3.420117 2.556508 0.000000 71.000000 15.234410 10.000000
19.988167 -4.042363 3.122705 0.000000 57.000000 14.420920 0.000000
18.283254 -4.231366 2.828061 0.000000 41.000000 14.492829 0.000000
19.005640 -4.695546 2.679237 0.000000 52.000000 14.438293 0.000000
22.224491 -4.147104 2.746601 0.000000 67.000000 14.822295 23.000000
18.115299 -5.545508 2.278317 0.000000 43.000000 14.328444 0.000000
19.320714 -2.947027 3.747369 0.000000 38.000000 14.367948 0.000000
18.441455 -1.583446 4.500155 0.000000 42.000000 14.321050 0.000000
18.310512 -1.729187 4.053730 0.000000 75.000000 14.633357 21.000000
20.954718 -6.115941 2.033983 0.000000 44.000000 14.422838 0.000000
18.235981 -6.429717 1.441169 0.000000 59.000000 14.638939 7.000000
21.956115 -5.679738 2.440606 0.000000 41.000000 14.333788 0.000000
23.791910 -6.206317 2.038318 0.000000 40.000000 14.531973 15.000000
21.454562 -5.270647 2.540449 0.000000 55.000000 14.416668 0.000000
18.746742 -3.275738 3.469708 0.000000 48.000000 14.419902 0.000000
19.663849 -4.941981 2.588312 0.000000 46.000000 14.434912 0.000000
19.397062 -3.927378 2.753419 0.000000 40.000000 14.766495 26.000000
23.131732 -4.916796 2.574015 0.000000 51.000000 14.651011 18.000000
21.683317 -1.594193 4.177693 0.000000 31.000000 14.776515 1.000000
20.603222 -3.419894 2.767090 0.000000 74.000000 15.066498 10.000000
22.477438 -4.136337 2.362230 0.000000 62.000000 15.177254 23.000000
18.201885 -5.567678 2.304289 0.000000 42.000000 14.299815 0.000000
23.822370 -4.706170 2.891381 0.000000 42.000000 14.513718 22.000000
20.196211 -4.790540 2.425172 0.000000 60.000000 14.680039 9.000000
19.165866 -4.757340 2.651940 0.000000 60.000000 14.441108 0.000000
18.397151 -4.441981 2.904099 0.000000 40.000000 14.330859 0.000000
19.896088 -4.113977 3.014977 0.000000 57.000000 14.475325 0.000000
22.389789 -4.077149 2.415402 0.000000 27.000000 15.154581 23.000000
18.324303 -2.201475 3.902452 0.000000 56.000000 14.537930 21.000000
23.733252 -5.461140 1.988845 0.000000 80.000000 14.932240 16.000000
18.758908 -3.839418 2.599288 0.000000 59.000000 14.908446 26.000000
18.692005 -6.046507 1.152870 0.000000 49.000000 15.101250 7.000000
18.483199 -1.821531 4.116942 0.000000 54.000000 14.543020 21.000000
18.008804 -5.749812 2.107175 0.000000 33.000000 14.373297 0.000000
20.479124 -6.671558 1.339958 0.000000 54.000000 14.734254 8.000000
20.406256 -4.663407 2.501641 0.000000 53.000000 14.686298 25.000000
21.560339 -2.452793 4.150374 0.000000 46.000000 14.378468 0.000000
18.644106 -3.058918 3.171441 0.000000 68.000000 14.779635 28.000000
20.212628 -2.320078 4.114859 0.000000 44.000000 14.399265 0.000000
18.454474 -3.029054 3.458564 0.000000 48.000000 14.532774 28.000000
20.302449 -2.189532 4.194079 0.000000 40.000000 14.398134 0.000000
19.422516 -1.655385 4.530794 0.000000 32.000000 14.313657 0.000000
19.523290 -2.409361 3.681580 0.000000 70.000000 14.696561 27.000000
20.862064 -5.817751 1.868807 0.000000 72.000000 14.706194 17.000000
23.533433 -1.728695 4.023305 0.000000 58.000000 14.948489 2.000000
21.707269 -4.645719 2.689626 0.000000 67.000000 14.602443 23.000000
20.566427 -4.778768 2.248242 0.000000 47.000000 14.860735 9.000000
18.757870 -3.521149 3.330248 0.000000 48.000000 14.423697 0.000000
21.845945 -2.068021 3.998621 0.000000 35.000000 14.712840 1.000000
20.277705 -5.502840 1.643047 0.000000 42.000000 15.023419 17.000000
23.342372 -4.565885 2.617963 0.000000 36.000000 14.793908 22.000000
22.781002 -4.014751 3.032295 0.000000 58.000000 14.667423 23.000000
23.528947 -2.373380 3.642493 0.000000 76.000000 14.969223 3.000000
24.059917 -3.058805 3.301021 0.000000 73.000000 14.965450 11.000000
20.675413 -3.435718 2.942874 0.000000 57.000000 14.909266 10.000000
21.418996 -1.681055 4.734686 0.000000 38.000000 14.233334 0.000000
21.217033 -1.772625 4.593419 0.000000 43.000000 14.301325 0.000000
20.714113 -2.085815 4.273746 0.000000 45.000000 14.401407 0.000000
22.174659 -4.159350 2.681815 0.000000 63.000000 14.870222 23.000000
21.892819 -2.163954 4.235355 0.000000 49.000000 14.462233 0.000000
23.203356 -3.668713 3.276095 0.000000 42.000000 14.645058 11.000000
19.102547 -3.574133 2.483460 0.000000 63.000000 15.156866 26.000000
19.265808 -3.916700 2.410534 0.000000 43.000000 15.063960 26.000000
21.471815 -3.432853 3.322248 0.000000 54.000000 14.623190 4.000000
22.149934 -5.648399 1.858949 0.000000 43.000000 14.867779 29.000000
22.726626 -4.004879 2.996051 0.000000 40.000000 14.700858 12.000000
19.954349 -2.968607 3.929317 0.000000 40.000000 14.233542 0.000000
23.439004 -1.757544 3.975156 0.000000 49.000000 14.971392 2.000000
20.690620 -3.404582 3.541706 0.000000 45.000000 14.402015 0.000000
22.568679 -4.184497 2.875492 0.000000 60.000000 14.710616 23.000000
20.543216 -3.502536 3.419156 0.000000 52.000000 14.453579 0.000000
18.657495 -4.335396 2.946144 0.000000 51.000000 14.360032 0.000000
20.942739 -3.722704 2.695139 0.000000 53.000000 15.001692 10.000000
22.333776 -5.024297 1.945617 0.000000 65.000000 15.103960 18.000000
19.517888 -6.007909 1.173028 0.000000 49.000000 15.147892 14.000000
20.292284 -6.639723 1.021814 0.000000 53.000000 15.017266 8.000000
20.432550 -3.471291 2.799934 0.000000 68.000000 15.003534 10.000000
18.727317 -1.608030 4.246401 0.000000 63.000000 14.546625 21.000000
19.682686 -2.591488 3.878878 0.000000 45.000000 14.444942 0.000000
18.004779 -5.442321 2.335426 0.000000 38.000000 14.322342 0.000000
18.715337 -6.825696 1.609052 0.000000 42.000000 14.327284 0.000000
22.546296 -4.318709 2.191630 0.000000 67.000000 15.241918 23.000000
19.447046 -3.061057 3.485735 0.000000 55.000000 14.548355 30.000000
22.894426 -5.978622 2.183227 0.000000 44.000000 14.465925 0.000000
18.492934 -3.733130 2.417594 0.000000 49.000000 15.103882 26.000000
21.442799 -6.174695 1.682421 0.000000 52.000000 14.728502 13.000000
18.689813 -6.199026 1.232998 0.000000 66.000000 14.957387 7.000000
21.200247 -5.394580 1.942593 0.000000 58.000000 14.865002 17.000000
18.880588 -4.806281 2.135803 0.000000 70.000000 14.852599 20.000000
23.872544 -6.656540 1.809540 0.000000 67.000000 14.518609 5.000000
18.150660 -4.693914 2.582829 0.000000 53.000000 14.476109 0.000000
22.591571 -4.766966 2.429034 0.000000 65.000000 14.820291 23.000000
18.213045 -5.488551 2.351560 0.000000 36.000000 14.297392 0.000000
18.793102 -1.838460 4.088349 0.000000 63.000000 14.576921 21.000000
18.562851 -4.699515 2.665253 0.000000 51.000000 14.424148 0.000000
21.481943 -4.477348 2.546455 0.000000 50.000000 14.796485 24.000000
18.749381 -4.496254 2.891194 0.000000 39.000000 14.335335 0.000000
19.076100 -3.556957 3.328703 0.000000 53.000000 14.425300 0.000000
20.460151 -3.472717 3.480904 0.000000 46.000000 14.409467 0.000000
19.135505 -3.435380 3.422330 0.000000 44.000000 14.405567 0.000000
20.497262 -3.324954 3.542540 0.000000 54.000000 14.429112 0.000000
24.065262 -3.576367 2.881400 0.000000 75.000000 15.082093 11.000000
20.583537 -3.207856 3.670539 0.000000 41.000000 14.378670 0.000000
23.504329 -1.473579 4.063130 0.000000 77.000000 15.035437 2.000000
20.635150 -3.069029 3.757371 0.000000 50.000000 14.372783 0.000000
20.427689 -6.675464 0.971485 0.000000 59.000000 15.051428 8.000000
22.009608 -4.250250 2.397819 0.000000 64.000000 15.065262 23.000000
20.528087 -5.535399 1.856123 0.000000 62.000000 14.835354 17.000000
24.169657 -1.783437 4.069806 0.000000 49.000000 14.916519 2.000000
22.140550 -3.519643 3.159200 0.000000 54.000000 14.760583 10.000000
24.091704 -4.233779 2.456135 0.000000 58.000000 15.137216 22.000000
19.326854 -6.293639 1.823347 0.000000 45.000000 14.431076 0.000000
20.826227 -2.349176 4.155756 0.000000 49.000000 14.383340 0.000000
21.594205 -2.986501 3.456836 0.000000 45.000000 14.728176 4.000000
18.861072 -2.191502 4.081882 0.000000 33.000000 14.415631 0.000000
19.027596 -3.949278 2.677259 0.000000 47.000000 14.802046 26.000000
19.298758 -3.619319 2.770529 0.000000 69.000000 14.895065 26.000000
19.482433 -2.073557 4.194558 0.000000 46.000000 14.408522 0.000000
19.475900 -5.000945 2.198163 0.000000 62.000000 14.736865 20.000000
22.412317 -3.170754 3.390197 0.000000 54.000000 14.742469 12.000000
22.626952 -3.034851 3.501777 0.000000 62.000000 14.722548 12.000000
19.525682 -1.796276 4.353078 0.000000 40.000000 14.406487 0.000000
21.055976 -1.665551 4.687694 0.000000 45.000000 14.261844 0.000000
18.568642 -6.328856 1.270914 0.000000 50.000000 14.854803 7.000000
22.138787 -6.194965 1.408549 0.000000 61.000000 14.996377 15.000000
19.931363 -4.070166 3.077202 0.000000 63.000000 14.444094 0.000000
23.999229 -4.752699 2.044086 0.000000 40.000000 15.241187 16.000000
21.847600 -4.711544 2.746358 0.000000 64.000000 14.528802 23.000000
19.862890 -1.782910 4.434702 0.000000 36.000000 14.360257 0.000000
19.887952 -2.288568 3.651392 0.000000 69.000000 14.801465 27.000000
23.002359 -4.119569 2.983329 0.000000 66.000000 14.671741 23.000000
21.388578 -2.856584 3.137172 0.000000 48.000000 15.058899 4.000000
22.821896 -1.407099 3.856282 0.000000 67.000000 15.210612 1.000000
24.056980 -6.121683 1.715756 0.000000 67.000000 14.869318 15.000000
21.495402 -3.895657 2.643546 0.000000 52.000000 14.993650 10.000000
20.977360 -2.193743 4.240703 0.000000 47.000000 14.392623 0.000000
20.896072 -3.693706 2.607553 0.000000 72.000000 15.089651 10.000000
20.914858 -2.335172 4.160007 0.000000 52.000000 14.391290 0.000000
20.105613 -5.403593 1.844225 0.000000 75.000000 14.886153 17.000000
19.170935 -4.414212 2.436645 0.000000 70.000000 14.795370 26.000000
23.854050 -3.457548 3.072006 0.000000 86.000000 14.961367 11.000000
23.860588 -6.167317 1.746079 0.000000 38.000000 14.809922 15.000000
18.943886 -5.826155 1.579039 0.000000 37.000000 14.849388 19.000000
19.340887 -3.019077 3.737434 0.000000 53.000000 14.342905 0.000000
23.812148 -4.101880 3.152081 0.000000 69.000000 14.577572 22.000000
20.974172 -5.345229 2.320450 0.000000 46.000000 14.546284 17.000000
21.823799 -4.757119 2.732683 0.000000 49.000000 14.517400 23.000000
18.918077 -1.976198 3.951150 0.000000 61.000000 14.637083 21.000000
20.788126 -4.245644 2.703790 0.000000 68.000000 14.732763 25.000000
21.006091 -6.873348 1.534067 0.000000 50.000000 14.496206 0.000000
21.867795 -1.517145 3.943830 0.000000 53.000000 15.028255 1.000000
21.691411 -5.179865 2.418167 0.000000 43.000000 14.580462 18.000000
23.520253 -3.669598 3.577585 0.000000 34.000000 14.398739 0.000000
21.873456 -1.420538 3.778419 0.000000 69.000000 15.219780 1.000000
19.401700 -5.870423 1.731189 0.000000 50.000000 14.720337 19.000000
23.750801 -5.255262 2.133665 0.000000 77.000000 14.906233 16.000000
24.231338 -4.389682 2.493646 0.000000 55.000000 15.036777 22.000000
22.042443 -4.455653 2.252022 0.000000 48.000000 15.095134 23.000000
21.960732 -3.560684 3.136214 0.000000 67.000000 14.750895 10.000000
23.847960 -3.602566 2.897748 0.000000 54.000000 15.043149 11.000000
18.639769 -5.287118 1.754481 0.000000 45.000000 14.939951 19.000000
21.928866 -4.027605 2.382441 0.000000 44.000000 15.181886 23.000000
20.940743 -3.230380 2.999481 0.000000 74.000000 14.973739 4.000000
23.046023 -3.890101 3.120646 0.000000 59.000000 14.665136 12.000000
23.006029 -3.994360 2.918695 0.000000 82.000000 14.788946 23.000000
19.824295 -4.291069 2.226559 0.000000 66.000000 15.074508 25.000000
20.381514 -4.835544 2.710963 0.000000 47.000000 14.418840 0.000000
17.884032 -1.595598 4.477600 0.000000 36.000000 14.304108 0.000000
21.369099 -5.729298 2.151069 0.000000 48.000000 14.530363 17.000000
23.447416 -3.703191 3.068697 0.000000 66.000000 14.823045 11.000000
21.281318 -3.752894 2.731986 0.000000 51.000000 14.973596 10.000000
22.347019 -3.265526 3.633706 0.000000 31.000000 14.480311 0.000000
23.329663 -3.569210 2.950519 0.000000 63.000000 14.984564 11.000000
20.894794 -4.021536 2.389805 0.000000 55.000000 15.121305 24.000000
19.020060 -3.151396 3.654653 0.000000 38.000000 14.333539 0.000000
18.940031 -3.857966 2.591004 0.000000 61.000000 14.916714 26.000000
17.959973 -2.122738 4.017195 0.000000 43.000000 14.455647 0.000000
20.346776 -2.915120 3.918099 0.000000 51.000000 14.290865 0.000000
23.840844 -4.131086 2.708223 0.000000 44.000000 14.952793 22.000000
20.221268 -2.721330 3.864590 0.000000 47.000000 14.424378 0.000000
21.021539 -3.445147 2.643066 0.000000 49.000000 15.185729 10.000000
24.058937 -5.369394 1.988837 0.000000 46.000000 14.994584 16.000000
19.088775 -4.237302 2.380483 0.000000 88.000000 14.925433 26.000000
22.312316 -1.492289 4.472619 0.000000 51.000000 14.602857 1.000000
18.750500 -2.175140 4.067365 0.000000 40.000000 14.430120 0.000000
18.050733 -6.960917 1.377025 0.000000 39.000000 14.427920 0.000000
23.750921 -4.423778 2.437818 0.000000 53.000000 15.042543 22.000000
20.045715 -1.794446 4.499842 0.000000 39.000000 14.307864 0.000000
20.017078 -6.000858 1.430998 0.000000 40.000000 14.953493 13.000000
18.538685 -1.625105 4.276367 0.000000 60.000000 14.501778 0.000000
22.252445 -5.133686 2.107458 0.000000 57.000000 14.905196 18.000000
19.911583 -4.090849 3.161628 0.000000 46.000000 14.359247 0.000000
23.415941 -3.413897 3.638637 0.000000 48.000000 14.463274 0.000000
19.068539 -1.686979 4.522983 0.000000 27.000000 14.285666 0.000000
19.240583 -6.161429 1.637266 0.000000 50.000000 14.652797 14.000000
20.278493 -1.652102 4.634324 0.000000 43.000000 14.272052 0.000000
20.238550 -1.778578 4.505237 0.000000 47.000000 14.321469 0.000000
19.691303 -4.234753 2.543756 0.000000 58.000000 14.817289 25.000000
21.382834 -2.810425 4.017153 0.000000 32.000000 14.312141 0.000000
19.651690 -6.764545 1.579571 0.000000 23.000000 14.434293 0.000000
22.991736 -2.676833 4.057109 0.000000 33.000000 14.430640 0.000000
18.838692 -2.285636 4.017745 0.000000 52.000000 14.424914 0.000000
20.183837 -2.317035 4.105256 0.000000 46.000000 14.407536 0.000000
20.273658 -5.441686 1.523670 0.000000 50.000000 15.157051 17.000000
20.211428 -2.742010 3.868487 0.000000 51.000000 14.410432 0.000000
24.196464 -4.289878 2.795961 0.000000 54.000000 14.819001 22.000000
23.762094 -6.005951 1.795702 0.000000 57.000000 14.839153 15.000000
22.467944 -1.594496 4.048134 0.000000 63.000000 14.932865 1.000000
20.281852 -3.043295 3.763934 0.000000 49.000000 14.359989 0.000000
18.986599 -3.156403 3.665515 0.000000 41.000000 14.319782 0.000000
20.792091 -6.787510 1.235816 0.000000 53.000000 14.786449 8.000000
19.307422 -3.480244 2.985941 0.000000 59.000000 14.774599 26.000000
20.254863 -3.281482 3.521332 0.000000 59.000000 14.455277 0.000000
21.014374 -6.020090 1.160622 0.000000 55.000000 15.235449 13.000000
19.689517 -4.296087 2.190033 0.000000 66.000000 15.096551 25.000000
23.107968 -6.763100 1.454594 0.000000 52.000000 14.734965 6.000000
18.578090 -5.311999 1.947555 0.000000 37.000000 14.755846 19.000000
22.868261 -3.722193 3.269954 0.000000 53.000000 14.606068 12.000000
19.674136 -5.485572 2.441818 0.000000 36.000000 14.300637 0.000000
23.131721 -1.517223 4.121239 0.000000 62.000000 14.943003 1.000000
21.805046 -6.903163 1.834766 0.000000 36.000000 14.263201 0.000000
21.775373 -6.952587 1.633217 0.000000 44.000000 14.413742 0.000000
18.323789 -4.366988 2.980111 0.000000 36.000000 14.296662 0.000000
19.802670 -4.906672 2.413038 0.000000 69.000000 14.612767 9.000000
20.868900 -3.180508 3.153573 0.000000 65.000000 14.859270 4.000000
22.883341 -4.230321 2.433571 0.000000 34.000000 15.091896 23.000000
18.257295 -1.797784 4.358357 0.000000 24.000000 14.331129 0.000000
22.901367 -4.118908 2.755687 0.000000 62.000000 14.865355 23.000000
20.352100 -5.406700 1.794516 0.000000 59.000000 14.941684 17.000000
22.650414 -1.380334 4.104736 0.000000 61.000000 14.997035 1.000000
19.306860 -5.471823 2.299131 0.000000 33.000000 14.411663 0.000000
23.342663 -2.212978 3.818577 0.000000 42.000000 14.882665 3.000000
22.282657 -1.714248 4.031759 0.000000 41.000000 14.879044 1.000000
21.183828 -2.895424 3.018683 0.000000 75.000000 15.132331 4.000000
23.558039 -2.281702 3.819872 0.000000 67.000000 14.860194 3.000000
20.873213 -6.791649 1.280694 0.000000 45.000000 14.749720 8.000000
19.100696 -5.022562 2.049220 0.000000 61.000000 14.835819 20.000000
21.311213 -3.722617 2.693085 0.000000 71.000000 15.023868 10.000000
23.053179 -6.714804 1.209535 0.000000 65.000000 14.969377 6.000000
18.426196 -2.910118 3.588471 0.000000 53.000000 14.475229 0.000000
23.626491 -1.722290 3.878352 0.000000 40.000000 15.083355 2.000000
19.495449 -3.739550 2.493791 0.000000 28.000000 15.089553 26.000000
19.556898 -2.684825 3.780698 0.000000 41.000000 14.478642 0.000000
18.450348 -3.741009 2.625143 0.000000 67.000000 14.916406 26.000000
19.242797 -1.865087 4.192716 0.000000 57.000000 14.497696 0.000000
18.098914 -2.460717 3.852918 0.000000 56.000000 14.443420 0.000000
20.558915 -3.994955 2.836465 0.000000 71.000000 14.725410 10.000000
18.006869 -2.347058 3.912993 0.000000 46.000000 14.440811 0.000000
22.100052 -1.980881 4.136191 0.000000 52.000000 14.648817 1.000000
18.418954 -1.958392 3.964977 0.000000 68.000000 14.606061 21.000000
19.106294 -2.119312 4.125848 0.000000 50.000000 14.425662 0.000000
19.761195 -2.344898 3.798321 0.000000 57.000000 14.638875 27.000000
22.128948 -5.451712 2.271428 0.000000 47.000000 14.601371 18.000000
18.477687 -4.619461 2.682591 0.000000 50.000000 14.443005 0.000000
18.655745 -4.583993 2.713320 0.000000 51.000000 14.443138 0.000000
18.841016 -4.553299 2.755148 0.000000 47.000000 14.431664 0.000000
20.283825 -2.314581 3.749759 0.000000 58.000000 14.724807 27.000000
22.330535 -6.796355 1.478599 0.000000 49.000000 14.655000 6.000000
21.593993 -4.467933 2.517138 0.000000 61.000000 14.832834 23.000000
18.204678 -1.655382 4.493550 0.000000 41.000000 14.278969 0.000000
23.863316 -3.094852 3.794774 0.000000 37.000000 14.505823 11.000000
18.302587 -1.861745 3.859186 0.000000 68.000000 14.738785 21.000000
22.365181 -3.439161 3.541198 0.000000 62.000000 14.478179 0.000000
23.239390 -3.145773 3.868485 0.000000 42.000000 14.382366 0.000000
21.537594 -2.744234 3.269392 0.000000 55.000000 15.005937 4.000000
23.774224 -3.024958 4.139148 0.000000 40.000000 14.233850 0.000000
23.913309 -2.901200 4.138321 0.000000 38.000000 14.302085 0.000000
21.887123 -4.820829 2.242013 0.000000 78.000000 14.918745 18.000000
19.917628 -4.399488 2.216411 0.000000 74.000000 15.036106 25.000000
22.421621 -2.025480 3.934195 0.000000 36.000000 14.821470 1.000000
23.347772 -2.246253 4.364991 0.000000 41.000000 14.389506 0.000000
18.950180 -1.490212 4.467102 0.000000 47.000000 14.423085 0.000000
19.390024 -2.223271 4.013524 0.000000 52.000000 14.489188 0.000000
21.438396 -2.990478 2.911011 0.000000 67.000000 15.194489 4.000000
18.411211 -3.746523 2.847103 0.000000 64.000000 14.717674 26.000000
22.678669 -3.534863 2.763802 0.000000 36.000000 15.128352 12.000000
22.433836 -5.737441 2.084727 0.000000 41.000000 14.643159 29.000000
20.160980 -2.322387 3.601930 0.000000 48.000000 14.843396 27.000000
18.737744 -3.541963 2.719953 0.000000 85.000000 14.945681 26.000000
20.064277 -6.541081 1.200362 0.000000 60.000000 14.896391 8.000000
18.223999 -6.037448 1.335295 0.000000 87.000000 14.920428 7.000000
19.070466 -6.259056 1.271306 0.000000 50.000000 14.915910 14.000000
24.061836 -4.842842 2.078161 0.000000 66.000000 15.171292 16.000000
18.786558 -2.235904 4.032395 0.000000 39.000000 14.433282 0.000000
18.092612 -1.916494 3.998633 0.000000 44.000000 14.578901 21.000000
20.703885 -5.619326 1.815208 0.000000 42.000000 14.840223 17.000000
19.670959 -2.296429 4.076316 0.000000 43.000000 14.414469 0.000000
19.625220 -5.093297 2.525290 0.000000 22.000000 14.414676 0.000000
21.453218 -5.108553 2.563504 0.000000 56.000000 14.474825 0.000000
21.899954 -5.515236 2.441825 0.000000 47.000000 14.409158 0.000000
19.014506 -4.244129 2.406614 0.000000 84.000000 14.895203 26.000000
22.601452 -6.118831 2.120344 0.000000 48.000000 14.436898 0.000000
19.450034 -4.317121 2.181408 0.000000 70.000000 15.080696 25.000000
22.846489 -1.440579 4.149378 0.000000 70.000000 14.939731 1.000000
19.999789 -3.340388 2.883793 0.000000 49.000000 14.969675 10.000000
21.199084 -4.177696 2.355477 0.000000 53.000000 15.092589 24.000000
21.573844 -1.686052 3.872557 0.000000 65.000000 14.992628 1.000000
20.552879 -5.946786 1.368300 0.000000 80.000000 15.063986 13.000000
20.390689 -5.970212 1.630754 0.000000 57.000000 14.814425 13.000000
21.659816 -1.629279 3.806402 0.000000 78.000000 15.082617 1.000000
19.557316 -3.750828 2.846155 0.000000 41.000000 14.779687 26.000000
24.197382 -4.252146 2.812663 0.000000 42.000000 14.822704 22.000000
21.234794 -2.378504 4.122097 0.000000 53.000000 14.421118 0.000000
18.672141 -2.014246 4.006662 0.000000 60.000000 14.556616 21.000000
20.861750 -3.435329 3.487057 0.000000 45.000000 14.444338 0.000000
22.860645 -4.020545 2.384660 0.000000 68.000000 15.234797 23.000000
21.135685 -2.970219 2.928994 0.000000 59.000000 15.171864 4.000000
22.030086 -3.513317 3.541214 0.000000 44.000000 14.423813 0.000000
18.610332 -2.869860 3.693533 0.000000 44.000000 14.413076 0.000000
21.249256 -4.339552 2.271774 0.000000 67.000000 15.090227 24.000000
20.909346 -2.910404 3.412042 0.000000 48.000000 14.766295 4.000000
23.674975 -4.016686 2.905007 0.000000 73.000000 14.827036 22.000000
18.393744 -4.521331 2.751773 0.000000 44.000000 14.425378 0.000000
19.296456 -4.737559 2.664661 0.000000 55.000000 14.446767 0.000000
19.145713 -4.818821 2.604614 0.000000 54.000000 14.451615 0.000000
18.263832 -5.480667 2.308445 0.000000 45.000000 14.341673 0.000000
18.993983 -1.722186 3.942794 0.000000 60.000000 14.771386 21.000000
19.003516 -4.017936 2.326202 0.000000 73.000000 15.074207 26.000000
22.186049 -3.667322 2.980131 0.000000 64.000000 14.848130 10.000000
19.694278 -5.772256 1.837041 0.000000 53.000000 14.691478 19.000000
19.831715 -3.553009 3.362297 0.000000 44.000000 14.439573 0.000000
21.198579 -3.419082 2.721526 0.000000 38.000000 15.139560 10.000000
18.344734 -3.405473 3.315105 0.000000 46.000000 14.470048 0.000000
22.523936 -3.770184 3.145621 0.000000 61.000000 14.672475 12.000000
19.734688 -6.815752 1.269670 0.000000 69.000000 14.684849 8.000000
19.098148 -3.039938 3.771930 0.000000 43.000000 14.289284 0.000000
19.759678 -4.404312 2.989033 0.000000 36.000000 14.350086 0.000000
18.705847 -2.791871 3.692021 0.000000 59.000000 14.457376 0.000000
23.600105 -6.131948 1.438083 0.000000 72.000000 15.081711 15.000000
18.274754 -2.537749 3.799418 0.000000 56.000000 14.462621 0.000000
22.197475 -5.627119 1.996213 0.000000 43.000000 14.760777 29.000000
21.403375 -3.648647 3.283939 0.000000 50.000000 14.548545 10.000000
18.247520 -3.449791 2.686136 0.000000 62.000000 14.992727 26.000000
23.850134 -6.643228 1.723766 0.000000 49.000000 14.598741 5.000000
19.156231 -4.908131 2.573081 0.000000 53.000000 14.436562 0.000000
24.249780 -5.797947 1.840960 0.000000 65.000000 14.927104 16.000000
21.732979 -4.251770 2.952324 0.000000 40.000000 14.564837 23.000000
18.206156 -4.820763 2.534772 0.000000 49.000000 14.459825 0.000000
18.740685 -4.480697 2.870048 0.000000 38.000000 14.360851 0.000000
18.432125 -6.371988 1.199233 0.000000 41.000000 14.889035 7.000000
20.036169 -2.503992 3.667934 0.000000 38.000000 14.691041 27.000000
20.030529 -3.489182 3.407663 0.000000 63.000000 14.441775 0.000000
18.239965 -6.183715 1.208591 0.000000 77.000000 14.961280 7.000000
18.563809 -2.345825 3.961694 0.000000 44.000000 14.429605 0.000000
20.572793 -3.070200 3.716421 0.000000 54.000000 14.404549 0.000000
20.751962 -2.984730 3.853143 0.000000 54.000000 14.336322 0.000000
22.345732 -2.898511 4.044010 0.000000 41.000000 14.299244 0.000000
24.219634 -6.000516 2.095600 0.000000 51.000000 14.605045 16.000000
21.968078 -1.929279 4.020883 0.000000 50.000000 14.767215 1.000000
20.976472 -2.739747 3.966550 0.000000 37.000000 14.368088 0.000000
22.737780 -4.249529 2.229359 0.000000 58.000000 15.252975 23.000000
20.742438 -4.201703 2.757905 0.000000 66.000000 14.704210 25.000000
21.655566 -3.370187 3.541683 0.000000 45.000000 14.471932 0.000000
21.159571 -3.428674 2.797428 0.000000 71.000000 15.066461 10.000000
22.942897 -2.220696 4.330241 0.000000 46.000000 14.409872 0.000000
21.431997 -2.230937 4.225797 0.000000 42.000000 14.412759 0.000000
20.954475 -2.839541 3.274248 0.000000 70.000000 14.923425 4.000000
21.918564 -3.571829 2.935801 0.000000 44.000000 14.918261 10.000000
18.710206 -3.480299 2.568321 0.000000 48.000000 15.106441 26.000000
22.672614 -2.977653 3.358502 0.000000 65.000000 14.877889 12.000000
22.698379 -5.924664 2.043833 0.000000 57.000000 14.602966 29.000000
21.422518 -3.721780 2.495521 0.000000 54.000000 15.203010 10.000000
23.687988 -5.045467 2.800346 0.000000 39.000000 14.421782 0.000000
18.222851 -2.358262 3.921024 0.000000 49.000000 14.440300 0.000000
18.321199 -2.453275 3.848334 0.000000 51.000000 14.463294 0.000000
18.442117 -2.560782 3.807783 0.000000 50.000000 14.453416 0.000000
24.153996 -2.295238 3.815758 0.000000 50.000000 14.890142 3.000000
18.807815 -2.873382 3.680762 0.000000 48.000000 14.433431 0.000000
18.025786 -3.959808 2.837787 0.000000 46.000000 14.601414 26.000000
19.449408 -2.588658 3.616794 0.000000 47.000000 14.662392 27.000000
19.188335 -3.176478 3.537390 0.000000 50.000000 14.433143 0.000000
18.070896 -3.323033 3.315439 0.000000 73.000000 14.494499 0.000000
19.383754 -5.518662 2.081835 0.000000 69.000000 14.583092 19.000000
19.554863 -3.451582 3.355013 0.000000 50.000000 14.479692 0.000000
19.728142 -3.572889 3.356853 0.000000 48.000000 14.428999 0.000000
21.738753 -4.775032 2.761562 0.000000 48.000000 14.478815 0.000000
19.302433 -4.283459 2.288797 0.000000 79.000000 14.995008 26.000000
