44.021828 -3.466295 32.952703 0.000000 69.000000 14.952703 22.000000
43.055626 -3.439601 32.797735 0.000000 65.000000 14.797735 23.000000
43.216244 0.272116 32.226599 0.000000 29.000000 14.226599 0.000000
41.992504 0.210887 32.201912 0.000000 25.000000 14.201912 0.000000
43.231529 0.399384 32.276124 0.000000 30.000000 14.276124 0.000000
40.992123 0.404909 32.489158 0.000000 50.000000 14.489158 18.000000
43.270016 0.548292 32.288405 0.000000 32.000000 14.288405 0.000000
39.377563 -2.417806 32.457320 0.000000 29.000000 14.457320 7.000000
43.307205 0.693409 32.307391 0.000000 47.000000 14.307391 0.000000
41.196190 0.604015 32.605404 0.000000 47.000000 14.605404 18.000000
43.268738 -3.359836 33.125751 0.000000 40.000000 15.125751 23.000000
42.124207 0.759300 32.303833 0.000000 28.000000 14.303833 0.000000
43.409550 1.001176 32.306882 0.000000 31.000000 14.306882 0.000000
42.171890 0.903931 32.310718 0.000000 36.000000 14.310718 0.000000
42.593140 -3.561706 33.024887 0.000000 52.000000 15.024887 23.000000
41.404472 -1.966309 32.556976 0.000000 63.000000 14.556976 6.000000
42.352013 1.289461 32.161388 0.000000 25.000000 14.161388 0.000000
44.636784 -3.023681 32.679176 0.000000 52.000000 14.679176 22.000000
40.909004 0.717383 32.758240 0.000000 59.000000 14.758240 18.000000
43.707809 1.670870 32.214073 0.000000 27.000000 14.214073 0.000000
42.460758 1.553491 32.209002 0.000000 27.000000 14.209002 0.000000
44.591103 1.688176 32.665092 0.000000 47.000000 14.665092 1.000000
41.317776 -1.479021 32.720641 0.000000 41.000000 14.720641 6.000000
40.772976 -3.986305 32.609599 0.000000 70.000000 14.609599 13.000000
42.564659 1.790462 32.287964 0.000000 30.000000 14.287964 0.000000
43.893211 2.074697 32.288367 0.000000 37.000000 14.288367 0.000000
42.464645 -1.742695 32.468913 0.000000 69.000000 14.468913 11.000000
41.348164 -1.441151 32.555260 0.000000 51.000000 14.555260 6.000000
40.937279 1.468925 32.516353 0.000000 39.000000 14.516353 17.000000
44.627296 -2.558738 32.276213 0.000000 47.000000 14.276213 0.000000
39.465328 1.591870 32.540712 0.000000 26.000000 14.540712 15.000000
44.657131 -2.239980 32.276808 0.000000 42.000000 14.276808 0.000000
44.683823 -2.075638 32.263249 0.000000 34.000000 14.263249 0.000000
44.700249 -1.916470 32.274772 0.000000 37.000000 14.274772 0.000000
42.572025 -3.367714 32.992698 0.000000 53.000000 14.992698 23.000000
44.877731 -1.076565 32.234826 0.000000 30.000000 14.234826 0.000000
44.445141 1.546371 32.638988 0.000000 28.000000 14.638988 1.000000
44.934723 -0.765968 32.279071 0.000000 33.000000 14.279071 0.000000
42.360607 -3.526026 32.821031 0.000000 51.000000 14.821031 23.000000
45.286106 0.268416 32.228447 0.000000 30.000000 14.228447 0.000000
42.326889 -3.316862 33.091260 0.000000 40.000000 15.091260 23.000000
45.388607 0.577669 32.282270 0.000000 33.000000 14.282270 0.000000
39.242611 -1.813631 32.283775 0.000000 31.000000 14.283775 0.000000
39.354687 -1.787756 32.296432 0.000000 33.000000 14.296432 0.000000
39.466942 -1.764979 32.305569 0.000000 42.000000 14.305569 0.000000
39.326187 -1.692950 32.305160 0.000000 29.000000 14.305160 0.000000
40.430908 -1.679148 32.360621 0.000000 42.000000 14.360621 0.000000
44.946568 -3.465063 32.903475 0.000000 28.000000 14.903475 20.000000
40.738567 1.178407 32.672982 0.000000 60.000000 14.672982 18.000000
40.195637 -0.636018 32.345305 0.000000 29.000000 14.345305 0.000000
43.404419 -0.455622 32.702447 0.000000 51.000000 14.702447 19.000000
40.942013 -1.705639 32.369460 0.000000 36.000000 14.369460 0.000000
39.962349 -1.776507 32.374754 0.000000 32.000000 14.374754 0.000000
43.303856 -3.428872 32.610920 0.000000 45.000000 14.610920 23.000000
40.507717 -1.855827 32.332394 0.000000 33.000000 14.332394 0.000000
40.653217 -1.870823 32.291521 0.000000 37.000000 14.291521 0.000000
40.786003 -1.905605 32.290709 0.000000 36.000000 14.290709 0.000000
41.890751 -1.834787 32.307630 0.000000 43.000000 14.307630 0.000000
40.083561 -3.053939 32.491285 0.000000 39.000000 14.491285 8.000000
42.088718 -0.975603 32.308743 0.000000 27.000000 14.308743 0.000000
41.052177 -1.986021 32.294967 0.000000 35.000000 14.294967 0.000000
42.168953 -1.897126 32.282688 0.000000 40.000000 14.282688 0.000000
41.175949 -2.039025 32.319389 0.000000 49.000000 14.319389 0.000000
39.291351 -0.464671 32.713793 0.000000 44.000000 14.713793 16.000000
40.314484 -0.331469 32.861487 0.000000 48.000000 14.861487 4.000000
42.441628 -1.978027 32.271793 0.000000 34.000000 14.271793 0.000000
45.276253 -3.476305 32.694921 0.000000 64.000000 14.694921 20.000000
43.619457 -2.687700 32.774640 0.000000 55.000000 14.774640 10.000000
43.139194 -1.716280 32.746685 0.000000 67.000000 14.746685 12.000000
41.720474 -2.226319 32.279066 0.000000 35.000000 14.279066 0.000000
41.847042 -2.287762 32.288317 0.000000 31.000000 14.288317 0.000000
41.977119 -2.346547 32.286315 0.000000 33.000000 14.286315 0.000000
41.096134 -1.605954 32.656863 0.000000 27.000000 14.656863 6.000000
42.243950 -2.466697 32.263615 0.000000 34.000000 14.263615 0.000000
43.960884 -3.175190 32.733156 0.000000 65.000000 14.733156 22.000000
43.279823 -3.527871 32.770762 0.000000 45.000000 14.770762 23.000000
42.656441 -2.645250 32.185384 0.000000 32.000000 14.185384 0.000000
44.922245 -3.847924 32.966493 0.000000 37.000000 14.966493 29.000000
43.933826 -2.596889 32.157186 0.000000 33.000000 14.157186 0.000000
44.062256 -2.673641 32.155843 0.000000 33.000000 14.155843 0.000000
44.188488 -2.751374 32.154119 0.000000 44.000000 14.154119 0.000000
39.272888 -3.249571 32.962121 0.000000 57.000000 14.962121 8.000000
39.222015 -1.161286 32.195135 0.000000 30.000000 14.195135 0.000000
44.757584 1.579431 32.724873 0.000000 43.000000 14.724873 1.000000
41.220985 -2.500890 32.272940 0.000000 33.000000 14.272940 0.000000
39.926384 -0.254289 32.680335 0.000000 42.000000 14.680335 4.000000
39.842693 -2.560276 32.626732 0.000000 56.000000 14.626732 7.000000
39.421646 -0.656238 32.288506 0.000000 28.000000 14.288506 0.000000
39.475739 -0.553702 32.295778 0.000000 34.000000 14.295778 0.000000
42.692848 -1.997561 32.412865 0.000000 35.000000 14.412865 11.000000
44.945839 -0.165319 32.480927 0.000000 49.000000 14.480927 3.000000
39.661110 -0.251007 32.293835 0.000000 28.000000 14.293835 0.000000
40.490646 1.864530 32.394929 0.000000 51.000000 14.394929 17.000000
42.220264 -3.371138 33.021184 0.000000 57.000000 15.021184 23.000000
39.896233 0.067502 32.231148 0.000000 26.000000 14.231148 0.000000
40.063362 0.253006 32.214510 0.000000 26.000000 14.214510 0.000000
43.274235 -2.354392 32.804272 0.000000 64.000000 14.804272 10.000000
41.473335 0.912431 32.614321 0.000000 50.000000 14.614321 18.000000
41.103523 0.099426 32.452403 0.000000 41.000000 14.452403 18.000000
44.848904 -4.039874 32.927464 0.000000 68.000000 14.927464 29.000000
40.494213 0.597822 32.300690 0.000000 35.000000 14.300690 0.000000
39.225960 -1.516314 32.275461 0.000000 31.000000 14.275461 0.000000
40.967224 1.481441 32.630260 0.000000 31.000000 14.630260 17.000000
42.199066 -0.810269 32.264451 0.000000 27.000000 14.264451 0.000000
43.200687 -2.080165 32.645252 0.000000 64.000000 14.645252 12.000000
41.746006 0.742972 32.532588 0.000000 50.000000 14.532588 18.000000
42.167519 1.293513 32.179512 0.000000 27.000000 14.179512 0.000000
42.316109 1.332581 32.138919 0.000000 28.000000 14.138919 0.000000
45.076088 -3.659335 32.636220 0.000000 55.000000 14.636220 20.000000
42.584007 1.350128 32.138161 0.000000 28.000000 14.138161 0.000000
41.071999 -3.685534 32.746037 0.000000 61.000000 14.746037 13.000000
39.554688 -2.414870 32.670261 0.000000 52.000000 14.670261 7.000000
43.249615 -4.013139 33.077655 0.000000 67.000000 15.077655 25.000000
41.212399 -0.813579 32.370135 0.000000 26.000000 14.370135 0.000000
43.797443 -4.015504 33.195145 0.000000 51.000000 15.195145 25.000000
42.100681 0.997196 32.293559 0.000000 29.000000 14.293559 0.000000
40.837643 -2.226410 32.348614 0.000000 33.000000 14.348614 0.000000
43.733486 1.189200 32.530382 0.000000 50.000000 14.530382 27.000000
42.257290 -3.248030 33.014247 0.000000 49.000000 15.014247 23.000000
42.385063 0.956624 32.258376 0.000000 27.000000 14.258376 0.000000
42.512230 0.911397 32.274852 0.000000 28.000000 14.274852 0.000000
39.756115 0.575309 32.918588 0.000000 67.000000 14.918588 15.000000
40.602791 -3.473845 32.311662 0.000000 26.000000 14.311662 0.000000
43.900326 1.122648 32.237160 0.000000 30.000000 14.237160 0.000000
43.570732 -2.506038 32.732685 0.000000 55.000000 14.732685 10.000000
43.886395 1.447222 32.471382 0.000000 76.000000 14.471382 27.000000
42.914742 0.773432 32.285044 0.000000 31.000000 14.285044 0.000000
41.932938 -4.002969 32.683979 0.000000 56.000000 14.683979 13.000000
43.045868 0.718850 32.289775 0.000000 28.000000 14.289775 0.000000
44.271889 0.943885 32.318251 0.000000 43.000000 14.318251 0.000000
40.948551 -3.724126 32.781024 0.000000 53.000000 14.781024 13.000000
44.425152 0.913023 32.283689 0.000000 35.000000 14.283689 0.000000
44.715908 1.328882 32.751263 0.000000 40.000000 14.751263 1.000000
44.357124 -3.299412 32.835304 0.000000 44.000000 14.835304 22.000000
43.442383 0.543611 32.286683 0.000000 32.000000 14.286683 0.000000
44.700584 0.807073 32.269138 0.000000 33.000000 14.269138 0.000000
43.563999 0.470424 32.302450 0.000000 34.000000 14.302450 0.000000
44.813507 0.721544 32.306374 0.000000 34.000000 14.306374 0.000000
41.221245 0.485730 32.636009 0.000000 39.000000 14.636009 18.000000
44.966805 0.676592 32.268565 0.000000 35.000000 14.268565 0.000000
43.831547 0.339372 32.280293 0.000000 28.000000 14.280293 0.000000
44.913815 -3.306037 32.948238 0.000000 60.000000 14.948238 20.000000
40.136898 1.066741 32.635675 0.000000 51.000000 14.635675 15.000000
42.332813 2.049241 32.671489 0.000000 56.000000 14.671489 30.000000
44.089821 0.190623 32.265547 0.000000 41.000000 14.265547 0.000000
45.320541 0.421464 32.327506 0.000000 37.000000 14.327506 0.000000
45.151985 -0.651732 32.249881 0.000000 31.000000 14.249881 0.000000
45.252663 -0.767711 32.263821 0.000000 29.000000 14.263821 0.000000
45.336269 -0.894895 32.300358 0.000000 32.000000 14.300358 0.000000
45.435978 -1.012041 32.307327 0.000000 37.000000 14.307327 0.000000
43.992218 -0.396001 32.486797 0.000000 51.000000 14.486797 28.000000
40.765530 -3.492341 32.296989 0.000000 37.000000 14.296989 0.000000
40.726326 -3.359806 32.297821 0.000000 35.000000 14.297821 0.000000
40.691116 -3.226244 32.301664 0.000000 34.000000 14.301664 0.000000
40.679188 -3.067647 32.238163 0.000000 27.000000 14.238163 0.000000
40.733032 1.516851 32.631305 0.000000 43.000000 14.631305 17.000000
43.412827 -2.683587 32.657475 0.000000 49.000000 14.657475 10.000000
41.800396 -2.631307 32.223685 0.000000 32.000000 14.223685 0.000000
40.609257 -2.645487 32.205697 0.000000 30.000000 14.205697 0.000000
41.757725 -2.513368 32.278893 0.000000 33.000000 14.278893 0.000000
40.554157 -2.543363 32.302256 0.000000 32.000000 14.302256 0.000000
41.737312 -2.377890 32.286358 0.000000 35.000000 14.286358 0.000000
41.757092 0.892725 32.558575 0.000000 51.000000 14.558575 18.000000
41.718906 -2.243462 32.292858 0.000000 40.000000 14.292858 0.000000
43.456001 1.457281 32.402502 0.000000 33.000000 14.402502 27.000000
45.076317 0.753409 32.981217 0.000000 55.000000 14.981217 2.000000
44.517269 1.761515 32.638606 0.000000 47.000000 14.638606 1.000000
39.685883 1.153487 32.957863 0.000000 46.000000 14.957863 15.000000
43.432526 -2.162999 32.584189 0.000000 43.000000 14.584189 10.000000
40.474998 -1.861385 32.334182 0.000000 33.000000 14.334182 0.000000
44.381050 -1.754468 32.455213 0.000000 46.000000 14.455213 26.000000
41.793877 -3.834486 32.655088 0.000000 44.000000 14.655088 13.000000
40.476425 -1.152503 32.320844 0.000000 31.000000 14.320844 0.000000
40.309727 -1.711674 32.616227 0.000000 43.000000 14.616227 5.000000
40.490799 -0.880040 32.342431 0.000000 28.000000 14.342431 0.000000
41.724964 -0.693831 32.300463 0.000000 38.000000 14.300463 0.000000
40.523323 -0.712702 32.289753 0.000000 26.000000 14.289753 0.000000
41.732342 -0.567152 32.329303 0.000000 41.000000 14.329303 0.000000
40.536648 -0.579457 32.304056 0.000000 27.000000 14.304056 0.000000
39.875034 -3.040403 32.780748 0.000000 57.000000 14.780748 8.000000
42.947502 -3.997435 32.856830 0.000000 36.000000 14.856830 25.000000
41.804768 -0.247559 32.263977 0.000000 28.000000 14.263977 0.000000
45.138714 -3.257112 32.845627 0.000000 64.000000 14.845627 20.000000
41.237541 0.933685 32.630872 0.000000 52.000000 14.630872 18.000000
40.173275 1.112628 32.627127 0.000000 47.000000 14.627127 15.000000
41.928387 0.219401 32.195990 0.000000 27.000000 14.195990 0.000000
44.967968 -0.604057 32.615803 0.000000 48.000000 14.615803 3.000000
41.941742 0.327892 32.260123 0.000000 31.000000 14.260123 0.000000
40.729557 0.287496 32.263511 0.000000 25.000000 14.263511 0.000000
41.959351 0.437189 32.318674 0.000000 30.000000 14.318674 0.000000
43.610558 -2.505404 32.695532 0.000000 54.000000 14.695532 10.000000
42.015167 0.591891 32.291645 0.000000 31.000000 14.291645 0.000000
40.799736 0.536890 32.309383 0.000000 25.000000 14.309383 0.000000
42.060345 0.726696 32.303666 0.000000 32.000000 14.303666 0.000000
44.364258 -1.586552 32.581679 0.000000 42.000000 14.581679 26.000000
43.585117 -1.784213 32.880090 0.000000 60.000000 14.880090 12.000000
42.169353 1.005298 32.296391 0.000000 36.000000 14.296391 0.000000
40.912888 0.648856 32.776177 0.000000 52.000000 14.776177 18.000000
41.481388 -1.429434 32.459303 0.000000 49.000000 14.459303 6.000000
40.112328 -3.058962 32.807974 0.000000 54.000000 14.807974 8.000000
40.179985 -1.974991 32.330081 0.000000 27.000000 14.330081 0.000000
39.950001 -2.380509 32.466286 0.000000 44.000000 14.466286 7.000000
40.017410 -3.083045 32.650832 0.000000 51.000000 14.650832 8.000000
42.994324 -3.432492 32.955202 0.000000 67.000000 14.955202 23.000000
41.370529 1.724585 32.275719 0.000000 27.000000 14.275719 0.000000
42.658379 1.940415 32.283484 0.000000 33.000000 14.283484 0.000000
41.297535 0.456727 32.672440 0.000000 55.000000 14.672440 18.000000
42.006851 1.678624 32.828135 0.000000 52.000000 14.828135 14.000000
41.514580 -1.782465 32.909657 0.000000 47.000000 14.909657 6.000000
40.364857 -1.060339 32.334112 0.000000 32.000000 14.334112 0.000000
41.148174 -3.886418 32.782728 0.000000 49.000000 14.782728 13.000000
41.378750 0.980452 32.842236 0.000000 19.000000 14.842236 18.000000
44.755024 -3.476206 32.255180 0.000000 36.000000 14.255180 0.000000
44.723797 -3.333236 32.276932 0.000000 47.000000 14.276932 0.000000
44.746147 -2.678313 32.148922 0.000000 31.000000 14.148922 0.000000
44.614902 -3.189395 32.749671 0.000000 54.000000 14.749671 22.000000
44.754566 -1.421194 32.203731 0.000000 21.000000 14.203731 0.000000
44.667599 -2.416165 32.275161 0.000000 40.000000 14.275161 0.000000
44.676197 -2.253620 32.257407 0.000000 45.000000 14.257407 0.000000
44.681690 -2.095696 32.253761 0.000000 35.000000 14.253761 0.000000
44.683281 -1.940520 32.258560 0.000000 35.000000 14.258560 0.000000
44.671173 -1.798416 32.294835 0.000000 36.000000 14.294835 0.000000
44.641537 -1.670258 32.365973 0.000000 41.000000 14.365973 0.000000
44.780884 -1.114638 32.201962 0.000000 29.000000 14.201962 0.000000
44.722111 -1.018391 32.344971 0.000000 49.000000 14.344971 0.000000
44.422588 1.517477 32.832425 0.000000 53.000000 14.832425 1.000000
44.787563 -0.823775 32.275088 0.000000 34.000000 14.275088 0.000000
43.528431 -0.919488 32.301863 0.000000 33.000000 14.301863 0.000000
45.196091 0.580815 32.522439 0.000000 41.000000 14.522439 2.000000
39.760616 -1.792283 32.516092 0.000000 43.000000 14.516092 5.000000
43.562149 -0.620734 32.342519 0.000000 30.000000 14.342519 0.000000
43.205719 -3.406261 32.884974 0.000000 61.000000 14.884974 23.000000
43.289364 -3.287999 32.961363 0.000000 55.000000 14.961363 23.000000
45.005157 0.294016 32.347360 0.000000 31.000000 14.347360 0.000000
43.805614 0.240269 32.237151 0.000000 30.000000 14.237151 0.000000
45.109993 0.512634 32.255067 0.000000 41.000000 14.255067 0.000000
43.973415 -3.409801 33.090626 0.000000 73.000000 15.090626 22.000000
44.594643 -0.685296 32.955713 0.000000 10.000000 14.955713 3.000000
43.973373 0.847655 32.320098 0.000000 39.000000 14.320098 0.000000
42.147385 -3.221203 32.588658 0.000000 53.000000 14.588658 23.000000
44.198452 1.283538 32.128432 0.000000 21.000000 14.128432 0.000000
44.270039 1.449624 32.121905 0.000000 29.000000 14.121905 0.000000
45.301079 -3.613440 32.611697 0.000000 32.000000 14.611697 20.000000
39.322121 -0.365402 32.903313 0.000000 59.000000 14.903313 16.000000
40.551098 -2.818065 32.137218 0.000000 29.000000 14.137218 0.000000
40.687511 -2.823852 32.127703 0.000000 30.000000 14.127703 0.000000
40.815327 -2.840158 32.134602 0.000000 32.000000 14.134602 0.000000
39.740391 -2.697585 32.704291 0.000000 50.000000 14.704291 7.000000
41.090778 -2.866769 32.115522 0.000000 29.000000 14.115522 0.000000
42.823399 -3.746191 33.013753 0.000000 46.000000 15.013753 25.000000
44.282578 -3.515936 32.627188 0.000000 42.000000 14.627188 22.000000
39.249752 1.107194 32.891185 0.000000 55.000000 14.891185 15.000000
40.379120 -3.001739 32.192283 0.000000 27.000000 14.192283 0.000000
41.448200 -1.457016 32.713321 0.000000 65.000000 14.713321 6.000000
40.507278 -3.037828 32.208851 0.000000 27.000000 14.208851 0.000000
44.481838 -3.357157 32.850502 0.000000 48.000000 14.850502 22.000000
40.726822 -3.164737 32.363961 0.000000 32.000000 14.363961 0.000000
41.411022 1.199597 32.545962 0.000000 34.000000 14.545962 18.000000
44.861233 -0.650350 32.805925 0.000000 53.000000 14.805925 3.000000
41.154179 -3.262656 32.278955 0.000000 34.000000 14.278955 0.000000
40.800117 -0.283069 32.293104 0.000000 31.000000 14.293104 0.000000
42.704521 -2.509647 32.623431 0.000000 46.000000 14.623431 9.000000
42.201599 -3.707887 32.274014 0.000000 43.000000 14.274014 0.000000
45.001755 1.744514 32.768083 0.000000 36.000000 14.768083 1.000000
41.196404 0.421617 32.630784 0.000000 48.000000 14.630784 18.000000
42.521030 -2.960783 32.538555 0.000000 34.000000 14.538555 23.000000
39.333321 -0.719830 32.286930 0.000000 27.000000 14.286930 0.000000
42.871517 -0.543313 32.534014 0.000000 49.000000 14.534014 19.000000
39.517376 -0.587797 32.287663 0.000000 32.000000 14.287663 0.000000
39.611576 -0.530603 32.296841 0.000000 28.000000 14.296841 0.000000
39.714527 -0.465962 32.286069 0.000000 28.000000 14.286069 0.000000
41.233406 0.912161 33.195671 0.000000 2.000000 15.195671 18.000000
39.775875 -3.376318 32.385784 0.000000 30.000000 14.385784 0.000000
40.746189 -0.042236 32.195728 0.000000 25.000000 14.195728 0.000000
43.549248 -3.706037 32.779025 0.000000 60.000000 14.779025 25.000000
43.494518 -0.358313 32.611678 0.000000 44.000000 14.611678 19.000000
39.794155 -0.112482 32.257234 0.000000 23.000000 14.257234 0.000000
40.994026 0.009716 32.180704 0.000000 27.000000 14.180704 0.000000
42.107861 1.806505 32.543184 0.000000 43.000000 14.543184 14.000000
41.182938 -0.054266 32.359217 0.000000 32.000000 14.359217 0.000000
41.696953 -0.038827 32.362078 0.000000 32.000000 14.362078 0.000000
40.695133 -0.116788 32.282177 0.000000 24.000000 14.282177 0.000000
44.513985 -0.659551 32.633207 0.000000 64.000000 14.633207 3.000000
40.844051 -0.104558 32.232553 0.000000 24.000000 14.232553 0.000000
42.036846 0.050020 32.168452 0.000000 31.000000 14.168452 0.000000
40.965389 -0.139122 32.266340 0.000000 30.000000 14.266340 0.000000
45.144848 0.916818 32.939497 0.000000 50.000000 14.939497 2.000000
41.090778 -0.172004 32.288095 0.000000 27.000000 14.288095 0.000000
39.893761 -1.787643 32.546215 0.000000 56.000000 14.546215 5.000000
42.444084 0.008215 32.153883 0.000000 28.000000 14.153883 0.000000
43.536987 -0.482485 32.609808 0.000000 44.000000 14.609808 19.000000
42.215115 -3.499924 32.750080 0.000000 69.000000 14.750080 23.000000
42.846550 -0.080054 32.160975 0.000000 30.000000 14.160975 0.000000
41.766510 -0.320890 32.269046 0.000000 29.000000 14.269046 0.000000
39.715603 -2.284215 32.906283 0.000000 57.000000 14.906283 7.000000
44.516285 -0.597895 32.606167 0.000000 60.000000 14.606167 3.000000
43.119244 -0.275567 32.635039 0.000000 42.000000 14.635039 19.000000
42.171646 -0.447734 32.253040 0.000000 30.000000 14.253040 0.000000
39.401608 -1.727405 32.512568 0.000000 40.000000 14.512568 5.000000
42.425133 -0.566036 32.275164 0.000000 36.000000 14.275164 0.000000
42.556099 -0.624419 32.278120 0.000000 39.000000 14.278120 0.000000
42.196125 -3.871172 32.285416 0.000000 32.000000 14.285416 0.000000
41.635342 -3.673759 32.634878 0.000000 70.000000 14.634878 13.000000
43.875908 -0.495469 32.246781 0.000000 38.000000 14.246781 0.000000
43.678528 -1.872112 32.296053 0.000000 32.000000 14.296053 0.000000
43.996269 -0.567335 32.267212 0.000000 41.000000 14.267212 0.000000
44.695522 -0.213138 32.873610 0.000000 46.000000 14.873610 3.000000
39.918304 1.273665 32.694534 0.000000 52.000000 14.694534 15.000000
43.077522 -0.875653 32.258533 0.000000 31.000000 14.258533 0.000000
44.264423 -0.691663 32.251713 0.000000 33.000000 14.251713 0.000000
43.171844 -0.353639 32.715351 0.000000 32.000000 14.715351 19.000000
40.217152 -2.900921 32.149343 0.000000 22.000000 14.149343 0.000000
43.295151 -1.057515 32.327020 0.000000 32.000000 14.327020 0.000000
44.066956 -3.482278 33.148561 0.000000 52.000000 15.148561 22.000000
44.313698 -3.372892 33.025486 0.000000 60.000000 15.025486 22.000000
43.940033 -3.249837 32.908614 0.000000 41.000000 14.908614 22.000000
44.723434 -1.036705 32.342109 0.000000 48.000000 14.342109 0.000000
42.103149 1.665377 32.585619 0.000000 34.000000 14.585619 14.000000
39.561958 -3.177794 32.774046 0.000000 70.000000 14.774046 8.000000
45.110836 -1.276927 32.302435 0.000000 34.000000 14.302435 0.000000
40.729919 -3.992375 32.552012 0.000000 66.000000 14.552012 13.000000
41.625751 -3.805334 32.666412 0.000000 64.000000 14.666412 13.000000
45.372017 -1.443772 32.261679 0.000000 37.000000 14.261679 0.000000
42.276966 1.694629 32.426167 0.000000 56.000000 14.426167 14.000000
45.038776 -3.347533 32.792901 0.000000 48.000000 14.792901 20.000000
40.564789 -3.103031 32.223305 0.000000 26.000000 14.223305 0.000000
44.500328 -1.931502 32.260288 0.000000 33.000000 14.260288 0.000000
44.609444 -2.033750 32.259380 0.000000 32.000000 14.259380 0.000000
42.100258 -3.981662 32.658155 0.000000 55.000000 14.658155 13.000000
44.827835 -2.244440 32.249112 0.000000 32.000000 14.249112 0.000000
43.484848 -3.184965 32.923655 0.000000 40.000000 14.923655 23.000000
44.551987 -3.232456 32.993693 0.000000 43.000000 14.993693 22.000000
43.855389 -2.375643 32.283813 0.000000 31.000000 14.283813 0.000000
39.730762 1.125947 32.907895 0.000000 44.000000 14.907895 15.000000
39.713940 -3.938467 32.343842 0.000000 32.000000 14.343842 0.000000
39.676174 -3.801792 32.311267 0.000000 30.000000 14.311267 0.000000
40.817036 -3.662156 32.301679 0.000000 37.000000 14.301679 0.000000
39.630569 -3.681101 32.320841 0.000000 33.000000 14.320841 0.000000
40.776260 -3.538655 32.304800 0.000000 43.000000 14.304800 0.000000
43.782696 1.280354 32.538796 0.000000 44.000000 14.538796 27.000000
40.742172 -3.409531 32.294009 0.000000 42.000000 14.294009 0.000000
45.067513 1.209918 32.939177 0.000000 58.000000 14.939177 2.000000
40.702744 -3.287711 32.311971 0.000000 41.000000 14.311971 0.000000
40.655159 -3.174383 32.349113 0.000000 41.000000 14.349113 0.000000
40.058891 -1.109509 32.341565 0.000000 41.000000 14.341565 0.000000
40.666199 -2.843052 32.142033 0.000000 29.000000 14.142033 0.000000
39.812172 -3.324148 32.717145 0.000000 48.000000 14.717145 8.000000
43.822227 -1.507768 32.713620 0.000000 68.000000 14.713620 12.000000
39.391041 -2.624079 32.250049 0.000000 26.000000 14.250049 0.000000
43.225735 -1.451388 32.604966 0.000000 40.000000 14.604966 12.000000
39.648315 -3.284374 32.789408 0.000000 40.000000 14.789408 8.000000
40.530281 -2.386806 32.311471 0.000000 38.000000 14.311471 0.000000
39.340504 -2.381294 32.304874 0.000000 28.000000 14.304874 0.000000
40.347034 -1.823467 33.000895 0.000000 17.000000 15.000895 5.000000
39.321728 -2.254695 32.321982 0.000000 30.000000 14.321982 0.000000
40.503044 -2.126238 32.321935 0.000000 42.000000 14.321935 0.000000
41.495518 -3.098123 32.528139 0.000000 50.000000 14.528139 24.000000
41.007919 1.135315 32.589715 0.000000 56.000000 14.589715 18.000000
39.307083 -1.980887 32.303986 0.000000 25.000000 14.303986 0.000000
41.075195 0.411446 32.732972 0.000000 47.000000 14.732972 18.000000
39.302830 -1.846975 32.296755 0.000000 25.000000 14.296755 0.000000
44.046555 -3.321352 32.652392 0.000000 50.000000 14.652392 22.000000
42.233177 -3.617883 32.741464 0.000000 42.000000 14.741464 23.000000
43.291321 -2.135716 32.619602 0.000000 58.000000 14.619602 12.000000
44.584385 -1.104577 32.259721 0.000000 27.000000 14.259721 0.000000
39.553696 -3.402988 32.745846 0.000000 62.000000 14.745846 8.000000
40.519684 -1.310420 32.267388 0.000000 42.000000 14.267388 0.000000
43.992973 -3.303620 32.796025 0.000000 60.000000 14.796025 22.000000
40.526318 -1.184230 32.277369 0.000000 35.000000 14.277369 0.000000
43.645569 -3.275101 32.831088 0.000000 51.000000 14.831088 23.000000
40.526955 -1.069318 32.316988 0.000000 34.000000 14.316988 0.000000
44.819153 -0.704222 32.606045 0.000000 33.000000 14.606045 3.000000
41.202435 -1.759903 32.719000 0.000000 69.000000 14.719000 6.000000
40.532368 -1.886252 32.366455 0.000000 36.000000 14.366455 0.000000
43.455193 -2.303268 32.780251 0.000000 47.000000 14.780251 10.000000
39.690258 -2.676201 32.756574 0.000000 63.000000 14.756574 7.000000
40.591011 -0.667382 32.293083 0.000000 32.000000 14.293083 0.000000
39.395027 -0.659666 32.293038 0.000000 23.000000 14.293038 0.000000
40.609917 -0.548933 32.320062 0.000000 30.000000 14.320062 0.000000
39.418427 -0.536582 32.305723 0.000000 27.000000 14.305723 0.000000
39.479351 0.298614 32.275971 0.000000 25.000000 14.275971 0.000000
39.447647 -0.411653 32.313979 0.000000 27.000000 14.313979 0.000000
40.678436 -0.279991 32.299767 0.000000 33.000000 14.299767 0.000000
39.485863 -0.274449 32.293575 0.000000 27.000000 14.293575 0.000000
40.729023 -0.131351 32.259529 0.000000 28.000000 14.259529 0.000000
44.732086 -3.364487 32.601747 0.000000 49.000000 14.601747 20.000000
41.692829 -3.346877 33.084640 0.000000 52.000000 15.084640 24.000000
40.826263 0.144866 32.219324 0.000000 30.000000 14.219324 0.000000
43.355328 -2.454557 32.613463 0.000000 43.000000 14.613463 10.000000
42.362492 -2.324553 32.420393 0.000000 42.000000 14.420393 9.000000
40.886921 0.336646 32.323167 0.000000 34.000000 14.323167 0.000000
44.955696 1.460586 32.588407 0.000000 30.000000 14.588407 1.000000
42.281628 -3.576105 32.539321 0.000000 76.000000 14.539321 23.000000
41.601944 1.196493 32.522923 0.000000 47.000000 14.522923 18.000000
41.101349 2.000884 32.320718 0.000000 23.000000 14.320718 0.000000
44.231689 0.291357 32.466234 0.000000 43.000000 14.466234 28.000000
41.337807 2.155832 32.286368 0.000000 25.000000 14.286368 0.000000
44.909271 2.158578 32.278669 0.000000 30.000000 14.278669 0.000000
44.329372 -4.018279 33.107550 0.000000 59.000000 15.107550 25.000000
43.249058 -3.406962 32.901672 0.000000 57.000000 14.901672 23.000000
45.456738 -3.267656 32.519040 0.000000 32.000000 14.519040 20.000000
41.396339 0.293461 32.530395 0.000000 50.000000 14.530395 18.000000
41.412571 -1.825274 32.939037 0.000000 50.000000 14.939037 6.000000
41.455048 -3.759820 32.797423 0.000000 53.000000 14.797423 13.000000
42.244835 -2.403756 32.285190 0.000000 36.000000 14.285190 0.000000
42.229214 -2.260413 32.293016 0.000000 34.000000 14.293016 0.000000
42.255600 -3.608199 32.852601 0.000000 49.000000 14.852601 23.000000
42.210064 -1.965083 32.297483 0.000000 36.000000 14.297483 0.000000
43.616508 -0.377830 32.597138 0.000000 53.000000 14.597138 19.000000
41.538033 -0.259065 32.568175 0.000000 36.000000 14.568175 0.000000
42.785538 -2.432104 32.896338 0.000000 50.000000 14.896338 9.000000
42.268078 -1.296710 32.151291 0.000000 29.000000 14.151291 0.000000
41.564693 1.462147 32.430687 0.000000 25.000000 14.430687 18.000000
39.384239 0.364094 32.755281 0.000000 60.000000 14.755281 15.000000
39.947094 -3.148314 32.421718 0.000000 51.000000 14.421718 8.000000
42.238705 -1.044021 32.259500 0.000000 31.000000 14.259500 0.000000
44.504963 -0.463758 32.743519 0.000000 38.000000 14.743519 3.000000
42.235336 -0.908095 32.299318 0.000000 30.000000 14.299318 0.000000
41.406563 -1.787086 32.812034 0.000000 39.000000 14.812034 6.000000
40.793800 1.374881 32.542098 0.000000 28.000000 14.542098 17.000000
40.504364 0.128043 32.278578 0.000000 24.000000 14.278578 0.000000
41.153610 0.039291 32.539793 0.000000 44.000000 14.539793 18.000000
43.747372 -1.813779 32.545302 0.000000 57.000000 14.545302 12.000000
42.403229 -0.065641 32.156924 0.000000 21.000000 14.156924 0.000000
43.598999 0.087345 32.303299 0.000000 28.000000 14.303299 0.000000
42.431313 0.088187 32.159797 0.000000 26.000000 14.159797 0.000000
39.622402 -1.727368 32.633329 0.000000 61.000000 14.633329 5.000000
42.453407 0.226607 32.187405 0.000000 25.000000 14.187405 0.000000
44.219753 0.078912 32.377447 0.000000 53.000000 14.377447 28.000000
42.464039 0.346943 32.251998 0.000000 31.000000 14.251998 0.000000
43.715603 0.559305 32.302174 0.000000 35.000000 14.302174 0.000000
42.495590 0.490071 32.270323 0.000000 37.000000 14.270323 0.000000
42.571301 2.130400 32.618204 0.000000 43.000000 14.618204 30.000000
43.727642 1.510310 32.541210 0.000000 51.000000 14.541210 27.000000
43.777790 0.839107 32.363362 0.000000 46.000000 14.363362 0.000000
42.585167 0.796384 32.274980 0.000000 32.000000 14.274980 0.000000
44.137218 -3.236167 32.999310 0.000000 51.000000 14.999310 22.000000
44.562687 -3.819717 32.689415 0.000000 36.000000 14.689415 29.000000
43.954929 1.235612 32.230993 0.000000 32.000000 14.230993 0.000000
42.704842 1.124501 32.237805 0.000000 27.000000 14.237805 0.000000
39.982540 -2.318522 32.810917 0.000000 43.000000 14.810917 7.000000
43.665836 -4.002079 33.073518 0.000000 60.000000 15.073518 25.000000
42.852531 1.467686 32.169954 0.000000 27.000000 14.169954 0.000000
44.116730 1.677234 32.279832 0.000000 37.000000 14.279832 0.000000
42.887665 1.577841 32.237021 0.000000 26.000000 14.237021 0.000000
44.192127 1.839291 32.268024 0.000000 31.000000 14.268024 0.000000
41.059830 -1.948737 32.455894 0.000000 40.000000 14.455894 6.000000
42.407887 -2.515968 32.331154 0.000000 32.000000 14.331154 0.000000
43.009460 1.851588 32.275662 0.000000 32.000000 14.275662 0.000000
44.334625 2.139350 32.283924 0.000000 31.000000 14.283924 0.000000
43.082264 1.995965 32.277446 0.000000 28.000000 14.277446 0.000000
43.162682 2.141231 32.277414 0.000000 29.000000 14.277414 0.000000
45.133034 -2.671904 32.171803 0.000000 30.000000 14.171803 0.000000
41.837399 1.764325 32.621648 0.000000 52.000000 14.621648 14.000000
45.095997 -2.395960 32.290091 0.000000 41.000000 14.290091 0.000000
45.119335 -2.233248 32.284269 0.000000 41.000000 14.284269 0.000000
43.586353 -1.524985 32.800541 0.000000 43.000000 14.800541 12.000000
41.622330 -3.969335 32.599710 0.000000 62.000000 14.599710 13.000000
45.172314 -1.619651 32.373141 0.000000 42.000000 14.373141 0.000000
45.253162 -1.419087 32.290607 0.000000 36.000000 14.290607 0.000000
45.274181 -1.263721 32.314552 0.000000 33.000000 14.314552 0.000000
43.280640 -1.924914 32.711658 0.000000 50.000000 14.711658 12.000000
41.883732 -1.251655 32.201510 0.000000 28.000000 14.201510 0.000000
45.429832 -0.736084 32.262819 0.000000 46.000000 14.262819 0.000000
43.512634 -2.057976 32.517152 0.000000 41.000000 14.517152 12.000000
44.109974 -0.108160 32.592120 0.000000 53.000000 14.592120 28.000000
41.132088 1.222856 32.452581 0.000000 26.000000 14.452581 18.000000
39.347301 -1.289404 32.157029 0.000000 26.000000 14.157029 0.000000
39.474380 -1.285422 32.161316 0.000000 24.000000 14.161316 0.000000
42.496399 -2.235349 32.603980 0.000000 68.000000 14.603980 9.000000
42.547817 -3.807333 32.683662 0.000000 78.000000 14.683662 25.000000
43.719910 -1.699843 32.824258 0.000000 53.000000 14.824258 12.000000
45.441898 -3.978052 33.258478 0.000000 59.000000 15.258478 21.000000
40.993946 -1.241281 32.177859 0.000000 31.000000 14.177859 0.000000
43.292866 -2.733918 32.534547 0.000000 41.000000 14.534547 10.000000
39.755608 -1.714667 32.652211 0.000000 33.000000 14.652211 5.000000
39.723507 -3.689631 32.320205 0.000000 34.000000 14.320205 0.000000
40.651150 -1.399795 32.203964 0.000000 27.000000 14.203964 0.000000
41.488178 0.277385 32.291299 0.000000 30.000000 14.291299 0.000000
41.910175 -1.344795 32.200320 0.000000 31.000000 14.200320 0.000000
40.916290 -1.461880 32.215239 0.000000 25.000000 14.215239 0.000000
42.067802 -1.345355 32.142580 0.000000 31.000000 14.142580 0.000000
42.194313 -1.380177 32.156284 0.000000 29.000000 14.156284 0.000000
42.315662 -1.426540 32.190209 0.000000 26.000000 14.190209 0.000000
39.322166 -3.299041 32.985612 0.000000 50.000000 14.985612 8.000000
42.074741 -1.900246 32.301760 0.000000 45.000000 14.301760 0.000000
42.210217 -1.950804 32.283812 0.000000 34.000000 14.283812 0.000000
42.340397 -2.009034 32.279598 0.000000 30.000000 14.279598 0.000000
42.469082 -2.073142 32.280710 0.000000 33.000000 14.280710 0.000000
44.114498 -2.224592 32.273512 0.000000 34.000000 14.273512 0.000000
43.490288 -0.458094 32.689984 0.000000 51.000000 14.689984 19.000000
41.121910 -2.521517 32.283238 0.000000 27.000000 14.283238 0.000000
44.368950 -2.373972 32.266562 0.000000 43.000000 14.266562 0.000000
44.488678 -2.455927 32.271420 0.000000 49.000000 14.271420 0.000000
44.616879 -2.536289 32.260061 0.000000 47.000000 14.260061 0.000000
44.191784 -3.123189 32.820723 0.000000 30.000000 14.820723 22.000000
44.759262 -2.605333 32.221511 0.000000 43.000000 14.221511 0.000000
42.577675 -3.956359 32.729851 0.000000 81.000000 14.729851 25.000000
45.058521 -2.743150 32.115233 0.000000 33.000000 14.115233 0.000000
43.549580 -2.493216 32.728300 0.000000 42.000000 14.728300 10.000000
39.752594 -3.872941 32.287322 0.000000 36.000000 14.287322 0.000000
44.119156 -2.383502 32.272515 0.000000 31.000000 14.272515 0.000000
39.680439 -3.638040 32.299844 0.000000 38.000000 14.299844 0.000000
41.251965 -3.688110 32.597496 0.000000 59.000000 14.597496 13.000000
40.369781 -2.541831 32.359347 0.000000 30.000000 14.359347 0.000000
41.809967 -3.363845 32.835254 0.000000 42.000000 14.835254 24.000000
39.506069 -2.048073 32.285322 0.000000 28.000000 14.285322 0.000000
41.553719 1.075976 32.698276 0.000000 50.000000 14.698276 18.000000
39.520172 -1.810935 32.301477 0.000000 41.000000 14.301477 0.000000
39.633060 -1.268953 32.171395 0.000000 26.000000 14.171395 0.000000
42.533169 -3.772596 32.783846 0.000000 74.000000 14.783846 25.000000
43.463398 -1.867428 32.858051 0.000000 48.000000 14.858051 12.000000
41.824272 -3.525970 32.712967 0.000000 49.000000 14.712967 24.000000
39.720322 -0.883406 32.338638 0.000000 38.000000 14.338638 0.000000
39.768372 -0.757370 32.317292 0.000000 31.000000 14.317292 0.000000
42.007317 -3.142694 32.677950 0.000000 45.000000 14.677950 24.000000
39.876572 -1.796599 32.684896 0.000000 66.000000 14.684896 5.000000
45.204426 -3.503064 32.715317 0.000000 65.000000 14.715317 20.000000
42.263435 -1.010260 32.307210 0.000000 30.000000 14.307210 0.000000
40.386925 0.306125 32.272749 0.000000 35.000000 14.272749 0.000000
40.467834 0.402098 32.264566 0.000000 31.000000 14.264566 0.000000
42.070187 -3.504289 32.386611 0.000000 50.000000 14.386611 23.000000
40.633541 0.571639 32.278094 0.000000 28.000000 14.278094 0.000000
40.721058 0.652816 32.282851 0.000000 27.000000 14.282851 0.000000
45.422817 -2.532998 32.256178 0.000000 27.000000 14.256178 0.000000
43.335945 -2.508531 32.773526 0.000000 62.000000 14.773526 10.000000
39.674042 0.702445 32.294819 0.000000 25.000000 14.294819 0.000000
41.846169 1.738332 32.690568 0.000000 46.000000 14.690568 14.000000
39.584694 -3.025354 32.874432 0.000000 44.000000 14.874432 8.000000
42.960903 -0.057271 32.555521 0.000000 26.000000 14.555521 19.000000
44.524380 -3.161498 32.911923 0.000000 60.000000 14.911923 22.000000
42.856880 -3.542356 32.849510 0.000000 57.000000 14.849510 23.000000
39.343304 -3.082685 32.816826 0.000000 57.000000 14.816826 8.000000
44.775211 -0.313828 32.783964 0.000000 42.000000 14.783964 3.000000
39.789867 1.124087 32.920373 0.000000 49.000000 14.920373 15.000000
40.590668 1.655734 32.966240 0.000000 35.000000 14.966240 17.000000
42.589912 -2.341053 32.842195 0.000000 44.000000 14.842195 9.000000
41.651352 1.336219 32.346682 0.000000 33.000000 14.346682 0.000000
39.485409 -3.448760 32.335096 0.000000 36.000000 14.335096 0.000000
44.076939 -3.008884 32.662766 0.000000 39.000000 14.662766 22.000000
41.860466 -3.206470 32.812511 0.000000 39.000000 14.812511 24.000000
42.132359 1.455826 32.137354 0.000000 24.000000 14.137354 0.000000
43.339142 1.615448 32.216082 0.000000 29.000000 14.216082 0.000000
42.266323 1.444417 32.136073 0.000000 25.000000 14.136073 0.000000
44.729927 -3.114283 32.662509 0.000000 40.000000 14.662509 20.000000
42.404861 1.430900 32.132048 0.000000 24.000000 14.132048 0.000000
41.153687 -3.767850 32.712580 0.000000 39.000000 14.712580 13.000000
42.551590 1.425892 32.108870 0.000000 26.000000 14.108870 0.000000
39.593269 -3.152391 32.866268 0.000000 51.000000 14.866268 8.000000
39.378975 1.192204 33.154191 0.000000 3.000000 15.154191 15.000000
40.601429 1.551993 32.401120 0.000000 40.000000 14.401120 17.000000
42.978096 1.360745 32.074364 0.000000 24.000000 14.074364 0.000000
44.519310 -0.644502 32.542915 0.000000 67.000000 14.542915 3.000000
41.451054 -1.814499 32.706036 0.000000 48.000000 14.706036 6.000000
44.235691 1.407883 32.343938 0.000000 39.000000 14.343938 0.000000
42.158360 2.050580 32.617761 0.000000 42.000000 14.617761 30.000000
44.419518 1.429128 32.256515 0.000000 41.000000 14.256515 0.000000
44.546803 -0.169051 32.464451 0.000000 37.000000 14.464451 3.000000
42.454113 -3.216105 33.036963 0.000000 71.000000 15.036963 23.000000
43.441864 1.093521 32.244390 0.000000 34.000000 14.244390 0.000000
43.566257 1.031578 32.261165 0.000000 33.000000 14.261165 0.000000
43.706936 0.985759 32.244647 0.000000 30.000000 14.244647 0.000000
45.053391 1.343057 32.092180 0.000000 28.000000 14.092180 0.000000
43.810635 0.890966 32.305669 0.000000 33.000000 14.305669 0.000000
44.466820 1.510006 32.812657 0.000000 42.000000 14.812657 1.000000
40.783733 -3.955043 32.666934 0.000000 54.000000 14.666934 13.000000
44.227352 0.720465 32.251804 0.000000 35.000000 14.251804 0.000000
44.338398 0.628961 32.283176 0.000000 32.000000 14.283176 0.000000
43.883427 -3.989380 33.257147 0.000000 57.000000 15.257147 25.000000
44.580624 0.462750 32.299220 0.000000 39.000000 14.299220 0.000000
44.705860 0.378415 32.298481 0.000000 33.000000 14.298481 0.000000
40.699341 1.561648 32.946171 0.000000 31.000000 14.946171 17.000000
44.998543 -0.475676 32.487339 0.000000 53.000000 14.487339 3.000000
41.810539 -3.413449 33.157816 0.000000 19.000000 15.157816 24.000000
41.284710 -3.187511 32.283582 0.000000 36.000000 14.283582 0.000000
39.553955 -1.774984 32.711264 0.000000 52.000000 14.711264 5.000000
41.273468 -2.857388 32.133166 0.000000 29.000000 14.133166 0.000000
42.443211 -2.698052 32.153752 0.000000 31.000000 14.153752 0.000000
41.227695 -2.736913 32.184314 0.000000 37.000000 14.184314 0.000000
45.005653 -0.541269 32.578076 0.000000 65.000000 14.578076 3.000000
43.483265 -1.922794 33.112001 0.000000 11.000000 15.112001 12.000000
42.345676 -2.466553 32.280630 0.000000 40.000000 14.280630 0.000000
41.144943 -2.496008 32.288265 0.000000 34.000000 14.288265 0.000000
42.320976 -2.331964 32.297183 0.000000 33.000000 14.297183 0.000000
41.115963 -2.366166 32.315499 0.000000 41.000000 14.315499 0.000000
41.293812 -2.559047 32.245816 0.000000 34.000000 14.245816 0.000000
41.550289 -1.966384 32.559327 0.000000 48.000000 14.559327 6.000000
42.292530 -2.045799 32.289214 0.000000 36.000000 14.289214 0.000000
40.862621 0.608125 32.733277 0.000000 52.000000 14.733277 18.000000
45.000118 -3.455419 32.668152 0.000000 60.000000 14.668152 20.000000
43.905998 -3.409948 32.720944 0.000000 53.000000 14.720944 22.000000
42.265461 -1.771110 32.307693 0.000000 39.000000 14.307693 0.000000
42.273811 -1.612863 32.272091 0.000000 29.000000 14.272091 0.000000
42.314957 -1.420319 32.166314 0.000000 25.000000 14.166314 0.000000
41.042820 -1.525789 32.340238 0.000000 40.000000 14.340238 0.000000
42.316067 -1.272377 32.161896 0.000000 32.000000 14.161896 0.000000
41.080032 -1.331377 32.226404 0.000000 27.000000 14.226404 0.000000
42.294437 -1.153918 32.222602 0.000000 33.000000 14.222602 0.000000
43.478794 -2.556107 32.817812 0.000000 69.000000 14.817812 10.000000
44.802761 -3.936943 33.057802 0.000000 57.000000 15.057802 29.000000
42.256397 -3.164649 32.756555 0.000000 47.000000 14.756555 23.000000
44.194759 -3.605559 32.794948 0.000000 63.000000 14.794948 22.000000
42.093971 -3.981301 32.666174 0.000000 50.000000 14.666174 13.000000
42.222649 -3.630572 32.854423 0.000000 51.000000 14.854423 23.000000
43.985222 -3.479477 32.722078 0.000000 41.000000 14.722078 22.000000
41.654411 -3.415859 32.582041 0.000000 45.000000 14.582041 24.000000
41.463585 -1.967986 32.396255 0.000000 55.000000 14.396255 6.000000
42.336472 -0.445211 32.265327 0.000000 39.000000 14.265327 0.000000
43.049706 -3.561626 32.839806 0.000000 42.000000 14.839806 23.000000
42.356514 -0.301266 32.269075 0.000000 30.000000 14.269075 0.000000
39.560646 -1.821670 32.319835 0.000000 28.000000 14.319835 0.000000
44.040165 -0.183538 32.475817 0.000000 47.000000 14.475817 28.000000
42.569675 -3.339707 33.082740 0.000000 54.000000 15.082740 23.000000
42.474533 0.184105 32.183459 0.000000 28.000000 14.183459 0.000000
42.674725 -1.629679 32.742909 0.000000 51.000000 14.742909 11.000000
42.489792 0.305996 32.231846 0.000000 28.000000 14.231846 0.000000
41.179916 -1.470477 32.416044 0.000000 54.000000 14.416044 6.000000
40.038074 0.686540 32.903107 0.000000 49.000000 14.903107 15.000000
42.593021 0.718148 32.277491 0.000000 31.000000 14.277491 0.000000
40.145096 -1.802258 32.724803 0.000000 51.000000 14.724803 5.000000
42.692142 1.006389 32.278234 0.000000 27.000000 14.278234 0.000000
42.782780 1.197961 32.194900 0.000000 28.000000 14.194900 0.000000
45.316032 -3.424030 32.585103 0.000000 44.000000 14.585103 20.000000
44.704796 -1.683049 32.359615 0.000000 32.000000 14.359615 0.000000
40.236374 -0.997003 32.346591 0.000000 43.000000 14.346591 0.000000
42.871517 -0.543313 32.534014 0.000000 49.000000 14.534014 19.000000
41.920834 -2.275409 32.288695 0.000000 34.000000 14.288695 0.000000
43.076157 1.849220 32.273889 0.000000 33.000000 14.273889 0.000000
43.450504 -1.836401 33.050878 0.000000 10.000000 15.050878 12.000000
39.692280 -3.086564 32.679709 0.000000 73.000000 14.679709 8.000000
45.056042 1.194213 32.744932 0.000000 52.000000 14.744932 2.000000
44.058578 -2.879737 32.218944 0.000000 32.000000 14.218944 0.000000
44.468216 -3.582910 32.652166 0.000000 55.000000 14.652166 22.000000
40.353630 -1.837783 32.437269 0.000000 51.000000 14.437269 5.000000
45.255852 -2.527872 32.262554 0.000000 38.000000 14.262554 0.000000
44.023773 -2.584536 32.257589 0.000000 34.000000 14.257589 0.000000
39.330345 -3.166292 32.857790 0.000000 60.000000 14.857790 8.000000
45.256397 -2.212762 32.260942 0.000000 39.000000 14.260942 0.000000
42.302864 2.077403 33.087325 0.000000 15.000000 15.087325 30.000000
40.597546 1.814649 32.767415 0.000000 23.000000 14.767415 17.000000
45.221348 -1.778325 32.358458 0.000000 50.000000 14.358458 0.000000
45.062828 -3.484506 32.715232 0.000000 76.000000 14.715232 20.000000
45.233746 -1.617379 32.357326 0.000000 45.000000 14.357326 0.000000
39.266979 1.449387 32.516371 0.000000 33.000000 14.516371 15.000000
45.292149 -1.421352 32.278476 0.000000 39.000000 14.278476 0.000000
43.445004 -0.422868 32.631534 0.000000 55.000000 14.631534 19.000000
45.281872 -1.135392 32.366025 0.000000 43.000000 14.366025 0.000000
44.757164 -4.031796 33.153513 0.000000 56.000000 15.153513 29.000000
41.306911 -1.853039 32.813538 0.000000 69.000000 14.813538 6.000000
44.105640 -1.017143 32.275808 0.000000 34.000000 14.275808 0.000000
45.381191 -0.766782 32.279728 0.000000 44.000000 14.279728 0.000000
44.131859 -0.854381 32.271305 0.000000 33.000000 14.271305 0.000000
45.414284 -0.598126 32.272738 0.000000 43.000000 14.272738 0.000000
43.946068 -3.197917 32.779166 0.000000 60.000000 14.779166 22.000000
42.253796 1.891257 32.406324 0.000000 33.000000 14.406324 14.000000
44.179276 -0.541190 32.293927 0.000000 33.000000 14.293927 0.000000
44.186245 -0.405204 32.343292 0.000000 40.000000 14.343292 0.000000
43.404785 -1.784305 32.967803 0.000000 45.000000 14.967803 12.000000
44.250229 -3.909581 33.026516 0.000000 65.000000 15.026516 25.000000
44.602013 0.945329 32.264950 0.000000 27.000000 14.264950 0.000000
40.363903 -0.483859 32.328341 0.000000 30.000000 14.328341 0.000000
44.800671 1.355246 32.134846 0.000000 30.000000 14.134846 0.000000
44.972507 -0.307138 32.792305 0.000000 42.000000 14.792305 3.000000
42.520313 -2.621844 32.399563 0.000000 54.000000 14.399563 9.000000
44.850842 1.301292 33.017509 0.000000 7.000000 15.017509 1.000000
44.278198 -2.988497 32.546826 0.000000 55.000000 14.546826 22.000000
40.330807 -2.574538 32.231700 0.000000 30.000000 14.231700 0.000000
40.052418 -1.585222 32.459964 0.000000 25.000000 14.459964 5.000000
40.434307 -2.600838 32.310631 0.000000 37.000000 14.310631 0.000000
39.480335 -2.584473 32.235820 0.000000 25.000000 14.235820 0.000000
40.565025 -2.597092 32.300265 0.000000 35.000000 14.300265 0.000000
39.599957 -2.610450 32.286800 0.000000 29.000000 14.286800 0.000000
40.697357 -2.594434 32.286129 0.000000 34.000000 14.286129 0.000000
40.829617 -2.595675 32.277073 0.000000 38.000000 14.277073 0.000000
40.971840 -2.590511 32.241517 0.000000 34.000000 14.241517 0.000000
41.111393 -2.591195 32.212873 0.000000 38.000000 14.212873 0.000000
43.458447 -0.522130 32.651850 0.000000 42.000000 14.651850 19.000000
41.254749 -2.592973 32.180860 0.000000 43.000000 14.180860 0.000000
40.290634 -2.646852 32.192995 0.000000 29.000000 14.192995 0.000000
44.048626 -3.252081 32.909095 0.000000 75.000000 14.909095 22.000000
43.439316 -2.349973 32.943185 0.000000 23.000000 14.943185 10.000000
44.589649 -3.938128 33.009309 0.000000 70.000000 15.009309 29.000000
39.508938 0.346230 32.302326 0.000000 32.000000 14.302326 0.000000
41.643131 -2.665414 32.216796 0.000000 32.000000 14.216796 0.000000
44.556267 -3.505529 32.514925 0.000000 59.000000 14.514925 22.000000
41.780830 -2.687711 32.207369 0.000000 34.000000 14.207369 0.000000
44.072552 -3.232978 32.813994 0.000000 47.000000 14.813994 22.000000
43.233128 -0.098663 32.644851 0.000000 60.000000 14.644851 19.000000
44.341282 -1.625086 32.639747 0.000000 69.000000 14.639747 26.000000
42.507915 -2.402058 32.556475 0.000000 46.000000 14.556475 9.000000
41.110275 -2.812159 32.158610 0.000000 32.000000 14.158610 0.000000
42.214581 -2.749783 32.126858 0.000000 34.000000 14.126858 0.000000
41.259480 -2.837137 32.119074 0.000000 28.000000 14.119074 0.000000
42.338921 -2.796208 32.156854 0.000000 32.000000 14.156854 0.000000
42.358135 -3.548549 33.107387 0.000000 75.000000 15.107387 23.000000
43.141323 -0.379843 32.502472 0.000000 50.000000 14.502472 19.000000
39.633167 -3.218679 32.858349 0.000000 63.000000 14.858349 8.000000
42.492104 2.117509 32.657196 0.000000 48.000000 14.657196 30.000000
39.360775 -0.944627 32.288720 0.000000 30.000000 14.288720 0.000000
39.760963 -3.164558 33.007438 0.000000 70.000000 15.007438 8.000000
40.924332 -3.749882 32.838030 0.000000 58.000000 14.838030 13.000000
39.592403 -0.690520 32.277002 0.000000 31.000000 14.277002 0.000000
43.210728 -3.341555 33.022106 0.000000 67.000000 15.022106 23.000000
39.568630 -1.839110 32.309618 0.000000 31.000000 14.309618 0.000000
39.392120 -2.391867 32.738646 0.000000 74.000000 14.738646 7.000000
