52.199656 -2.854158 16.049409 0.000000 61.000000 14.862065 26.000000
51.871392 -7.907581 15.420146 0.000000 44.000000 14.169788 0.000000
46.744816 -7.016696 16.740209 0.000000 40.000000 14.135244 0.000000
48.674224 -6.377789 16.253063 0.000000 41.000000 14.157589 0.000000
46.864402 -2.508746 17.021003 0.000000 55.000000 14.437281 28.000000
48.642086 -5.764492 16.660570 0.000000 48.000000 14.543335 12.000000
50.754071 -8.356858 15.694066 0.000000 40.000000 14.148934 0.000000
50.925740 -3.189035 16.228268 0.000000 72.000000 14.709272 26.000000
51.176158 -5.832146 15.829300 0.000000 57.000000 14.387590 22.000000
49.731793 -5.641455 16.011161 0.000000 41.000000 14.194120 0.000000
47.359857 -3.413813 16.713863 0.000000 51.000000 14.267024 0.000000
49.496503 -3.542254 16.597992 0.000000 66.000000 14.701289 9.000000
46.385088 -3.995564 16.923380 0.000000 37.000000 14.220354 0.000000
47.403321 -2.362674 17.185454 0.000000 79.000000 14.734053 23.000000
51.266654 -3.129146 16.043981 0.000000 62.000000 14.618273 26.000000
49.751421 -4.180393 15.955127 0.000000 57.000000 14.144966 0.000000
52.128122 -7.877293 15.369425 0.000000 31.000000 14.186392 0.000000
51.506912 -3.568520 16.019062 0.000000 43.000000 14.655610 5.000000
48.563405 -6.707276 16.235697 0.000000 34.000000 14.112467 0.000000
49.029366 -7.734772 16.191015 0.000000 43.000000 14.188404 0.000000
46.749708 -2.657581 16.934675 0.000000 65.000000 14.324498 28.000000
46.804057 -4.011403 16.708808 0.000000 28.000000 14.120033 0.000000
47.200676 -3.300273 16.682108 0.000000 48.000000 14.195626 0.000000
46.931524 -8.422006 16.720207 0.000000 27.000000 14.163644 0.000000
48.396622 -3.061374 16.709577 0.000000 61.000000 14.527954 28.000000
50.897929 -6.825707 15.693666 0.000000 45.000000 14.185328 0.000000
51.311725 -2.680456 15.995719 0.000000 63.000000 14.583138 26.000000
47.308699 -3.302995 16.665571 0.000000 43.000000 14.207257 0.000000
49.326220 -3.023365 16.439107 0.000000 78.000000 14.504148 27.000000
50.577773 -6.945919 15.665744 0.000000 26.000000 14.076478 0.000000
48.127199 -7.128714 16.398268 0.000000 50.000000 14.158108 0.000000
52.318582 -4.691986 15.351434 0.000000 44.000000 14.217694 0.000000
49.165274 -7.950325 16.123531 0.000000 51.000000 14.157911 0.000000
50.057003 -2.965943 16.421714 0.000000 80.000000 14.674175 27.000000
47.850380 -4.462009 16.743215 0.000000 62.000000 14.420814 4.000000
51.951469 -2.732403 15.983352 0.000000 65.000000 14.734748 26.000000
51.582122 -2.596467 15.814378 0.000000 37.000000 14.476958 26.000000
50.269098 -2.555495 16.174210 0.000000 54.000000 14.489124 27.000000
48.517912 -2.376149 16.747322 0.000000 87.000000 14.595455 27.000000
49.408576 -6.229795 16.050548 0.000000 31.000000 14.149560 0.000000
50.387449 -8.325902 15.829059 0.000000 27.000000 14.185704 0.000000
48.426058 -6.240502 16.313061 0.000000 40.000000 14.152143 0.000000
47.931749 -6.238380 16.447366 0.000000 30.000000 14.155602 0.000000
50.257089 -4.547709 15.864593 0.000000 31.000000 14.186728 0.000000
51.343293 -5.867235 15.663945 0.000000 39.000000 14.270463 0.000000
49.527756 -4.469594 16.067646 0.000000 40.000000 14.196560 0.000000
51.256795 -7.094336 15.572570 0.000000 48.000000 14.160009 0.000000
46.391031 -3.215245 16.918651 0.000000 44.000000 14.217302 0.000000
50.732537 -7.072694 15.662282 0.000000 33.000000 14.112700 0.000000
47.637556 -7.135940 17.154543 0.000000 43.000000 14.764057 21.000000
48.536805 -3.090330 16.520835 0.000000 24.000000 14.381327 28.000000
48.678352 -4.103733 16.345393 0.000000 34.000000 14.247906 0.000000
48.419672 -6.870538 16.284093 0.000000 47.000000 14.122505 0.000000
46.349890 -6.985965 16.817265 0.000000 34.000000 14.108767 0.000000
51.125075 -4.267482 15.629909 0.000000 41.000000 14.181765 0.000000
46.856950 -6.692084 16.670011 0.000000 30.000000 14.096049 0.000000
50.620136 -5.288855 15.666758 0.000000 28.000000 14.088290 0.000000
47.079122 -3.290634 16.699886 0.000000 40.000000 14.181735 0.000000
48.424164 -3.881583 16.309452 0.000000 55.000000 14.148170 0.000000
51.048927 -5.164950 15.669352 0.000000 20.000000 14.200428 0.000000
48.657076 -3.797525 16.559275 0.000000 61.000000 14.449239 9.000000
50.212360 -4.763861 15.815170 0.000000 51.000000 14.127511 0.000000
50.669955 -5.002092 15.681717 0.000000 41.000000 14.115489 0.000000
47.858282 -6.139374 16.503277 0.000000 43.000000 14.190871 0.000000
46.885057 -2.737564 17.198952 0.000000 65.000000 14.614596 28.000000
52.037338 -3.380762 15.388229 0.000000 44.000000 14.181360 0.000000
48.509185 -4.322918 16.535862 0.000000 57.000000 14.388792 15.000000
48.102737 -6.963305 16.309231 0.000000 21.000000 14.065776 0.000000
50.783754 -7.286750 16.079728 0.000000 62.000000 14.529367 16.000000
50.755334 -8.198407 15.841105 0.000000 37.000000 14.291409 13.000000
46.535535 -4.182571 16.900133 0.000000 47.000000 14.236345 0.000000
49.999503 -4.222042 15.922167 0.000000 21.000000 14.176530 0.000000
50.468290 -2.613976 16.252336 0.000000 65.000000 14.615582 27.000000
50.308041 -2.422000 16.551320 0.000000 47.000000 14.863657 27.000000
49.914603 -7.576952 15.937811 0.000000 40.000000 14.169947 0.000000
52.224648 -3.661055 15.782172 0.000000 61.000000 14.610099 1.000000
48.803473 -4.241504 16.537110 0.000000 68.000000 14.465240 15.000000
51.027087 -3.587366 16.234902 0.000000 79.000000 14.741597 5.000000
47.598540 -3.180933 16.595695 0.000000 44.000000 14.213809 0.000000
47.995056 -4.587734 16.505017 0.000000 58.000000 14.227523 0.000000
50.734714 -7.127707 15.662696 0.000000 40.000000 14.113657 0.000000
50.125899 -7.547871 15.893947 0.000000 25.000000 14.181564 0.000000
47.204379 -6.053956 16.698649 0.000000 36.000000 14.212564 0.000000
51.224730 -5.703826 15.697268 0.000000 36.000000 14.272365 22.000000
48.768964 -4.569172 16.291339 0.000000 46.000000 14.218815 0.000000
51.359838 -4.951934 16.188674 0.000000 44.000000 14.781981 3.000000
51.054250 -3.660223 16.092193 0.000000 80.000000 14.610576 5.000000
50.142217 -3.332074 15.999693 0.000000 28.000000 14.287968 5.000000
49.119838 -5.171469 16.362826 0.000000 39.000000 14.377635 2.000000
50.820089 -4.153149 15.681069 0.000000 41.000000 14.153248 0.000000
49.166525 -7.313079 16.449064 0.000000 41.000000 14.472944 10.000000
51.156741 -2.585942 15.709063 0.000000 45.000000 14.266384 0.000000
51.755919 -4.813689 15.537532 0.000000 63.000000 14.253749 0.000000
49.231389 -7.262807 16.492653 0.000000 57.000000 14.531668 10.000000
49.143589 -5.514809 16.119526 0.000000 47.000000 14.148495 0.000000
50.589556 -3.585690 16.349955 0.000000 70.000000 14.740961 5.000000
49.952372 -3.019473 16.379881 0.000000 59.000000 14.606981 27.000000
50.461680 -8.304678 15.831077 0.000000 23.000000 14.206634 0.000000
46.638824 -5.027921 16.887906 0.000000 30.000000 14.250933 0.000000
46.821024 -2.518285 16.787871 0.000000 50.000000 14.200807 0.000000
51.225392 -3.494762 16.166088 0.000000 49.000000 14.725772 5.000000
46.580630 -3.541964 17.051340 0.000000 53.000000 14.394056 7.000000
49.398873 -4.682028 16.104125 0.000000 39.000000 14.198875 0.000000
51.177469 -2.983984 16.150584 0.000000 67.000000 14.698530 26.000000
48.569147 -6.601585 16.313510 0.000000 36.000000 14.189161 0.000000
46.838016 -4.669405 16.830695 0.000000 53.000000 14.246552 0.000000
50.790579 -2.550370 16.213485 0.000000 61.000000 14.660423 27.000000
51.140377 -2.503811 15.687474 0.000000 42.000000 14.241329 0.000000
49.521088 -3.768532 16.032393 0.000000 36.000000 14.160774 0.000000
51.792844 -4.288777 15.482743 0.000000 46.000000 14.210222 0.000000
47.721700 -6.789166 16.470627 0.000000 44.000000 14.124386 0.000000
49.822626 -2.545056 16.587632 0.000000 73.000000 14.774654 27.000000
51.512508 -4.887798 16.177828 0.000000 47.000000 14.810529 3.000000
51.415019 -7.661421 15.514411 0.000000 28.000000 14.144237 0.000000
48.764485 -2.849980 16.676590 0.000000 47.000000 14.590117 28.000000
48.688432 -5.052687 16.671246 0.000000 46.000000 14.565505 2.000000
50.960742 -5.636447 15.888834 0.000000 40.000000 14.390069 22.000000
46.819190 -7.084572 16.837557 0.000000 51.000000 14.248372 0.000000
49.900938 -5.854900 15.987269 0.000000 34.000000 14.214268 0.000000
50.130376 -2.893641 16.447762 0.000000 76.000000 14.718117 27.000000
51.510373 -3.384299 15.588737 0.000000 37.000000 14.240472 0.000000
47.241013 -5.340286 16.617081 0.000000 46.000000 14.143073 0.000000
50.201648 -5.317469 15.782747 0.000000 58.000000 14.093427 0.000000
49.429697 -5.863076 16.230646 0.000000 44.000000 14.329072 8.000000
50.956510 -7.208106 15.839615 0.000000 73.000000 14.341403 16.000000
50.453833 -2.525179 16.421726 0.000000 56.000000 14.775646 27.000000
49.391355 -2.559128 16.443197 0.000000 45.000000 14.524755 27.000000
47.806871 -4.372735 16.844765 0.000000 51.000000 14.507865 4.000000
52.221022 -6.581543 15.298847 0.000000 54.000000 14.141912 0.000000
49.705311 -3.936666 15.930527 0.000000 32.000000 14.109395 0.000000
48.131061 -3.263840 16.442589 0.000000 36.000000 14.201943 0.000000
48.176864 -5.243944 16.400453 0.000000 34.000000 14.172918 0.000000
49.368988 -7.632898 16.110232 0.000000 41.000000 14.197138 0.000000
49.164873 -7.585130 16.145397 0.000000 32.000000 14.178947 0.000000
47.105181 -7.141440 16.894402 0.000000 52.000000 14.376448 21.000000
47.522485 -2.725652 16.856071 0.000000 68.000000 14.446085 28.000000
51.675287 -6.511477 15.512205 0.000000 36.000000 14.208648 0.000000
51.692533 -4.111417 15.401310 0.000000 42.000000 14.105848 0.000000
52.192315 -7.740907 15.337038 0.000000 48.000000 14.171494 0.000000
50.621683 -4.226862 15.740852 0.000000 42.000000 14.160317 0.000000
50.824745 -8.417266 15.723413 0.000000 35.000000 14.195375 0.000000
48.942606 -2.405582 16.855517 0.000000 83.000000 14.808637 27.000000
51.366022 -5.148891 15.628321 0.000000 60.000000 14.241834 0.000000
51.167150 -3.449161 15.993664 0.000000 69.000000 14.544188 5.000000
50.351326 -7.886971 15.968503 0.000000 51.000000 14.311278 13.000000
47.740680 -7.315354 16.709963 0.000000 62.000000 14.360620 21.000000
50.875779 -4.340947 15.700624 0.000000 27.000000 14.186391 0.000000
46.720395 -6.343260 16.838261 0.000000 38.000000 14.223794 0.000000
50.636363 -4.591606 15.734471 0.000000 44.000000 14.157901 0.000000
50.973567 -4.807668 15.661706 0.000000 45.000000 14.173769 0.000000
51.823160 -2.810201 16.093548 0.000000 42.000000 14.808476 26.000000
50.509726 -3.526122 16.360794 0.000000 82.000000 14.731029 5.000000
47.412702 -5.726262 16.830476 0.000000 52.000000 14.393272 11.000000
51.948768 -4.530172 15.427597 0.000000 27.000000 14.196774 0.000000
51.222337 -4.389120 15.612577 0.000000 43.000000 14.189877 0.000000
46.762927 -2.380491 17.198732 0.000000 73.000000 14.583158 28.000000
48.599721 -8.348453 16.187217 0.000000 40.000000 14.074883 0.000000
47.160232 -4.516019 16.658079 0.000000 34.000000 14.162055 0.000000
46.622767 -7.162531 16.840040 0.000000 41.000000 14.200553 0.000000
47.938762 -5.107510 16.644555 0.000000 31.000000 14.348031 6.000000
49.292802 -5.035263 16.175524 0.000000 23.000000 14.240781 0.000000
50.867868 -2.417879 15.797712 0.000000 26.000000 14.278230 0.000000
49.129001 -5.159114 16.255134 0.000000 26.000000 14.275866 2.000000
46.851901 -7.538972 16.770251 0.000000 37.000000 14.191667 0.000000
51.639864 -3.276484 15.489325 0.000000 44.000000 14.177472 0.000000
51.058813 -3.671116 16.146507 0.000000 81.000000 14.664252 5.000000
50.935649 -7.983377 16.115434 0.000000 43.000000 14.602722 13.000000
52.126769 -7.341483 15.585587 0.000000 49.000000 14.395023 19.000000
49.677265 -3.838859 15.976337 0.000000 31.000000 14.146512 0.000000
49.437184 -5.634964 16.068378 0.000000 55.000000 14.174111 0.000000
47.778225 -7.560763 16.522078 0.000000 25.000000 14.188579 0.000000
50.217403 -5.562218 15.805932 0.000000 30.000000 14.119870 0.000000
48.735927 -4.989015 16.752958 0.000000 65.000000 14.656645 2.000000
51.591680 -6.953189 15.365288 0.000000 40.000000 14.045238 0.000000
51.684168 -2.941373 15.868955 0.000000 49.000000 14.555812 26.000000
49.230321 -5.168936 16.183988 0.000000 54.000000 14.232989 0.000000
51.130820 -8.070919 15.715280 0.000000 23.000000 14.265767 13.000000
51.497555 -5.139462 15.627044 0.000000 57.000000 14.274229 3.000000
51.590023 -2.504878 15.973139 0.000000 78.000000 14.632462 24.000000
46.775337 -5.108153 16.986169 0.000000 38.000000 14.380833 6.000000
47.441754 -5.764781 16.888375 0.000000 55.000000 14.456675 11.000000
52.293566 -3.104765 15.798536 0.000000 68.000000 14.643540 26.000000
51.946231 -4.517879 15.421631 0.000000 43.000000 14.190358 0.000000
48.038732 -7.078650 16.382551 0.000000 26.000000 14.120294 0.000000
51.043434 -4.645022 15.626771 0.000000 37.000000 14.157858 0.000000
50.561610 -4.700663 15.758825 0.000000 45.000000 14.162333 0.000000
50.117905 -4.749203 15.857006 0.000000 47.000000 14.143807 0.000000
49.279013 -7.999621 16.138765 0.000000 35.000000 14.201718 0.000000
47.050222 -6.864818 16.608794 0.000000 25.000000 14.086282 0.000000
50.735046 -7.144732 15.706292 0.000000 30.000000 14.155889 0.000000
52.207091 -7.885502 15.383987 0.000000 54.000000 14.220660 0.000000
48.227756 -6.151236 16.402881 0.000000 29.000000 14.188277 0.000000
50.176257 -6.339894 15.877420 0.000000 59.000000 14.178462 0.000000
52.220824 -7.626668 15.346172 0.000000 33.000000 14.187613 0.000000
51.156243 -8.036356 15.887787 0.000000 51.000000 14.439041 13.000000
51.496544 -5.064716 16.113156 0.000000 43.000000 14.743925 3.000000
50.769650 -6.818125 15.626913 0.000000 37.000000 14.087996 0.000000
48.693693 -5.534173 16.215975 0.000000 51.000000 14.126711 0.000000
48.082665 -3.692151 16.795687 0.000000 70.000000 14.530931 7.000000
51.723662 -2.771580 15.982332 0.000000 58.000000 14.675518 26.000000
46.745357 -4.905736 16.894722 0.000000 43.000000 14.284760 6.000000
49.087986 -2.532063 16.137241 0.000000 52.000000 14.151405 0.000000
47.223377 -7.556078 16.690930 0.000000 38.000000 14.209959 0.000000
51.164541 -7.622445 15.625924 0.000000 36.000000 14.188003 0.000000
48.330174 -3.956363 16.195011 0.000000 21.000000 14.013502 0.000000
50.050331 -6.394650 15.959307 0.000000 44.000000 14.225431 0.000000
50.201345 -3.111399 16.277462 0.000000 63.000000 14.571622 27.000000
49.495109 -4.747635 16.035422 0.000000 36.000000 14.157060 0.000000
46.652545 -2.569702 16.870527 0.000000 42.000000 14.237640 0.000000
52.400596 -7.892885 15.319923 0.000000 33.000000 14.208199 0.000000
51.187398 -3.139914 16.169076 0.000000 67.000000 14.718946 26.000000
50.775750 -5.640790 15.720583 0.000000 50.000000 14.180112 0.000000
48.763234 -7.782884 16.428403 0.000000 33.000000 14.349859 18.000000
51.777401 -6.373633 15.424245 0.000000 37.000000 14.149720 0.000000
46.478440 -5.652017 16.905091 0.000000 40.000000 14.226541 0.000000
50.765921 -7.459537 15.825097 0.000000 47.000000 14.278639 16.000000
49.076705 -4.221400 16.424084 0.000000 46.000000 14.425830 15.000000
47.704757 -4.141941 16.603476 0.000000 38.000000 14.248488 0.000000
47.689909 -8.445700 16.472481 0.000000 47.000000 14.118050 0.000000
49.621520 -5.359345 15.947937 0.000000 30.000000 14.104803 0.000000
51.436205 -2.560233 15.713180 0.000000 39.000000 14.341816 24.000000
48.377645 -7.142711 16.418481 0.000000 38.000000 14.241681 0.000000
51.812534 -3.376621 15.458754 0.000000 27.000000 14.192064 0.000000
48.248786 -3.313707 16.428640 0.000000 41.000000 14.218557 0.000000
46.740178 -8.230608 16.786143 0.000000 34.000000 14.178466 0.000000
48.959085 -5.368991 16.113557 0.000000 34.000000 14.095551 0.000000
48.674226 -2.689497 16.245269 0.000000 22.000000 14.150054 0.000000
46.939750 -8.014543 16.780737 0.000000 38.000000 14.224265 0.000000
47.682458 -7.266647 16.715421 0.000000 58.000000 14.351011 21.000000
50.317823 -2.839257 16.473006 0.000000 52.000000 14.790447 27.000000
50.759341 -5.021141 15.714707 0.000000 29.000000 14.170236 0.000000
50.381473 -7.763920 15.797716 0.000000 41.000000 14.153875 0.000000
49.234504 -3.428512 16.515771 0.000000 69.000000 14.554814 9.000000
49.450683 -7.739177 16.039855 0.000000 39.000000 14.149987 0.000000
48.999772 -7.722253 16.153430 0.000000 37.000000 14.144501 0.000000
49.723853 -3.921179 15.967727 0.000000 36.000000 14.150099 0.000000
51.391394 -2.635174 15.762631 0.000000 46.000000 14.378167 26.000000
49.893353 -6.463416 15.975154 0.000000 31.000000 14.200616 0.000000
48.094812 -4.255090 16.450218 0.000000 36.000000 14.200051 0.000000
52.283545 -4.012090 15.144696 0.000000 25.000000 14.008870 0.000000
52.282868 -4.551780 15.326788 0.000000 41.000000 14.184736 0.000000
46.551474 -4.022652 16.828090 0.000000 45.000000 14.170772 0.000000
50.923057 -7.362940 15.974064 0.000000 39.000000 14.462831 16.000000
48.448262 -8.156083 16.288864 0.000000 51.000000 14.134427 0.000000
47.677677 -4.950275 16.871296 0.000000 70.000000 14.500483 6.000000
49.204531 -5.332092 16.114088 0.000000 37.000000 14.158819 0.000000
48.604891 -4.952384 16.682136 0.000000 61.000000 14.554674 2.000000
48.523277 -5.482618 16.226213 0.000000 51.000000 14.093038 0.000000
47.392939 -7.936500 16.892642 0.000000 54.000000 14.448319 20.000000
47.984693 -7.413749 16.604291 0.000000 52.000000 14.320848 21.000000
47.433009 -7.121245 16.805328 0.000000 63.000000 14.374152 21.000000
51.688079 -4.287059 15.493623 0.000000 43.000000 14.193954 0.000000
49.343361 -2.926431 16.642227 0.000000 69.000000 14.704899 27.000000
51.344381 -3.399774 15.646246 0.000000 56.000000 14.253630 0.000000
48.223356 -7.226910 16.492817 0.000000 40.000000 14.274099 21.000000
48.120362 -8.194880 16.383409 0.000000 21.000000 14.141994 0.000000
47.768759 -7.520744 16.542023 0.000000 40.000000 14.205441 0.000000
49.128488 -6.296369 16.193230 0.000000 37.000000 14.215888 0.000000
52.306905 -2.803072 16.055156 0.000000 49.000000 14.895041 26.000000
47.354864 -4.856442 17.037508 0.000000 66.000000 14.578635 6.000000
48.145085 -3.614252 16.704798 0.000000 33.000000 14.459023 7.000000
50.633839 -4.452302 15.750370 0.000000 41.000000 14.172626 0.000000
51.402017 -4.017026 15.424544 0.000000 45.000000 14.054033 0.000000
50.490158 -4.660234 15.819085 0.000000 54.000000 14.202322 0.000000
50.228957 -5.217007 15.947648 0.000000 55.000000 14.259830 0.000000
48.879115 -5.296504 16.287811 0.000000 53.000000 14.243567 0.000000
48.551242 -5.335106 16.287746 0.000000 50.000000 14.159676 0.000000
50.502837 -7.105467 15.869071 0.000000 31.000000 14.253888 0.000000
47.209649 -7.949886 16.966966 0.000000 44.000000 14.473310 20.000000
47.262604 -3.789037 16.863874 0.000000 58.000000 14.387184 7.000000
51.091581 -5.427081 15.536458 0.000000 32.000000 14.082857 0.000000
50.449582 -3.733881 16.106457 0.000000 50.000000 14.469768 5.000000
48.239657 -3.035526 16.705343 0.000000 37.000000 14.483729 28.000000
48.021657 -3.789708 16.614183 0.000000 41.000000 14.339862 7.000000
48.950505 -5.270216 16.306127 0.000000 45.000000 14.279527 2.000000
50.937625 -2.914659 16.650600 0.000000 45.000000 15.120605 26.000000
47.752592 -3.601380 16.892319 0.000000 48.000000 14.539961 7.000000
51.747717 -3.906411 15.298755 0.000000 27.000000 14.020811 0.000000
52.034507 -4.098043 15.323930 0.000000 44.000000 14.118474 0.000000
47.686861 -3.929395 16.492198 0.000000 18.000000 14.136333 0.000000
47.749246 -6.591703 16.674022 0.000000 54.000000 14.328064 25.000000
46.774484 -2.938364 17.144333 0.000000 47.000000 14.533522 28.000000
47.000618 -4.787217 17.024140 0.000000 42.000000 14.475140 6.000000
50.349792 -5.607227 15.789885 0.000000 40.000000 14.138204 0.000000
51.125354 -3.519823 16.184962 0.000000 60.000000 14.718441 5.000000
49.342430 -2.617645 16.725651 0.000000 70.000000 14.785312 27.000000
52.039511 -2.694037 15.897839 0.000000 79.000000 14.674587 26.000000
51.936016 -6.815291 15.340004 0.000000 48.000000 14.108832 0.000000
52.107740 -6.930425 15.243266 0.000000 28.000000 14.059215 0.000000
50.373609 -5.307323 15.745124 0.000000 31.000000 14.101021 0.000000
48.973334 -5.352984 16.184339 0.000000 42.000000 14.167624 0.000000
47.415166 -5.211176 16.761850 0.000000 56.000000 14.327557 6.000000
50.567879 -5.494974 15.717045 0.000000 45.000000 14.123545 0.000000
47.139208 -3.296564 16.717189 0.000000 30.000000 14.213825 0.000000
46.874831 -6.162624 16.819147 0.000000 35.000000 14.244800 0.000000
50.813309 -3.389482 15.717724 0.000000 37.000000 14.186951 0.000000
49.017555 -8.354134 16.182492 0.000000 52.000000 14.177144 0.000000
48.621943 -8.328252 16.240525 0.000000 47.000000 14.132101 0.000000
51.940004 -8.342001 15.260521 0.000000 21.000000 14.033010 0.000000
49.752366 -4.210618 16.126476 0.000000 57.000000 14.310862 15.000000
51.119160 -4.736315 15.657303 0.000000 40.000000 14.206736 0.000000
50.973738 -7.975018 16.094886 0.000000 47.000000 14.592595 13.000000
47.262982 -4.602158 16.608706 0.000000 39.000000 14.140594 0.000000
47.636947 -4.806981 16.500514 0.000000 42.000000 14.131611 0.000000
51.417029 -4.915096 16.267839 0.000000 74.000000 14.873137 3.000000
50.807561 -6.971207 15.606246 0.000000 23.000000 14.077708 0.000000
51.259054 -3.268839 15.562611 0.000000 22.000000 14.150959 0.000000
48.255228 -3.284090 16.410418 0.000000 42.000000 14.202587 0.000000
52.327633 -5.510201 15.377678 0.000000 32.000000 14.245380 0.000000
49.993836 -3.173955 16.438967 0.000000 79.000000 14.674704 27.000000
46.717600 -6.447401 16.798929 0.000000 42.000000 14.185054 0.000000
51.291643 -7.198466 15.527399 0.000000 53.000000 14.125249 0.000000
47.015218 -6.681454 16.701362 0.000000 47.000000 14.166823 0.000000
46.842820 -2.381869 17.153110 0.000000 37.000000 14.559479 28.000000
52.007398 -7.744205 15.336163 0.000000 42.000000 14.123369 0.000000
50.558889 -2.568125 16.316291 0.000000 66.000000 14.700575 27.000000
49.796566 -6.121840 15.949504 0.000000 24.000000 14.151073 0.000000
47.999684 -7.122104 16.646428 0.000000 44.000000 14.365417 21.000000
47.100584 -3.963364 16.689429 0.000000 37.000000 14.177113 0.000000
50.137321 -7.728117 15.869354 0.000000 30.000000 14.160709 0.000000
51.909905 -3.573273 15.755022 0.000000 50.000000 14.503380 1.000000
49.219385 -3.714937 16.579992 0.000000 73.000000 14.613035 9.000000
50.407679 -5.847044 15.893692 0.000000 48.000000 14.253361 0.000000
47.523286 -3.378404 16.690234 0.000000 62.000000 14.285965 7.000000
49.038770 -3.676537 16.750509 0.000000 79.000000 14.731706 9.000000
51.586153 -6.587346 15.484444 0.000000 58.000000 14.159021 0.000000
51.820376 -4.759922 15.451491 0.000000 34.000000 14.187047 0.000000
48.667168 -5.087265 16.713258 0.000000 63.000000 14.600684 2.000000
49.394765 -6.372510 16.085028 0.000000 41.000000 14.179362 0.000000
50.506876 -4.339903 15.812713 0.000000 59.000000 14.200436 0.000000
47.014816 -4.060297 16.730008 0.000000 36.000000 14.194414 0.000000
50.595625 -5.261718 15.661690 0.000000 31.000000 14.077123 0.000000
47.293499 -6.088593 16.731497 0.000000 47.000000 14.267106 0.000000
46.429409 -3.082704 16.874087 0.000000 30.000000 14.184031 0.000000
51.867613 -4.577223 15.479101 0.000000 45.000000 14.225817 0.000000
49.930899 -8.041615 16.168732 0.000000 32.000000 14.397360 17.000000
51.579264 -3.216408 15.878802 0.000000 62.000000 14.538510 26.000000
49.018303 -6.807675 16.041380 0.000000 24.000000 14.040913 0.000000
47.145530 -4.876142 17.036140 0.000000 50.000000 14.523792 6.000000
52.003682 -4.122173 15.325453 0.000000 51.000000 14.112065 0.000000
52.152841 -3.148476 15.881583 0.000000 50.000000 14.687847 26.000000
50.676404 -5.451417 15.659567 0.000000 54.000000 14.095724 0.000000
51.084941 -5.092854 15.870048 0.000000 27.000000 14.403662 3.000000
51.554336 -6.135642 15.498538 0.000000 34.000000 14.164511 0.000000
51.053964 -7.808911 15.655604 0.000000 33.000000 14.188425 0.000000
48.752415 -2.809884 16.363550 0.000000 43.000000 14.284395 28.000000
51.020556 -2.389771 16.248625 0.000000 71.000000 14.753194 24.000000
49.701502 -4.575213 16.030368 0.000000 56.000000 14.204944 0.000000
47.209633 -7.501971 16.648959 0.000000 40.000000 14.165869 0.000000
51.110306 -5.199505 15.716031 0.000000 38.000000 14.261249 0.000000
48.848240 -5.959169 16.249246 0.000000 37.000000 14.198390 0.000000
49.020998 -7.853396 16.178381 0.000000 42.000000 14.174050 0.000000
46.830240 -6.598211 16.744761 0.000000 37.000000 14.161486 0.000000
46.879756 -3.617027 17.119285 0.000000 74.000000 14.536222 7.000000
48.019829 -2.764115 16.799427 0.000000 55.000000 14.518482 28.000000
49.695944 -4.232427 16.028558 0.000000 51.000000 14.201773 0.000000
46.702184 -3.338531 16.935013 0.000000 75.000000 14.312674 7.000000
49.081773 -3.565236 16.668408 0.000000 75.000000 14.663329 9.000000
50.535802 -2.697062 16.231864 0.000000 57.000000 14.613051 27.000000
47.473009 -3.216501 16.618128 0.000000 33.000000 14.203401 0.000000
49.363555 -7.098439 16.037051 0.000000 44.000000 14.125000 0.000000
51.095446 -2.891392 16.242918 0.000000 67.000000 14.766824 26.000000
51.836256 -5.936814 15.476569 0.000000 48.000000 14.215352 0.000000
52.265391 -2.684342 15.977828 0.000000 81.000000 14.809669 26.000000
47.018039 -8.262351 16.681902 0.000000 47.000000 14.148731 0.000000
47.106297 -8.352275 16.615468 0.000000 38.000000 14.107071 0.000000
47.041972 -4.028441 16.694844 0.000000 44.000000 14.167362 0.000000
51.759788 -5.307593 15.438661 0.000000 40.000000 14.159153 0.000000
50.038829 -6.434602 15.976794 0.000000 62.000000 14.239396 0.000000
46.858667 -7.575914 16.787706 0.000000 42.000000 14.210271 0.000000
49.221974 -3.405151 16.273340 0.000000 57.000000 14.317237 9.000000
47.975346 -4.428122 16.602219 0.000000 33.000000 14.316455 4.000000
50.263414 -5.928253 15.919018 0.000000 46.000000 14.240961 0.000000
46.539555 -5.601576 16.834944 0.000000 44.000000 14.174351 0.000000
50.762232 -6.198551 15.701471 0.000000 38.000000 14.158179 0.000000
51.164403 -6.456264 15.578505 0.000000 39.000000 14.142125 0.000000
49.796179 -4.107191 15.911011 0.000000 39.000000 14.113760 0.000000
52.367701 -2.450830 15.721119 0.000000 58.000000 14.587651 24.000000
47.571152 -3.428331 16.660373 0.000000 52.000000 14.269335 0.000000
48.619199 -2.743197 16.372841 0.000000 58.000000 14.259317 0.000000
48.688895 -7.245182 16.582714 0.000000 45.000000 14.480034 10.000000
50.467668 -7.148125 16.041848 0.000000 62.000000 14.411931 16.000000
48.369419 -6.986170 16.260495 0.000000 35.000000 14.086843 0.000000
46.983363 -3.040516 16.735959 0.000000 30.000000 14.192126 0.000000
49.353836 -3.652434 16.677126 0.000000 73.000000 14.741316 9.000000
47.011382 -2.920564 17.086594 0.000000 69.000000 14.538271 28.000000
49.739762 -2.651635 16.714122 0.000000 69.000000 14.875754 27.000000
47.168175 -7.212100 16.943930 0.000000 74.000000 14.440436 21.000000
48.693718 -3.329860 16.401003 0.000000 49.000000 14.305596 9.000000
49.741521 -2.978467 16.927821 0.000000 62.000000 15.082800 27.000000
47.710720 -2.504375 16.397553 0.000000 51.000000 14.050934 0.000000
49.590316 -2.987638 16.735691 0.000000 79.000000 14.858397 27.000000
46.938917 -2.528489 16.988738 0.000000 65.000000 14.425140 28.000000
48.672315 -6.372948 16.289607 0.000000 38.000000 14.192430 0.000000
51.455155 -7.325863 15.753542 0.000000 39.000000 14.385682 16.000000
46.550512 -3.958475 16.768769 0.000000 47.000000 14.113177 0.000000
51.986489 -7.125391 15.327778 0.000000 43.000000 14.109917 0.000000
47.977420 -7.236160 16.776736 0.000000 58.000000 14.485702 21.000000
49.594979 -6.886473 16.010433 0.000000 32.000000 14.158436 0.000000
47.985394 -2.481763 16.932514 0.000000 67.000000 14.638341 23.000000
49.391260 -5.196946 16.015079 0.000000 28.000000 14.110842 0.000000
52.315783 -4.296699 15.359595 0.000000 28.000000 14.224868 0.000000
47.206513 -2.591605 16.767698 0.000000 27.000000 14.279864 0.000000
50.791947 -2.431515 16.242398 0.000000 67.000000 14.688725 27.000000
46.940066 -6.878738 16.625847 0.000000 31.000000 14.074604 0.000000
49.819819 -2.504188 16.758255 0.000000 56.000000 14.938888 27.000000
52.010611 -2.751206 16.114642 0.000000 67.000000 14.876796 26.000000
47.169308 -6.253617 16.741349 0.000000 45.000000 14.244878 0.000000
47.468366 -7.853187 16.665859 0.000000 42.000000 14.248358 0.000000
48.908101 -3.220060 16.177434 0.000000 32.000000 14.144270 0.000000
50.687769 -3.982114 15.558262 0.000000 33.000000 14.000692 0.000000
49.222165 -3.915289 16.044514 0.000000 39.000000 14.096066 0.000000
52.087712 -2.356408 15.939908 0.000000 67.000000 14.727582 24.000000
51.103088 -4.834282 15.665476 0.000000 46.000000 14.210528 0.000000
50.078421 -4.231112 15.915200 0.000000 39.000000 14.189972 0.000000
47.574278 -8.361032 16.452286 0.000000 25.000000 14.068963 0.000000
48.168865 -6.201348 16.393049 0.000000 36.000000 14.163715 0.000000
49.566866 -3.940504 15.907265 0.000000 33.000000 14.051509 0.000000
52.202379 -3.574968 15.796066 0.000000 70.000000 14.617838 1.000000
52.425396 -3.238998 15.369996 0.000000 35.000000 14.262949 0.000000
49.842291 -3.805116 16.008503 0.000000 45.000000 14.219801 0.000000
52.452039 -7.252473 15.644171 0.000000 50.000000 14.534823 19.000000
46.743488 -4.141109 16.819229 0.000000 39.000000 14.211298 0.000000
47.385160 -8.201560 16.568417 0.000000 47.000000 14.132881 0.000000
48.183017 -3.029395 16.924155 0.000000 72.000000 14.680787 28.000000
49.165256 -3.831647 16.403651 0.000000 58.000000 14.428716 9.000000
50.536824 -2.678998 16.330410 0.000000 66.000000 14.708583 27.000000
52.082025 -5.217265 15.400526 0.000000 51.000000 14.204673 0.000000
49.824738 -4.432314 16.024880 0.000000 51.000000 14.231146 0.000000
47.190343 -5.621036 17.045463 0.000000 63.000000 14.544262 11.000000
51.703674 -7.148160 15.428441 0.000000 47.000000 14.134926 0.000000
48.000103 -3.983463 16.324112 0.000000 27.000000 14.053921 0.000000
50.655785 -7.902591 16.010661 0.000000 49.000000 14.429877 13.000000
48.972119 -3.035751 16.201483 0.000000 31.000000 14.183887 0.000000
49.230199 -7.374729 16.498465 0.000000 38.000000 14.536983 10.000000
50.437773 -5.264753 15.744467 0.000000 32.000000 14.116790 0.000000
52.373936 -3.562211 15.651231 0.000000 64.000000 14.521680 1.000000
50.230993 -4.108386 15.856511 0.000000 27.000000 14.172242 0.000000
47.712580 -8.097363 16.515804 0.000000 27.000000 14.165730 0.000000
47.684949 -3.041741 16.938167 0.000000 49.000000 14.566990 28.000000
46.855530 -8.248402 16.712792 0.000000 45.000000 14.137045 0.000000
48.581402 -7.315873 16.509349 0.000000 58.000000 14.381625 10.000000
51.087232 -2.895088 16.370698 0.000000 72.000000 14.888257 26.000000
51.203242 -5.036658 15.931428 0.000000 58.000000 14.493248 3.000000
52.090083 -6.773821 15.234020 0.000000 23.000000 14.045762 0.000000
52.115452 -2.794911 16.045531 0.000000 69.000000 14.836787 26.000000
46.559062 -6.634567 16.800962 0.000000 39.000000 14.146486 0.000000
47.913496 -3.079134 16.810407 0.000000 67.000000 14.501910 28.000000
48.646561 -5.738000 16.655243 0.000000 67.000000 14.539329 12.000000
51.539407 -4.879163 16.019020 0.000000 62.000000 14.663877 3.000000
47.279019 -4.062856 16.537436 0.000000 33.000000 14.075793 0.000000
47.285895 -4.778938 16.703806 0.000000 31.000000 14.238391 0.000000
51.209336 -2.505011 16.227363 0.000000 85.000000 14.780905 24.000000
52.193953 -4.524416 15.326417 0.000000 31.000000 14.161645 0.000000
49.287608 -3.708036 16.612622 0.000000 75.000000 14.662024 9.000000
49.820412 -2.757471 16.664873 0.000000 71.000000 14.848762 27.000000
50.700083 -5.423879 15.594752 0.000000 41.000000 14.039117 0.000000
51.639933 -7.699009 15.465163 0.000000 38.000000 14.154131 0.000000
51.595529 -2.796644 16.098965 0.000000 76.000000 14.755514 26.000000
52.088219 -2.550362 15.557661 0.000000 51.000000 14.358169 24.000000
50.442559 -5.736201 16.113356 0.000000 57.000000 14.474642 22.000000
48.429314 -3.498899 16.400105 0.000000 50.000000 14.237127 0.000000
49.774475 -8.094583 16.221117 0.000000 37.000000 14.408010 17.000000
51.303526 -2.898010 16.299631 0.000000 61.000000 14.874853 26.000000
46.582302 -4.846756 17.010902 0.000000 61.000000 14.355390 6.000000
49.080310 -7.743167 16.198394 0.000000 49.000000 14.208562 0.000000
51.063161 -4.421960 15.663779 0.000000 55.000000 14.198680 0.000000
47.902693 -4.424412 17.006221 0.000000 40.000000 14.688454 4.000000
49.793039 -3.019638 16.937196 0.000000 64.000000 15.105035 27.000000
49.586549 -3.571791 16.626732 0.000000 57.000000 14.752096 9.000000
46.884008 -4.967572 17.108640 0.000000 42.000000 14.527018 6.000000
50.559029 -5.709116 15.861759 0.000000 40.000000 14.261186 0.000000
52.247854 -5.696187 15.473611 0.000000 55.000000 14.317727 29.000000
47.687379 -3.033117 16.973796 0.000000 76.000000 14.602056 28.000000
50.611819 -3.470966 16.329220 0.000000 48.000000 14.726607 5.000000
51.484438 -3.634344 15.666516 0.000000 59.000000 14.309035 5.000000
49.738469 -2.370014 16.595883 0.000000 73.000000 14.761114 27.000000
50.847740 -6.939930 15.580176 0.000000 47.000000 14.062778 0.000000
51.254985 -4.047335 15.469966 0.000000 44.000000 14.060353 0.000000
51.957809 -2.730778 16.052381 0.000000 74.000000 14.803104 26.000000
48.152345 -4.788993 16.481026 0.000000 47.000000 14.244544 0.000000
49.768501 -6.644342 15.902453 0.000000 45.000000 14.098410 0.000000
48.720162 -4.360794 16.587933 0.000000 71.000000 14.493074 15.000000
48.972690 -3.331710 16.321155 0.000000 39.000000 14.299728 9.000000
51.522366 -4.109573 15.475422 0.000000 52.000000 14.133990 0.000000
49.868466 -4.547463 15.959706 0.000000 37.000000 14.179319 0.000000
48.752260 -6.931628 16.168195 0.000000 32.000000 14.095493 0.000000
51.178519 -3.553875 16.049052 0.000000 61.000000 14.600641 5.000000
46.551161 -5.051841 17.188108 0.000000 78.000000 14.518744 6.000000
47.935310 -4.364841 16.718053 0.000000 61.000000 14.418203 4.000000
48.740359 -4.519683 16.281066 0.000000 45.000000 14.201570 0.000000
46.652575 -5.250585 16.871109 0.000000 55.000000 14.238210 0.000000
51.912812 -2.858345 15.902681 0.000000 72.000000 14.646875 26.000000
51.013562 -6.048412 15.600278 0.000000 45.000000 14.124608 0.000000
47.140765 -6.713695 16.603640 0.000000 39.000000 14.104448 0.000000
51.812387 -8.398734 15.331539 0.000000 34.000000 14.069040 0.000000
49.480386 -4.024529 15.981082 0.000000 27.000000 14.100762 0.000000
47.077153 -3.749938 16.776965 0.000000 21.000000 14.255749 0.000000
48.269739 -6.371745 16.365592 0.000000 42.000000 14.162962 0.000000
47.964134 -4.395469 16.715621 0.000000 67.000000 14.423221 4.000000
49.695033 -3.005444 16.841335 0.000000 65.000000 14.987303 27.000000
46.840509 -5.658018 16.843449 0.000000 33.000000 14.259519 0.000000
46.485659 -5.145293 16.902068 0.000000 40.000000 14.225464 0.000000
50.848189 -7.926467 15.986762 0.000000 37.000000 14.455965 13.000000
47.253955 -7.817636 16.692011 0.000000 29.000000 14.218822 0.000000
47.240364 -2.683364 16.747851 0.000000 55.000000 14.269331 0.000000
51.342132 -5.227765 15.505428 0.000000 53.000000 14.116917 0.000000
47.946580 -3.001585 16.880416 0.000000 52.000000 14.578051 28.000000
48.726047 -2.499814 16.538975 0.000000 37.000000 14.447248 27.000000
52.027396 -8.329446 15.257266 0.000000 24.000000 14.052208 0.000000
47.704690 -6.393411 16.631647 0.000000 28.000000 14.275705 25.000000
50.320355 -2.758449 16.335093 0.000000 79.000000 14.657765 27.000000
50.359300 -6.236107 15.850786 0.000000 38.000000 14.199512 0.000000
47.643161 -4.584283 16.568425 0.000000 41.000000 14.198853 0.000000
50.352643 -4.054751 15.743566 0.000000 33.000000 14.094154 0.000000
51.605075 -6.957149 15.395229 0.000000 28.000000 14.077609 0.000000
49.520410 -3.447134 16.294438 0.000000 76.000000 14.413936 9.000000
48.578955 -3.495816 16.573533 0.000000 51.000000 14.443050 9.000000
51.337171 -2.650157 16.059846 0.000000 79.000000 14.651640 26.000000
51.783474 -5.371566 15.432260 0.000000 50.000000 14.159021 0.000000
46.973822 -3.892074 16.697016 0.000000 34.000000 14.152038 0.000000
51.700367 -2.874004 16.192637 0.000000 81.000000 14.872877 26.000000
49.542343 -4.940619 16.015559 0.000000 47.000000 14.149934 0.000000
49.567350 -2.911514 16.941555 0.000000 49.000000 15.051546 27.000000
49.678101 -6.989848 15.941691 0.000000 25.000000 14.113231 0.000000
46.674164 -5.669827 16.837524 0.000000 44.000000 14.211261 0.000000
52.486714 -3.576467 15.654868 0.000000 61.000000 14.554030 1.000000
48.327468 -3.720324 16.360660 0.000000 36.000000 14.172953 0.000000
50.269822 -6.152293 15.844404 0.000000 37.000000 14.170465 0.000000
47.246891 -4.889593 17.090300 0.000000 69.000000 14.602067 6.000000
48.610322 -8.378139 16.163336 0.000000 46.000000 14.054506 0.000000
47.145474 -4.382237 16.776647 0.000000 44.000000 14.272909 0.000000
49.851818 -2.925938 16.800323 0.000000 75.000000 14.987740 27.000000
47.200565 -7.758727 16.640389 0.000000 32.000000 14.155265 0.000000
52.519505 -3.006010 15.813309 0.000000 58.000000 14.715589 26.000000
50.152476 -5.720212 15.912426 0.000000 39.000000 14.206224 0.000000
47.185713 -7.117105 16.867866 0.000000 54.000000 14.371384 21.000000
46.508029 -8.143176 16.810195 0.000000 25.000000 14.142364 0.000000
51.470836 -7.367292 15.784578 0.000000 56.000000 14.419695 16.000000
48.632433 -4.136660 16.192917 0.000000 36.000000 14.088757 0.000000
49.624823 -4.691847 16.026343 0.000000 41.000000 14.181448 0.000000
50.754704 -3.449733 16.221456 0.000000 78.000000 14.658957 5.000000
47.544520 -7.929707 16.771239 0.000000 52.000000 14.369706 20.000000
47.631882 -5.325414 16.531177 0.000000 35.000000 14.159959 0.000000
47.926230 -3.879220 16.343257 0.000000 33.000000 14.053542 0.000000
52.176759 -3.243156 15.324725 0.000000 25.000000 14.155613 0.000000
47.047335 -6.787778 16.613351 0.000000 23.000000 14.089949 0.000000
51.353661 -2.485919 16.198680 0.000000 57.000000 14.790076 24.000000
51.495336 -5.022040 15.951105 0.000000 63.000000 14.586952 3.000000
46.780648 -6.695143 16.838784 0.000000 33.000000 14.239704 0.000000
51.091744 -3.926840 15.540759 0.000000 48.000000 14.087056 0.000000
47.101321 -4.908822 17.075231 0.000000 60.000000 14.550280 6.000000
49.656676 -8.409403 15.944052 0.000000 48.000000 14.110036 0.000000
46.591530 -8.334357 16.797822 0.000000 43.000000 14.151751 0.000000
48.490287 -4.065737 16.197183 0.000000 33.000000 14.056538 0.000000
51.995870 -2.574927 15.944598 0.000000 45.000000 14.708634 24.000000
47.173341 -3.061966 16.767834 0.000000 43.000000 14.271514 0.000000
52.098043 -3.678660 15.663709 0.000000 74.000000 14.463204 1.000000
48.537695 -8.379131 16.216453 0.000000 34.000000 14.087289 0.000000
46.737975 -4.162401 16.849949 0.000000 37.000000 14.239588 0.000000
49.318625 -4.946490 16.181916 0.000000 53.000000 14.253563 0.000000
50.616910 -3.712517 16.174169 0.000000 72.000000 14.578011 5.000000
51.505831 -5.324317 15.545423 0.000000 35.000000 14.197437 0.000000
48.651443 -7.628086 16.292521 0.000000 36.000000 14.189911 0.000000
46.594939 -3.032148 16.848461 0.000000 34.000000 14.201579 0.000000
50.861906 -5.242609 15.636965 0.000000 35.000000 14.121301 0.000000
49.642377 -2.778088 16.612093 0.000000 64.000000 14.752217 27.000000
48.707144 -2.383197 16.492641 0.000000 43.000000 14.397621 27.000000
50.474403 -7.416374 15.821849 0.000000 42.000000 14.200966 0.000000
50.215465 -6.268711 15.874548 0.000000 23.000000 14.185710 0.000000
47.130463 -4.298275 16.747905 0.000000 37.000000 14.241284 0.000000
47.151565 -3.240777 16.707262 0.000000 39.000000 14.207387 0.000000
47.225586 -3.863160 16.555186 0.000000 35.000000 14.079291 0.000000
50.580651 -2.340142 16.577578 0.000000 56.000000 14.958742 27.000000
52.406911 -7.283683 15.628360 0.000000 60.000000 14.508000 19.000000
50.480167 -3.719422 16.196817 0.000000 77.000000 14.564945 5.000000
51.819274 -2.944624 16.013143 0.000000 58.000000 14.729750 26.000000
50.336448 -3.798922 16.228227 0.000000 36.000000 14.558565 5.000000
48.788982 -3.934773 16.345201 0.000000 42.000000 14.276005 0.000000
46.414679 -6.357357 16.918322 0.000000 41.000000 14.223030 0.000000
51.560341 -8.167434 15.468845 0.000000 36.000000 14.137341 0.000000
52.272340 -7.943137 15.344482 0.000000 47.000000 14.199151 0.000000
51.825815 -4.650733 15.419239 0.000000 30.000000 14.157258 0.000000
47.376798 -4.909336 16.821088 0.000000 42.000000 14.375017 6.000000
51.288094 -6.669636 15.556919 0.000000 43.000000 14.152881 0.000000
48.869628 -2.734256 16.222171 0.000000 34.000000 14.177683 0.000000
50.483982 -3.714888 16.220271 0.000000 60.000000 14.588595 5.000000
50.657440 -3.767087 15.988571 0.000000 72.000000 14.408944 5.000000
48.937610 -3.598178 16.703042 0.000000 71.000000 14.659953 9.000000
50.008798 -3.463099 16.096442 0.000000 82.000000 14.347389 5.000000
51.546469 -6.055467 15.517774 0.000000 46.000000 14.181097 0.000000
50.069972 -4.105960 15.812233 0.000000 27.000000 14.088267 0.000000
52.322566 -2.321083 15.878663 0.000000 65.000000 14.728418 24.000000
50.237442 -6.904088 15.715673 0.000000 28.000000 14.037734 0.000000
50.968184 -5.647199 15.626463 0.000000 50.000000 14.138321 0.000000
50.477452 -5.560238 15.738799 0.000000 50.000000 14.121456 0.000000
50.009877 -5.472470 15.837406 0.000000 49.000000 14.097239 0.000000
51.659856 -3.039959 15.875350 0.000000 67.000000 14.555778 26.000000
51.846550 -2.329134 16.078996 0.000000 72.000000 14.800388 24.000000
51.178331 -7.821167 15.609481 0.000000 29.000000 14.175632 0.000000
51.846143 -2.978008 15.990307 0.000000 70.000000 14.714543 26.000000
50.205379 -4.724019 15.876663 0.000000 48.000000 14.185175 0.000000
49.069107 -5.539379 16.112273 0.000000 28.000000 14.122439 0.000000
51.807079 -5.563726 15.322077 0.000000 37.000000 14.058535 0.000000
48.624140 -3.058136 16.488715 0.000000 35.000000 14.372603 28.000000
47.281091 -3.845478 16.698607 0.000000 25.000000 14.232137 0.000000
50.020504 -4.496155 15.950489 0.000000 40.000000 14.209280 0.000000
47.950460 -4.215581 16.833482 0.000000 36.000000 14.533669 4.000000
50.089041 -3.046821 16.320215 0.000000 44.000000 14.584241 27.000000
49.555864 -6.175780 16.082200 0.000000 39.000000 14.217817 0.000000
51.000592 -2.625309 16.085871 0.000000 65.000000 14.590745 26.000000
51.393677 -3.655570 16.153371 0.000000 75.000000 14.756503 5.000000
47.068606 -4.985231 17.159546 0.000000 73.000000 14.623428 6.000000
48.056667 -2.827014 16.797154 0.000000 69.000000 14.525703 28.000000
49.229367 -4.349546 16.364972 0.000000 60.000000 14.407714 15.000000
48.908004 -6.149213 16.212065 0.000000 46.000000 14.177725 0.000000
51.656035 -3.076016 15.933813 0.000000 77.000000 14.611321 26.000000
49.785132 -2.906924 16.954054 0.000000 73.000000 15.119311 27.000000
46.537773 -4.801337 17.067779 0.000000 77.000000 14.398991 6.000000
50.217777 -7.102764 15.809703 0.000000 50.000000 14.123611 0.000000
47.825316 -2.695768 16.566675 0.000000 28.000000 14.243734 0.000000
50.502688 -2.728550 16.269532 0.000000 79.000000 14.641001 27.000000
46.735246 -8.292713 16.758748 0.000000 43.000000 14.150720 0.000000
51.718656 -6.274820 15.442077 0.000000 39.000000 14.151939 0.000000
49.093406 -3.334005 16.147516 0.000000 34.000000 14.162724 0.000000
46.996422 -4.882128 16.993922 0.000000 42.000000 14.444854 6.000000
49.708281 -4.730108 15.993696 0.000000 37.000000 14.171224 0.000000
47.776393 -3.313803 16.507317 0.000000 29.000000 14.173840 0.000000
52.335536 -3.153523 15.610639 0.000000 49.000000 14.472619 26.000000
46.933697 -3.285635 16.735738 0.000000 33.000000 14.179214 0.000000
46.510167 -3.265023 16.860012 0.000000 31.000000 14.191072 0.000000
46.358366 -3.380427 16.880003 0.000000 31.000000 14.171587 0.000000
50.304862 -7.812129 15.832235 0.000000 44.000000 14.167659 0.000000
49.858648 -7.728295 15.932279 0.000000 33.000000 14.150293 0.000000
50.524840 -2.376121 16.488743 0.000000 63.000000 14.858590 27.000000
49.736374 -3.223468 16.136345 0.000000 40.000000 14.316314 27.000000
50.245434 -7.823979 15.843368 0.000000 50.000000 14.163228 0.000000
48.318643 -6.009825 16.396833 0.000000 21.000000 14.205668 0.000000
49.339506 -2.539759 16.660867 0.000000 65.000000 14.721934 27.000000
50.600580 -3.767966 16.094235 0.000000 67.000000 14.496559 5.000000
49.024624 -6.700800 16.048767 0.000000 26.000000 14.049671 0.000000
48.029658 -5.920505 16.670501 0.000000 43.000000 14.396354 11.000000
47.128669 -6.914088 16.614662 0.000000 42.000000 14.112011 0.000000
47.334959 -2.966041 17.122065 0.000000 82.000000 14.655293 28.000000
48.746892 -2.737070 16.282880 0.000000 45.000000 14.204994 0.000000
52.247561 -3.022347 16.031860 0.000000 74.000000 14.857347 26.000000
51.231320 -7.191431 15.631966 0.000000 45.000000 14.210918 0.000000
49.620556 -5.090774 16.110981 0.000000 48.000000 14.262182 0.000000
51.194925 -3.436090 16.013238 0.000000 69.000000 14.570212 5.000000
49.876822 -2.377679 16.627650 0.000000 68.000000 14.827199 27.000000
51.187461 -3.054102 16.239136 0.000000 76.000000 14.786694 26.000000
49.391659 -4.483378 16.172382 0.000000 48.000000 14.263019 0.000000
49.457320 -3.432138 16.655743 0.000000 76.000000 14.747102 9.000000
49.825162 -5.371110 15.882396 0.000000 24.000000 14.093507 0.000000
50.594600 -5.113675 15.747927 0.000000 49.000000 14.160232 0.000000
47.621951 -7.324365 16.823899 0.000000 51.000000 14.440413 21.000000
48.905390 -8.151106 16.194636 0.000000 23.000000 14.160207 0.000000
51.652171 -5.765532 15.467676 0.000000 46.000000 14.159689 0.000000
47.431188 -3.515844 16.883097 0.000000 68.000000 14.448871 7.000000
50.973076 -7.323239 15.845146 0.000000 51.000000 14.350986 16.000000
50.661571 -3.923692 15.695210 0.000000 28.000000 14.126390 0.000000
51.596188 -8.409383 15.458323 0.000000 33.000000 14.136333 0.000000
49.215784 -6.752460 16.041724 0.000000 39.000000 14.091737 0.000000
51.647672 -2.998707 16.192760 0.000000 70.000000 14.859523 26.000000
47.568941 -3.395048 16.720573 0.000000 65.000000 14.326968 7.000000
48.250150 -4.256448 16.442422 0.000000 23.000000 14.232229 0.000000
50.844096 -5.619519 15.698945 0.000000 48.000000 14.176668 0.000000
48.928606 -8.068653 16.609947 0.000000 59.000000 14.567650 18.000000
50.427015 -3.524462 16.284261 0.000000 41.000000 14.635893 5.000000
50.643841 -5.717456 15.743768 0.000000 28.000000 14.168801 0.000000
52.044023 -4.254323 15.580092 0.000000 65.000000 14.368555 30.000000
51.424481 -6.264645 15.529256 0.000000 35.000000 14.161008 0.000000
52.021510 -6.111604 15.339975 0.000000 31.000000 14.130663 0.000000
48.116398 -4.101465 16.300922 0.000000 21.000000 14.061236 0.000000
48.459089 -2.377747 16.649870 0.000000 73.000000 14.486203 27.000000
48.961328 -5.335480 16.204441 0.000000 38.000000 14.183988 0.000000
49.478868 -2.603408 16.635739 0.000000 65.000000 14.733272 27.000000
50.346038 -6.222498 15.866568 0.000000 39.000000 14.211379 0.000000
46.928370 -3.427073 17.112426 0.000000 70.000000 14.542020 7.000000
48.461022 -5.582428 16.370294 0.000000 44.000000 14.216413 0.000000
52.075818 -3.018839 16.013592 0.000000 68.000000 14.795776 26.000000
47.519554 -7.159547 16.854579 0.000000 54.000000 14.443893 21.000000
47.101101 -5.327279 16.767017 0.000000 43.000000 14.252254 0.000000
46.640894 -4.860513 17.080059 0.000000 52.000000 14.437229 6.000000
50.105643 -5.118151 15.919674 0.000000 48.000000 14.201257 0.000000
52.276139 -7.295321 15.599793 0.000000 69.000000 14.446947 19.000000
48.196708 -5.363871 16.408573 0.000000 44.000000 14.185842 0.000000
48.636185 -5.602005 16.208584 0.000000 44.000000 14.104863 0.000000
51.218772 -5.778898 15.757919 0.000000 61.000000 14.329476 22.000000
49.851237 -2.630433 16.325049 0.000000 74.000000 14.528114 27.000000
48.833466 -2.646145 16.154203 0.000000 25.000000 14.102729 0.000000
51.548876 -7.618442 15.482578 0.000000 39.000000 14.147686 0.000000
47.916509 -3.430990 16.702928 0.000000 72.000000 14.398774 7.000000
50.530391 -2.565502 16.286032 0.000000 59.000000 14.664035 27.000000
50.780352 -7.201214 15.759498 0.000000 50.000000 14.218910 0.000000
48.590155 -2.758380 16.665685 0.000000 71.000000 14.535002 28.000000
52.298265 -2.592052 15.689690 0.000000 74.000000 14.539513 26.000000
51.549385 -7.748336 15.473446 0.000000 35.000000 14.138988 0.000000
51.709220 -7.969577 15.545650 0.000000 54.000000 14.249657 0.000000
49.655805 -3.528937 16.124247 0.000000 38.000000 14.284019 9.000000
50.894489 -6.985850 15.623425 0.000000 36.000000 14.116542 0.000000
51.662534 -4.074895 15.425798 0.000000 22.000000 14.121852 0.000000
47.577042 -5.517098 16.477958 0.000000 28.000000 14.094488 0.000000
