8.691106 -29.868869 -52.222692 0.000000 12.000000 14.069311 0.000000
6.121357 -28.377583 -52.146141 0.000000 33.000000 14.069806 0.000000
9.745689 -30.552549 -55.164962 0.000000 62.000000 14.453831 8.000000
8.392870 -29.785758 -52.882934 0.000000 34.000000 14.220859 0.000000
6.002545 -28.664597 -50.778215 0.000000 37.000000 14.223759 0.000000
9.641796 -30.595410 -55.512390 0.000000 52.000000 14.581282 8.000000
5.843021 -28.627046 -55.603039 0.000000 45.000000 14.807275 12.000000
5.345302 -28.789409 -53.397208 0.000000 73.000000 14.951231 22.000000
5.323202 -28.094394 -53.006370 0.000000 35.000000 14.322566 0.000000
5.550004 -28.337752 -51.670365 0.000000 29.000000 14.269299 0.000000
5.926458 -29.155964 -52.224861 0.000000 74.000000 14.844158 11.000000
10.535027 -30.753639 -55.387851 0.000000 37.000000 14.255318 0.000000
5.564056 -28.255495 -54.022590 0.000000 53.000000 14.452863 21.000000
7.595427 -29.430439 -51.767069 0.000000 31.000000 14.191947 0.000000
7.732161 -29.514300 -51.756166 0.000000 39.000000 14.194128 0.000000
6.094145 -28.664196 -51.223479 0.000000 46.000000 14.226925 0.000000
8.000227 -29.692618 -51.736240 0.000000 38.000000 14.210500 0.000000
7.828901 -29.970538 -51.922917 0.000000 52.000000 14.555604 1.000000
8.748467 -30.112800 -51.761833 0.000000 34.000000 14.198676 0.000000
8.451653 -30.121698 -50.557246 0.000000 31.000000 14.221389 0.000000
9.036696 -30.289218 -51.786859 0.000000 30.000000 14.208299 0.000000
8.604806 -30.200512 -50.573542 0.000000 31.000000 14.214027 0.000000
9.184611 -30.376787 -51.806330 0.000000 35.000000 14.211428 0.000000
8.740314 -30.287735 -50.589255 0.000000 30.000000 14.222663 0.000000
9.860991 -30.871734 -55.492170 0.000000 52.000000 14.706220 8.000000
9.176199 -30.541925 -50.663239 0.000000 31.000000 14.230412 0.000000
10.263430 -30.991608 -52.038808 0.000000 32.000000 14.223818 0.000000
6.384627 -29.276681 -51.049946 0.000000 70.000000 14.587531 17.000000
6.158237 -28.384980 -55.225002 0.000000 51.000000 14.399535 12.000000
6.621829 -28.806152 -55.560483 0.000000 55.000000 14.565704 23.000000
5.923894 -29.160435 -52.380752 0.000000 67.000000 14.866590 11.000000
6.121949 -28.646401 -51.613448 0.000000 33.000000 14.241015 0.000000
7.376266 -29.239014 -54.530653 0.000000 57.000000 14.444460 19.000000
6.562341 -29.202258 -52.264008 0.000000 46.000000 14.569369 18.000000
9.259952 -31.297819 -50.195426 0.000000 53.000000 14.785055 3.000000
6.419442 -29.311008 -51.326822 0.000000 53.000000 14.630272 17.000000
6.100399 -28.407916 -52.076425 0.000000 27.000000 14.098601 0.000000
5.220980 -28.548027 -52.347442 0.000000 57.000000 14.689891 22.000000
5.436401 -28.341575 -53.222157 0.000000 65.000000 14.501855 22.000000
5.446463 -28.323778 -52.963181 0.000000 56.000000 14.452782 22.000000
5.955255 -29.102153 -55.939007 0.000000 6.000000 15.195962 26.000000
8.742631 -29.856954 -52.799074 0.000000 14.000000 14.097252 0.000000
10.000669 -30.809042 -51.810834 0.000000 23.000000 14.173615 0.000000
9.764807 -32.040381 -51.166895 0.000000 9.000000 15.276918 6.000000
8.851472 -29.739175 -55.066800 0.000000 41.000000 14.193423 0.000000
7.856708 -29.742420 -53.925724 0.000000 45.000000 14.568317 9.000000
9.171504 -29.751973 -55.177299 0.000000 27.000000 14.056196 0.000000
9.068495 -30.860513 -51.473253 0.000000 43.000000 14.647723 5.000000
9.343944 -29.848812 -55.217721 0.000000 36.000000 14.057308 0.000000
7.997172 -29.737057 -52.018340 0.000000 52.000000 14.281486 1.000000
8.019635 -29.617263 -55.210446 0.000000 63.000000 14.521884 10.000000
8.920902 -29.867105 -53.917629 0.000000 32.000000 14.140773 0.000000
9.558452 -30.110144 -55.247667 0.000000 50.000000 14.177303 0.000000
5.460239 -28.650341 -51.108201 0.000000 54.000000 14.520102 7.000000
8.951725 -30.124265 -52.587955 0.000000 32.000000 14.198324 0.000000
9.251988 -30.047636 -54.007947 0.000000 34.000000 14.139685 0.000000
6.086930 -28.738940 -55.679529 0.000000 56.000000 14.789473 12.000000
7.173328 -29.393915 -53.778280 0.000000 49.000000 14.595588 19.000000
9.700880 -30.349324 -54.146956 0.000000 37.000000 14.188887 0.000000
9.882944 -30.438093 -54.213362 0.000000 36.000000 14.181134 0.000000
6.331983 -28.788839 -54.344801 0.000000 64.000000 14.561201 25.000000
10.089851 -30.513205 -54.293255 0.000000 41.000000 14.150702 0.000000
10.879752 -30.767697 -55.718339 0.000000 37.000000 14.131219 0.000000
6.653417 -29.177134 -52.744442 0.000000 54.000000 14.555490 30.000000
11.192314 -30.989493 -55.850090 0.000000 38.000000 14.179426 0.000000
6.274783 -28.061772 -56.231487 0.000000 45.000000 14.175529 0.000000
7.495504 -29.482443 -51.049608 0.000000 36.000000 14.207007 0.000000
6.105010 -28.923436 -53.134832 0.000000 70.000000 14.656149 11.000000
8.992070 -30.450571 -50.804413 0.000000 35.000000 14.260032 0.000000
9.835067 -30.674325 -55.303892 0.000000 51.000000 14.528929 8.000000
10.033254 -31.454756 -50.933518 0.000000 44.000000 14.613905 6.000000
7.374159 -29.347244 -51.548254 0.000000 25.000000 14.207218 0.000000
7.359694 -29.286688 -53.479540 0.000000 43.000000 14.376960 19.000000
10.299697 -31.350539 -55.068721 0.000000 52.000000 14.850048 14.000000
10.086093 -31.026240 -54.383966 0.000000 56.000000 14.602862 15.000000
5.003283 -28.006323 -51.754307 0.000000 41.000000 14.268389 0.000000
6.142680 -28.555904 -52.472569 0.000000 34.000000 14.248367 0.000000
6.332361 -28.588204 -54.066812 0.000000 50.000000 14.357992 25.000000
6.334485 -28.421149 -54.155045 0.000000 38.000000 14.223384 0.000000
5.572786 -28.054487 -53.431204 0.000000 31.000000 14.210346 0.000000
5.499100 -27.981575 -53.548375 0.000000 32.000000 14.197745 0.000000
6.419671 -28.885320 -55.091609 0.000000 71.000000 14.682940 24.000000
6.445627 -29.394713 -51.714564 0.000000 48.000000 14.732018 17.000000
9.940763 -31.074745 -49.942077 0.000000 29.000000 14.224131 0.000000
5.428687 -28.538809 -52.314208 0.000000 56.000000 14.574139 22.000000
6.345730 -28.643338 -56.335334 0.000000 71.000000 14.650490 23.000000
5.163818 -28.437955 -51.374010 0.000000 39.000000 14.516019 7.000000
10.157148 -30.681105 -55.054796 0.000000 50.000000 14.345582 0.000000
9.973081 -30.852113 -55.522400 0.000000 41.000000 14.636535 8.000000
10.593529 -31.018537 -52.932095 0.000000 36.000000 14.180589 0.000000
7.788859 -29.572052 -54.224357 0.000000 58.000000 14.489317 9.000000
6.661088 -29.053176 -54.839133 0.000000 79.000000 14.677876 24.000000
10.519836 -30.901230 -53.379231 0.000000 38.000000 14.166538 0.000000
9.939589 -30.569779 -52.283043 0.000000 14.000000 14.051379 0.000000
10.456517 -30.872039 -53.513138 0.000000 48.000000 14.188110 0.000000
5.535921 -28.436123 -53.860854 0.000000 48.000000 14.603998 21.000000
6.073351 -28.155804 -55.565370 0.000000 46.000000 14.283253 12.000000
9.777189 -30.513707 -52.538759 0.000000 25.000000 14.113096 0.000000
9.313124 -30.568156 -50.952390 0.000000 25.000000 14.216367 0.000000
10.987690 -31.472554 -55.092179 0.000000 52.000000 14.612359 13.000000
9.579525 -30.463361 -52.782601 0.000000 35.000000 14.196090 0.000000
6.220611 -28.980154 -54.022222 0.000000 65.000000 14.745384 25.000000
6.578020 -29.168523 -54.086855 0.000000 46.000000 14.734969 25.000000
5.321252 -28.437876 -52.291336 0.000000 41.000000 14.538867 22.000000
7.525939 -29.875405 -50.382685 0.000000 55.000000 14.454867 29.000000
10.111662 -30.515452 -54.518929 0.000000 39.000000 14.166752 0.000000
10.051627 -30.700683 -54.338153 0.000000 33.000000 14.335718 15.000000
6.408442 -28.929731 -54.421319 0.000000 55.000000 14.652249 25.000000
9.271177 -30.185448 -53.450862 0.000000 35.000000 14.186452 0.000000
9.953301 -30.410531 -54.781281 0.000000 46.000000 14.185266 0.000000
9.191054 -30.129947 -53.576085 0.000000 34.000000 14.192911 0.000000
9.892824 -30.343931 -54.918837 0.000000 48.000000 14.173720 0.000000
9.174381 -30.038241 -53.726305 0.000000 27.000000 14.139265 0.000000
6.742316 -29.042405 -55.257195 0.000000 68.000000 14.674324 23.000000
9.142162 -29.950857 -53.870446 0.000000 29.000000 14.096448 0.000000
9.978290 -31.390520 -51.373896 0.000000 61.000000 14.635249 6.000000
5.234827 -27.972787 -52.558568 0.000000 31.000000 14.212813 0.000000
8.658971 -30.326067 -51.930699 0.000000 35.000000 14.445295 2.000000
8.887692 -29.869917 -54.075622 0.000000 36.000000 14.177382 0.000000
9.602997 -30.068081 -55.447599 0.000000 41.000000 14.141075 0.000000
9.959993 -30.712794 -51.852880 0.000000 27.000000 14.116095 0.000000
5.470249 -28.204238 -51.869191 0.000000 29.000000 14.216809 0.000000
8.703418 -29.741956 -54.304168 0.000000 35.000000 14.185367 0.000000
9.449591 -29.915470 -55.703821 0.000000 49.000000 14.115504 0.000000
8.634636 -29.659165 -54.428548 0.000000 30.000000 14.162630 0.000000
9.446870 -29.794635 -55.869257 0.000000 32.000000 14.031557 0.000000
8.542013 -29.588668 -54.540469 0.000000 30.000000 14.161014 0.000000
9.327590 -29.735377 -55.973938 0.000000 32.000000 14.052147 0.000000
7.954933 -29.798503 -55.729522 0.000000 57.000000 14.767477 10.000000
9.096863 -29.731584 -56.020177 0.000000 41.000000 14.169723 0.000000
7.881919 -29.662165 -53.637887 0.000000 54.000000 14.454852 9.000000
7.519302 -29.587972 -56.237758 0.000000 34.000000 14.861710 16.000000
8.215617 -29.392265 -54.845524 0.000000 49.000000 14.190033 0.000000
8.665612 -30.210112 -51.295722 0.000000 29.000000 14.271964 0.000000
6.414781 -28.954166 -50.601746 0.000000 28.000000 14.245913 0.000000
8.783960 -29.503420 -56.346992 0.000000 36.000000 14.167141 0.000000
8.104017 -29.184849 -55.096529 0.000000 32.000000 14.095895 0.000000
6.349386 -28.787527 -54.811448 0.000000 60.000000 14.603165 24.000000
7.998609 -29.109974 -55.194047 0.000000 40.000000 14.095333 0.000000
7.903837 -29.022717 -55.297579 0.000000 35.000000 14.079482 0.000000
6.598440 -29.151977 -52.760473 0.000000 53.000000 14.563252 30.000000
7.465682 -28.850149 -55.514525 0.000000 36.000000 14.175211 0.000000
6.382412 -28.527688 -54.846448 0.000000 32.000000 14.367539 24.000000
5.858586 -28.431186 -50.924751 0.000000 35.000000 14.111941 0.000000
5.911913 -28.549875 -50.856719 0.000000 37.000000 14.179487 0.000000
9.000876 -30.344749 -52.023493 0.000000 35.000000 14.300184 2.000000
6.115444 -28.722825 -50.756551 0.000000 40.000000 14.214703 0.000000
8.582031 -29.483479 -55.935646 0.000000 37.000000 14.205610 0.000000
6.360002 -28.872428 -50.675960 0.000000 33.000000 14.211488 0.000000
10.412873 -31.054962 -54.950741 0.000000 50.000000 14.526581 14.000000
6.941373 -29.284357 -50.506407 0.000000 30.000000 14.254589 0.000000
6.355131 -29.364841 -51.277471 0.000000 56.000000 14.703231 17.000000
7.925099 -29.277549 -55.244950 0.000000 58.000000 14.281632 10.000000
6.395072 -29.121638 -50.979755 0.000000 58.000000 14.441467 17.000000
7.325245 -29.355905 -54.216078 0.000000 40.000000 14.535410 19.000000
5.451010 -28.580337 -53.250023 0.000000 64.000000 14.702490 22.000000
5.609606 -28.009442 -53.886980 0.000000 41.000000 14.203842 0.000000
5.238763 -27.974621 -52.659375 0.000000 42.000000 14.223607 0.000000
5.337154 -28.074778 -52.609366 0.000000 49.000000 14.254655 0.000000
5.501629 -28.125749 -52.589589 0.000000 39.000000 14.213720 0.000000
6.360540 -28.350284 -53.761615 0.000000 39.000000 14.105828 0.000000
6.056160 -29.194480 -52.429258 0.000000 46.000000 14.834864 11.000000
5.808329 -28.234509 -54.107337 0.000000 42.000000 14.321779 21.000000
6.707409 -28.857340 -52.367945 0.000000 39.000000 14.212215 0.000000
8.849883 -29.624584 -56.003705 0.000000 28.000000 14.199929 0.000000
7.752570 -29.226099 -53.594754 0.000000 36.000000 14.140762 0.000000
6.125560 -29.015565 -54.080184 0.000000 49.000000 14.829866 25.000000
7.476171 -29.242924 -52.349126 0.000000 39.000000 14.155483 0.000000
7.954442 -29.465266 -53.550426 0.000000 46.000000 14.239828 0.000000
7.587504 -29.351907 -52.338381 0.000000 36.000000 14.191974 0.000000
7.735787 -29.436095 -52.341550 0.000000 32.000000 14.190207 0.000000
7.892606 -29.518130 -52.350856 0.000000 31.000000 14.182995 0.000000
8.485538 -29.691251 -53.604130 0.000000 33.000000 14.173382 0.000000
5.870504 -28.686978 -55.429085 0.000000 64.000000 14.825603 12.000000
8.711101 -29.742204 -53.647604 0.000000 29.000000 14.108822 0.000000
8.180718 -29.696431 -52.368841 0.000000 33.000000 14.193510 0.000000
7.453314 -28.974951 -55.575894 0.000000 51.000000 14.295312 16.000000
8.354908 -29.770473 -52.392907 0.000000 31.000000 14.172367 0.000000
9.067625 -29.903411 -53.701254 0.000000 28.000000 14.074326 0.000000
8.612171 -29.800482 -52.447063 0.000000 22.000000 14.075128 0.000000
6.506612 -28.787032 -56.474129 0.000000 84.000000 14.708523 23.000000
7.595137 -30.271209 -50.551718 0.000000 35.000000 14.778552 29.000000
9.264822 -30.153686 -53.700925 0.000000 42.000000 14.190152 0.000000
9.115333 -30.738617 -51.290800 0.000000 58.000000 14.499386 5.000000
9.418006 -30.252226 -53.727751 0.000000 47.000000 14.200869 0.000000
8.945750 -30.134081 -52.475640 0.000000 41.000000 14.197271 0.000000
6.234546 -29.182129 -54.047424 0.000000 74.000000 14.914497 25.000000
9.769306 -31.973689 -50.809133 0.000000 34.000000 15.177712 6.000000
6.872063 -29.204530 -55.336804 0.000000 53.000000 14.757213 23.000000
9.252973 -30.316539 -52.537988 0.000000 39.000000 14.206696 0.000000
9.428493 -30.561917 -52.200150 0.000000 36.000000 14.291713 0.000000
9.403809 -30.408496 -52.573783 0.000000 36.000000 14.213938 0.000000
10.269141 -30.536950 -53.956054 0.000000 25.000000 14.043731 0.000000
10.067277 -30.513343 -54.442731 0.000000 31.000000 14.178738 0.000000
9.891842 -30.504339 -52.716528 0.000000 19.000000 14.067306 0.000000
10.067075 -30.586125 -52.766990 0.000000 27.000000 14.055216 0.000000
10.183546 -30.698214 -52.803201 0.000000 26.000000 14.097010 0.000000
6.985832 -29.047940 -53.446392 0.000000 51.000000 14.355894 19.000000
10.266939 -30.822498 -52.831975 0.000000 32.000000 14.165029 0.000000
9.330390 -31.334769 -50.052890 0.000000 46.000000 14.765612 3.000000
10.423226 -30.913712 -52.888304 0.000000 35.000000 14.171180 0.000000
10.569409 -31.010474 -52.944489 0.000000 32.000000 14.187142 0.000000
7.542296 -29.569692 -56.124017 0.000000 34.000000 14.821865 16.000000
8.328235 -30.146060 -50.186305 0.000000 33.000000 14.262990 0.000000
6.403748 -28.094076 -56.410474 0.000000 43.000000 14.158454 0.000000
5.979296 -28.047639 -55.108898 0.000000 43.000000 14.186920 0.000000
6.436424 -29.403829 -50.578282 0.000000 49.000000 14.618282 17.000000
6.282797 -28.220395 -55.138551 0.000000 41.000000 14.186256 0.000000
5.970605 -28.609334 -51.036507 0.000000 41.000000 14.221038 0.000000
10.138628 -30.844382 -54.152320 0.000000 38.000000 14.394756 15.000000
6.578315 -29.163437 -54.888375 0.000000 66.000000 14.819458 24.000000
7.540345 -28.913991 -55.373339 0.000000 48.000000 14.176873 0.000000
8.039936 -29.182877 -55.512975 0.000000 32.000000 14.172578 0.000000
7.519509 -29.141668 -56.533058 0.000000 53.000000 14.511451 16.000000
9.087599 -29.716775 -55.885518 0.000000 34.000000 14.146709 0.000000
6.017038 -28.614347 -54.315794 0.000000 70.000000 14.566185 20.000000
5.298603 -28.368536 -52.424134 0.000000 52.000000 14.505474 22.000000
6.026579 -28.898277 -52.837451 0.000000 68.000000 14.640869 11.000000
9.758904 -30.103329 -56.179383 0.000000 46.000000 14.174398 0.000000
7.960417 -29.599139 -53.789812 0.000000 50.000000 14.378281 9.000000
6.769816 -29.314454 -52.182081 0.000000 62.000000 14.552504 18.000000
6.251934 -29.032163 -53.587958 0.000000 73.000000 14.726082 25.000000
6.529552 -28.797898 -56.447216 0.000000 49.000000 14.703356 23.000000
6.236973 -28.779809 -51.254177 0.000000 28.000000 14.257914 0.000000
7.963492 -29.809954 -55.510278 0.000000 76.000000 14.748666 10.000000
6.123914 -28.629663 -51.529514 0.000000 42.000000 14.216348 0.000000
6.066303 -28.612600 -51.660886 0.000000 48.000000 14.245183 0.000000
5.807282 -28.374736 -50.763277 0.000000 28.000000 14.071301 0.000000
6.412192 -28.192512 -56.600623 0.000000 39.000000 14.259795 0.000000
6.138790 -28.439854 -51.990125 0.000000 32.000000 14.097172 0.000000
5.551319 -28.198800 -52.959107 0.000000 48.000000 14.292515 22.000000
9.881048 -30.672471 -55.652780 0.000000 48.000000 14.543022 8.000000
9.196695 -31.153100 -51.990028 0.000000 51.000000 14.891872 5.000000
9.495780 -30.863632 -51.774972 0.000000 68.000000 14.469644 5.000000
5.292566 -28.062231 -51.936348 0.000000 31.000000 14.191516 0.000000
6.733344 -29.553377 -52.831633 0.000000 69.000000 14.847923 30.000000
5.185641 -27.958753 -52.195745 0.000000 31.000000 14.185148 0.000000
9.961736 -31.757115 -51.427057 0.000000 44.000000 14.964005 6.000000
8.176754 -29.459709 -54.799185 0.000000 33.000000 14.262245 0.000000
9.194096 -30.538891 -50.657315 0.000000 32.000000 14.218177 0.000000
10.782733 -31.520969 -55.772360 0.000000 53.000000 14.832202 13.000000
7.194363 -29.368272 -54.226135 0.000000 61.000000 14.612768 19.000000
9.199202 -30.494770 -51.081007 0.000000 34.000000 14.224806 0.000000
9.783462 -31.618502 -50.898941 0.000000 43.000000 14.875822 6.000000
8.685583 -30.282529 -50.210782 0.000000 29.000000 14.203615 0.000000
8.666217 -30.259602 -50.350869 0.000000 36.000000 14.209209 0.000000
8.660422 -30.226892 -50.495567 0.000000 28.000000 14.200116 0.000000
9.176514 -30.398387 -51.658555 0.000000 45.000000 14.217613 0.000000
8.627237 -30.203079 -50.634538 0.000000 31.000000 14.211755 0.000000
7.877431 -30.082377 -50.836224 0.000000 29.000000 14.506565 29.000000
8.618142 -30.163812 -50.779591 0.000000 28.000000 14.198729 0.000000
9.144521 -30.336941 -51.950034 0.000000 34.000000 14.213298 0.000000
8.599302 -30.127131 -50.924126 0.000000 32.000000 14.192752 0.000000
7.558158 -29.734490 -54.253689 0.000000 54.000000 14.747635 9.000000
8.613565 -30.012861 -51.227683 0.000000 26.000000 14.121258 0.000000
9.094291 -30.219662 -52.392881 0.000000 32.000000 14.187029 0.000000
8.613698 -29.953784 -51.379913 0.000000 25.000000 14.087405 0.000000
9.262493 -30.789544 -50.810842 0.000000 47.000000 14.415997 3.000000
8.609844 -29.894786 -51.530370 0.000000 26.000000 14.055421 0.000000
6.150261 -28.205650 -55.271884 0.000000 57.000000 14.254868 12.000000
6.742047 -29.102480 -55.643139 0.000000 70.000000 14.768861 23.000000
9.005207 -30.090846 -52.827745 0.000000 32.000000 14.169457 0.000000
9.003601 -30.025974 -52.983639 0.000000 35.000000 14.131910 0.000000
6.244612 -28.660759 -54.192020 0.000000 51.000000 14.478150 25.000000
8.782045 -30.938018 -50.103933 0.000000 57.000000 14.705815 3.000000
6.351571 -28.613712 -55.446439 0.000000 46.000000 14.523438 12.000000
8.947569 -29.738153 -56.064201 0.000000 42.000000 14.255109 0.000000
9.756217 -31.470460 -50.845149 0.000000 48.000000 14.756485 6.000000
8.876905 -29.795676 -53.569055 0.000000 17.000000 14.062840 0.000000
9.994406 -31.223625 -51.659996 0.000000 50.000000 14.515734 6.000000
8.771426 -29.769219 -53.688715 0.000000 33.000000 14.106318 0.000000
8.066735 -29.587369 -52.567401 0.000000 31.000000 14.179134 0.000000
8.667782 -29.739045 -53.807468 0.000000 30.000000 14.145585 0.000000
7.992733 -29.540341 -52.692639 0.000000 31.000000 14.189796 0.000000
6.580694 -29.080474 -56.027990 0.000000 52.000000 14.873621 23.000000
7.909742 -29.494848 -52.813348 0.000000 34.000000 14.205780 0.000000
8.508276 -29.645901 -54.060779 0.000000 36.000000 14.173774 0.000000
7.821598 -29.450621 -52.934960 0.000000 45.000000 14.225534 0.000000
8.410595 -29.603151 -54.180235 0.000000 38.000000 14.199339 0.000000
8.344843 -29.540503 -54.313352 0.000000 43.000000 14.193336 0.000000
7.340999 -28.906273 -54.594196 0.000000 35.000000 14.183695 0.000000
5.213385 -28.504823 -51.627334 0.000000 58.000000 14.576669 7.000000
7.693176 -29.106841 -53.495779 0.000000 30.000000 14.057227 0.000000
8.137583 -29.342337 -54.701367 0.000000 45.000000 14.170316 0.000000
6.005939 -28.818916 -52.705222 0.000000 54.000000 14.568442 11.000000
8.090959 -29.141044 -55.003673 0.000000 31.000000 14.054546 0.000000
6.062497 -29.063717 -52.826442 0.000000 52.000000 14.763590 11.000000
7.021593 -29.182347 -55.950306 0.000000 71.000000 14.731322 23.000000
7.575005 -28.962621 -55.388587 0.000000 53.000000 14.202913 0.000000
7.505374 -28.875337 -55.512332 0.000000 42.000000 14.176676 0.000000
9.208855 -30.831629 -51.318293 0.000000 20.000000 14.535351 5.000000
6.026990 -28.081632 -55.090303 0.000000 44.000000 14.190107 0.000000
7.403006 -29.754295 -50.901475 0.000000 47.000000 14.470200 4.000000
6.316182 -28.041076 -56.582789 0.000000 42.000000 14.176021 0.000000
8.765332 -30.312629 -51.911550 0.000000 46.000000 14.378304 2.000000
10.836957 -30.647542 -55.584456 0.000000 25.000000 14.034714 0.000000
6.333814 -29.139406 -50.600987 0.000000 58.000000 14.445372 17.000000
5.886788 -28.824076 -52.263832 0.000000 53.000000 14.583604 11.000000
7.037521 -29.578113 -50.593355 0.000000 78.000000 14.468084 4.000000
5.798027 -28.883300 -55.537967 0.000000 58.000000 15.042487 12.000000
5.331479 -28.162452 -51.583941 0.000000 38.000000 14.218866 0.000000
6.178667 -28.349993 -52.695311 0.000000 36.000000 14.078375 0.000000
8.988310 -31.259812 -50.424275 0.000000 38.000000 14.914067 3.000000
4.795866 -28.429421 -51.081180 0.000000 34.000000 14.660687 7.000000
7.702334 -29.274887 -53.534956 0.000000 41.000000 14.201175 0.000000
8.000349 -29.902477 -55.358827 0.000000 43.000000 14.792755 10.000000
6.185734 -28.706884 -51.287609 0.000000 40.000000 14.224747 0.000000
6.356669 -29.242757 -51.474932 0.000000 77.000000 14.619633 17.000000
6.432565 -28.873110 -51.220526 0.000000 38.000000 14.236156 0.000000
7.499947 -29.160663 -52.382104 0.000000 33.000000 14.076639 0.000000
6.516266 -29.492965 -51.517639 0.000000 56.000000 14.759034 17.000000
9.643491 -31.567299 -50.424884 0.000000 46.000000 14.849436 6.000000
6.322825 -28.603015 -53.960189 0.000000 49.000000 14.363642 25.000000
7.804441 -29.484416 -52.296536 0.000000 34.000000 14.192245 0.000000
7.946798 -29.567624 -52.287717 0.000000 36.000000 14.191277 0.000000
7.543624 -29.496236 -51.079246 0.000000 29.000000 14.198004 0.000000
8.090371 -29.650434 -52.282933 0.000000 40.000000 14.189807 0.000000
6.436886 -28.444677 -55.221818 0.000000 62.000000 14.310678 12.000000
8.238820 -29.736467 -52.281431 0.000000 38.000000 14.189022 0.000000
5.446541 -28.570762 -53.008740 0.000000 69.000000 14.669724 22.000000
8.470784 -29.776414 -52.310450 0.000000 21.000000 14.110203 0.000000
7.959298 -29.753168 -51.065767 0.000000 34.000000 14.208529 0.000000
8.652871 -29.842833 -52.325117 0.000000 18.000000 14.077517 0.000000
8.159510 -29.802886 -51.083032 0.000000 23.000000 14.152711 0.000000
8.801883 -29.928979 -52.330881 0.000000 28.000000 14.077353 0.000000
10.575601 -30.992413 -53.963939 0.000000 35.000000 14.281739 0.000000
8.577976 -30.062407 -51.100854 0.000000 30.000000 14.167533 0.000000
7.725784 -29.475395 -53.327031 0.000000 45.000000 14.338371 0.000000
5.408939 -28.460715 -53.889508 0.000000 51.000000 14.691954 21.000000
6.158910 -29.026658 -53.996392 0.000000 67.000000 14.813357 25.000000
9.938048 -30.812149 -55.387775 0.000000 50.000000 14.604862 8.000000
8.955096 -30.352600 -51.134069 0.000000 46.000000 14.231115 0.000000
6.050876 -28.587700 -56.022645 0.000000 52.000000 14.715881 26.000000
9.105959 -30.435167 -51.158210 0.000000 32.000000 14.228992 0.000000
7.829894 -29.380279 -54.270568 0.000000 32.000000 14.309323 9.000000
9.240876 -30.527031 -51.181377 0.000000 35.000000 14.242735 0.000000
9.202133 -29.764286 -56.041602 0.000000 26.000000 14.147374 0.000000
9.431831 -30.591878 -51.223622 0.000000 19.000000 14.207315 0.000000
6.161118 -28.080674 -56.399017 0.000000 51.000000 14.267346 0.000000
7.880654 -29.545153 -53.438652 0.000000 50.000000 14.332963 0.000000
10.385620 -30.967802 -52.569486 0.000000 36.000000 14.201047 0.000000
10.554507 -31.052311 -52.618794 0.000000 35.000000 14.194347 0.000000
10.151126 -31.027717 -51.420106 0.000000 37.000000 14.242415 0.000000
6.071837 -28.078114 -55.434317 0.000000 45.000000 14.202799 0.000000
5.705981 -28.018261 -54.181594 0.000000 36.000000 14.195796 0.000000
6.652648 -28.425609 -55.392826 0.000000 50.000000 14.205114 0.000000
6.433264 -28.429341 -54.141548 0.000000 36.000000 14.179383 0.000000
7.444112 -28.851578 -55.418724 0.000000 36.000000 14.176615 0.000000
5.936675 -29.061328 -52.269113 0.000000 58.000000 14.762747 11.000000
7.873640 -29.165254 -54.255364 0.000000 35.000000 14.101200 0.000000
6.225809 -28.362431 -56.270784 0.000000 57.000000 14.462427 26.000000
7.234441 -29.763150 -50.472689 0.000000 58.000000 14.514710 4.000000
6.877810 -29.193031 -55.945934 0.000000 61.000000 14.812102 23.000000
7.945335 -29.840477 -51.768739 0.000000 50.000000 14.368502 1.000000
7.876104 -29.563085 -53.504763 0.000000 37.000000 14.357972 0.000000
5.968443 -28.773354 -51.684831 0.000000 72.000000 14.434846 11.000000
9.076087 -29.764334 -54.510422 0.000000 24.000000 14.040599 0.000000
10.720447 -31.737033 -55.160813 0.000000 61.000000 14.980919 13.000000
9.242567 -29.859018 -54.554101 0.000000 31.000000 14.043212 0.000000
7.406794 -29.299679 -56.293265 0.000000 63.000000 14.676924 16.000000
9.357854 -29.976962 -54.580561 0.000000 30.000000 14.089541 0.000000
9.954614 -30.267015 -55.903306 0.000000 35.000000 14.186054 0.000000
10.018548 -31.640708 -52.063834 0.000000 55.000000 14.906343 6.000000
10.107026 -30.379843 -55.949980 0.000000 43.000000 14.211622 0.000000
9.591921 -30.218368 -54.641109 0.000000 40.000000 14.186029 0.000000
9.056283 -31.289514 -51.779618 0.000000 46.000000 15.055964 5.000000
5.709006 -28.281764 -51.721842 0.000000 31.000000 14.147245 0.000000
10.301338 -30.868077 -54.136875 0.000000 42.000000 14.331783 15.000000
10.412232 -30.529623 -54.951985 0.000000 31.000000 14.076280 0.000000
8.137028 -29.643809 -53.348150 0.000000 34.000000 14.279008 0.000000
6.498608 -29.043116 -50.668858 0.000000 46.000000 14.287653 17.000000
6.241724 -27.995393 -56.652984 0.000000 37.000000 14.181953 0.000000
6.411821 -28.074383 -56.708839 0.000000 40.000000 14.170638 0.000000
6.576017 -28.158443 -56.761756 0.000000 48.000000 14.166306 0.000000
6.820965 -28.185071 -56.869323 0.000000 42.000000 14.078271 0.000000
7.905034 -29.795851 -50.890422 0.000000 39.000000 14.252892 0.000000
7.108891 -29.310935 -53.712925 0.000000 43.000000 14.549443 19.000000
6.626895 -28.944790 -51.800252 0.000000 40.000000 14.264587 18.000000
7.929739 -29.681904 -51.334749 0.000000 36.000000 14.192071 0.000000
6.894852 -28.793514 -56.381882 0.000000 56.000000 14.509163 23.000000
10.163812 -30.689314 -55.692547 0.000000 31.000000 14.420100 8.000000
6.995414 -29.461828 -50.828791 0.000000 30.000000 14.415565 4.000000
9.465274 -31.115122 -50.671347 0.000000 50.000000 14.578183 3.000000
6.449023 -29.009315 -51.789918 0.000000 47.000000 14.407996 18.000000
10.765537 -31.652900 -55.268456 0.000000 63.000000 14.898073 13.000000
7.768321 -29.479903 -52.187852 0.000000 42.000000 14.194416 0.000000
7.736768 -29.438343 -52.331291 0.000000 33.000000 14.190506 0.000000
8.182150 -29.890743 -52.305673 0.000000 52.000000 14.352505 0.000000
7.689121 -29.401711 -52.468202 0.000000 36.000000 14.198168 0.000000
7.217612 -29.206808 -51.479487 0.000000 31.000000 14.157582 0.000000
9.344576 -30.967601 -51.281874 0.000000 55.000000 14.579920 5.000000
7.137228 -29.184820 -51.602470 0.000000 29.000000 14.192679 0.000000
7.609116 -29.312008 -52.747656 0.000000 44.000000 14.192348 0.000000
6.459677 -29.041782 -51.336076 0.000000 47.000000 14.380118 17.000000
6.607414 -28.838816 -56.313206 0.000000 69.000000 14.684541 23.000000
7.541609 -29.202713 -53.033312 0.000000 47.000000 14.164139 0.000000
7.384764 -28.941953 -55.054835 0.000000 45.000000 14.243514 0.000000
6.865116 -29.285997 -54.115574 0.000000 53.000000 14.694994 19.000000
7.926655 -29.498164 -53.327451 0.000000 68.000000 14.257230 0.000000
9.830823 -30.406495 -55.055710 0.000000 42.000000 14.273691 8.000000
7.530044 -29.307348 -56.506721 0.000000 57.000000 14.645403 16.000000
8.838638 -29.700183 -55.936344 0.000000 54.000000 14.262955 0.000000
9.708892 -30.334804 -55.246634 0.000000 47.000000 14.294518 8.000000
9.995876 -30.812368 -55.571435 0.000000 36.000000 14.596446 8.000000
5.903684 -28.866422 -51.882266 0.000000 67.000000 14.569098 11.000000
9.175757 -31.047656 -51.968568 0.000000 48.000000 14.809513 5.000000
10.312089 -30.943365 -52.437447 0.000000 35.000000 14.202289 0.000000
7.560961 -29.314054 -55.611027 0.000000 25.000000 14.536197 16.000000
10.284524 -30.838481 -52.738253 0.000000 27.000000 14.159518 0.000000
5.384536 -28.749252 -53.475738 0.000000 60.000000 14.905822 22.000000
7.260826 -29.436011 -54.401150 0.000000 59.000000 14.656996 19.000000
10.912970 -31.050884 -54.176345 0.000000 37.000000 14.186324 0.000000
10.254957 -30.717616 -53.037357 0.000000 28.000000 14.103850 0.000000
10.873546 -31.002360 -54.324497 0.000000 35.000000 14.180908 0.000000
8.456215 -29.461974 -56.026693 0.000000 53.000000 14.260357 0.000000
5.175918 -28.000699 -52.083303 0.000000 33.000000 14.213529 0.000000
10.151069 -30.618731 -53.313561 0.000000 26.000000 14.101766 0.000000
6.840518 -29.241399 -56.032171 0.000000 53.000000 14.881879 23.000000
6.634109 -28.445198 -55.119644 0.000000 27.000000 14.200884 0.000000
9.844255 -30.515591 -53.670668 0.000000 34.000000 14.206770 0.000000
9.781204 -30.456051 -53.802597 0.000000 42.000000 14.201948 0.000000
10.680136 -30.608129 -55.229518 0.000000 25.000000 14.040120 0.000000
6.663523 -29.511029 -52.609276 0.000000 46.000000 14.821908 30.000000
6.963914 -29.406544 -53.120072 0.000000 79.000000 14.638346 30.000000
8.016001 -29.747090 -53.698787 0.000000 41.000000 14.467249 9.000000
9.574650 -30.268671 -54.188712 0.000000 31.000000 14.187617 0.000000
6.105860 -28.887379 -55.874975 0.000000 48.000000 14.929049 26.000000
9.421020 -30.137329 -54.436681 0.000000 36.000000 14.179491 0.000000
10.094505 -30.647502 -53.119839 0.000000 30.000000 14.133305 0.000000
10.035889 -30.303323 -55.932929 0.000000 41.000000 14.179743 0.000000
9.356846 -29.947204 -54.723100 0.000000 31.000000 14.080340 0.000000
8.094747 -29.686654 -53.168729 0.000000 36.000000 14.317049 0.000000
9.294863 -29.862699 -54.850034 0.000000 29.000000 14.053007 0.000000
9.854686 -30.163857 -56.174317 0.000000 45.000000 14.177742 0.000000
5.492673 -28.455625 -52.694466 0.000000 48.000000 14.512903 22.000000
10.037305 -30.958571 -54.325584 0.000000 48.000000 14.562782 15.000000
7.901324 -29.364540 -56.514820 0.000000 41.000000 14.509201 16.000000
6.677926 -28.177752 -56.706940 0.000000 31.000000 14.125686 0.000000
5.582027 -28.607466 -53.843147 0.000000 60.000000 14.725931 21.000000
6.581202 -29.080457 -52.215767 0.000000 54.000000 14.450045 18.000000
5.076638 -27.936473 -51.935113 0.000000 39.000000 14.191749 0.000000
10.809480 -31.410059 -54.788754 0.000000 46.000000 14.614406 14.000000
5.291692 -28.078839 -51.804012 0.000000 40.000000 14.191510 0.000000
5.391738 -28.157789 -51.737786 0.000000 41.000000 14.201732 0.000000
5.476111 -28.251985 -51.666665 0.000000 34.000000 14.232350 0.000000
8.895506 -30.381023 -51.757407 0.000000 33.000000 14.354599 0.000000
5.929128 -28.388168 -51.538733 0.000000 43.000000 14.107834 0.000000
6.010096 -28.485330 -51.474864 0.000000 34.000000 14.143510 0.000000
5.956751 -28.604105 -51.041958 0.000000 47.000000 14.224103 0.000000
6.832194 -29.100123 -53.442184 0.000000 69.000000 14.477243 19.000000
10.613019 -31.080040 -52.847710 0.000000 31.000000 14.214218 0.000000
6.425739 -28.832992 -51.269251 0.000000 41.000000 14.210566 0.000000
9.373399 -30.413340 -52.585994 0.000000 36.000000 14.234699 0.000000
6.100231 -29.143773 -52.760397 0.000000 66.000000 14.806026 11.000000
9.858556 -31.682306 -51.628155 0.000000 45.000000 14.973884 6.000000
7.545891 -29.558435 -50.993288 0.000000 29.000000 14.240691 0.000000
5.679515 -28.739530 -54.269153 0.000000 59.000000 14.837666 20.000000
9.951746 -31.123009 -51.753622 0.000000 30.000000 14.461189 6.000000
6.773121 -29.098296 -55.136942 0.000000 63.000000 14.693481 24.000000
9.903793 -31.451183 -51.070862 0.000000 54.000000 14.691007 6.000000
8.691733 -30.175532 -50.959443 0.000000 36.000000 14.191854 0.000000
8.814082 -30.267948 -50.962005 0.000000 40.000000 14.210084 0.000000
6.502577 -29.320045 -52.147894 0.000000 79.000000 14.687510 18.000000
9.113357 -30.426545 -50.990360 0.000000 32.000000 14.199247 0.000000
9.797217 -31.509641 -51.741628 0.000000 37.000000 14.869089 6.000000
9.501227 -30.541856 -51.055182 0.000000 25.000000 14.110892 0.000000
9.630747 -30.631672 -51.076098 0.000000 25.000000 14.125334 0.000000
6.463856 -29.175288 -50.670638 0.000000 60.000000 14.418686 17.000000
6.354909 -28.287871 -56.440841 0.000000 31.000000 14.352599 26.000000
5.464106 -28.676951 -52.534451 0.000000 74.000000 14.699365 22.000000
7.726414 -29.136784 -55.378983 0.000000 46.000000 14.275362 16.000000
5.521668 -28.034120 -53.235747 0.000000 36.000000 14.196799 0.000000
8.480966 -29.770084 -52.542445 0.000000 16.000000 14.125427 0.000000
6.301847 -28.349853 -53.134765 0.000000 33.000000 14.065284 0.000000
8.106082 -29.742011 -55.662215 0.000000 58.000000 14.635739 10.000000
5.626570 -28.744557 -52.730322 0.000000 60.000000 14.697657 22.000000
8.655633 -29.533358 -55.774621 0.000000 26.000000 14.193621 0.000000
6.915228 -29.035425 -55.556288 0.000000 50.000000 14.614841 23.000000
7.872983 -29.459851 -52.958021 0.000000 48.000000 14.210248 0.000000
8.499904 -29.611935 -54.231752 0.000000 35.000000 14.167813 0.000000
5.855442 -29.071699 -51.910628 0.000000 56.000000 14.772573 11.000000
8.639963 -29.713073 -54.235690 0.000000 42.000000 14.184799 0.000000
8.199014 -29.620418 -52.985027 0.000000 36.000000 14.187534 0.000000
6.538775 -29.489547 -50.800362 0.000000 56.000000 14.665169 17.000000
7.922878 -29.307802 -55.228216 0.000000 44.000000 14.306846 10.000000
6.779556 -28.789797 -53.261891 0.000000 34.000000 14.217346 0.000000
7.716768 -29.532644 -55.701048 0.000000 33.000000 14.655623 16.000000
9.098615 -29.999331 -54.283169 0.000000 38.000000 14.205705 0.000000
5.462274 -28.604109 -52.619613 0.000000 49.000000 14.647239 22.000000
6.775475 -29.289081 -53.851475 0.000000 70.000000 14.713264 19.000000
8.900666 -29.928632 -53.086556 0.000000 32.000000 14.111431 0.000000
9.432824 -31.510752 -50.680627 0.000000 42.000000 14.934951 3.000000
5.766233 -28.588573 -54.548254 0.000000 64.000000 14.695646 20.000000
9.629526 -30.259455 -54.382640 0.000000 30.000000 14.173726 0.000000
6.048405 -28.605803 -54.315240 0.000000 61.000000 14.543064 20.000000
9.777427 -30.362377 -54.408137 0.000000 37.000000 14.190705 0.000000
10.742389 -31.708385 -55.298977 0.000000 49.000000 14.960677 13.000000
7.077683 -28.841442 -56.514254 0.000000 54.000000 14.473307 23.000000
7.062436 -29.119511 -55.729102 0.000000 33.000000 14.632363 23.000000
6.655650 -29.574870 -52.697278 0.000000 48.000000 14.890406 30.000000
9.609935 -30.421684 -53.213612 0.000000 40.000000 14.192940 0.000000
9.769177 -30.515220 -53.254049 0.000000 33.000000 14.197838 0.000000
9.427914 -30.880809 -51.826481 0.000000 44.000000 14.524133 5.000000
10.233019 -30.633726 -53.395472 0.000000 32.000000 14.082635 0.000000
10.826559 -30.929914 -54.697172 0.000000 33.000000 14.183690 0.000000
6.090498 -28.988668 -53.126601 0.000000 63.000000 14.718484 11.000000
10.464039 -30.862173 -53.469013 0.000000 36.000000 14.170974 0.000000
10.614746 -30.957855 -53.522616 0.000000 38.000000 14.183454 0.000000
10.445670 -30.865665 -54.602774 0.000000 40.000000 14.309073 15.000000
6.443180 -28.073789 -56.938938 0.000000 50.000000 14.179954 0.000000
5.999093 -28.049813 -55.618084 0.000000 36.000000 14.235398 0.000000
6.551692 -28.196601 -56.927123 0.000000 54.000000 14.229607 0.000000
8.448473 -29.336634 -56.182199 0.000000 45.000000 14.173960 0.000000
8.604562 -29.438884 -56.234841 0.000000 49.000000 14.189270 0.000000
8.783139 -29.526246 -56.301460 0.000000 42.000000 14.182082 0.000000
9.402578 -31.355287 -50.094151 0.000000 65.000000 14.751601 3.000000
6.297114 -28.809406 -50.729841 0.000000 32.000000 14.194930 0.000000
8.866812 -30.992703 -50.047439 0.000000 44.000000 14.703958 3.000000
6.582914 -29.211107 -54.457837 0.000000 42.000000 14.810247 24.000000
6.183463 -28.703205 -51.139056 0.000000 36.000000 14.206234 0.000000
6.137357 -28.667562 -51.274970 0.000000 41.000000 14.213862 0.000000
6.012071 -28.842483 -55.476210 0.000000 50.000000 14.893277 12.000000
8.992055 -31.174378 -51.650637 0.000000 39.000000 14.975058 5.000000
5.327393 -28.540249 -53.247765 0.000000 40.000000 14.729829 22.000000
6.080892 -28.404249 -51.858478 0.000000 33.000000 14.081036 0.000000
6.113861 -28.826373 -50.680213 0.000000 44.000000 14.295868 0.000000
7.278758 -29.427478 -51.382799 0.000000 30.000000 14.305528 0.000000
9.893552 -31.313432 -51.738913 0.000000 45.000000 14.652127 6.000000
5.351857 -28.481723 -53.137567 0.000000 71.000000 14.655108 22.000000
7.967248 -29.610259 -53.352153 0.000000 41.000000 14.335800 0.000000
9.574609 -30.893428 -49.958102 0.000000 36.000000 14.253939 0.000000
9.940148 -30.815044 -55.953138 0.000000 47.000000 14.669071 28.000000
9.341843 -30.555947 -50.749550 0.000000 26.000000 14.168967 0.000000
9.303498 -30.540068 -50.886510 0.000000 29.000000 14.189778 0.000000
9.320228 -30.494506 -51.039497 0.000000 27.000000 14.159283 0.000000
5.736664 -28.119640 -54.569586 0.000000 45.000000 14.310480 0.000000
9.244631 -30.490430 -51.167383 0.000000 32.000000 14.207893 0.000000
8.403976 -29.250478 -56.531111 0.000000 38.000000 14.161091 0.000000
9.409207 -31.336704 -50.780541 0.000000 59.000000 14.808548 3.000000
9.935221 -30.517152 -52.710775 0.000000 26.000000 14.055909 0.000000
6.455020 -29.067687 -54.293123 0.000000 61.000000 14.733029 25.000000
9.877458 -30.495179 -52.845604 0.000000 29.000000 14.080992 0.000000
9.139919 -30.339850 -51.739425 0.000000 35.000000 14.194716 0.000000
8.031233 -29.600156 -54.345525 0.000000 55.000000 14.405349 9.000000
5.393921 -28.623226 -52.438804 0.000000 37.000000 14.677840 22.000000
9.638068 -30.503376 -53.077764 0.000000 36.000000 14.233843 0.000000
9.643430 -30.439107 -53.236795 0.000000 41.000000 14.193668 0.000000
6.714162 -29.110974 -55.182978 0.000000 48.000000 14.739036 24.000000
6.289871 -28.059249 -56.973317 0.000000 51.000000 14.248171 0.000000
8.265634 -29.634117 -55.761367 0.000000 69.000000 14.474165 10.000000
6.365063 -28.489832 -56.309806 0.000000 72.000000 14.506247 26.000000
6.569797 -29.481031 -51.839061 0.000000 62.000000 14.757643 18.000000
9.477993 -30.245008 -53.810336 0.000000 42.000000 14.173766 0.000000
8.477903 -29.656898 -53.990749 0.000000 27.000000 14.190664 0.000000
7.109509 -29.671475 -50.425052 0.000000 51.000000 14.493406 4.000000
6.286702 -29.088297 -52.257914 0.000000 55.000000 14.609126 11.000000
5.433709 -28.439457 -52.710348 0.000000 45.000000 14.530360 22.000000
7.011759 -28.889427 -56.428416 0.000000 58.000000 14.538005 23.000000
5.910917 -28.586888 -55.001591 0.000000 57.000000 14.671988 20.000000
6.218796 -28.799136 -53.786713 0.000000 66.000000 14.564823 25.000000
9.289314 -30.009277 -54.379402 0.000000 35.000000 14.129300 0.000000
8.579311 -29.797749 -53.235594 0.000000 28.000000 14.176817 0.000000
9.301536 -29.911072 -54.544876 0.000000 29.000000 14.057282 0.000000
8.526428 -29.732768 -53.366940 0.000000 30.000000 14.162164 0.000000
9.261330 -29.837834 -54.689384 0.000000 33.000000 14.030648 0.000000
9.932007 -30.926720 -54.324774 0.000000 43.000000 14.588163 15.000000
9.195242 -29.772626 -54.823966 0.000000 31.000000 14.022781 0.000000
9.041339 -29.754524 -54.917048 0.000000 28.000000 14.094757 0.000000
8.304113 -29.552705 -53.737919 0.000000 31.000000 14.160334 0.000000
10.644240 -31.333791 -54.509674 0.000000 69.000000 14.600834 14.000000
8.795271 -29.675474 -55.130033 0.000000 38.000000 14.173968 0.000000
8.774006 -30.261062 -50.919752 0.000000 28.000000 14.219580 0.000000
5.969542 -29.042071 -52.192535 0.000000 59.000000 14.721240 11.000000
9.849520 -31.878468 -51.103506 0.000000 45.000000 15.088473 6.000000
6.860853 -29.111120 -55.863108 0.000000 58.000000 14.741125 23.000000
9.796504 -30.960050 -50.050340 0.000000 32.000000 14.210077 0.000000
8.076582 -29.635226 -55.358172 0.000000 69.000000 14.525145 10.000000
5.169272 -27.947214 -52.397742 0.000000 43.000000 14.205885 0.000000
7.080493 -29.492182 -50.788236 0.000000 53.000000 14.394444 4.000000
5.292874 -28.017144 -52.344209 0.000000 36.000000 14.197964 0.000000
5.749166 -28.144487 -53.493410 0.000000 48.000000 14.206033 0.000000
5.391656 -28.109956 -52.281896 0.000000 40.000000 14.221148 0.000000
9.515742 -31.350050 -50.779268 0.000000 60.000000 14.766437 3.000000
9.691338 -30.602275 -55.214755 0.000000 48.000000 14.529281 8.000000
10.586026 -30.981746 -54.080566 0.000000 48.000000 14.280309 0.000000
6.539299 -29.382767 -52.192797 0.000000 73.000000 14.727899 18.000000
6.892916 -28.858902 -53.112918 0.000000 44.000000 14.203256 0.000000
8.807896 -30.261789 -52.371211 0.000000 40.000000 14.364379 2.000000
7.665265 -29.217847 -53.019113 0.000000 44.000000 14.113541 0.000000
6.977128 -29.412193 -50.712068 0.000000 43.000000 14.369184 0.000000
8.038444 -29.667790 -54.087013 0.000000 40.000000 14.431061 9.000000
7.187808 -29.546416 -50.821566 0.000000 47.000000 14.390868 4.000000
6.460260 -29.134339 -54.539850 0.000000 59.000000 14.814988 24.000000
7.475161 -29.369397 -51.738884 0.000000 37.000000 14.196747 0.000000
8.015270 -29.518954 -52.945018 0.000000 38.000000 14.188168 0.000000
7.629350 -29.445730 -51.728671 0.000000 31.000000 14.183793 0.000000
9.806991 -31.785921 -50.826661 0.000000 40.000000 14.999649 6.000000
6.521129 -29.269121 -52.467826 0.000000 62.000000 14.670037 30.000000
6.186186 -28.717429 -53.695158 0.000000 65.000000 14.500901 25.000000
5.632000 -28.226645 -54.063791 0.000000 49.000000 14.398614 21.000000
8.542865 -30.926072 -50.168060 0.000000 55.000000 14.822619 3.000000
7.570038 -29.039376 -55.233353 0.000000 42.000000 14.254025 0.000000
5.973461 -29.056274 -52.201259 0.000000 51.000000 14.732430 11.000000
8.741369 -29.966523 -52.919178 0.000000 31.000000 14.205235 0.000000
8.008708 -29.214667 -56.495261 0.000000 46.000000 14.324586 16.000000
6.426865 -28.622434 -55.928075 0.000000 57.000000 14.546647 26.000000
6.508203 -28.672361 -53.406565 0.000000 44.000000 14.268714 0.000000
8.734176 -29.994768 -51.737710 0.000000 27.000000 14.101888 0.000000
9.221438 -30.222260 -52.950424 0.000000 38.000000 14.187411 0.000000
5.689464 -28.140482 -54.053630 0.000000 37.000000 14.294740 21.000000
10.232465 -30.741625 -53.062939 0.000000 29.000000 14.138570 0.000000
6.221469 -29.065435 -53.714191 0.000000 72.000000 14.783924 25.000000
6.417268 -29.171549 -54.217125 0.000000 62.000000 14.832638 25.000000
9.674002 -30.502037 -52.998287 0.000000 37.000000 14.205851 0.000000
9.217176 -30.405744 -51.761075 0.000000 35.000000 14.214919 0.000000
9.872297 -30.573473 -53.035824 0.000000 39.000000 14.171881 0.000000
8.204742 -29.850154 -51.103526 0.000000 26.000000 14.172864 0.000000
10.295985 -30.707270 -53.127785 0.000000 29.000000 14.084441 0.000000
10.360962 -30.844839 -53.129068 0.000000 43.000000 14.170040 0.000000
5.412389 -28.386813 -52.932039 0.000000 71.000000 14.520497 22.000000
8.572906 -30.209457 -52.091346 0.000000 50.000000 14.406234 2.000000
6.452239 -29.349874 -50.850007 0.000000 48.000000 14.594229 17.000000
5.968373 -28.098359 -54.753062 0.000000 41.000000 14.196405 0.000000
7.397519 -28.994335 -54.740899 0.000000 55.000000 14.247204 0.000000
5.264592 -28.243186 -51.340001 0.000000 54.000000 14.294592 7.000000
6.638427 -29.164023 -53.759968 0.000000 64.000000 14.664520 19.000000
8.636062 -29.909469 -51.795550 0.000000 26.000000 14.084319 0.000000
8.042229 -29.153998 -54.878367 0.000000 31.000000 14.076182 0.000000
6.585994 -29.118891 -53.964426 0.000000 58.000000 14.674790 25.000000
6.112738 -28.592172 -55.285819 0.000000 74.000000 14.606882 12.000000
9.225935 -30.538200 -51.201932 0.000000 28.000000 14.262093 5.000000
9.776125 -30.671293 -55.382849 0.000000 39.000000 14.564650 8.000000
6.995816 -29.421869 -54.120838 0.000000 52.000000 14.746623 19.000000
6.489990 -29.334069 -50.808942 0.000000 62.000000 14.557178 17.000000
11.266151 -31.259139 -55.699218 0.000000 39.000000 14.357015 13.000000
8.564439 -29.590592 -54.936002 0.000000 34.000000 14.195339 0.000000
9.302433 -29.746714 -56.329905 0.000000 31.000000 14.114016 0.000000
8.742973 -29.674430 -54.979988 0.000000 33.000000 14.182635 0.000000
6.416003 -29.175805 -50.579435 0.000000 69.000000 14.432998 17.000000
5.792403 -28.104009 -54.593212 0.000000 47.000000 14.271742 0.000000
9.356522 -29.892616 -55.157803 0.000000 36.000000 14.081933 0.000000
9.871200 -31.319455 -50.667763 0.000000 43.000000 14.549563 6.000000
9.588035 -30.137304 -55.210382 0.000000 43.000000 14.181633 0.000000
10.743298 -31.060750 -54.702845 0.000000 61.000000 14.338333 14.000000
10.774133 -30.645851 -55.661154 0.000000 33.000000 14.073282 0.000000
6.839857 -29.158080 -53.514347 0.000000 59.000000 14.531142 19.000000
11.007600 -30.894738 -55.765568 0.000000 37.000000 14.181360 0.000000
5.890215 -29.106726 -51.810650 0.000000 60.000000 14.774090 11.000000
6.595447 -29.007468 -55.282021 0.000000 56.000000 14.720749 24.000000
5.938932 -28.520456 -50.877671 0.000000 31.000000 14.143022 0.000000
5.916217 -28.504359 -51.016547 0.000000 37.000000 14.156021 0.000000
7.286739 -28.904767 -55.147030 0.000000 36.000000 14.270998 0.000000
7.343773 -29.340319 -53.575234 0.000000 28.000000 14.441587 19.000000
6.728819 -29.210466 -54.262691 0.000000 54.000000 14.714866 25.000000
5.888142 -28.366735 -51.596405 0.000000 43.000000 14.116400 0.000000
8.656959 -30.392992 -51.990642 0.000000 53.000000 14.510384 2.000000
9.755586 -30.499014 -55.587855 0.000000 52.000000 14.449891 8.000000
5.892775 -28.211145 -52.050335 0.000000 26.000000 14.030978 0.000000
5.426158 -28.503627 -52.104082 0.000000 49.000000 14.521887 22.000000
6.221178 -28.739932 -55.405247 0.000000 51.000000 14.692550 12.000000
5.202668 -28.082172 -51.611464 0.000000 30.000000 14.217630 0.000000
6.665499 -29.183516 -55.145555 0.000000 57.000000 14.821526 24.000000
5.181599 -28.026554 -51.754910 0.000000 37.000000 14.196401 0.000000
8.095268 -29.493768 -54.188118 0.000000 59.000000 14.264477 9.000000
5.133313 -27.987610 -51.889642 0.000000 35.000000 14.202158 0.000000
6.476977 -28.691900 -54.317955 0.000000 51.000000 14.402337 25.000000
7.183867 -28.825744 -56.742178 0.000000 46.000000 14.431901 27.000000
5.411621 -28.039991 -53.108310 0.000000 41.000000 14.242869 0.000000
7.063833 -29.518869 -50.601024 0.000000 69.000000 14.404909 4.000000
9.616206 -30.726077 -55.178443 0.000000 69.000000 14.669150 8.000000
9.077120 -30.623479 -51.388025 0.000000 55.000000 14.430551 5.000000
8.734471 -30.259730 -50.573736 0.000000 31.000000 14.199840 0.000000
7.888481 -29.449250 -53.541375 0.000000 32.000000 14.258156 0.000000
8.752763 -30.224543 -50.858659 0.000000 34.000000 14.192113 0.000000
5.954070 -28.849974 -52.344762 0.000000 69.000000 14.581075 11.000000
8.741879 -30.191797 -51.141510 0.000000 39.000000 14.200882 0.000000
8.359264 -29.998620 -50.167880 0.000000 25.000000 14.118876 0.000000
8.750481 -30.162024 -51.288900 0.000000 31.000000 14.187388 0.000000
8.389908 -29.949074 -50.319300 0.000000 26.000000 14.077811 0.000000
6.445117 -29.296004 -51.507807 0.000000 55.000000 14.624620 17.000000
9.863660 -31.523618 -50.619605 0.000000 54.000000 14.723176 6.000000
8.641732 -29.859164 -52.126374 0.000000 14.000000 14.075047 0.000000
5.872408 -28.512691 -54.876374 0.000000 59.000000 14.613730 20.000000
6.919200 -29.286092 -53.508639 0.000000 68.000000 14.600561 19.000000
7.484645 -29.253324 -56.569097 0.000000 64.000000 14.628740 16.000000
6.940986 -29.150599 -54.213177 0.000000 55.000000 14.551610 19.000000
6.545788 -29.048725 -51.303650 0.000000 55.000000 14.339295 17.000000
7.592136 -30.019386 -50.549264 0.000000 42.000000 14.563711 29.000000
6.152934 -28.785922 -55.592464 0.000000 64.000000 14.787020 12.000000
7.135000 -29.352518 -51.230761 0.000000 68.000000 14.296412 0.000000
5.176420 -28.662481 -50.941781 0.000000 58.000000 14.654357 7.000000
