65.974804 18.052349 10.729562 0.000000 33.000000 14.729562 6.000000
70.656425 14.080514 11.039413 0.000000 50.000000 15.039413 16.000000
70.922943 14.288568 10.338776 0.000000 45.000000 14.338776 16.000000
67.575573 12.082483 10.197358 0.000000 38.000000 14.197358 0.000000
66.029564 13.743379 10.385067 0.000000 73.000000 14.385067 18.000000
65.056808 12.374999 10.609170 0.000000 64.000000 14.609170 7.000000
69.478462 14.071284 10.225893 0.000000 45.000000 14.225893 0.000000
69.874275 14.686869 10.650774 0.000000 82.000000 14.650774 10.000000
65.608074 17.740628 10.854882 0.000000 32.000000 14.854882 3.000000
65.082901 18.149935 10.242464 0.000000 39.000000 14.242464 0.000000
69.752243 12.925859 10.471599 0.000000 60.000000 14.471599 23.000000
66.033142 16.974560 10.240969 0.000000 41.000000 14.240969 0.000000
66.224945 16.690426 10.226119 0.000000 42.000000 14.226119 0.000000
68.698948 13.097349 10.687099 0.000000 56.000000 14.687099 24.000000
66.320789 16.547918 10.211592 0.000000 36.000000 14.211592 0.000000
64.957497 16.082045 10.098530 0.000000 26.000000 14.098530 0.000000
68.709641 13.176144 10.777093 0.000000 69.000000 14.777093 24.000000
70.672150 13.302112 10.332328 0.000000 46.000000 14.332328 23.000000
66.498581 16.252778 10.191787 0.000000 37.000000 14.191787 0.000000
65.104977 12.537700 10.845872 0.000000 44.000000 14.845872 7.000000
66.635490 16.106889 10.397055 0.000000 53.000000 14.397055 2.000000
70.527649 13.651805 10.380785 0.000000 43.000000 14.380785 16.000000
66.935719 15.107294 10.216220 0.000000 38.000000 14.216220 0.000000
65.454403 14.633088 10.207102 0.000000 40.000000 14.207102 0.000000
67.513603 12.639152 10.473980 0.000000 33.000000 14.473980 21.000000
68.545708 13.112288 10.639553 0.000000 62.000000 14.639553 24.000000
67.905445 15.452922 10.229384 0.000000 27.000000 14.229384 0.000000
65.714790 13.477948 10.234477 0.000000 38.000000 14.234477 0.000000
67.269249 13.738701 10.213902 0.000000 47.000000 14.213902 0.000000
64.848801 16.750467 10.712193 0.000000 50.000000 14.712193 3.000000
70.983131 14.693024 10.197261 0.000000 33.000000 14.197261 0.000000
67.939659 13.067365 10.793921 0.000000 56.000000 14.793921 25.000000
67.578304 13.340562 10.334361 0.000000 55.000000 14.334361 0.000000
67.475296 13.081717 10.079173 0.000000 38.000000 14.079173 0.000000
69.813690 13.969313 10.256863 0.000000 46.000000 14.256863 16.000000
69.036701 14.851497 10.191897 0.000000 37.000000 14.191897 0.000000
65.872669 12.311906 10.208979 0.000000 40.000000 14.208979 0.000000
69.078556 17.169138 10.424599 0.000000 57.000000 14.424599 15.000000
70.201591 17.892967 10.482838 0.000000 54.000000 14.482838 13.000000
67.642986 15.370085 10.255100 0.000000 45.000000 14.255100 0.000000
68.858002 17.715176 10.162396 0.000000 39.000000 14.162396 0.000000
70.257355 12.571253 10.690037 0.000000 71.000000 14.690037 26.000000
66.959938 16.776001 10.244739 0.000000 33.000000 14.244739 0.000000
68.839439 17.295362 10.245970 0.000000 41.000000 14.245970 0.000000
64.968407 13.954768 10.600353 0.000000 73.000000 14.600353 17.000000
68.294369 12.223702 10.479661 0.000000 65.000000 14.479661 20.000000
65.069801 12.273954 10.536473 0.000000 54.000000 14.536473 7.000000
66.188770 15.611679 10.505794 0.000000 49.000000 14.505794 1.000000
68.967175 16.765622 10.178833 0.000000 46.000000 14.178833 0.000000
70.257652 13.890163 10.492320 0.000000 59.000000 14.492320 16.000000
69.490673 14.008315 10.351144 0.000000 41.000000 14.351144 0.000000
70.181908 12.806434 10.630197 0.000000 55.000000 14.630197 23.000000
70.984314 16.694714 10.172606 0.000000 51.000000 14.172606 0.000000
66.277359 16.827682 10.286551 0.000000 34.000000 14.286551 5.000000
69.887188 13.778909 10.276307 0.000000 42.000000 14.276307 16.000000
69.857719 14.006266 10.275950 0.000000 51.000000 14.275950 16.000000
70.967461 16.275700 10.174188 0.000000 48.000000 14.174188 0.000000
69.003819 15.616161 10.160093 0.000000 32.000000 14.160093 0.000000
71.006432 16.089370 10.124845 0.000000 44.000000 14.124845 0.000000
70.904434 13.234690 10.239079 0.000000 41.000000 14.239079 0.000000
68.986088 15.228214 10.154942 0.000000 38.000000 14.154942 0.000000
70.862526 15.426224 10.195688 0.000000 51.000000 14.195688 0.000000
70.872292 15.236657 10.158749 0.000000 42.000000 14.158749 0.000000
69.743851 12.257051 11.203175 0.000000 54.000000 15.203175 12.000000
70.746948 14.989374 10.243453 0.000000 40.000000 14.243453 0.000000
65.469280 14.830884 10.315747 0.000000 29.000000 14.315747 0.000000
70.782944 14.812232 10.173884 0.000000 53.000000 14.173884 0.000000
70.779915 14.621616 10.136905 0.000000 59.000000 14.136905 0.000000
66.376598 14.016099 10.522349 0.000000 66.000000 14.522349 18.000000
66.756161 17.669140 10.392054 0.000000 46.000000 14.392054 6.000000
66.232891 17.070486 11.112471 0.000000 10.000000 15.112471 5.000000
68.473709 14.775383 10.631408 0.000000 47.000000 14.631408 9.000000
68.346386 13.669960 10.555010 0.000000 45.000000 14.555010 19.000000
65.870178 12.811771 10.139359 0.000000 37.000000 14.139359 0.000000
67.661812 14.940658 10.295238 0.000000 34.000000 14.295238 0.000000
68.041973 13.686405 10.745389 0.000000 61.000000 14.745389 19.000000
66.020126 13.672585 10.222455 0.000000 43.000000 14.222455 0.000000
66.297409 14.426677 10.163702 0.000000 34.000000 14.163702 0.000000
66.444538 12.180608 10.234387 0.000000 37.000000 14.234387 0.000000
70.044533 13.960626 10.871852 0.000000 67.000000 14.871852 16.000000
64.957443 14.614971 10.237992 0.000000 39.000000 14.237992 0.000000
70.059761 13.005475 10.694175 0.000000 56.000000 14.694175 23.000000
64.827354 13.977916 10.366526 0.000000 54.000000 14.366526 17.000000
65.763165 14.849389 10.288135 0.000000 50.000000 14.288135 0.000000
67.015991 15.999287 10.059834 0.000000 30.000000 14.059834 0.000000
65.614796 16.100367 10.207966 0.000000 38.000000 14.207966 0.000000
65.696629 16.276544 10.222711 0.000000 41.000000 14.222711 0.000000
65.965073 16.916811 10.548129 0.000000 51.000000 14.548129 5.000000
67.292313 12.417388 10.527702 0.000000 53.000000 14.527702 22.000000
66.252857 13.211044 10.693418 0.000000 74.000000 14.693418 11.000000
65.885235 16.648144 10.240504 0.000000 50.000000 14.240504 0.000000
69.136288 12.936300 10.267357 0.000000 37.000000 14.267357 24.000000
67.838718 13.611877 10.547823 0.000000 45.000000 14.547823 19.000000
66.317684 12.421440 10.709299 0.000000 52.000000 14.709299 22.000000
66.385975 13.878191 10.627861 0.000000 34.000000 14.627861 18.000000
67.919018 17.741557 10.187897 0.000000 40.000000 14.187897 0.000000
68.042313 17.939933 10.199141 0.000000 38.000000 14.199141 0.000000
68.179634 18.148464 10.202592 0.000000 45.000000 14.202592 0.000000
68.219112 12.488642 10.694064 0.000000 34.000000 14.694064 20.000000
67.870930 13.075629 10.734496 0.000000 41.000000 14.734496 25.000000
68.701202 13.205022 10.801988 0.000000 72.000000 14.801988 24.000000
69.036587 13.820735 10.178160 0.000000 39.000000 14.178160 0.000000
69.758175 13.458083 10.632113 0.000000 41.000000 14.632113 23.000000
67.324078 13.292043 10.647697 0.000000 43.000000 14.647697 11.000000
68.271378 12.227684 10.273407 0.000000 50.000000 14.273407 20.000000
70.290459 13.583660 10.820854 0.000000 45.000000 14.820854 23.000000
70.132927 13.731504 10.617300 0.000000 47.000000 14.617300 16.000000
69.942654 13.839761 10.445610 0.000000 43.000000 14.445610 16.000000
68.805336 15.256320 10.197559 0.000000 41.000000 14.197559 0.000000
66.389301 15.709991 10.343366 0.000000 28.000000 14.343366 1.000000
68.979790 15.443160 10.188405 0.000000 38.000000 14.188405 0.000000
70.947906 15.994985 10.077082 0.000000 42.000000 14.077082 0.000000
65.310295 13.876146 10.349346 0.000000 34.000000 14.349346 17.000000
65.852676 16.622889 10.211939 0.000000 28.000000 14.211939 0.000000
70.129005 13.199016 10.955286 0.000000 32.000000 14.955286 23.000000
68.436657 13.734031 10.463802 0.000000 51.000000 14.463802 19.000000
69.742908 16.207973 10.137794 0.000000 37.000000 14.137794 0.000000
70.179916 16.438917 10.645516 0.000000 61.000000 14.645516 8.000000
69.408352 13.481494 10.650773 0.000000 61.000000 14.650773 24.000000
64.938911 16.013939 10.056462 0.000000 19.000000 14.056462 0.000000
69.754406 13.223455 10.658650 0.000000 58.000000 14.658650 23.000000
67.157188 13.345238 10.836300 0.000000 72.000000 14.836300 11.000000
69.587486 17.432848 10.578411 0.000000 50.000000 14.578411 15.000000
66.865231 12.796142 10.289299 0.000000 38.000000 14.289299 22.000000
65.172646 17.425239 11.036166 0.000000 17.000000 15.036166 3.000000
64.875523 12.821856 10.421753 0.000000 30.000000 14.421753 7.000000
66.476894 12.324670 10.220795 0.000000 43.000000 14.220795 0.000000
70.453827 16.777178 10.668769 0.000000 43.000000 14.668769 8.000000
65.214546 12.713290 10.627975 0.000000 53.000000 14.627975 7.000000
70.680519 12.117369 10.208499 0.000000 40.000000 14.208499 0.000000
70.903122 12.283489 10.190052 0.000000 47.000000 14.190052 0.000000
69.440498 12.244684 10.233344 0.000000 47.000000 14.233344 0.000000
69.138859 16.962029 10.653931 0.000000 55.000000 14.653931 15.000000
68.717953 17.963520 10.163700 0.000000 35.000000 14.163700 0.000000
68.771114 17.781555 10.172323 0.000000 42.000000 14.172323 0.000000
65.541924 17.342613 10.708766 0.000000 49.000000 14.708766 3.000000
67.105511 16.928187 10.187514 0.000000 38.000000 14.187514 0.000000
67.262524 12.255788 10.535919 0.000000 54.000000 14.535919 22.000000
65.470039 17.526568 10.852663 0.000000 57.000000 14.852663 3.000000
66.298306 13.914540 10.657249 0.000000 65.000000 14.657249 18.000000
69.067978 17.110805 10.083092 0.000000 31.000000 14.083092 0.000000
67.211212 16.388865 10.229382 0.000000 36.000000 14.229382 0.000000
69.029888 16.880436 10.165136 0.000000 41.000000 14.165136 0.000000
67.288990 16.236759 10.185205 0.000000 39.000000 14.185205 0.000000
69.056057 16.686279 10.180127 0.000000 39.000000 14.180127 0.000000
69.758381 17.138216 10.308237 0.000000 34.000000 14.308237 0.000000
66.777046 12.304615 10.268810 0.000000 28.000000 14.268810 22.000000
68.733253 12.854744 10.342714 0.000000 36.000000 14.342714 0.000000
69.142876 16.325877 10.156191 0.000000 46.000000 14.156191 0.000000
67.411221 15.721495 10.158717 0.000000 39.000000 14.158717 0.000000
69.196983 16.149444 10.128506 0.000000 36.000000 14.128506 0.000000
67.422554 15.533271 10.174722 0.000000 34.000000 14.174722 0.000000
69.271690 15.984460 10.075239 0.000000 26.000000 14.075239 0.000000
67.425285 15.341930 10.196615 0.000000 45.000000 14.196615 0.000000
69.344818 15.821486 10.020741 0.000000 28.000000 14.020741 0.000000
69.756092 13.248285 10.632830 0.000000 63.000000 14.632830 23.000000
69.233696 15.565179 10.148898 0.000000 35.000000 14.148898 0.000000
70.957993 14.890035 10.196090 0.000000 35.000000 14.196090 0.000000
67.124035 15.718980 10.174548 0.000000 17.000000 14.174548 0.000000
66.138828 13.862420 10.550250 0.000000 54.000000 14.550250 18.000000
69.231106 15.171787 10.170650 0.000000 41.000000 14.170650 0.000000
67.742828 13.250671 10.781557 0.000000 55.000000 14.781557 25.000000
69.252274 14.989078 10.153628 0.000000 42.000000 14.153628 0.000000
64.908722 14.812965 10.593521 0.000000 30.000000 14.593521 4.000000
69.308048 14.626094 10.093239 0.000000 40.000000 14.093239 0.000000
69.257904 14.410230 10.137691 0.000000 31.000000 14.137691 0.000000
69.815033 12.942949 10.520658 0.000000 69.000000 14.520658 23.000000
69.141045 13.987374 10.231397 0.000000 64.000000 14.231397 0.000000
69.185612 13.823406 10.169375 0.000000 44.000000 14.169375 0.000000
66.814808 13.982962 10.854839 0.000000 47.000000 14.854839 30.000000
66.646725 16.221346 10.511101 0.000000 50.000000 14.511101 2.000000
68.217316 13.363157 10.793087 0.000000 65.000000 14.793087 25.000000
68.896206 12.290572 10.205224 0.000000 49.000000 14.205224 0.000000
67.092510 13.162183 10.710920 0.000000 67.000000 14.710920 11.000000
68.036022 12.411504 10.513088 0.000000 59.000000 14.513088 21.000000
66.403702 12.261999 10.489239 0.000000 48.000000 14.489239 22.000000
64.920410 13.339660 10.211212 0.000000 49.000000 14.211212 0.000000
64.941929 13.512803 10.206907 0.000000 41.000000 14.206907 0.000000
69.691776 12.304205 10.999336 0.000000 64.000000 14.999336 12.000000
64.987759 13.863013 10.204437 0.000000 47.000000 14.204437 0.000000
65.504986 16.037827 10.209645 0.000000 39.000000 14.209645 0.000000
68.855766 13.097262 10.542234 0.000000 64.000000 14.542234 24.000000
65.637527 16.418234 10.214461 0.000000 41.000000 14.214461 0.000000
65.713013 16.612560 10.210225 0.000000 42.000000 14.210225 0.000000
65.783478 16.803699 10.218588 0.000000 37.000000 14.218588 0.000000
64.839184 15.025378 10.711795 0.000000 54.000000 14.711795 4.000000
66.063583 17.278629 10.074080 0.000000 22.000000 14.074080 0.000000
66.112988 17.445148 10.122832 0.000000 32.000000 14.122832 0.000000
65.474068 13.955354 10.640724 0.000000 35.000000 14.640724 17.000000
66.338753 17.998896 10.200171 0.000000 38.000000 14.200171 0.000000
69.943867 13.753420 10.525115 0.000000 58.000000 14.525115 16.000000
69.506264 13.161587 10.576309 0.000000 64.000000 14.576309 23.000000
65.053493 18.106253 10.223946 0.000000 35.000000 14.223946 0.000000
65.729935 12.210334 10.211379 0.000000 42.000000 14.211379 0.000000
65.790649 12.380487 10.213813 0.000000 45.000000 14.213813 0.000000
69.941692 12.942832 10.638793 0.000000 62.000000 14.638793 23.000000
67.817318 13.061021 10.680420 0.000000 52.000000 14.680420 25.000000
67.017731 13.246027 10.904541 0.000000 72.000000 14.904541 11.000000
66.132732 12.953471 10.045158 0.000000 32.000000 14.045158 0.000000
67.732510 14.172350 10.515881 0.000000 57.000000 14.515881 19.000000
68.379810 15.075180 10.401562 0.000000 43.000000 14.401562 0.000000
68.176022 13.397444 10.689699 0.000000 59.000000 14.689699 25.000000
65.904331 17.208169 10.946308 0.000000 64.000000 14.946308 5.000000
66.949261 14.692580 10.165247 0.000000 42.000000 14.165247 0.000000
67.028160 14.858375 10.204066 0.000000 42.000000 14.204066 0.000000
64.982178 17.930765 10.511372 0.000000 45.000000 14.511372 3.000000
71.014008 14.022429 10.825657 0.000000 79.000000 14.825657 16.000000
68.821941 15.464528 10.169583 0.000000 43.000000 14.169583 0.000000
66.942211 16.531616 10.264566 0.000000 31.000000 14.264566 0.000000
69.042934 15.708265 10.078655 0.000000 25.000000 14.078655 0.000000
65.407017 18.096158 10.928917 0.000000 56.000000 14.928917 6.000000
69.230465 15.931455 10.025975 0.000000 30.000000 14.025975 0.000000
67.557232 15.622668 10.147432 0.000000 42.000000 14.147432 0.000000
70.493774 16.637427 10.580473 0.000000 52.000000 14.580473 8.000000
66.335602 18.010965 10.675489 0.000000 53.000000 14.675489 6.000000
69.383392 16.258274 10.170228 0.000000 33.000000 14.170228 0.000000
67.875568 16.028338 10.088298 0.000000 36.000000 14.088298 0.000000
69.341988 12.781975 10.347101 0.000000 59.000000 14.347101 12.000000
68.836308 14.856809 10.230294 0.000000 38.000000 14.230294 0.000000
69.690014 16.664198 10.173542 0.000000 50.000000 14.173542 0.000000
70.159920 12.961887 10.973837 0.000000 82.000000 14.973837 23.000000
66.290543 13.954528 10.687431 0.000000 57.000000 14.687431 18.000000
68.007904 13.925182 10.612588 0.000000 51.000000 14.612588 19.000000
70.001114 17.063962 10.191935 0.000000 42.000000 14.191935 0.000000
70.153587 17.162311 10.268682 0.000000 27.000000 14.268682 0.000000
70.302681 17.345370 10.064967 0.000000 28.000000 14.064967 0.000000
68.523045 13.087088 10.662332 0.000000 26.000000 14.662332 25.000000
68.782440 14.172109 10.660612 0.000000 46.000000 14.660612 19.000000
68.043327 12.546686 10.658946 0.000000 59.000000 14.658946 20.000000
69.810097 16.822781 10.562226 0.000000 34.000000 14.562226 8.000000
69.802246 14.157665 10.388332 0.000000 58.000000 14.388332 16.000000
69.977322 14.804266 10.723556 0.000000 46.000000 14.723556 10.000000
64.881763 13.453496 10.208458 0.000000 42.000000 14.208458 0.000000
66.960224 17.828831 10.372211 0.000000 50.000000 14.372211 6.000000
65.252823 16.960927 10.320595 0.000000 44.000000 14.320595 3.000000
65.224648 13.080708 10.094379 0.000000 35.000000 14.094379 0.000000
65.907242 16.628670 10.229363 0.000000 30.000000 14.229363 0.000000
68.228050 12.191490 10.224545 0.000000 45.000000 14.224545 0.000000
66.586071 14.289902 10.421086 0.000000 41.000000 14.421086 30.000000
70.762932 14.539573 10.147871 0.000000 50.000000 14.147871 0.000000
69.456062 17.106475 10.377542 0.000000 59.000000 14.377542 15.000000
66.278622 17.867422 10.203844 0.000000 33.000000 14.203844 0.000000
65.195076 16.735130 10.224558 0.000000 41.000000 14.224558 0.000000
65.280411 16.590383 10.224717 0.000000 39.000000 14.224717 0.000000
65.367783 16.449705 10.217578 0.000000 36.000000 14.217578 0.000000
66.916885 16.844128 10.227427 0.000000 45.000000 14.227427 0.000000
67.508896 15.037285 10.285160 0.000000 31.000000 14.285160 0.000000
65.343906 17.268098 10.515080 0.000000 45.000000 14.515080 3.000000
70.448540 12.884181 10.668319 0.000000 63.000000 14.668319 23.000000
66.711491 17.849948 10.646418 0.000000 54.000000 14.646418 6.000000
65.558720 18.136205 10.778992 0.000000 68.000000 14.778992 6.000000
68.037579 13.302049 10.811703 0.000000 50.000000 14.811703 25.000000
65.803776 15.543075 10.204388 0.000000 40.000000 14.204388 0.000000
67.443363 15.946621 10.124135 0.000000 28.000000 14.124135 0.000000
70.786812 12.858107 10.587001 0.000000 58.000000 14.587001 23.000000
67.464230 15.756227 10.170715 0.000000 42.000000 14.170715 0.000000
65.938187 15.235631 10.184309 0.000000 37.000000 14.184309 0.000000
67.514343 15.586277 10.179455 0.000000 38.000000 14.179455 0.000000
66.948334 13.758805 10.503922 0.000000 58.000000 14.503922 30.000000
67.530056 15.395879 10.224463 0.000000 47.000000 14.224463 0.000000
66.029606 14.908715 10.200003 0.000000 34.000000 14.200003 0.000000
67.581909 15.227024 10.223069 0.000000 40.000000 14.223069 0.000000
66.073616 14.742775 10.205172 0.000000 37.000000 14.205172 0.000000
70.397217 13.890347 10.576291 0.000000 58.000000 14.576291 16.000000
70.101410 12.200463 10.659760 0.000000 79.000000 14.659760 26.000000
67.070732 18.180554 10.352735 0.000000 39.000000 14.352735 0.000000
66.476929 13.105673 10.095359 0.000000 34.000000 14.095359 0.000000
66.538239 12.955355 10.037628 0.000000 30.000000 14.037628 0.000000
65.261951 12.264298 10.680486 0.000000 62.000000 14.680486 7.000000
68.945435 12.409910 10.601292 0.000000 45.000000 14.601292 20.000000
67.035736 13.388427 10.615276 0.000000 42.000000 14.615276 11.000000
70.844940 12.943398 10.594911 0.000000 66.000000 14.594911 23.000000
69.450546 18.153576 10.202583 0.000000 42.000000 14.202583 0.000000
69.646011 16.317463 10.195403 0.000000 28.000000 14.195403 0.000000
67.114044 12.492846 10.749278 0.000000 68.000000 14.749278 22.000000
66.450005 17.120564 10.890054 0.000000 42.000000 14.890054 5.000000
68.384560 14.634707 10.556813 0.000000 44.000000 14.556813 9.000000
69.645496 16.631042 10.197076 0.000000 39.000000 14.197076 0.000000
69.662010 16.441160 10.184008 0.000000 41.000000 14.184008 0.000000
66.214207 14.246289 10.558897 0.000000 62.000000 14.558897 18.000000
67.580528 12.789623 10.315115 0.000000 26.000000 14.315115 0.000000
69.768379 15.913268 10.067715 0.000000 33.000000 14.067715 0.000000
66.363911 15.276826 10.559221 0.000000 50.000000 14.559221 1.000000
65.319256 17.256202 10.444712 0.000000 32.000000 14.444712 3.000000
66.824848 13.423050 10.759126 0.000000 56.000000 14.759126 11.000000
71.034897 13.913757 10.449226 0.000000 72.000000 14.449226 16.000000
70.830956 14.022471 10.922283 0.000000 51.000000 14.922283 16.000000
65.887466 13.860918 10.269266 0.000000 31.000000 14.269266 17.000000
70.844521 13.298527 10.690738 0.000000 71.000000 14.690738 27.000000
68.211723 12.312753 10.371066 0.000000 37.000000 14.371066 20.000000
69.135670 12.957669 10.161578 0.000000 36.000000 14.161578 0.000000
70.280693 13.756195 10.632791 0.000000 67.000000 14.632791 16.000000
70.801521 13.472770 10.558321 0.000000 53.000000 14.558321 27.000000
65.943390 17.021533 10.831693 0.000000 53.000000 14.831693 5.000000
67.888462 14.804889 10.378508 0.000000 43.000000 14.378508 0.000000
66.413620 12.901418 10.048702 0.000000 38.000000 14.048702 0.000000
65.272652 14.101860 10.720453 0.000000 45.000000 14.720453 17.000000
70.720917 13.296393 10.331123 0.000000 32.000000 14.331123 23.000000
65.049576 13.127066 10.144379 0.000000 38.000000 14.144379 0.000000
66.566784 13.802740 10.237781 0.000000 31.000000 14.237781 0.000000
65.088703 13.441723 10.225559 0.000000 41.000000 14.225559 0.000000
66.784119 13.335498 10.884425 0.000000 38.000000 14.884425 11.000000
65.197674 13.789068 10.225834 0.000000 50.000000 14.225834 0.000000
68.097713 14.217519 10.490643 0.000000 44.000000 14.490643 19.000000
70.319496 13.686933 10.677981 0.000000 54.000000 14.677981 16.000000
65.527412 14.676157 10.221302 0.000000 48.000000 14.221302 0.000000
65.283276 14.582683 10.184293 0.000000 27.000000 14.184293 0.000000
69.664967 12.286215 11.094955 0.000000 71.000000 15.094955 12.000000
67.140396 15.224932 10.190018 0.000000 46.000000 14.190018 0.000000
65.705776 15.049931 10.187654 0.000000 33.000000 14.187654 0.000000
67.208527 15.404021 10.213923 0.000000 44.000000 14.213923 0.000000
64.888439 15.154771 10.589008 0.000000 56.000000 14.589008 4.000000
69.571430 13.356555 10.790169 0.000000 51.000000 14.790169 23.000000
65.865002 15.408388 10.198745 0.000000 38.000000 14.198745 0.000000
68.451550 13.825157 10.594633 0.000000 55.000000 14.594633 19.000000
65.070618 17.414491 10.866408 0.000000 59.000000 14.866408 3.000000
69.627296 18.133855 10.609959 0.000000 50.000000 14.609959 14.000000
70.950569 13.805025 10.613229 0.000000 48.000000 14.613229 16.000000
67.627930 16.192550 10.186783 0.000000 41.000000 14.186783 0.000000
66.236042 16.022262 10.082915 0.000000 30.000000 14.082915 0.000000
70.629692 12.105601 10.317644 0.000000 39.000000 14.317644 0.000000
66.258469 16.156787 10.179993 0.000000 35.000000 14.179993 0.000000
70.629524 16.359947 10.308867 0.000000 42.000000 14.308867 0.000000
65.462597 13.772035 10.566045 0.000000 61.000000 14.566045 17.000000
67.177170 13.890308 10.637308 0.000000 73.000000 14.637308 30.000000
65.007240 15.269340 10.635112 0.000000 62.000000 14.635112 29.000000
64.938114 15.057466 10.766140 0.000000 62.000000 14.766140 4.000000
70.235268 12.441346 10.586045 0.000000 40.000000 14.586045 26.000000
68.288853 17.236179 10.107667 0.000000 32.000000 14.107667 0.000000
66.871651 13.982253 10.545937 0.000000 61.000000 14.545937 30.000000
68.496006 17.607503 10.172527 0.000000 38.000000 14.172527 0.000000
70.078491 12.325218 10.514004 0.000000 62.000000 14.514004 26.000000
68.778271 18.020407 10.178703 0.000000 35.000000 14.178703 0.000000
67.310528 12.368649 10.768537 0.000000 72.000000 14.768537 22.000000
67.710415 12.998060 10.389056 0.000000 43.000000 14.389056 25.000000
68.470688 12.160045 10.187443 0.000000 40.000000 14.187443 0.000000
67.127445 12.223301 10.188856 0.000000 39.000000 14.188856 0.000000
66.610561 13.870095 10.662689 0.000000 66.000000 14.662689 30.000000
67.252838 12.368817 10.615210 0.000000 69.000000 14.615210 22.000000
69.732979 13.947327 10.219380 0.000000 52.000000 14.219380 0.000000
69.748123 12.409248 10.903039 0.000000 57.000000 14.903039 12.000000
65.060272 13.845655 10.593104 0.000000 72.000000 14.593104 17.000000
68.998386 14.654168 10.149929 0.000000 39.000000 14.149929 0.000000
65.853313 12.441354 10.230111 0.000000 23.000000 14.230111 0.000000
69.325699 15.011326 10.149869 0.000000 41.000000 14.149869 0.000000
68.258675 12.851251 10.331313 0.000000 38.000000 14.331313 25.000000
69.642097 15.356266 10.179405 0.000000 41.000000 14.179405 0.000000
65.733166 13.718681 10.639671 0.000000 84.000000 14.639671 17.000000
70.068466 15.750145 10.118059 0.000000 41.000000 14.118059 0.000000
67.445236 12.373348 10.253407 0.000000 29.000000 14.253407 0.000000
70.455849 16.116531 10.114950 0.000000 45.000000 14.114950 0.000000
66.160423 13.193293 10.797676 0.000000 75.000000 14.797676 11.000000
67.252861 13.079063 10.534789 0.000000 57.000000 14.534789 11.000000
71.003952 16.634069 10.180289 0.000000 49.000000 14.180289 0.000000
64.846375 16.540862 10.188704 0.000000 36.000000 14.188704 0.000000
66.733788 17.677299 10.669720 0.000000 42.000000 14.669720 6.000000
70.439133 18.052313 10.965686 0.000000 53.000000 14.965686 13.000000
65.289127 16.054970 10.168170 0.000000 40.000000 14.168170 0.000000
68.043022 13.103122 10.707641 0.000000 62.000000 14.707641 25.000000
65.740189 15.362792 10.200883 0.000000 42.000000 14.200883 0.000000
65.853676 15.237540 10.166242 0.000000 42.000000 14.166242 0.000000
65.943314 15.097995 10.159747 0.000000 38.000000 14.159747 0.000000
66.383598 15.455388 10.424519 0.000000 45.000000 14.424519 1.000000
65.310955 14.554909 10.250082 0.000000 38.000000 14.250082 0.000000
66.172497 14.645976 10.172174 0.000000 49.000000 14.172174 0.000000
70.412956 16.714130 10.563220 0.000000 43.000000 14.563220 8.000000
64.922768 13.924970 10.206505 0.000000 40.000000 14.206505 0.000000
64.986969 13.776271 10.207724 0.000000 41.000000 14.207724 0.000000
65.054310 13.628656 10.198654 0.000000 38.000000 14.198654 0.000000
65.685501 13.169201 10.235599 0.000000 38.000000 14.235599 0.000000
70.508842 16.899409 10.657376 0.000000 54.000000 14.657376 8.000000
69.030243 14.906168 10.366197 0.000000 39.000000 14.366197 0.000000
69.356819 12.337250 10.806564 0.000000 43.000000 14.806564 12.000000
66.803001 13.091238 10.141147 0.000000 53.000000 14.141147 0.000000
66.946407 15.671226 10.136089 0.000000 24.000000 14.136089 0.000000
66.961811 12.249813 10.187967 0.000000 41.000000 14.187967 0.000000
70.179932 12.174224 10.158209 0.000000 39.000000 14.158209 0.000000
70.331039 12.304521 10.205179 0.000000 49.000000 14.205179 0.000000
67.392925 17.893448 10.196459 0.000000 43.000000 14.196459 0.000000
67.465157 17.731810 10.192359 0.000000 34.000000 14.192359 0.000000
70.301880 12.911170 10.745791 0.000000 60.000000 14.745791 23.000000
64.884201 15.076966 10.695886 0.000000 32.000000 14.695886 4.000000
65.515968 17.533437 10.745265 0.000000 62.000000 14.745265 3.000000
69.477913 12.712355 10.693192 0.000000 57.000000 14.693192 12.000000
65.340675 14.782443 10.450143 0.000000 49.000000 14.450143 4.000000
69.416702 17.726500 10.226887 0.000000 43.000000 14.226887 0.000000
70.833755 13.249224 10.592400 0.000000 46.000000 14.592400 27.000000
67.750088 16.879055 10.201179 0.000000 39.000000 14.201179 0.000000
69.977951 13.145395 10.723388 0.000000 39.000000 14.723388 23.000000
67.826721 16.521319 10.215062 0.000000 40.000000 14.215062 0.000000
65.652996 17.656123 10.534517 0.000000 35.000000 14.534517 3.000000
67.856533 16.339391 10.225392 0.000000 47.000000 14.225392 0.000000
70.863464 16.566779 10.418509 0.000000 53.000000 14.418509 28.000000
65.037834 14.050352 10.568645 0.000000 66.000000 14.568645 17.000000
69.733017 16.649415 10.173711 0.000000 46.000000 14.173711 0.000000
68.060272 16.065525 10.071667 0.000000 19.000000 14.071667 0.000000
65.243126 17.913042 10.819150 0.000000 67.000000 14.819150 3.000000
68.530952 14.530069 10.725964 0.000000 53.000000 14.725964 9.000000
69.802418 16.277876 10.159823 0.000000 39.000000 14.159823 0.000000
71.029976 13.200685 10.720901 0.000000 70.000000 14.720901 27.000000
68.186325 13.879970 10.605657 0.000000 44.000000 14.605657 19.000000
68.042629 15.470720 10.175153 0.000000 37.000000 14.175153 0.000000
69.951969 15.948452 10.047875 0.000000 32.000000 14.047875 0.000000
67.874393 15.030578 10.296774 0.000000 33.000000 14.296774 0.000000
67.027645 12.859611 10.266270 0.000000 33.000000 14.266270 0.000000
64.864536 14.715083 10.482105 0.000000 65.000000 14.482105 4.000000
68.151672 14.584817 10.115398 0.000000 34.000000 14.115398 0.000000
68.112160 14.381324 10.160871 0.000000 31.000000 14.160871 0.000000
69.871353 14.810937 10.570793 0.000000 37.000000 14.570793 10.000000
64.956589 12.118343 10.567688 0.000000 68.000000 14.567688 7.000000
65.122723 14.969072 10.675933 0.000000 78.000000 14.675933 4.000000
67.618076 12.252605 10.395481 0.000000 54.000000 14.395481 21.000000
69.306618 12.256813 10.507781 0.000000 54.000000 14.507781 12.000000
67.844074 17.627245 10.196574 0.000000 24.000000 14.196574 0.000000
66.383541 12.261035 10.232902 0.000000 47.000000 14.232902 0.000000
66.363235 13.930470 10.625652 0.000000 62.000000 14.625652 18.000000
69.547756 12.294595 10.928528 0.000000 64.000000 14.928528 12.000000
65.396614 12.383477 10.224150 0.000000 55.000000 14.224150 0.000000
70.569252 12.651958 10.104047 0.000000 35.000000 14.104047 0.000000
65.464947 13.236005 10.207836 0.000000 49.000000 14.207836 0.000000
70.867439 12.952910 10.375718 0.000000 54.000000 14.375718 0.000000
65.639156 17.144773 10.414692 0.000000 46.000000 14.414692 3.000000
65.500824 13.738684 10.251564 0.000000 48.000000 14.251564 0.000000
65.729977 14.660428 10.179553 0.000000 33.000000 14.179553 0.000000
68.591953 14.530664 10.721457 0.000000 67.000000 14.721457 9.000000
69.381668 15.889950 10.057470 0.000000 22.000000 14.057470 0.000000
65.723919 16.805049 10.267178 0.000000 32.000000 14.267178 0.000000
65.916420 15.383036 10.191011 0.000000 38.000000 14.191011 0.000000
68.437675 14.173665 10.547318 0.000000 38.000000 14.547318 19.000000
68.241135 16.556169 10.211028 0.000000 30.000000 14.211028 0.000000
65.763458 13.203974 10.342285 0.000000 58.000000 14.342285 11.000000
67.768070 13.446147 10.598355 0.000000 65.000000 14.598355 25.000000
69.803432 13.067393 10.697700 0.000000 57.000000 14.697700 23.000000
66.239281 16.328280 10.190958 0.000000 34.000000 14.190958 0.000000
65.276718 14.608274 10.122882 0.000000 33.000000 14.122882 0.000000
66.317669 16.523617 10.187535 0.000000 34.000000 14.187535 0.000000
65.904396 16.460877 10.259912 0.000000 48.000000 14.259912 0.000000
66.367760 16.695392 10.223895 0.000000 53.000000 14.223895 0.000000
64.952477 16.498553 10.208775 0.000000 42.000000 14.208775 0.000000
65.022457 16.680703 10.218913 0.000000 42.000000 14.218913 0.000000
70.005066 14.855818 10.757530 0.000000 53.000000 14.757530 10.000000
69.842327 12.429145 10.579118 0.000000 54.000000 14.579118 12.000000
66.506596 16.147313 10.296236 0.000000 29.000000 14.296236 2.000000
66.172375 12.110761 10.202990 0.000000 38.000000 14.202990 0.000000
67.940464 12.924832 10.138594 0.000000 41.000000 14.138594 0.000000
66.646564 13.018201 10.070043 0.000000 38.000000 14.070043 0.000000
68.765095 14.418475 10.100847 0.000000 38.000000 14.100847 0.000000
67.441162 14.582265 10.158024 0.000000 51.000000 14.158024 0.000000
70.185333 13.332767 10.859361 0.000000 53.000000 14.859361 23.000000
69.823879 12.163840 10.260338 0.000000 53.000000 14.260338 0.000000
69.400784 15.516364 10.231348 0.000000 49.000000 14.231348 0.000000
68.136024 12.039278 10.367713 0.000000 28.000000 14.367713 0.000000
69.152172 13.056253 10.776132 0.000000 75.000000 14.776132 24.000000
68.682739 16.567291 10.220037 0.000000 35.000000 14.220037 0.000000
67.883457 14.136755 10.586378 0.000000 49.000000 14.586378 19.000000
66.486374 13.121315 10.634860 0.000000 45.000000 14.634860 11.000000
66.463345 16.756696 10.686077 0.000000 41.000000 14.686077 5.000000
66.709457 17.027502 10.399034 0.000000 35.000000 14.399034 5.000000
70.045616 16.335400 10.179094 0.000000 40.000000 14.179094 0.000000
70.498894 13.313763 10.694036 0.000000 45.000000 14.694036 23.000000
66.227577 12.566922 10.791370 0.000000 65.000000 14.791370 22.000000
67.365303 12.486592 10.773237 0.000000 51.000000 14.773237 22.000000
68.884769 16.608258 10.197021 0.000000 43.000000 14.197021 0.000000
66.645813 16.119292 10.394084 0.000000 53.000000 14.394084 2.000000
71.001984 17.416059 10.085971 0.000000 38.000000 14.085971 0.000000
65.466034 12.678428 10.645707 0.000000 68.000000 14.645707 7.000000
65.405777 13.589575 10.205853 0.000000 39.000000 14.205853 0.000000
69.452965 13.464563 10.762612 0.000000 51.000000 14.762612 24.000000
65.554039 13.303864 10.228165 0.000000 52.000000 14.228165 0.000000
70.146675 14.094883 10.686408 0.000000 54.000000 14.686408 16.000000
65.753925 13.035336 10.170338 0.000000 44.000000 14.170338 0.000000
65.905533 12.745988 10.164486 0.000000 32.000000 14.164486 0.000000
70.698349 16.533181 10.295299 0.000000 71.000000 14.295299 0.000000
65.991817 12.427520 10.230148 0.000000 48.000000 14.230148 0.000000
69.493366 12.113586 10.251314 0.000000 30.000000 14.251314 12.000000
68.228573 12.375829 10.673450 0.000000 46.000000 14.673450 20.000000
66.200397 11.984721 10.198416 0.000000 44.000000 14.198416 0.000000
70.141495 12.225227 10.166071 0.000000 39.000000 14.166071 0.000000
68.336582 13.816117 10.622725 0.000000 68.000000 14.622725 19.000000
65.113747 13.845240 10.227445 0.000000 35.000000 14.227445 0.000000
70.954605 16.613073 10.546355 0.000000 53.000000 14.546355 28.000000
67.435497 17.541636 10.127935 0.000000 35.000000 14.127935 0.000000
65.473221 12.644958 10.453804 0.000000 27.000000 14.453804 7.000000
65.262299 12.268116 10.496047 0.000000 33.000000 14.496047 7.000000
67.788956 13.383105 10.646814 0.000000 65.000000 14.646814 25.000000
66.318565 17.111742 11.129941 0.000000 58.000000 15.129941 5.000000
65.998707 16.601786 10.239454 0.000000 42.000000 14.239454 0.000000
65.508404 14.804605 10.269691 0.000000 44.000000 14.269691 0.000000
69.479061 12.090399 10.375415 0.000000 34.000000 14.375415 12.000000
67.353962 16.236720 10.208062 0.000000 31.000000 14.208062 0.000000
66.277092 12.457231 10.668393 0.000000 46.000000 14.668393 22.000000
68.400913 12.470059 10.735977 0.000000 62.000000 14.735977 20.000000
66.062950 12.375796 10.461390 0.000000 44.000000 14.461390 22.000000
67.816109 16.545336 10.222346 0.000000 46.000000 14.222346 0.000000
64.939091 13.900202 10.402907 0.000000 44.000000 14.402907 17.000000
70.071815 14.118157 10.677854 0.000000 44.000000 14.677854 16.000000
70.668518 13.027990 10.698482 0.000000 85.000000 14.698482 23.000000
67.977699 16.235288 10.184140 0.000000 43.000000 14.184140 0.000000
66.531208 12.291957 10.595909 0.000000 72.000000 14.595909 22.000000
68.204132 15.960638 10.057491 0.000000 30.000000 14.057491 0.000000
70.670937 13.829345 10.900855 0.000000 64.000000 14.900855 16.000000
68.191711 15.751586 10.130055 0.000000 25.000000 14.130055 0.000000
66.585567 15.200960 10.192759 0.000000 31.000000 14.192759 0.000000
70.715660 12.756971 10.596449 0.000000 55.000000 14.596449 23.000000
66.624187 15.031946 10.200502 0.000000 36.000000 14.200502 0.000000
65.767483 18.027320 10.306807 0.000000 39.000000 14.306807 6.000000
66.640141 13.364579 10.723907 0.000000 40.000000 14.723907 11.000000
68.287189 15.208201 10.173535 0.000000 37.000000 14.173535 0.000000
69.577812 13.356715 10.699960 0.000000 66.000000 14.699960 23.000000
66.823975 14.577898 10.095729 0.000000 32.000000 14.095729 0.000000
68.307148 12.905160 10.754480 0.000000 47.000000 14.754480 25.000000
68.531181 14.555532 10.048455 0.000000 37.000000 14.048455 0.000000
68.879501 13.365863 10.777368 0.000000 69.000000 14.777368 24.000000
68.506248 13.052297 10.192659 0.000000 48.000000 14.192659 0.000000
66.907349 12.307038 10.228502 0.000000 39.000000 14.228502 0.000000
66.763603 13.033190 10.321526 0.000000 42.000000 14.321526 11.000000
66.091702 13.763998 10.403485 0.000000 59.000000 14.403485 18.000000
70.549812 17.429541 10.038506 0.000000 23.000000 14.038506 0.000000
65.134197 14.586185 10.377147 0.000000 49.000000 14.377147 4.000000
65.470036 17.141897 10.572859 0.000000 49.000000 14.572859 3.000000
71.033707 13.791261 10.855162 0.000000 81.000000 14.855162 16.000000
66.195034 18.007595 10.834727 0.000000 43.000000 14.834727 6.000000
70.942734 14.012867 10.354851 0.000000 63.000000 14.354851 16.000000
70.494980 16.751112 10.571960 0.000000 44.000000 14.571960 8.000000
69.927364 13.769723 10.204900 0.000000 34.000000 14.204900 0.000000
64.781139 15.993288 10.091182 0.000000 32.000000 14.091182 0.000000
64.787266 16.299830 10.204996 0.000000 36.000000 14.204996 0.000000
64.833755 16.483983 10.208119 0.000000 35.000000 14.208119 0.000000
66.694855 12.106730 10.234681 0.000000 54.000000 14.234681 0.000000
66.450123 18.136240 10.881435 0.000000 39.000000 14.881435 6.000000
70.881073 14.258056 10.264906 0.000000 30.000000 14.264906 16.000000
65.626492 13.091665 10.156444 0.000000 42.000000 14.156444 0.000000
65.624859 13.238645 10.225647 0.000000 49.000000 14.225647 0.000000
65.681870 13.413914 10.220573 0.000000 44.000000 14.220573 0.000000
67.154385 13.709791 10.201656 0.000000 49.000000 14.201656 0.000000
65.741837 13.592175 10.216650 0.000000 38.000000 14.216650 0.000000
66.316948 15.465748 10.511086 0.000000 29.000000 14.511086 1.000000
67.510132 14.632991 10.200596 0.000000 53.000000 14.200596 0.000000
66.093021 14.490808 10.185833 0.000000 34.000000 14.185833 0.000000
66.156090 14.664754 10.203560 0.000000 45.000000 14.203560 0.000000
67.596542 13.693293 10.433031 0.000000 49.000000 14.433031 19.000000
70.887375 13.915756 10.728917 0.000000 49.000000 14.728917 16.000000
67.832722 15.380653 10.227599 0.000000 35.000000 14.227599 0.000000
66.423870 15.225129 10.170489 0.000000 34.000000 14.170489 0.000000
68.005604 15.615518 10.139636 0.000000 29.000000 14.139636 0.000000
69.553005 12.157058 10.228209 0.000000 37.000000 14.228209 0.000000
68.143936 15.832565 10.099279 0.000000 23.000000 14.099279 0.000000
68.276783 16.045470 10.067285 0.000000 29.000000 14.067285 0.000000
69.562088 13.240840 10.751805 0.000000 65.000000 14.751805 23.000000
70.835907 13.552693 10.584195 0.000000 63.000000 14.584195 27.000000
66.303551 12.446023 10.490107 0.000000 55.000000 14.490107 22.000000
67.437603 14.039002 10.395447 0.000000 43.000000 14.395447 30.000000
68.612644 16.769467 10.208468 0.000000 50.000000 14.208468 0.000000
68.772034 16.991517 10.172294 0.000000 45.000000 14.172294 0.000000
67.207054 16.705081 10.210670 0.000000 48.000000 14.210670 0.000000
68.921871 17.208305 10.152750 0.000000 25.000000 14.152750 0.000000
66.076351 12.605211 10.420649 0.000000 58.000000 14.420649 22.000000
65.494041 14.814544 10.294092 0.000000 56.000000 14.294092 0.000000
70.193657 13.807914 10.542393 0.000000 58.000000 14.542393 16.000000
69.276543 17.786464 10.225786 0.000000 47.000000 14.225786 0.000000
66.133492 11.975824 10.237474 0.000000 22.000000 14.237474 0.000000
66.798359 16.000946 10.289647 0.000000 41.000000 14.289647 2.000000
66.610634 16.217133 10.554928 0.000000 61.000000 14.554928 2.000000
69.421902 13.036596 10.775050 0.000000 78.000000 14.775050 24.000000
64.949257 14.998608 10.715100 0.000000 48.000000 14.715100 4.000000
64.997929 12.442767 10.701262 0.000000 67.000000 14.701262 7.000000
67.569252 12.067002 10.186584 0.000000 39.000000 14.186584 0.000000
67.789803 13.658995 10.310197 0.000000 56.000000 14.310197 19.000000
69.010281 13.233150 10.734576 0.000000 52.000000 14.734576 24.000000
69.332230 12.677276 10.245743 0.000000 54.000000 14.245743 0.000000
69.172207 12.294349 10.377898 0.000000 40.000000 14.377898 0.000000
68.227951 13.775542 10.630710 0.000000 58.000000 14.630710 19.000000
69.398895 14.352900 10.048948 0.000000 35.000000 14.048948 0.000000
69.560600 14.532533 10.046329 0.000000 37.000000 14.046329 0.000000
68.212002 14.004932 10.591249 0.000000 47.000000 14.591249 19.000000
69.055424 13.061935 10.711878 0.000000 50.000000 14.711878 24.000000
69.448978 14.441386 10.059591 0.000000 27.000000 14.059591 0.000000
69.831257 13.302419 10.693205 0.000000 58.000000 14.693205 23.000000
65.704689 16.878778 10.279911 0.000000 39.000000 14.279911 0.000000
70.647224 17.780026 10.439596 0.000000 69.000000 14.439596 13.000000
65.622570 16.931530 10.215733 0.000000 36.000000 14.215733 0.000000
65.539524 12.199931 10.232059 0.000000 25.000000 14.232059 0.000000
65.832241 16.672184 10.220398 0.000000 53.000000 14.220398 0.000000
66.467663 13.820692 10.636065 0.000000 61.000000 14.636065 18.000000
68.902058 12.993752 10.595971 0.000000 41.000000 14.595971 24.000000
64.798012 16.020855 10.067271 0.000000 22.000000 14.067271 0.000000
66.819065 17.721099 10.415718 0.000000 38.000000 14.415718 6.000000
64.769558 15.798964 10.240462 0.000000 27.000000 14.240462 0.000000
66.297871 16.180305 10.126283 0.000000 32.000000 14.126283 0.000000
70.680496 17.015970 10.517058 0.000000 40.000000 14.517058 28.000000
66.791706 13.075215 10.810258 0.000000 67.000000 14.810258 11.000000
66.764767 15.276008 10.180701 0.000000 42.000000 14.180701 0.000000
64.781979 11.966846 10.925318 0.000000 49.000000 14.925318 7.000000
69.051342 13.147737 10.770571 0.000000 60.000000 14.770571 24.000000
68.087730 12.869496 10.254671 0.000000 35.000000 14.254671 0.000000
69.066570 13.172378 10.762022 0.000000 71.000000 14.762022 24.000000
66.116074 18.100908 11.098255 0.000000 47.000000 15.098255 6.000000
65.837109 13.603139 10.204366 0.000000 36.000000 14.204366 0.000000
66.021469 13.153839 10.136254 0.000000 38.000000 14.136254 0.000000
68.765640 12.625376 10.460382 0.000000 41.000000 14.460382 20.000000
70.610321 13.401549 10.694130 0.000000 67.000000 14.694130 23.000000
66.185665 12.875227 10.021752 0.000000 29.000000 14.021752 0.000000
67.617943 13.053382 10.081943 0.000000 44.000000 14.081943 0.000000
66.107285 12.663589 10.167761 0.000000 35.000000 14.167761 0.000000
66.164356 12.167177 10.202974 0.000000 36.000000 14.202974 0.000000
66.742046 16.940338 10.269892 0.000000 24.000000 14.269892 5.000000
67.647018 12.159389 10.206475 0.000000 42.000000 14.206475 0.000000
67.307884 13.474996 10.239066 0.000000 43.000000 14.239066 0.000000
70.827988 12.286654 10.174736 0.000000 42.000000 14.174736 0.000000
70.995636 12.418452 10.218636 0.000000 55.000000 14.218636 0.000000
68.505703 13.808310 10.292871 0.000000 43.000000 14.292871 19.000000
68.875294 13.352487 10.911304 0.000000 55.000000 14.911304 24.000000
65.110714 16.750233 10.313701 0.000000 49.000000 14.313701 3.000000
67.166008 12.350943 10.802169 0.000000 65.000000 14.802169 22.000000
68.632256 17.412688 10.103957 0.000000 22.000000 14.103957 0.000000
68.332657 14.068231 10.701199 0.000000 43.000000 14.701199 19.000000
68.502266 13.417901 10.755347 0.000000 55.000000 14.755347 25.000000
64.939503 17.897661 10.425940 0.000000 44.000000 14.425940 3.000000
68.645748 16.809790 10.218231 0.000000 45.000000 14.218231 0.000000
64.893150 17.093994 10.724489 0.000000 33.000000 14.724489 3.000000
68.529106 13.125873 10.650011 0.000000 55.000000 14.650011 25.000000
67.266613 12.476883 10.634533 0.000000 44.000000 14.634533 22.000000
68.750332 16.271549 10.197855 0.000000 35.000000 14.197855 0.000000
68.704594 13.306872 10.904984 0.000000 50.000000 14.904984 24.000000
68.838242 17.157608 10.328201 0.000000 43.000000 14.328201 0.000000
68.817913 15.918350 10.166805 0.000000 37.000000 14.166805 0.000000
70.624420 16.336107 10.200722 0.000000 43.000000 14.200722 0.000000
68.849369 15.740832 10.146185 0.000000 36.000000 14.146185 0.000000
70.132561 13.350404 10.829835 0.000000 65.000000 14.829835 23.000000
66.726768 12.675494 10.699195 0.000000 54.000000 14.699195 22.000000
68.809521 13.198949 10.792175 0.000000 66.000000 14.792175 24.000000
68.836288 15.350285 10.176558 0.000000 36.000000 14.176558 0.000000
65.171116 17.936685 10.876855 0.000000 67.000000 14.876855 3.000000
70.361580 12.037511 10.312766 0.000000 31.000000 14.312766 0.000000
69.186764 17.296122 10.566916 0.000000 49.000000 14.566916 15.000000
64.953983 15.616021 10.526609 0.000000 50.000000 14.526609 29.000000
70.580475 16.424758 10.426591 0.000000 71.000000 14.426591 8.000000
69.016071 16.989121 10.767938 0.000000 18.000000 14.767938 15.000000
70.662971 14.586093 10.100080 0.000000 45.000000 14.100080 0.000000
68.755039 13.854965 10.184920 0.000000 37.000000 14.184920 0.000000
67.750713 15.818632 10.165017 0.000000 23.000000 14.165017 0.000000
68.834610 12.308391 10.296118 0.000000 51.000000 14.296118 0.000000
70.390388 13.835027 10.530931 0.000000 43.000000 14.530931 16.000000
66.355034 13.660336 10.412302 0.000000 41.000000 14.412302 18.000000
67.919987 13.110597 10.926322 0.000000 54.000000 14.926322 25.000000
65.955269 12.131178 10.200335 0.000000 45.000000 14.200335 0.000000
65.953850 12.298084 10.208278 0.000000 52.000000 14.208278 0.000000
65.950375 12.462829 10.223502 0.000000 47.000000 14.223502 0.000000
69.700798 12.185569 10.360843 0.000000 40.000000 14.360843 12.000000
65.565876 17.514100 10.737536 0.000000 56.000000 14.737536 3.000000
70.970985 13.426304 10.755508 0.000000 59.000000 14.755508 27.000000
70.800385 17.785492 10.930442 0.000000 77.000000 14.930442 13.000000
65.266628 12.056696 10.307159 0.000000 28.000000 14.307159 7.000000
64.787876 13.917142 10.210965 0.000000 37.000000 14.210965 0.000000
70.112114 13.543407 10.808449 0.000000 67.000000 14.808449 23.000000
66.955532 16.020572 10.642666 0.000000 65.000000 14.642666 2.000000
64.936317 14.615971 10.209619 0.000000 42.000000 14.209619 0.000000
66.113110 16.839475 10.308257 0.000000 40.000000 14.308257 5.000000
66.441540 15.118460 10.183565 0.000000 39.000000 14.183565 0.000000
66.816799 16.794002 10.423055 0.000000 50.000000 14.423055 5.000000
65.403179 16.073676 10.183395 0.000000 39.000000 14.183395 0.000000
65.592350 12.104738 10.212479 0.000000 35.000000 14.212479 0.000000
65.532532 16.433765 10.206161 0.000000 38.000000 14.206161 0.000000
70.372681 16.651889 10.378670 0.000000 53.000000 14.378670 8.000000
68.474232 13.861340 10.541769 0.000000 49.000000 14.541769 19.000000
66.327820 13.041481 10.335578 0.000000 44.000000 14.335578 11.000000
70.067863 17.966926 10.622261 0.000000 63.000000 14.622261 14.000000
65.760357 16.981270 10.227910 0.000000 40.000000 14.227910 0.000000
67.429813 17.489735 10.083860 0.000000 30.000000 14.083860 0.000000
65.926262 17.230119 10.123405 0.000000 30.000000 14.123405 0.000000
67.188549 13.037265 10.161518 0.000000 44.000000 14.161518 0.000000
70.198341 12.824351 10.638206 0.000000 62.000000 14.638206 23.000000
69.442081 12.658455 10.813389 0.000000 55.000000 14.813389 12.000000
67.803635 13.854020 10.489977 0.000000 63.000000 14.489977 19.000000
68.841751 12.368179 10.556434 0.000000 50.000000 14.556434 20.000000
66.058666 12.451943 10.741014 0.000000 60.000000 14.741014 22.000000
70.635628 12.873641 10.693065 0.000000 66.000000 14.693065 23.000000
66.164280 17.332519 10.769129 0.000000 44.000000 14.769129 5.000000
68.534702 12.924813 10.092168 0.000000 39.000000 14.092168 0.000000
64.983093 13.861327 10.528798 0.000000 60.000000 14.528798 17.000000
68.956039 13.814147 10.169345 0.000000 39.000000 14.169345 0.000000
66.899216 17.902381 10.228671 0.000000 25.000000 14.228671 0.000000
67.669598 14.021037 10.190607 0.000000 49.000000 14.190607 0.000000
67.112133 12.419129 10.661344 0.000000 59.000000 14.661344 22.000000
65.259739 15.093204 10.730251 0.000000 61.000000 14.730251 4.000000
69.466557 14.591517 10.119177 0.000000 40.000000 14.119177 0.000000
67.973980 14.423952 10.093689 0.000000 35.000000 14.093689 0.000000
65.668827 17.370189 10.608950 0.000000 47.000000 14.608950 3.000000
65.061611 17.141174 10.651101 0.000000 31.000000 14.651101 3.000000
69.736687 15.110370 10.244105 0.000000 38.000000 14.244105 0.000000
64.891285 17.355609 10.670863 0.000000 24.000000 14.670863 3.000000
69.394878 12.709906 10.394722 0.000000 71.000000 14.394722 12.000000
68.509624 15.295128 10.188065 0.000000 45.000000 14.188065 0.000000
67.890224 14.442854 10.124059 0.000000 28.000000 14.124059 0.000000
68.673229 15.497226 10.156539 0.000000 42.000000 14.156539 0.000000
64.936672 16.591172 10.469662 0.000000 53.000000 14.469662 3.000000
67.117641 13.630024 10.442906 0.000000 50.000000 14.442906 30.000000
70.560028 16.139132 10.163156 0.000000 42.000000 14.163156 0.000000
70.124802 15.066224 10.486923 0.000000 57.000000 14.486923 10.000000
65.154594 16.874435 10.605957 0.000000 56.000000 14.605957 3.000000
69.753002 12.343973 10.300563 0.000000 44.000000 14.300563 12.000000
65.786743 13.992234 10.632758 0.000000 62.000000 14.632758 17.000000
