41.907904 37.501946 37.979167 0.000000 45.000000 14.186090 0.000000
44.573362 36.855395 40.053863 0.000000 62.000000 14.441365 23.000000
43.375329 38.474467 40.410863 0.000000 67.000000 14.632065 18.000000
43.255143 34.201350 35.102200 0.000000 34.000000 14.093964 0.000000
44.753545 35.542021 39.318304 0.000000 20.000000 14.007936 0.000000
41.615591 38.048344 37.147676 0.000000 57.000000 14.741782 12.000000
43.829508 36.067345 38.442286 0.000000 43.000000 14.188639 0.000000
42.879269 35.142302 35.660589 0.000000 53.000000 14.241724 0.000000
42.754041 35.395610 35.827152 0.000000 72.000000 14.259776 0.000000
42.256999 35.570299 35.857142 0.000000 24.000000 14.062416 0.000000
40.169591 38.380889 36.980100 0.000000 48.000000 14.164771 0.000000
44.505282 34.622720 36.294829 0.000000 40.000000 14.595676 29.000000
43.160597 37.774330 39.166472 0.000000 62.000000 14.593075 27.000000
43.001654 37.122296 38.299834 0.000000 65.000000 14.451391 27.000000
41.981966 37.186924 37.003140 0.000000 66.000000 14.456704 4.000000
40.708271 37.566641 35.769986 0.000000 67.000000 14.489198 11.000000
41.781642 37.837901 37.279018 0.000000 77.000000 14.644094 12.000000
43.230548 36.536323 38.596365 0.000000 27.000000 14.069426 0.000000
43.787454 36.152205 37.922240 0.000000 56.000000 14.450991 2.000000
44.843217 34.325849 37.250755 0.000000 24.000000 14.177292 0.000000
44.458498 37.420411 39.957471 0.000000 66.000000 14.789101 23.000000
42.238199 38.865107 39.433144 0.000000 72.000000 14.640405 25.000000
44.881582 35.478781 38.806030 0.000000 37.000000 14.271323 15.000000
44.472396 36.345114 39.357990 0.000000 37.000000 14.352459 23.000000
41.124429 37.695664 37.461364 0.000000 42.000000 14.072517 0.000000
43.090963 37.799899 40.034941 0.000000 46.000000 14.181380 0.000000
45.414842 35.115231 38.183579 0.000000 60.000000 14.629244 21.000000
45.028958 35.125027 38.366880 0.000000 45.000000 14.321478 21.000000
42.141695 37.316989 37.584296 0.000000 69.000000 14.380384 4.000000
41.538459 38.262975 38.193344 0.000000 39.000000 14.371849 14.000000
42.488041 38.482147 39.004477 0.000000 48.000000 14.728333 24.000000
46.299584 34.346488 38.948652 0.000000 56.000000 14.313085 20.000000
43.186756 36.488528 38.301246 0.000000 41.000000 14.142768 0.000000
42.713215 38.828041 40.203838 0.000000 79.000000 14.559136 22.000000
41.641555 38.349330 38.970972 0.000000 42.000000 14.144977 0.000000
43.218454 37.291731 38.281599 0.000000 59.000000 14.702392 27.000000
43.014774 34.893196 35.509607 0.000000 39.000000 14.225713 0.000000
43.890886 38.422981 40.898281 0.000000 74.000000 14.691805 16.000000
45.177423 35.726406 39.709973 0.000000 24.000000 14.211191 0.000000
43.784418 38.061690 40.860541 0.000000 59.000000 14.405222 16.000000
41.690931 37.920809 37.074914 0.000000 58.000000 14.735162 12.000000
42.336978 36.099554 36.510465 0.000000 42.000000 14.170174 0.000000
41.537413 37.476262 37.247738 0.000000 57.000000 14.271351 12.000000
44.551522 34.560873 36.151759 0.000000 61.000000 14.646302 29.000000
42.414931 38.341067 40.027226 0.000000 42.000000 14.135526 0.000000
43.241884 37.446295 39.805139 0.000000 50.000000 14.140570 0.000000
44.315574 36.587387 39.510535 0.000000 31.000000 14.350398 23.000000
46.013672 34.412578 38.365337 0.000000 58.000000 14.444158 20.000000
42.765191 37.222771 38.551611 0.000000 69.000000 14.263260 27.000000
46.151382 34.584340 39.267680 0.000000 36.000000 14.239177 0.000000
42.023736 37.626987 38.644960 0.000000 43.000000 14.042298 0.000000
41.811954 38.461246 38.441950 0.000000 51.000000 14.557324 24.000000
39.791552 38.386403 36.392399 0.000000 46.000000 14.202148 0.000000
42.927533 37.799928 40.001920 0.000000 47.000000 14.097570 0.000000
42.882937 36.011965 37.001154 0.000000 60.000000 14.222885 0.000000
41.535319 37.377993 37.297776 0.000000 55.000000 14.182752 0.000000
41.653976 37.261362 37.281224 0.000000 46.000000 14.184442 0.000000
40.444704 38.230925 35.933161 0.000000 77.000000 14.697445 13.000000
42.657066 38.451581 40.492095 0.000000 40.000000 14.147714 0.000000
43.728850 35.523950 37.173509 0.000000 52.000000 14.333052 5.000000
44.087868 36.082064 38.836297 0.000000 36.000000 14.178734 0.000000
41.475368 36.541572 36.282442 0.000000 40.000000 14.044874 0.000000
42.864061 38.302438 40.561022 0.000000 46.000000 14.143082 0.000000
41.613995 36.538325 36.122064 0.000000 41.000000 14.197701 0.000000
42.540565 36.439726 37.220127 0.000000 51.000000 14.202188 0.000000
43.600208 37.642871 40.623503 0.000000 47.000000 14.122411 0.000000
43.463435 37.099491 39.611757 0.000000 35.000000 14.130630 0.000000
42.948149 36.080159 37.232642 0.000000 51.000000 14.204291 0.000000
45.047217 35.276537 37.417844 0.000000 73.000000 14.855304 21.000000
43.176359 37.606761 39.330127 0.000000 36.000000 14.418778 27.000000
43.726346 36.895662 39.377908 0.000000 56.000000 14.258300 23.000000
43.035450 34.266623 34.890810 0.000000 39.000000 14.098838 0.000000
45.576208 35.143315 38.108080 0.000000 64.000000 14.778736 21.000000
43.375140 35.668476 37.335488 0.000000 61.000000 14.143375 0.000000
44.752498 35.593639 38.585644 0.000000 41.000000 14.367658 15.000000
43.089914 35.418926 36.629289 0.000000 53.000000 14.120597 0.000000
43.810887 36.484108 39.364394 0.000000 27.000000 14.042812 0.000000
41.725536 37.159237 36.477764 0.000000 68.000000 14.517671 9.000000
42.816772 35.450433 36.247385 0.000000 48.000000 14.146804 0.000000
42.961494 35.411643 36.163690 0.000000 61.000000 14.245636 0.000000
43.106352 35.287972 36.192842 0.000000 46.000000 14.238114 0.000000
43.209090 37.247125 38.593262 0.000000 52.000000 14.528463 27.000000
45.103587 34.353551 37.887198 0.000000 29.000000 14.069263 0.000000
43.491155 34.701059 34.057067 0.000000 51.000000 15.032382 1.000000
42.065992 37.461154 37.196072 0.000000 72.000000 14.603025 4.000000
45.359587 34.533370 38.093330 0.000000 35.000000 14.250884 0.000000
41.937451 36.187037 35.025352 0.000000 46.000000 14.648392 19.000000
42.659741 38.221398 40.161406 0.000000 44.000000 14.144155 0.000000
43.819308 34.349114 36.133368 0.000000 39.000000 14.072848 0.000000
45.430738 35.710719 39.139825 0.000000 74.000000 14.607355 17.000000
44.274582 34.363807 35.726638 0.000000 49.000000 14.538132 30.000000
44.820688 35.359189 37.572272 0.000000 65.000000 14.704701 21.000000
42.296745 38.297940 38.611143 0.000000 74.000000 14.666158 24.000000
40.709279 37.614795 36.787819 0.000000 32.000000 14.068548 0.000000
41.477714 38.325389 37.979252 0.000000 77.000000 14.471861 14.000000
43.175065 34.533893 34.385601 0.000000 80.000000 14.584877 1.000000
44.226856 35.583974 37.404530 0.000000 46.000000 14.570184 5.000000
41.841739 38.233985 38.206241 0.000000 77.000000 14.529759 24.000000
42.504954 38.523202 38.847062 0.000000 64.000000 14.835791 24.000000
45.177331 35.692103 38.306487 0.000000 58.000000 14.813255 15.000000
44.518431 34.317157 36.931693 0.000000 33.000000 14.117772 0.000000
41.344790 37.944886 37.207064 0.000000 61.000000 14.483584 12.000000
40.715812 38.390832 37.681380 0.000000 36.000000 14.188456 0.000000
40.928911 38.688927 37.905165 0.000000 60.000000 14.414659 26.000000
44.698643 35.891243 39.502653 0.000000 32.000000 14.123969 0.000000
43.002686 38.639047 40.904835 0.000000 44.000000 14.296447 22.000000
44.251747 34.580651 36.825740 0.000000 43.000000 14.178610 0.000000
44.140906 34.742921 36.838241 0.000000 45.000000 14.213651 0.000000
43.738097 36.525670 39.354227 0.000000 42.000000 14.030971 0.000000
45.128342 35.539046 38.940829 0.000000 57.000000 14.399979 17.000000
41.439827 36.682952 35.100021 0.000000 42.000000 14.643460 19.000000
42.777567 35.361349 35.815522 0.000000 65.000000 14.256454 0.000000
43.654525 34.190898 35.363723 0.000000 47.000000 14.211399 0.000000
44.583442 35.868792 39.244796 0.000000 39.000000 14.154449 0.000000
43.268461 36.267250 37.992808 0.000000 43.000000 14.182845 0.000000
44.189623 35.621318 38.424415 0.000000 50.000000 14.118409 0.000000
43.231731 35.733821 37.221755 0.000000 37.000000 14.150811 0.000000
41.742941 38.855670 38.678469 0.000000 82.000000 14.671550 25.000000
43.113422 35.913494 37.176902 0.000000 53.000000 14.218405 0.000000
41.692863 37.303049 37.426243 0.000000 37.000000 14.170923 0.000000
41.642579 37.840049 37.324930 0.000000 34.000000 14.541236 12.000000
42.612755 36.205331 37.045090 0.000000 35.000000 14.168454 0.000000
41.658233 37.689488 38.141052 0.000000 41.000000 14.087658 0.000000
42.629829 36.386658 37.307498 0.000000 42.000000 14.181973 0.000000
40.846651 38.992775 37.598662 0.000000 54.000000 14.702685 26.000000
41.494212 37.299248 37.182309 0.000000 36.000000 14.157241 0.000000
41.542061 36.528379 36.352323 0.000000 38.000000 14.045237 0.000000
43.677886 37.359505 38.895326 0.000000 79.000000 14.751019 27.000000
46.303645 34.628870 38.914414 0.000000 53.000000 14.517729 20.000000
45.151767 35.131574 38.305499 0.000000 48.000000 14.427180 21.000000
41.748160 37.227241 37.394713 0.000000 49.000000 14.168109 0.000000
44.793416 35.895871 39.622550 0.000000 36.000000 14.130793 0.000000
40.678454 37.838120 35.696619 0.000000 71.000000 14.683619 11.000000
45.458960 35.775420 39.230527 0.000000 69.000000 14.626826 17.000000
44.519197 36.575593 39.980801 0.000000 41.000000 14.255991 23.000000
41.707351 37.363204 37.517408 0.000000 47.000000 14.178897 0.000000
41.684778 36.384225 35.937104 0.000000 31.000000 14.220697 0.000000
41.049331 37.642988 37.277039 0.000000 42.000000 14.074428 0.000000
42.759420 38.494003 40.742115 0.000000 31.000000 14.126200 0.000000
41.199958 37.805846 37.548549 0.000000 48.000000 14.152185 0.000000
42.594499 37.090748 37.968337 0.000000 72.000000 14.332616 27.000000
40.014265 38.361220 36.235531 0.000000 52.000000 14.389585 13.000000
40.496170 38.292090 37.211713 0.000000 56.000000 14.199759 0.000000
41.879383 38.681458 38.876553 0.000000 64.000000 14.550285 25.000000
43.399705 37.150428 38.661096 0.000000 70.000000 14.549164 27.000000
42.524845 36.365165 37.079217 0.000000 37.000000 14.206079 0.000000
44.210293 36.598172 39.973845 0.000000 48.000000 14.087801 0.000000
42.580407 37.301411 38.606476 0.000000 39.000000 14.179493 0.000000
42.476021 36.228771 36.948298 0.000000 48.000000 14.144629 0.000000
43.588869 35.231840 36.808774 0.000000 44.000000 14.217645 0.000000
44.754851 35.601318 38.419766 0.000000 72.000000 14.448009 15.000000
43.063134 34.209782 34.633597 0.000000 38.000000 14.192407 0.000000
44.483623 37.117376 39.988178 0.000000 40.000000 14.589952 23.000000
41.240557 38.775253 38.395586 0.000000 83.000000 14.441366 25.000000
41.168623 37.645508 37.403380 0.000000 34.000000 14.091770 0.000000
42.790232 35.813562 36.615632 0.000000 56.000000 14.207273 0.000000
41.538787 38.916343 38.349675 0.000000 44.000000 14.735015 25.000000
42.013478 36.613505 36.870931 0.000000 56.000000 14.154925 0.000000
42.122386 38.419468 39.741071 0.000000 44.000000 14.138455 0.000000
42.164311 36.489765 36.970662 0.000000 42.000000 14.119538 0.000000
42.144846 38.919268 39.096848 0.000000 49.000000 14.769699 25.000000
43.535207 35.116586 36.612447 0.000000 32.000000 14.196392 0.000000
43.322000 36.315567 38.172138 0.000000 50.000000 14.167274 0.000000
43.426421 35.889914 37.594378 0.000000 34.000000 14.205639 0.000000
43.688593 34.315991 35.728341 0.000000 43.000000 14.152429 0.000000
43.568967 37.670122 40.759878 0.000000 44.000000 14.060903 0.000000
44.123067 37.118153 39.423872 0.000000 65.000000 14.624318 23.000000
43.294852 37.857509 40.569977 0.000000 49.000000 14.104247 0.000000
42.006741 37.219549 37.106355 0.000000 63.000000 14.447289 4.000000
40.603819 37.864837 36.119781 0.000000 69.000000 14.467919 11.000000
42.817651 35.156081 34.292302 0.000000 57.000000 14.822857 6.000000
45.504290 35.101404 38.530018 0.000000 63.000000 14.519783 21.000000
45.040915 35.469289 38.307335 0.000000 63.000000 14.583118 15.000000
42.671203 36.568379 37.734154 0.000000 48.000000 14.137280 0.000000
40.922876 37.582621 36.143344 0.000000 57.000000 14.462943 11.000000
44.811441 36.908068 39.843724 0.000000 38.000000 14.713326 23.000000
43.982171 35.424501 37.828774 0.000000 53.000000 14.128213 0.000000
44.156430 35.348674 37.898094 0.000000 47.000000 14.152209 0.000000
43.430763 35.424576 36.812196 0.000000 28.000000 14.248403 0.000000
41.963097 36.419692 36.514811 0.000000 37.000000 14.154780 0.000000
41.609837 38.963642 38.410515 0.000000 72.000000 14.782080 25.000000
43.093653 37.901600 39.301965 0.000000 53.000000 14.576653 27.000000
42.157890 35.436518 35.513280 0.000000 32.000000 14.067180 0.000000
43.466381 36.258954 38.224512 0.000000 47.000000 14.193522 0.000000
44.528930 35.828542 39.122919 0.000000 39.000000 14.149196 0.000000
45.973383 34.554711 38.770051 0.000000 50.000000 14.333791 20.000000
40.370130 38.692769 35.791809 0.000000 68.000000 15.021182 13.000000
43.498415 35.941389 37.750424 0.000000 41.000000 14.213652 0.000000
45.374502 35.756700 38.953032 0.000000 65.000000 14.687054 17.000000
46.209146 34.435885 38.500174 0.000000 44.000000 14.517409 20.000000
41.406362 36.668708 36.323638 0.000000 26.000000 14.069102 0.000000
44.773321 35.231495 37.266908 0.000000 53.000000 14.727551 21.000000
43.301707 38.312791 40.302226 0.000000 71.000000 14.529005 18.000000
44.971353 35.040114 38.466763 0.000000 38.000000 14.186064 0.000000
43.835410 35.554266 37.198874 0.000000 62.000000 14.406074 5.000000
40.471654 38.490364 36.111079 0.000000 61.000000 14.806247 13.000000
44.843876 36.851644 39.755271 0.000000 57.000000 14.734905 23.000000
42.050855 38.617729 39.090286 0.000000 68.000000 14.516318 25.000000
43.603584 36.181705 38.354422 0.000000 46.000000 14.167261 0.000000
41.369542 36.621153 36.228996 0.000000 39.000000 14.057554 0.000000
42.038446 37.072763 37.062955 0.000000 78.000000 14.388545 4.000000
44.814489 35.724471 39.522002 0.000000 23.000000 14.074785 0.000000
43.979068 36.915407 39.360541 0.000000 52.000000 14.431468 23.000000
42.872549 37.607133 39.667229 0.000000 60.000000 14.085783 0.000000
42.444389 37.674378 38.445332 0.000000 68.000000 14.416156 28.000000
42.495030 36.298417 36.960267 0.000000 45.000000 14.196870 0.000000
43.111901 38.829494 40.864911 0.000000 48.000000 14.506153 22.000000
44.751509 35.262480 37.176864 0.000000 79.000000 14.775002 21.000000
45.387409 35.639187 38.855621 0.000000 54.000000 14.660402 17.000000
42.202979 36.474417 36.954883 0.000000 37.000000 14.139714 0.000000
46.291785 34.405656 38.932532 0.000000 68.000000 14.354733 20.000000
41.607057 38.697457 38.494136 0.000000 47.000000 14.566945 25.000000
44.296409 37.148572 40.703000 0.000000 67.000000 14.179498 0.000000
41.916193 36.697610 36.863531 0.000000 47.000000 14.155250 0.000000
42.764054 36.609790 38.167235 0.000000 43.000000 14.027868 0.000000
43.702387 37.582697 40.550022 0.000000 54.000000 14.176888 0.000000
42.834667 37.916588 39.361937 0.000000 64.000000 14.403737 27.000000
43.789570 34.327170 35.468799 0.000000 67.000000 14.336256 30.000000
42.751825 35.175096 34.273787 0.000000 57.000000 14.804003 6.000000
42.504389 36.673126 37.861622 0.000000 37.000000 14.049310 0.000000
40.307447 38.056302 36.114634 0.000000 45.000000 14.418292 13.000000
42.761263 38.745047 40.191408 0.000000 44.000000 14.538691 22.000000
40.971133 38.276047 37.420349 0.000000 41.000000 14.382603 14.000000
41.083835 37.780756 37.418527 0.000000 49.000000 14.123450 0.000000
40.215602 37.875853 36.226760 0.000000 47.000000 14.193533 0.000000
43.121629 35.617492 37.054884 0.000000 32.000000 14.081705 0.000000
44.063757 36.147339 38.962641 0.000000 44.000000 14.151164 0.000000
40.808458 37.835856 36.074060 0.000000 67.000000 14.592462 11.000000
43.137548 35.056145 35.397290 0.000000 72.000000 14.457617 8.000000
42.232413 35.948146 36.114120 0.000000 34.000000 14.183344 0.000000
43.723854 36.214874 38.532151 0.000000 34.000000 14.182606 0.000000
42.542460 38.498848 38.826402 0.000000 74.000000 14.851477 24.000000
46.057295 34.465502 38.603620 0.000000 58.000000 14.399414 20.000000
43.920652 37.324716 40.550180 0.000000 38.000000 14.137609 0.000000
45.393196 34.397243 38.176261 0.000000 37.000000 14.144102 0.000000
46.140749 34.414411 38.230177 0.000000 51.000000 14.582159 20.000000
44.717651 34.614045 36.472910 0.000000 50.000000 14.638687 29.000000
44.916767 35.481133 38.918368 0.000000 37.000000 14.244080 0.000000
40.753590 38.028458 37.103472 0.000000 56.000000 14.228604 0.000000
41.822326 37.337565 37.694149 0.000000 49.000000 14.152555 0.000000
45.531288 35.236237 38.944387 0.000000 48.000000 14.440851 17.000000
41.005888 38.589407 38.026951 0.000000 74.000000 14.340961 26.000000
41.587366 37.523319 37.253737 0.000000 66.000000 14.329951 12.000000
44.975744 36.094957 40.100271 0.000000 44.000000 14.159843 0.000000
42.442230 38.089696 38.897563 0.000000 62.000000 14.488486 24.000000
42.098062 37.237461 37.865284 0.000000 38.000000 14.176330 0.000000
43.631585 36.143298 38.303140 0.000000 42.000000 14.181546 0.000000
41.627087 38.325075 37.714600 0.000000 66.000000 14.679531 14.000000
40.891873 37.586913 36.773626 0.000000 33.000000 14.166492 0.000000
43.343408 35.166871 36.338975 0.000000 57.000000 14.235799 0.000000
40.557415 38.067608 36.228052 0.000000 63.000000 14.525986 13.000000
42.789446 37.198596 38.240234 0.000000 72.000000 14.400501 27.000000
44.675937 34.563656 36.180519 0.000000 66.000000 14.710350 29.000000
42.609178 36.664488 38.060627 0.000000 37.000000 14.018170 0.000000
44.952559 36.001848 39.928099 0.000000 41.000000 14.160872 0.000000
41.696477 36.682331 35.075206 0.000000 61.000000 14.808829 19.000000
41.303525 37.183430 36.637387 0.000000 35.000000 14.208198 0.000000
44.831607 37.196504 40.103113 0.000000 68.000000 14.800966 23.000000
40.246857 38.600821 36.622393 0.000000 55.000000 14.516212 26.000000
42.663892 37.331036 38.774029 0.000000 39.000000 14.174844 0.000000
41.079009 38.901690 37.949937 0.000000 69.000000 14.626081 26.000000
43.898006 35.402284 37.786018 0.000000 37.000000 14.081796 0.000000
43.600437 37.500996 38.693032 0.000000 73.000000 14.888062 27.000000
41.605486 37.236216 36.414891 0.000000 52.000000 14.524250 9.000000
42.709915 35.150926 34.381969 0.000000 70.000000 14.714571 6.000000
41.590821 38.512266 38.813765 0.000000 57.000000 14.292252 25.000000
43.161489 34.245165 34.720423 0.000000 24.000000 14.236476 0.000000
45.128215 35.800388 39.937130 0.000000 48.000000 14.129375 0.000000
41.700044 37.958481 37.257819 0.000000 64.000000 14.684168 12.000000
44.182596 36.153172 38.982369 0.000000 43.000000 14.217891 0.000000
45.086051 35.931609 40.019062 0.000000 43.000000 14.154354 0.000000
43.115292 35.678570 37.118004 0.000000 34.000000 14.090221 0.000000
41.133644 38.389483 38.324852 0.000000 44.000000 14.152997 0.000000
40.317743 38.334399 37.094456 0.000000 50.000000 14.172400 0.000000
44.148126 36.193247 39.217944 0.000000 24.000000 14.118763 0.000000
40.617033 38.497642 36.510280 0.000000 60.000000 14.720989 13.000000
40.323864 37.777402 36.188275 0.000000 44.000000 14.210756 0.000000
41.153798 37.408111 36.799161 0.000000 52.000000 14.194658 0.000000
42.798786 35.333466 34.049011 0.000000 53.000000 15.037235 6.000000
41.601246 36.832523 35.476456 0.000000 59.000000 14.672215 19.000000
42.647698 37.275729 38.642284 0.000000 42.000000 14.187118 0.000000
44.304711 37.636172 40.015665 0.000000 43.000000 14.813322 23.000000
43.375203 38.386069 40.418325 0.000000 82.000000 14.570142 18.000000
44.046169 37.010657 39.286598 0.000000 55.000000 14.567902 23.000000
44.061260 36.071072 38.883890 0.000000 33.000000 14.134226 0.000000
43.892216 36.727339 39.533595 0.000000 35.000000 14.177550 0.000000
45.081607 35.504964 39.119838 0.000000 41.000000 14.269545 17.000000
41.847127 38.432321 38.236377 0.000000 75.000000 14.650900 24.000000
42.986529 38.668341 40.907604 0.000000 71.000000 14.304868 22.000000
42.519799 37.722597 39.443096 0.000000 44.000000 14.049341 0.000000
44.426508 36.254463 39.563310 0.000000 46.000000 14.173369 0.000000
41.041429 36.567835 35.748273 0.000000 24.000000 14.038455 0.000000
43.081883 37.349083 38.804206 0.000000 56.000000 14.425361 27.000000
41.598015 36.867701 35.333218 0.000000 58.000000 14.757326 19.000000
42.918934 38.784768 40.473470 0.000000 61.000000 14.534473 22.000000
41.575973 37.300056 37.243325 0.000000 43.000000 14.179904 0.000000
43.047953 36.517013 38.251528 0.000000 37.000000 14.100078 0.000000
42.778649 36.552669 38.024241 0.000000 42.000000 14.062511 0.000000
43.214851 38.142035 40.208405 0.000000 84.000000 14.405359 18.000000
43.190522 38.726298 41.050651 0.000000 68.000000 14.402540 22.000000
43.597371 37.750191 40.754941 0.000000 48.000000 14.133237 0.000000
42.216337 38.787766 39.500012 0.000000 50.000000 14.546250 25.000000
41.755774 37.680749 37.472878 0.000000 48.000000 14.438149 12.000000
41.600144 38.267903 38.016700 0.000000 75.000000 14.490942 14.000000
41.066074 37.522232 36.768980 0.000000 64.000000 14.230762 0.000000
45.188821 35.404582 38.512731 0.000000 56.000000 14.538007 15.000000
40.455617 37.656183 36.541786 0.000000 40.000000 14.052553 0.000000
43.519836 37.515028 40.276725 0.000000 37.000000 14.143700 0.000000
41.064458 37.821743 37.338180 0.000000 48.000000 14.174674 0.000000
43.093109 36.328853 37.790547 0.000000 33.000000 14.207958 0.000000
41.985939 35.844528 35.532156 0.000000 47.000000 14.225236 0.000000
44.671234 35.995552 39.476061 0.000000 42.000000 14.188342 0.000000
44.259302 35.223254 37.605305 0.000000 41.000000 14.261543 0.000000
42.509743 38.463349 39.390653 0.000000 55.000000 14.557046 24.000000
41.258235 37.145142 36.590018 0.000000 47.000000 14.176632 0.000000
44.023170 34.353565 36.183075 0.000000 38.000000 14.176572 0.000000
41.221465 37.359312 36.847580 0.000000 51.000000 14.181591 0.000000
44.851349 36.629870 39.542677 0.000000 40.000000 14.687230 23.000000
40.614839 38.719722 36.322673 0.000000 44.000000 14.950219 13.000000
40.708070 37.862488 37.125652 0.000000 51.000000 14.081404 0.000000
40.858566 37.849651 37.208067 0.000000 47.000000 14.126946 0.000000
41.592683 36.453390 35.003335 0.000000 75.000000 14.626677 19.000000
42.600236 35.323084 35.556072 0.000000 49.000000 14.239717 0.000000
42.872067 38.338728 40.037090 0.000000 61.000000 14.405189 18.000000
42.669722 37.778297 39.787257 0.000000 47.000000 14.023384 0.000000
40.533621 37.661094 36.669177 0.000000 43.000000 14.046117 0.000000
42.459537 37.201203 37.336363 0.000000 71.000000 14.605730 4.000000
40.822543 37.622130 36.892881 0.000000 46.000000 14.094917 0.000000
42.655787 37.457272 38.965751 0.000000 44.000000 14.168179 0.000000
43.536669 35.607122 37.583405 0.000000 26.000000 14.089767 0.000000
42.104256 37.186510 37.122753 0.000000 41.000000 14.476906 4.000000
42.986373 36.643152 38.425863 0.000000 41.000000 14.068849 0.000000
42.877306 36.311162 37.527644 0.000000 43.000000 14.183183 0.000000
43.086457 37.743751 40.212752 0.000000 34.000000 14.062329 0.000000
42.859624 37.697113 39.860835 0.000000 50.000000 14.051369 0.000000
41.979406 37.441620 37.990920 0.000000 53.000000 14.184026 0.000000
42.126754 37.404406 38.172421 0.000000 42.000000 14.167419 0.000000
42.520747 37.485501 38.372714 0.000000 60.000000 14.369473 28.000000
43.496408 37.277927 39.885953 0.000000 45.000000 14.146573 0.000000
41.963524 36.320172 34.935534 0.000000 62.000000 14.792241 19.000000
42.724790 37.299561 38.882835 0.000000 41.000000 14.142281 0.000000
42.876605 37.289819 39.044003 0.000000 47.000000 14.155607 0.000000
40.505073 38.526643 36.086037 0.000000 72.000000 14.861563 13.000000
43.651895 37.252252 39.923440 0.000000 53.000000 14.206627 0.000000
43.502486 36.762591 39.360699 0.000000 30.000000 14.042897 0.000000
43.205906 38.483343 40.412887 0.000000 79.000000 14.534897 18.000000
40.914208 38.317997 37.858583 0.000000 43.000000 14.180956 0.000000
41.111187 37.856253 37.418530 0.000000 52.000000 14.189923 0.000000
42.748569 38.272925 39.368946 0.000000 72.000000 14.584624 24.000000
43.115000 38.507647 41.090003 0.000000 37.000000 14.194730 0.000000
43.538717 38.002908 40.924781 0.000000 45.000000 14.189575 0.000000
41.456937 37.182795 36.783652 0.000000 53.000000 14.235151 0.000000
42.464909 36.214104 36.849665 0.000000 50.000000 14.172130 0.000000
42.733266 35.318114 34.435140 0.000000 61.000000 14.815666 6.000000
41.772677 36.495863 36.487494 0.000000 42.000000 14.102568 0.000000
42.070271 36.080995 36.081908 0.000000 58.000000 14.187885 0.000000
42.771800 37.512258 39.037513 0.000000 63.000000 14.242578 27.000000
40.654326 38.697358 37.362869 0.000000 65.000000 14.496126 26.000000
41.659049 37.574871 37.328318 0.000000 63.000000 14.374095 12.000000
42.474204 35.454040 35.748983 0.000000 58.000000 14.164550 0.000000
41.295925 37.768362 36.728778 0.000000 75.000000 14.550187 12.000000
43.278603 34.870058 33.772749 0.000000 33.000000 15.142701 1.000000
43.115850 34.656977 35.249953 0.000000 48.000000 14.245857 0.000000
41.589130 39.086422 38.386078 0.000000 34.000000 14.861762 25.000000
43.316215 34.271559 35.296229 0.000000 38.000000 14.090885 0.000000
40.765523 36.839497 35.594761 0.000000 34.000000 14.120313 0.000000
43.419430 34.217714 35.163942 0.000000 46.000000 14.176358 0.000000
43.843160 35.597260 36.921973 0.000000 60.000000 14.562487 5.000000
42.296808 35.313964 34.608158 0.000000 57.000000 14.472754 3.000000
42.330453 37.173138 37.213597 0.000000 66.000000 14.563982 4.000000
42.540441 37.263107 38.548393 0.000000 37.000000 14.155897 0.000000
42.807898 35.315706 34.711200 0.000000 60.000000 14.736165 6.000000
40.539131 37.921489 35.759923 0.000000 52.000000 14.626635 11.000000
42.220456 37.357622 38.253963 0.000000 50.000000 14.156635 0.000000
41.734654 39.138307 38.678826 0.000000 67.000000 14.853518 25.000000
43.054851 37.883023 38.997485 0.000000 48.000000 14.676515 27.000000
43.050040 37.199648 38.163260 0.000000 81.000000 14.592577 27.000000
40.595138 38.640204 36.262026 0.000000 65.000000 14.912696 13.000000
44.995968 36.726559 40.063286 0.000000 70.000000 14.606658 23.000000
46.030455 34.638077 37.730593 0.000000 68.000000 14.886157 20.000000
42.060560 38.612593 38.956176 0.000000 68.000000 14.578475 24.000000
43.063372 37.936668 38.993420 0.000000 25.000000 14.718978 27.000000
40.609661 37.678141 36.770770 0.000000 44.000000 14.058019 0.000000
43.561975 37.511682 40.291445 0.000000 48.000000 14.160338 0.000000
42.004746 36.612770 37.066669 0.000000 39.000000 14.062032 0.000000
42.180503 38.371832 38.352363 0.000000 74.000000 14.760206 24.000000
43.287584 37.802881 40.527279 0.000000 29.000000 14.082707 0.000000
40.967906 37.814244 37.249495 0.000000 54.000000 14.150981 0.000000
43.123235 37.149811 38.371843 0.000000 46.000000 14.510849 27.000000
44.531728 37.115713 39.899098 0.000000 43.000000 14.657511 23.000000
42.173178 38.574046 39.042675 0.000000 72.000000 14.582341 24.000000
42.408003 36.556528 37.531878 0.000000 37.000000 14.060806 0.000000
44.384770 36.508008 39.487539 0.000000 67.000000 14.349801 23.000000
45.041869 35.752703 39.795238 0.000000 34.000000 14.108917 0.000000
42.134447 38.474306 38.461449 0.000000 77.000000 14.751718 24.000000
42.142988 35.900403 35.897179 0.000000 57.000000 14.194404 0.000000
42.026059 36.040133 35.989476 0.000000 40.000000 14.175327 0.000000
40.856233 38.447489 37.918384 0.000000 34.000000 14.205111 0.000000
41.881759 36.458413 36.432058 0.000000 45.000000 14.168218 0.000000
42.585424 36.660183 38.041763 0.000000 31.000000 14.009397 0.000000
44.004465 36.080393 38.454617 0.000000 67.000000 14.297268 2.000000
42.062065 37.318112 37.060565 0.000000 64.000000 14.566284 4.000000
43.229478 37.509506 38.772435 0.000000 74.000000 14.634698 27.000000
42.684110 35.054684 35.311099 0.000000 37.000000 14.221648 0.000000
44.717467 36.994264 40.050012 0.000000 48.000000 14.621899 23.000000
40.842783 38.278447 37.680033 0.000000 41.000000 14.191200 0.000000
40.735604 37.916941 35.783329 0.000000 81.000000 14.731655 11.000000
43.883799 34.472307 35.738827 0.000000 68.000000 14.368939 30.000000
44.247740 34.383049 35.597503 0.000000 59.000000 14.592179 30.000000
42.493786 38.022682 39.542052 0.000000 22.000000 14.188276 0.000000
43.278689 34.918576 35.288304 0.000000 75.000000 14.500152 8.000000
40.659887 37.716166 36.967453 0.000000 52.000000 14.025911 0.000000
42.195957 37.164606 37.786887 0.000000 36.000000 14.222018 0.000000
42.009939 36.257918 34.983191 0.000000 51.000000 14.757791 19.000000
45.018956 34.500618 36.895674 0.000000 49.000000 14.557032 29.000000
43.087973 38.504100 41.126472 0.000000 53.000000 14.159851 0.000000
42.897930 35.680423 36.843923 0.000000 36.000000 14.082423 0.000000
43.551561 34.908390 36.140827 0.000000 48.000000 14.278378 7.000000
42.877484 34.257053 34.691088 0.000000 32.000000 14.086182 0.000000
42.192304 38.844174 39.366080 0.000000 80.000000 14.628733 25.000000
41.419313 37.756102 37.877229 0.000000 61.000000 14.105171 0.000000
40.632534 37.716893 36.918964 0.000000 46.000000 14.031489 0.000000
40.458003 38.451204 35.982530 0.000000 64.000000 14.829321 13.000000
43.146435 38.055426 39.245120 0.000000 47.000000 14.735624 27.000000
41.665774 37.706970 38.329277 0.000000 42.000000 14.019981 0.000000
42.819957 37.804982 39.899583 0.000000 36.000000 14.081620 0.000000
42.353346 36.530485 37.369425 0.000000 25.000000 14.082936 0.000000
44.355738 34.461194 35.902877 0.000000 72.000000 14.573074 30.000000
41.410215 38.401090 38.732113 0.000000 36.000000 14.146112 0.000000
40.589146 38.793167 37.343972 0.000000 65.000000 14.528673 26.000000
44.706727 35.688956 39.262835 0.000000 31.000000 14.101684 0.000000
44.872133 36.984513 39.754588 0.000000 74.000000 14.840211 23.000000
42.503058 38.514487 38.823585 0.000000 64.000000 14.839330 24.000000
46.409903 34.118466 38.834042 0.000000 41.000000 14.279656 20.000000
43.147646 37.777303 39.375296 0.000000 49.000000 14.494267 27.000000
42.453755 35.973429 36.407165 0.000000 40.000000 14.203065 0.000000
44.879772 34.507119 36.936100 0.000000 60.000000 14.459426 29.000000
41.558612 38.322736 38.373218 0.000000 58.000000 14.343484 24.000000
41.223398 38.006893 37.367147 0.000000 68.000000 14.380182 14.000000
43.096833 36.413324 38.023770 0.000000 37.000000 14.162296 0.000000
41.381898 37.267646 36.867279 0.000000 36.000000 14.208856 0.000000
44.505230 35.934633 39.182107 0.000000 39.000000 14.178795 0.000000
42.162406 38.354368 39.540468 0.000000 59.000000 14.208790 0.000000
45.158377 35.549459 38.538190 0.000000 62.000000 14.604236 15.000000
41.292941 38.939287 38.463771 0.000000 42.000000 14.551192 25.000000
41.008147 38.789107 37.870546 0.000000 46.000000 14.544167 26.000000
41.734252 36.955296 35.191748 0.000000 69.000000 14.960437 19.000000
41.576907 38.392140 38.954996 0.000000 38.000000 14.141457 0.000000
42.020377 38.458423 39.575891 0.000000 51.000000 14.176282 0.000000
43.904420 34.315173 35.583069 0.000000 46.000000 14.346683 30.000000
43.249914 37.286815 39.545107 0.000000 52.000000 14.155592 0.000000
44.451535 34.609678 36.516058 0.000000 62.000000 14.456148 29.000000
41.851570 37.014685 37.088704 0.000000 60.000000 14.225964 0.000000
41.948606 36.774405 37.228966 0.000000 38.000000 14.062943 0.000000
41.174957 36.818755 36.017160 0.000000 42.000000 14.165373 0.000000
44.243009 36.089015 39.033314 0.000000 37.000000 14.189157 0.000000
41.267701 36.606147 36.114997 0.000000 37.000000 14.036972 0.000000
43.573057 36.356118 38.567916 0.000000 37.000000 14.169281 0.000000
42.289747 36.472345 37.034337 0.000000 47.000000 14.155281 0.000000
45.890560 34.544648 38.294298 0.000000 54.000000 14.488999 20.000000
41.775752 36.638485 35.735569 0.000000 48.000000 14.533602 19.000000
42.640687 36.122118 36.930325 0.000000 57.000000 14.181295 0.000000
42.850066 38.634436 40.595114 0.000000 75.000000 14.339269 22.000000
40.883344 37.717596 37.141335 0.000000 30.000000 14.084165 0.000000
41.764414 38.457471 37.898180 0.000000 47.000000 14.768249 14.000000
41.841127 37.510151 37.908337 0.000000 41.000000 14.182796 0.000000
40.206195 38.534626 35.980245 0.000000 74.000000 14.733756 13.000000
41.133930 38.743335 38.198352 0.000000 55.000000 14.443758 26.000000
42.430029 35.450483 35.827394 0.000000 51.000000 14.100653 0.000000
43.389760 35.374265 36.836485 0.000000 55.000000 14.179560 0.000000
44.882076 35.811183 38.417392 0.000000 67.000000 14.664712 15.000000
41.328481 37.771612 37.431431 0.000000 45.000000 14.259147 12.000000
42.723967 38.143357 39.089019 0.000000 38.000000 14.608633 24.000000
43.985972 35.750607 38.314569 0.000000 44.000000 14.130130 0.000000
41.293669 37.408379 37.006464 0.000000 41.000000 14.186872 0.000000
44.268129 35.187047 37.120949 0.000000 38.000000 14.458529 5.000000
44.993890 35.421145 38.361000 0.000000 65.000000 14.499001 15.000000
44.368275 34.376806 36.891407 0.000000 31.000000 14.084671 0.000000
42.708224 38.460715 39.361964 0.000000 77.000000 14.687737 24.000000
43.215172 38.429963 41.178021 0.000000 58.000000 14.164506 0.000000
42.994869 34.432534 34.405445 0.000000 64.000000 14.400299 1.000000
43.085766 35.403010 36.395961 0.000000 54.000000 14.211436 0.000000
44.461538 35.989195 39.179328 0.000000 46.000000 14.189814 0.000000
43.403196 38.436436 40.339744 0.000000 79.000000 14.655349 18.000000
43.264396 37.749669 40.471222 0.000000 47.000000 14.058455 0.000000
41.281333 37.767268 36.815008 0.000000 59.000000 14.502276 12.000000
41.906129 38.231601 38.216817 0.000000 80.000000 14.562292 24.000000
42.669711 38.764056 39.951729 0.000000 76.000000 14.602784 22.000000
43.718965 37.932015 41.021848 0.000000 44.000000 14.208096 0.000000
43.081745 37.754236 40.061864 0.000000 39.000000 14.133605 0.000000
42.093612 37.346679 38.045766 0.000000 37.000000 14.165606 0.000000
41.040845 37.794959 37.369255 0.000000 42.000000 14.128871 0.000000
43.243390 37.874005 40.540955 0.000000 48.000000 14.097063 0.000000
42.991178 38.785229 40.482680 0.000000 81.000000 14.574233 22.000000
44.404990 34.421166 36.288953 0.000000 58.000000 14.404387 29.000000
45.723256 34.826126 39.276986 0.000000 43.000000 14.136997 0.000000
40.268388 39.067626 36.570009 0.000000 64.000000 14.861566 26.000000
41.927975 36.306801 34.930923 0.000000 57.000000 14.764009 19.000000
42.547595 38.736283 40.025346 0.000000 75.000000 14.478000 22.000000
42.882834 35.698397 36.728027 0.000000 20.000000 14.136818 0.000000
41.428635 37.884896 37.941295 0.000000 45.000000 14.167538 0.000000
42.731859 38.391776 39.270217 0.000000 79.000000 14.697190 24.000000
42.120111 37.931680 38.806657 0.000000 48.000000 14.230139 0.000000
43.607948 34.792665 35.879718 0.000000 39.000000 14.352002 7.000000
41.764719 36.679890 34.936236 0.000000 35.000000 14.910225 19.000000
43.920685 37.427035 40.677461 0.000000 49.000000 14.148705 0.000000
41.728859 37.779734 38.446084 0.000000 45.000000 14.054186 0.000000
43.537584 37.379484 40.067194 0.000000 39.000000 14.157946 0.000000
43.541427 34.929778 35.623903 0.000000 56.000000 14.516562 8.000000
40.712155 37.750094 37.035596 0.000000 54.000000 14.049548 0.000000
41.732490 37.113916 34.868960 0.000000 48.000000 15.208096 19.000000
45.328786 35.652853 38.964331 0.000000 55.000000 14.585709 17.000000
41.488949 37.680115 37.002043 0.000000 66.000000 14.486477 12.000000
40.715005 38.907024 37.528608 0.000000 48.000000 14.597733 26.000000
40.396891 37.725128 36.502233 0.000000 40.000000 14.080402 0.000000
41.155742 37.709296 37.517069 0.000000 44.000000 14.075621 0.000000
44.771816 35.760630 39.434981 0.000000 31.000000 14.111739 0.000000
40.942770 37.660970 37.174297 0.000000 56.000000 14.067829 0.000000
41.371940 38.468379 37.981217 0.000000 54.000000 14.501884 14.000000
45.525904 34.456419 37.166977 0.000000 41.000000 14.712621 29.000000
43.668076 35.434327 37.435117 0.000000 24.000000 14.120608 0.000000
43.979397 34.231194 36.033049 0.000000 48.000000 14.135956 0.000000
43.218845 34.336743 34.360860 0.000000 80.000000 14.491762 1.000000
45.195277 35.061347 38.325134 0.000000 75.000000 14.398176 21.000000
43.185272 37.584438 38.859347 0.000000 33.000000 14.618963 27.000000
45.843958 34.757366 38.516439 0.000000 66.000000 14.502838 21.000000
45.497453 34.487303 37.184913 0.000000 70.000000 14.707930 29.000000
43.776502 35.430748 36.958952 0.000000 69.000000 14.395596 5.000000
44.808220 35.857848 39.585698 0.000000 39.000000 14.130951 0.000000
44.586228 35.153512 38.145943 0.000000 38.000000 14.171780 0.000000
42.227750 36.469464 36.834097 0.000000 23.000000 14.205143 0.000000
42.246008 35.531009 35.649819 0.000000 40.000000 14.122078 0.000000
43.120741 35.423149 36.850692 0.000000 41.000000 14.043410 0.000000
42.829557 38.410181 39.222775 0.000000 41.000000 14.789398 24.000000
41.553758 37.840294 38.020130 0.000000 38.000000 14.178348 0.000000
45.090007 34.932464 37.481334 0.000000 65.000000 14.625040 21.000000
40.626037 37.782369 35.750177 0.000000 58.000000 14.591263 11.000000
43.549391 36.246537 38.327283 0.000000 42.000000 14.189593 0.000000
42.897009 37.220574 38.538784 0.000000 80.000000 14.346987 27.000000
43.210701 38.320808 39.879987 0.000000 71.000000 14.667426 18.000000
42.429871 36.416045 37.078057 0.000000 58.000000 14.183023 0.000000
42.047541 37.700659 38.740229 0.000000 31.000000 14.063012 0.000000
44.387931 34.862001 37.071040 0.000000 73.000000 14.337776 21.000000
42.211218 37.706570 38.725912 0.000000 47.000000 14.171978 0.000000
42.212299 36.556978 37.324831 0.000000 43.000000 14.035293 0.000000
45.488161 35.084629 38.169758 0.000000 65.000000 14.659340 21.000000
40.993708 37.655877 36.248489 0.000000 58.000000 14.507336 11.000000
41.792229 37.162667 37.295189 0.000000 63.000000 14.196234 0.000000
40.435076 38.128906 36.078881 0.000000 47.000000 14.559223 13.000000
42.475899 38.959405 39.846094 0.000000 75.000000 14.662298 22.000000
41.927349 37.354849 37.813181 0.000000 40.000000 14.174323 0.000000
45.710784 35.222324 38.611328 0.000000 75.000000 14.688133 21.000000
40.649901 38.370316 37.471419 0.000000 53.000000 14.228611 0.000000
39.811203 38.376997 36.447099 0.000000 44.000000 14.183416 0.000000
44.127117 36.814323 39.589343 0.000000 52.000000 14.351939 23.000000
43.214489 37.539074 40.066781 0.000000 47.000000 14.068996 0.000000
40.985454 37.257132 36.323352 0.000000 47.000000 14.205038 0.000000
46.201925 34.796621 38.091061 0.000000 72.000000 14.934020 20.000000
44.417463 35.932629 39.012737 0.000000 50.000000 14.199958 0.000000
41.162141 37.253233 35.893657 0.000000 42.000000 14.500279 10.000000
45.569800 35.151752 38.309080 0.000000 62.000000 14.690973 21.000000
46.074707 34.585525 37.919005 0.000000 75.000000 14.794163 20.000000
41.621978 37.676861 38.192672 0.000000 42.000000 14.034459 0.000000
44.617072 35.707449 39.181732 0.000000 30.000000 14.095982 0.000000
41.796694 36.868355 37.042826 0.000000 29.000000 14.116426 0.000000
45.541087 35.205951 38.132165 0.000000 64.000000 14.788307 21.000000
42.351813 38.479646 39.994984 0.000000 50.000000 14.203574 0.000000
41.708585 37.198201 36.621829 0.000000 49.000000 14.469110 9.000000
42.828995 38.259151 40.452010 0.000000 53.000000 14.141814 0.000000
45.956195 34.597367 37.972826 0.000000 67.000000 14.706592 20.000000
42.538313 37.127417 37.553856 0.000000 61.000000 14.507545 4.000000
41.206251 37.769828 37.514868 0.000000 48.000000 14.147128 0.000000
43.382513 34.848522 35.672965 0.000000 58.000000 14.345116 8.000000
43.338666 37.373846 39.814779 0.000000 47.000000 14.146662 0.000000
42.152135 38.417504 38.375151 0.000000 76.000000 14.763195 24.000000
45.593959 34.562035 37.768074 0.000000 71.000000 14.555966 20.000000
41.242223 37.106334 36.466901 0.000000 46.000000 14.196097 0.000000
42.104397 37.401084 37.445776 0.000000 67.000000 14.475242 4.000000
41.639676 36.700518 36.658588 0.000000 42.000000 14.081705 0.000000
43.997085 35.976155 38.646367 0.000000 25.000000 14.138440 0.000000
44.492889 37.523006 39.856050 0.000000 73.000000 14.922912 23.000000
42.729760 36.512390 37.794148 0.000000 45.000000 14.108806 0.000000
42.854499 36.572778 38.147792 0.000000 37.000000 14.066549 0.000000
41.493375 36.507376 36.254189 0.000000 37.000000 14.045669 0.000000
43.173697 37.980069 39.105992 0.000000 70.000000 14.764109 27.000000
46.546409 34.322501 38.659369 0.000000 59.000000 14.574802 20.000000
44.813144 35.695610 38.746495 0.000000 68.000000 14.400120 15.000000
43.189063 36.220050 37.839640 0.000000 46.000000 14.171917 0.000000
41.996250 37.535885 38.056651 0.000000 47.000000 14.227327 0.000000
43.927228 37.333252 40.447023 0.000000 46.000000 14.193151 0.000000
43.899419 34.418612 36.202023 0.000000 41.000000 14.136593 0.000000
40.384202 38.196770 35.953658 0.000000 71.000000 14.629230 13.000000
43.919069 36.230675 38.912153 0.000000 37.000000 14.141584 0.000000
42.553330 35.688025 36.046093 0.000000 44.000000 14.234892 0.000000
44.927756 35.501886 39.470352 0.000000 22.000000 14.018703 0.000000
45.154984 35.037992 38.661015 0.000000 27.000000 14.208887 0.000000
42.786682 38.171618 39.438573 0.000000 64.000000 14.509533 24.000000
43.090740 38.905497 40.821384 0.000000 83.000000 14.563092 22.000000
46.036605 35.191973 38.799011 0.000000 76.000000 14.780917 21.000000
42.032480 37.259956 37.120506 0.000000 74.000000 14.483259 4.000000
43.023227 38.240211 39.716984 0.000000 75.000000 14.573608 18.000000
44.197802 34.183058 35.577630 0.000000 59.000000 14.438514 30.000000
41.160549 37.639649 36.782074 0.000000 64.000000 14.359627 12.000000
44.500543 35.313690 38.262103 0.000000 42.000000 14.174454 0.000000
42.675519 37.598766 38.991668 0.000000 37.000000 14.262214 27.000000
41.071508 36.606201 35.756601 0.000000 35.000000 14.078282 0.000000
42.987802 35.891883 37.006154 0.000000 54.000000 14.204379 0.000000
44.224911 36.457377 39.704790 0.000000 32.000000 14.123183 0.000000
43.696114 37.616287 40.917430 0.000000 35.000000 14.031776 0.000000
40.952929 37.784831 37.185370 0.000000 44.000000 14.151027 0.000000
42.985330 35.280152 34.493483 0.000000 62.000000 14.916526 6.000000
41.395541 36.639191 36.341162 0.000000 35.000000 14.035234 0.000000
42.490683 37.300262 37.435239 0.000000 46.000000 14.646071 4.000000
42.198556 38.358429 39.742786 0.000000 45.000000 14.143202 0.000000
41.276851 38.301287 38.393658 0.000000 40.000000 14.150313 0.000000
42.972771 35.381315 34.565820 0.000000 61.000000 14.943725 6.000000
40.510457 37.938371 36.331041 0.000000 54.000000 14.366263 13.000000
44.181429 36.132239 38.133917 0.000000 69.000000 14.581058 2.000000
43.274166 37.259501 39.560890 0.000000 39.000000 14.145104 0.000000
45.036453 34.690725 37.399893 0.000000 40.000000 14.468965 21.000000
42.455281 37.515670 38.401012 0.000000 78.000000 14.337379 28.000000
42.069160 36.651631 37.037094 0.000000 48.000000 14.139761 0.000000
40.719831 39.007242 37.528999 0.000000 69.000000 14.666818 26.000000
44.167976 34.518165 36.476279 0.000000 49.000000 14.242315 0.000000
43.523150 37.430886 40.100092 0.000000 44.000000 14.168629 0.000000
42.502172 37.218067 38.015788 0.000000 60.000000 14.340121 27.000000
45.802642 35.638534 39.250250 0.000000 43.000000 14.734622 17.000000
41.630218 37.706480 37.159693 0.000000 71.000000 14.518917 12.000000
43.163465 35.428085 36.746652 0.000000 47.000000 14.118754 0.000000
42.687666 35.075340 35.363092 0.000000 35.000000 14.214321 0.000000
43.371423 38.241622 40.336926 0.000000 44.000000 14.508470 18.000000
45.916286 34.862553 39.102654 0.000000 42.000000 14.355102 21.000000
40.941765 37.596129 36.955388 0.000000 29.000000 14.121753 0.000000
42.042139 36.802520 35.375210 0.000000 66.000000 14.963236 19.000000
42.777449 35.899321 36.618489 0.000000 58.000000 14.255072 0.000000
43.689389 35.793060 37.903142 0.000000 50.000000 14.162596 0.000000
40.666970 37.675500 36.000201 0.000000 52.000000 14.433877 11.000000
43.168800 37.765546 40.373729 0.000000 43.000000 14.054735 0.000000
42.513924 36.077868 36.696133 0.000000 47.000000 14.179836 0.000000
42.397679 38.211114 39.677730 0.000000 32.000000 14.194683 0.000000
42.382595 36.199298 36.686990 0.000000 66.000000 14.185124 0.000000
44.022599 35.296041 36.921264 0.000000 57.000000 14.471560 5.000000
41.006310 37.358843 36.527465 0.000000 34.000000 14.194079 0.000000
42.580885 37.563963 38.854696 0.000000 52.000000 14.243098 28.000000
44.318307 37.519224 39.973797 0.000000 58.000000 14.762732 23.000000
44.235208 36.112117 39.099200 0.000000 47.000000 14.170416 0.000000
43.885826 34.894603 36.260534 0.000000 43.000000 14.417482 7.000000
42.357562 38.418459 39.991170 0.000000 50.000000 14.168228 0.000000
43.707096 37.614718 40.746783 0.000000 41.000000 14.113329 0.000000
43.270736 37.456250 38.848324 0.000000 68.000000 14.590528 27.000000
43.878862 35.650108 36.900310 0.000000 62.000000 14.628644 5.000000
41.816248 38.618979 39.751097 0.000000 20.000000 14.081511 0.000000
40.906622 38.242085 37.522369 0.000000 67.000000 14.275806 14.000000
43.238906 37.389455 38.940441 0.000000 58.000000 14.486105 27.000000
42.698337 38.976061 40.042697 0.000000 72.000000 14.719903 22.000000
41.883864 36.392954 35.393277 0.000000 62.000000 14.588614 19.000000
42.589381 35.975766 36.516271 0.000000 32.000000 14.237806 0.000000
41.837193 37.324051 37.653979 0.000000 43.000000 14.170455 0.000000
43.614805 37.213262 38.815935 0.000000 66.000000 14.651512 27.000000
43.097446 37.932896 39.290520 0.000000 70.000000 14.604755 27.000000
40.377214 38.305691 36.627679 0.000000 64.000000 14.397056 13.000000
43.714149 36.680547 39.125120 0.000000 51.000000 14.221069 0.000000
44.498588 37.195648 39.895858 0.000000 72.000000 14.691895 23.000000
41.959448 37.317937 37.811831 0.000000 38.000000 14.169838 0.000000
43.904478 36.177389 38.764738 0.000000 51.000000 14.163138 0.000000
44.492516 34.263045 35.933177 0.000000 41.000000 14.510861 30.000000
45.234636 35.674241 39.270228 0.000000 56.000000 14.406922 17.000000
42.725929 38.090673 39.526115 0.000000 52.000000 14.380342 24.000000
40.907534 38.750406 37.721587 0.000000 71.000000 14.524202 26.000000
43.571465 37.053157 39.380048 0.000000 61.000000 14.268241 23.000000
43.553189 37.433071 39.997666 0.000000 45.000000 14.233786 0.000000
43.932625 37.346644 39.355601 0.000000 38.000000 14.691171 23.000000
41.647794 37.624133 37.866690 0.000000 43.000000 14.160241 0.000000
42.309597 35.145679 34.852134 0.000000 43.000000 14.260432 0.000000
43.821193 36.375460 38.921639 0.000000 36.000000 14.174208 0.000000
43.415452 38.332409 40.680229 0.000000 60.000000 14.442283 18.000000
46.074610 35.103358 38.962098 0.000000 43.000000 14.672556 21.000000
41.888395 37.383535 37.830598 0.000000 47.000000 14.162076 0.000000
41.123694 37.373729 36.735579 0.000000 44.000000 14.182053 0.000000
45.518628 35.669842 39.039624 0.000000 63.000000 14.677890 17.000000
43.259154 35.256354 36.358095 0.000000 35.000000 14.235734 0.000000
41.940504 37.701552 38.215242 0.000000 45.000000 14.232795 0.000000
41.680606 37.269116 36.495696 0.000000 63.000000 14.555346 9.000000
43.142764 38.738375 40.908414 0.000000 66.000000 14.445067 22.000000
42.845557 34.746940 34.803620 0.000000 61.000000 14.341168 6.000000
42.180719 36.672568 37.485220 0.000000 39.000000 14.021376 0.000000
43.185898 36.563008 38.726378 0.000000 42.000000 14.002293 0.000000
42.727799 35.543211 36.536009 0.000000 28.000000 14.026093 0.000000
45.477946 35.568619 39.331615 0.000000 68.000000 14.456354 17.000000
43.064479 34.350724 34.344875 0.000000 61.000000 14.415069 1.000000
45.509385 34.386541 37.127396 0.000000 34.000000 14.674019 29.000000
45.392447 35.126969 38.413793 0.000000 65.000000 14.521023 21.000000
43.049909 34.601404 35.215802 0.000000 31.000000 14.184514 0.000000
44.398355 37.411657 40.142077 0.000000 76.000000 14.664860 23.000000
43.135144 38.700993 40.939354 0.000000 63.000000 14.401950 22.000000
45.016666 35.712904 38.417161 0.000000 79.000000 14.680892 15.000000
42.995837 37.976367 39.064142 0.000000 58.000000 14.673060 27.000000
43.173348 36.279204 37.944492 0.000000 45.000000 14.154926 0.000000
44.251304 36.140137 39.237911 0.000000 42.000000 14.136917 0.000000
44.703066 37.229983 40.349427 0.000000 66.000000 14.635977 23.000000
44.434152 36.082703 39.316836 0.000000 65.000000 14.173993 0.000000
