-54.598503 -3.733064 5.140824 0.000000 34.000000 14.054789 0.000000
-53.027673 -3.323667 4.289708 0.000000 74.000000 14.531962 23.000000
-51.583199 -3.394163 5.045315 0.000000 41.000000 14.128324 0.000000
-53.302916 -2.181309 6.798327 0.000000 4.000000 14.977442 24.000000
-51.057622 -2.154432 8.679853 0.000000 54.000000 14.290608 2.000000
-52.437799 -3.713777 3.675295 0.000000 56.000000 14.269077 18.000000
-52.023076 -2.335597 6.730660 0.000000 66.000000 14.730125 25.000000
-53.945671 -2.869959 7.629401 0.000000 49.000000 14.152654 0.000000
-53.952775 -2.683682 6.719719 0.000000 62.000000 14.576672 29.000000
-51.375833 -3.004341 5.300453 0.000000 50.000000 14.414349 28.000000
-54.200588 -3.363278 5.285231 0.000000 66.000000 14.333890 9.000000
-51.369375 -2.747752 6.288349 0.000000 47.000000 14.393931 27.000000
-52.839087 -2.384291 7.267878 0.000000 63.000000 14.613870 24.000000
-55.550442 -2.839116 8.230395 0.000000 29.000000 14.167970 0.000000
-54.131693 -2.742305 6.132315 0.000000 46.000000 14.694968 9.000000
-53.626883 -2.894817 7.797871 0.000000 31.000000 14.054196 0.000000
-52.037811 -2.964850 5.272952 0.000000 67.000000 14.520439 30.000000
-51.907287 -3.793445 3.691044 0.000000 49.000000 14.139711 0.000000
-54.966269 -2.739270 7.807626 0.000000 44.000000 14.323774 13.000000
-53.700506 -3.698166 4.855368 0.000000 42.000000 14.082540 0.000000
-52.061681 -3.402993 5.149748 0.000000 49.000000 14.135726 0.000000
-52.329461 -3.311306 6.083484 0.000000 36.000000 13.996985 0.000000
-51.910880 -2.522258 8.093646 0.000000 33.000000 14.174107 0.000000
-52.805129 -3.456199 3.655578 0.000000 70.000000 14.555083 18.000000
-56.482908 -3.483443 6.380158 0.000000 56.000000 14.133785 0.000000
-53.901720 -2.259233 8.983398 0.000000 50.000000 14.369799 1.000000
-54.280537 -3.857219 4.349729 0.000000 34.000000 14.119408 0.000000
-54.324936 -2.406020 9.186088 0.000000 42.000000 14.213420 0.000000
-56.453896 -2.661234 7.758920 0.000000 56.000000 14.548393 6.000000
-54.711176 -1.983812 9.861302 0.000000 57.000000 14.472007 4.000000
-50.604582 -2.443225 7.015418 0.000000 54.000000 14.419971 5.000000
-54.326118 -3.269545 6.605341 0.000000 51.000000 14.080074 0.000000
-55.231129 -3.758718 5.062210 0.000000 34.000000 14.109479 0.000000
-54.399290 -3.701464 5.255298 0.000000 40.000000 14.035976 0.000000
-51.860316 -2.926220 7.255778 0.000000 38.000000 14.007626 0.000000
-55.691607 -3.538679 5.275549 0.000000 57.000000 14.305344 14.000000
-52.171337 -2.150527 8.392502 0.000000 75.000000 14.474011 12.000000
-55.645250 -3.378359 6.365662 0.000000 36.000000 14.161459 0.000000
-53.313083 -3.386755 5.619703 0.000000 56.000000 14.139830 0.000000
-50.348776 -1.789809 8.520649 0.000000 60.000000 14.617884 2.000000
-52.341129 -3.324257 4.312985 0.000000 60.000000 14.462047 23.000000
-53.529059 -2.564307 6.748291 0.000000 44.000000 14.644496 29.000000
-53.910864 -2.179533 10.140057 0.000000 49.000000 14.135816 0.000000
-52.673547 -3.570065 3.905663 0.000000 42.000000 14.366533 23.000000
-54.806868 -3.117762 7.111666 0.000000 37.000000 14.133526 0.000000
-52.583582 -3.114882 4.162922 0.000000 78.000000 14.725437 23.000000
-52.443231 -2.993201 6.634542 0.000000 45.000000 14.164136 0.000000
-56.623168 -3.783416 4.858360 0.000000 31.000000 14.268567 19.000000
-56.586642 -3.676169 5.335868 0.000000 48.000000 14.239543 14.000000
-53.519219 -3.148302 4.086004 0.000000 71.000000 14.800070 23.000000
-53.144482 -2.589249 6.947481 0.000000 44.000000 14.531647 24.000000
-53.010745 -3.330383 4.187289 0.000000 68.000000 14.551527 23.000000
-52.947968 -3.308480 4.190851 0.000000 66.000000 14.565799 23.000000
-53.217137 -3.796097 4.025728 0.000000 28.000000 14.167474 0.000000
-52.048782 -3.609224 3.420123 0.000000 61.000000 14.402229 18.000000
-53.828161 -3.815360 4.315407 0.000000 41.000000 14.127206 0.000000
-52.030899 -2.530903 6.341617 0.000000 71.000000 14.648283 26.000000
-50.923989 -2.949056 6.294296 0.000000 37.000000 14.158409 0.000000
-56.102257 -3.388456 5.233613 0.000000 71.000000 14.498385 14.000000
-54.995645 -3.284517 7.109977 0.000000 29.000000 13.991456 0.000000
-56.650545 -3.792081 5.377857 0.000000 57.000000 14.122989 0.000000
-55.925453 -2.473602 8.889363 0.000000 68.000000 14.375542 17.000000
-52.171810 -3.723454 4.570146 0.000000 41.000000 13.994571 0.000000
-53.912984 -3.507163 4.780304 0.000000 48.000000 14.305382 23.000000
-53.836897 -3.275119 4.437822 0.000000 51.000000 14.613012 23.000000
-55.855401 -2.517536 10.010263 0.000000 34.000000 14.025373 0.000000
-52.640009 -2.535862 8.095626 0.000000 33.000000 14.227531 15.000000
-52.395191 -3.844027 3.770059 0.000000 48.000000 14.114789 0.000000
-52.889913 -3.585788 3.725258 0.000000 67.000000 14.419884 18.000000
-54.235729 -3.017923 6.635388 0.000000 34.000000 14.304919 29.000000
-53.837070 -2.140426 10.109893 0.000000 49.000000 14.174644 0.000000
-52.433796 -3.722313 4.670661 0.000000 42.000000 13.992692 0.000000
-53.456854 -2.980088 7.106543 0.000000 36.000000 14.142843 0.000000
-53.043616 -2.437151 9.002192 0.000000 40.000000 14.115316 0.000000
-57.304634 -3.203794 5.403438 0.000000 65.000000 14.740215 7.000000
-55.590687 -2.751545 7.598296 0.000000 60.000000 14.425710 6.000000
-53.902845 -2.336734 9.604128 0.000000 34.000000 14.128575 0.000000
-52.375570 -3.276306 6.161405 0.000000 34.000000 14.013810 0.000000
-52.795680 -3.031101 6.745868 0.000000 47.000000 14.130231 0.000000
-53.598563 -3.254182 5.340363 0.000000 72.000000 14.368328 9.000000
-52.926297 -2.993545 6.910161 0.000000 59.000000 14.134031 0.000000
-54.434983 -2.928517 7.657577 0.000000 45.000000 14.133894 0.000000
-52.377246 -3.000774 5.718738 0.000000 48.000000 14.397236 30.000000
-54.798999 -2.914995 8.073474 0.000000 48.000000 14.068397 0.000000
-54.953559 -2.876794 8.252861 0.000000 43.000000 14.070955 0.000000
-55.738060 -2.883264 8.245247 0.000000 34.000000 14.138888 0.000000
-51.483010 -2.705966 5.771475 0.000000 55.000000 14.583514 27.000000
-51.021691 -1.919396 8.426892 0.000000 57.000000 14.580707 2.000000
-57.298969 -3.567750 5.773083 0.000000 52.000000 14.291297 7.000000
-54.205514 -3.162931 5.733681 0.000000 55.000000 14.405751 9.000000
-54.176455 -2.790854 8.326418 0.000000 44.000000 14.062147 0.000000
-56.323762 -2.595691 7.495682 0.000000 54.000000 14.670105 6.000000
-54.200745 -3.759268 4.092078 0.000000 66.000000 14.275313 20.000000
-54.536406 -2.515291 9.038695 0.000000 38.000000 14.167752 0.000000
-51.959053 -2.390343 8.954568 0.000000 33.000000 14.073347 0.000000
-53.002576 -3.796395 3.899517 0.000000 52.000000 14.181433 0.000000
-54.494626 -2.927602 8.313637 0.000000 33.000000 13.963719 0.000000
-50.706173 -2.109761 7.247811 0.000000 48.000000 14.686474 5.000000
-52.226249 -3.795976 3.742657 0.000000 57.000000 14.152706 0.000000
-54.232884 -2.691992 8.264418 0.000000 42.000000 14.178796 0.000000
-50.644703 -2.344814 7.480245 0.000000 57.000000 14.392931 5.000000
-51.986963 -2.869892 7.415460 0.000000 38.000000 14.030299 0.000000
-52.933976 -2.422606 9.241235 0.000000 38.000000 14.054865 0.000000
-55.253605 -2.927718 7.701327 0.000000 40.000000 14.198111 0.000000
-54.506822 -2.901250 7.759616 0.000000 44.000000 14.139180 0.000000
-51.605050 -3.349073 4.475675 0.000000 76.000000 14.326840 22.000000
-54.439641 -3.081465 7.096686 0.000000 44.000000 14.138611 0.000000
-54.034723 -2.354884 8.959115 0.000000 68.000000 14.296852 1.000000
-54.995595 -3.218663 6.860801 0.000000 38.000000 14.121635 0.000000
-57.053255 -3.560848 5.373003 0.000000 48.000000 14.382989 7.000000
-51.070196 -2.038288 7.860312 0.000000 58.000000 14.623635 3.000000
-54.029498 -2.974698 7.005030 0.000000 36.000000 14.227946 29.000000
-54.144937 -2.731147 8.370930 0.000000 45.000000 14.104516 0.000000
-56.561189 -3.298772 7.277781 0.000000 53.000000 14.076494 0.000000
-55.560027 -2.250387 10.325828 0.000000 38.000000 14.169441 0.000000
-54.090557 -2.905301 8.047392 0.000000 50.000000 14.019611 0.000000
-53.496780 -2.856023 7.124097 0.000000 38.000000 14.260733 24.000000
-51.365093 -3.391243 4.856747 0.000000 42.000000 14.161822 0.000000
-55.781049 -2.022300 9.447893 0.000000 48.000000 14.644658 17.000000
-54.031547 -2.782942 5.831695 0.000000 62.000000 14.727697 9.000000
-56.784950 -3.926091 4.984164 0.000000 43.000000 14.112796 0.000000
-51.426288 -3.473427 4.642448 0.000000 52.000000 14.146317 0.000000
-51.376482 -3.557464 4.513547 0.000000 39.000000 14.095857 0.000000
-52.592403 -3.617864 4.796575 0.000000 46.000000 14.073524 0.000000
-51.909723 -3.722020 4.392731 0.000000 44.000000 14.019601 0.000000
-55.421964 -3.341759 6.744667 0.000000 54.000000 14.074048 0.000000
-51.737217 -3.825798 3.528228 0.000000 48.000000 14.136876 0.000000
-52.540869 -3.689742 4.674577 0.000000 22.000000 14.032704 0.000000
-52.095201 -3.696481 3.947624 0.000000 49.000000 14.180899 0.000000
-53.712968 -3.338748 5.996432 0.000000 41.000000 14.121230 0.000000
-51.730495 -2.634722 7.487910 0.000000 52.000000 14.212701 0.000000
-54.352246 -3.129193 5.884692 0.000000 63.000000 14.410946 9.000000
-52.431405 -1.808001 9.561906 0.000000 55.000000 14.511634 10.000000
-52.092006 -3.072211 5.115319 0.000000 57.000000 14.464905 30.000000
-53.124559 -3.552899 4.994859 0.000000 58.000000 14.131353 0.000000
-52.673755 -2.817891 5.691671 0.000000 66.000000 14.607100 30.000000
-53.457860 -3.517750 5.288229 0.000000 56.000000 14.116738 0.000000
-55.890492 -3.164971 7.126226 0.000000 42.000000 14.183922 0.000000
-55.039465 -2.916799 8.056734 0.000000 52.000000 14.093269 0.000000
-53.973695 -3.449318 5.723828 0.000000 51.000000 14.112535 0.000000
-56.498447 -3.765765 4.734475 0.000000 69.000000 14.307364 19.000000
-51.972806 -3.345700 3.993250 0.000000 65.000000 14.493678 21.000000
-55.983441 -3.812995 5.028407 0.000000 46.000000 14.135668 0.000000
-51.842315 -3.552435 3.620881 0.000000 69.000000 14.383682 21.000000
-52.799343 -2.253653 9.498482 0.000000 32.000000 14.135252 0.000000
-52.053145 -3.650172 3.862575 0.000000 56.000000 14.244318 21.000000
-56.029372 -3.311431 7.257474 0.000000 39.000000 14.020953 0.000000
-54.873189 -3.282986 6.856952 0.000000 39.000000 14.049755 0.000000
-54.971713 -3.908391 4.283804 0.000000 43.000000 14.151600 0.000000
-53.248195 -2.776972 8.006680 0.000000 33.000000 14.076193 0.000000
-56.422997 -3.471220 6.327663 0.000000 46.000000 14.154123 0.000000
-52.835016 -3.464301 3.647054 0.000000 53.000000 14.552355 18.000000
-54.940387 -3.674952 5.571576 0.000000 42.000000 14.026011 0.000000
-53.300296 -3.527993 5.070093 0.000000 36.000000 14.151135 0.000000
-52.866771 -3.293430 6.226257 0.000000 40.000000 14.025079 0.000000
-52.114003 -3.790761 3.764848 0.000000 59.000000 14.141420 0.000000
-51.504429 -3.713337 4.305577 0.000000 46.000000 14.014135 0.000000
-55.949555 -2.532791 10.103312 0.000000 26.000000 13.994362 0.000000
-55.668583 -2.985952 8.291540 0.000000 22.000000 14.021598 0.000000
-51.767919 -3.187426 4.688332 0.000000 58.000000 14.439559 22.000000
-56.640939 -3.634255 5.466916 0.000000 56.000000 14.249454 14.000000
-53.003645 -3.346290 5.616428 0.000000 45.000000 14.151071 0.000000
-52.543559 -3.428316 3.317677 0.000000 70.000000 14.648702 18.000000
-55.379182 -3.438146 6.203923 0.000000 34.000000 14.123212 0.000000
-52.230917 -1.760232 8.764133 0.000000 44.000000 14.753673 10.000000
-54.554898 -2.825789 6.326825 0.000000 50.000000 14.601480 9.000000
-54.593957 -2.897516 7.794598 0.000000 48.000000 14.141354 0.000000
-52.400432 -3.688742 3.667056 0.000000 59.000000 14.291862 18.000000
-54.471696 -2.936316 7.610838 0.000000 41.000000 14.142367 0.000000
-53.109155 -2.815381 5.609576 0.000000 63.000000 14.671606 30.000000
-56.095125 -3.623370 6.003360 0.000000 37.000000 14.065389 0.000000
-56.770274 -3.668608 4.927066 0.000000 28.000000 14.373667 19.000000
-57.278794 -3.181998 5.468080 0.000000 49.000000 14.741343 7.000000
-55.353425 -3.238331 7.190181 0.000000 42.000000 14.047030 0.000000
-52.439481 -3.273249 5.299356 0.000000 44.000000 14.254574 30.000000
-55.097809 -3.364958 6.870823 0.000000 38.000000 13.988074 0.000000
-50.742319 -2.361851 7.088185 0.000000 62.000000 14.491063 5.000000
-54.861074 -1.601868 9.939630 0.000000 53.000000 14.830883 4.000000
-50.991110 -2.541384 6.568680 0.000000 63.000000 14.481590 25.000000
-53.957575 -2.757138 6.722165 0.000000 57.000000 14.506031 29.000000
-55.863022 -2.336947 9.439918 0.000000 70.000000 14.352677 17.000000
-55.573981 -2.889899 8.700195 0.000000 30.000000 13.995033 0.000000
-52.164191 -3.005148 5.107298 0.000000 66.000000 14.537992 30.000000
-53.271203 -2.786923 7.174367 0.000000 52.000000 14.292726 24.000000
-53.074858 -3.740914 4.805022 0.000000 41.000000 13.997612 0.000000
-51.420898 -3.610652 4.470433 0.000000 44.000000 14.060547 0.000000
-51.570733 -3.694750 4.391785 0.000000 39.000000 14.014851 0.000000
-54.155977 -3.876347 3.988510 0.000000 55.000000 14.186821 20.000000
-52.386197 -1.991471 9.038462 0.000000 50.000000 14.472431 10.000000
-51.726932 -3.822990 3.473213 0.000000 52.000000 14.153427 0.000000
-55.134232 -3.073533 7.298645 0.000000 48.000000 14.155699 0.000000
-54.248206 -3.234755 4.687941 0.000000 69.000000 14.622203 23.000000
-51.615594 -2.490580 8.031531 0.000000 40.000000 14.194057 0.000000
-53.751129 -2.621202 6.147605 0.000000 59.000000 14.771988 29.000000
-53.354701 -3.690275 4.791938 0.000000 46.000000 14.075397 0.000000
-54.975785 -3.709928 5.453021 0.000000 43.000000 14.027632 0.000000
-55.694085 -2.177034 10.642160 0.000000 47.000000 14.166966 0.000000
-57.144700 -3.656263 6.082944 0.000000 52.000000 14.108885 0.000000
-54.455621 -3.113537 5.588921 0.000000 66.000000 14.515041 9.000000
-54.301418 -3.273366 4.520579 0.000000 69.000000 14.635109 23.000000
-54.075722 -3.783971 5.120949 0.000000 40.000000 13.963293 0.000000
-54.898373 -2.499421 9.090563 0.000000 34.000000 14.202272 0.000000
-51.954377 -3.746601 4.234802 0.000000 23.000000 14.042634 0.000000
-50.986255 -2.558444 7.345921 0.000000 45.000000 14.255648 5.000000
-52.396195 -2.271530 8.285606 0.000000 58.000000 14.407429 12.000000
-52.720351 -3.805317 3.863275 0.000000 24.000000 14.156697 0.000000
-54.729019 -3.760050 5.368189 0.000000 49.000000 13.979730 0.000000
-51.679050 -3.040035 3.679667 0.000000 71.000000 14.844112 21.000000
-54.895310 -3.681286 5.404559 0.000000 40.000000 14.060737 0.000000
-55.370462 -2.296058 9.151206 0.000000 63.000000 14.424303 16.000000
-51.367398 -2.940504 5.242902 0.000000 69.000000 14.490262 28.000000
-53.895782 -2.412812 9.500703 0.000000 31.000000 14.082817 0.000000
-55.017150 -3.374279 5.654144 0.000000 55.000000 14.299110 8.000000
-53.060004 -2.453381 9.198139 0.000000 31.000000 14.048537 0.000000
-52.471392 -3.006984 5.642655 0.000000 68.000000 14.420406 30.000000
-54.710082 -3.857467 4.378645 0.000000 45.000000 14.150861 0.000000
-53.653941 -3.765533 4.009969 0.000000 54.000000 14.241155 18.000000
-56.893638 -3.619056 5.713632 0.000000 69.000000 14.220860 7.000000
-52.534698 -2.874228 5.836608 0.000000 56.000000 14.501311 30.000000
-55.261342 -3.720061 4.984359 0.000000 38.000000 14.170265 0.000000
-52.394419 -3.630080 4.003248 0.000000 65.000000 14.257087 23.000000
-53.904509 -2.526301 8.888400 0.000000 46.000000 14.139573 0.000000
-56.859217 -3.759763 5.969980 0.000000 39.000000 14.013820 0.000000
-53.668621 -2.922165 7.984344 0.000000 29.000000 13.981636 0.000000
-55.534050 -3.150471 7.262171 0.000000 43.000000 14.128490 0.000000
-51.418653 -3.410763 4.855298 0.000000 47.000000 14.148419 0.000000
-54.523167 -2.514041 9.604603 0.000000 22.000000 14.015459 0.000000
-53.398781 -2.996304 5.518831 0.000000 54.000000 14.549182 30.000000
-50.720102 -2.850386 6.753231 0.000000 49.000000 14.110781 0.000000
-50.680237 -2.804569 6.906300 0.000000 43.000000 14.109855 0.000000
-52.405496 -3.017228 4.773290 0.000000 74.000000 14.638459 22.000000
-56.262881 -3.402355 6.567743 0.000000 61.000000 14.140832 0.000000
-54.211294 -3.763718 3.959181 0.000000 70.000000 14.307776 20.000000
-53.916290 -3.319100 4.460797 0.000000 67.000000 14.571959 23.000000
-52.852297 -2.418497 7.900604 0.000000 46.000000 14.412035 15.000000
-54.737084 -3.365666 6.138952 0.000000 35.000000 14.151180 0.000000
-55.846175 -2.482199 10.176212 0.000000 25.000000 14.013750 0.000000
-52.721046 -3.519262 4.557128 0.000000 50.000000 14.244307 23.000000
-53.525209 -2.436170 8.060094 0.000000 39.000000 14.414010 11.000000
-55.904477 -3.375915 6.707432 0.000000 42.000000 14.095660 0.000000
-55.019632 -2.570648 7.650396 0.000000 40.000000 14.532647 13.000000
-56.946772 -3.818751 5.258977 0.000000 36.000000 14.156629 0.000000
-52.357104 -1.980782 8.591534 0.000000 73.000000 14.600265 12.000000
-55.166542 -3.736043 5.139434 0.000000 45.000000 14.104504 0.000000
-56.520683 -3.458994 6.477458 0.000000 58.000000 14.134514 0.000000
-56.325123 -3.750223 5.922107 0.000000 39.000000 13.986770 0.000000
-55.223396 -2.538441 9.192211 0.000000 49.000000 14.167377 0.000000
-55.509062 -3.625526 5.814297 0.000000 41.000000 14.060341 0.000000
-53.784540 -3.584196 5.164002 0.000000 49.000000 14.116480 0.000000
-55.311765 -3.656437 5.692916 0.000000 50.000000 14.045238 0.000000
-53.612490 -3.620629 5.054484 0.000000 44.000000 14.095210 0.000000
-55.083806 -3.928604 4.268014 0.000000 41.000000 14.146770 0.000000
-54.753813 -2.347159 9.863649 0.000000 33.000000 14.126943 0.000000
-54.870635 -3.665214 5.422938 0.000000 43.000000 14.068933 0.000000
-54.338748 -3.437417 4.889394 0.000000 53.000000 14.382019 23.000000
-57.248787 -3.342041 5.734731 0.000000 37.000000 14.513398 7.000000
-54.105759 -2.176497 10.054017 0.000000 35.000000 14.179787 0.000000
-52.540677 -3.438573 5.198807 0.000000 26.000000 14.132429 0.000000
-53.307993 -2.471328 8.150446 0.000000 37.000000 14.336032 11.000000
-55.756982 -3.442916 6.210630 0.000000 64.000000 14.151550 0.000000
-55.117754 -2.350575 9.156317 0.000000 42.000000 14.347440 16.000000
-51.554373 -3.407682 4.866073 0.000000 53.000000 14.160945 0.000000
-56.115471 -3.637431 5.978789 0.000000 46.000000 14.060389 0.000000
-52.127708 -2.432249 6.084125 0.000000 48.000000 14.821047 26.000000
-55.825791 -3.344742 7.062520 0.000000 51.000000 14.022768 0.000000
-52.695032 -3.509154 4.537930 0.000000 49.000000 14.256774 23.000000
-55.730603 -3.348179 7.099274 0.000000 43.000000 14.000837 0.000000
-56.293413 -3.617432 6.018246 0.000000 34.000000 14.085297 0.000000
-52.808565 -3.828404 3.983582 0.000000 40.000000 14.110297 0.000000
-54.325553 -3.789094 4.515485 0.000000 48.000000 14.144256 0.000000
-53.010727 -3.827960 4.014251 0.000000 52.000000 14.121047 0.000000
-53.258260 -3.672881 4.756609 0.000000 45.000000 14.092717 0.000000
-55.674589 -3.780510 5.483934 0.000000 30.000000 14.015859 0.000000
-54.525336 -3.645653 4.502930 0.000000 39.000000 14.303513 23.000000
-55.053144 -3.854478 4.662434 0.000000 56.000000 14.108889 0.000000
-56.206690 -2.980374 7.912114 0.000000 41.000000 14.178489 0.000000
-51.699091 -3.109569 3.927082 0.000000 44.000000 14.712715 21.000000
-51.671381 -2.728567 5.946522 0.000000 63.000000 14.532054 27.000000
-52.886076 -3.360596 4.249516 0.000000 53.000000 14.494361 23.000000
-56.733410 -3.568814 4.707737 0.000000 54.000000 14.524971 19.000000
-53.108135 -2.828705 6.536406 0.000000 45.000000 14.409347 29.000000
-53.042718 -3.363885 4.357743 0.000000 63.000000 14.476480 23.000000
-51.715399 -3.137230 3.689073 0.000000 67.000000 14.751738 21.000000
-52.077645 -3.855149 3.573072 0.000000 50.000000 14.127952 0.000000
-55.869580 -2.610048 7.254391 0.000000 59.000000 14.679532 6.000000
-56.686608 -3.723914 6.066041 0.000000 32.000000 14.006480 0.000000
-56.419028 -3.838061 5.082806 0.000000 35.000000 14.137025 0.000000
-54.305445 -2.595959 8.748390 0.000000 40.000000 14.147306 0.000000
-51.907578 -3.390068 5.131094 0.000000 58.000000 14.138976 0.000000
-56.054198 -3.595828 6.053327 0.000000 44.000000 14.074588 0.000000
-51.992283 -3.269565 6.022884 0.000000 43.000000 14.022326 0.000000
-51.942123 -2.944598 6.595086 0.000000 58.000000 14.175303 0.000000
-56.155492 -2.917375 7.458312 0.000000 60.000000 14.356292 6.000000
-53.212495 -2.118690 7.144105 0.000000 56.000000 14.936125 24.000000
-52.823405 -2.458929 7.436635 0.000000 63.000000 14.495462 24.000000
-53.949694 -3.832225 4.274073 0.000000 47.000000 14.133327 0.000000
-52.296677 -2.758991 6.089917 0.000000 43.000000 14.521759 26.000000
-52.126355 -2.604981 7.813321 0.000000 51.000000 14.190028 0.000000
-55.356360 -3.268341 7.164213 0.000000 38.000000 14.025516 0.000000
-53.378694 -2.591950 6.388484 0.000000 72.000000 14.700994 29.000000
-53.366913 -3.430001 5.498620 0.000000 52.000000 14.135896 0.000000
-57.357458 -3.808700 5.016030 0.000000 61.000000 14.269375 7.000000
-51.940451 -2.949107 6.707421 0.000000 30.000000 14.140599 0.000000
-52.548595 -2.384103 9.224004 0.000000 39.000000 14.061002 0.000000
-57.303711 -3.426073 5.706525 0.000000 53.000000 14.445472 7.000000
-55.021623 -2.038177 9.278369 0.000000 54.000000 14.605268 16.000000
-51.413051 -2.157039 9.333717 0.000000 41.000000 14.144827 0.000000
-56.905880 -3.798131 5.421452 0.000000 62.000000 14.128921 0.000000
-52.578940 -3.365154 4.278734 0.000000 37.000000 14.453906 23.000000
-50.806180 -1.683348 8.439820 0.000000 73.000000 14.783731 2.000000
-56.192141 -3.829645 5.122532 0.000000 48.000000 14.113556 0.000000
-53.678646 -2.331702 9.382056 0.000000 40.000000 14.172552 0.000000
-51.522749 -2.446149 5.616652 0.000000 77.000000 14.877918 27.000000
-52.876380 -3.364081 6.178008 0.000000 32.000000 13.971210 0.000000
-54.750424 -2.919404 7.625119 0.000000 27.000000 14.180351 0.000000
-57.063689 -3.845872 5.320608 0.000000 57.000000 14.124787 0.000000
-53.955677 -3.175580 5.242698 0.000000 69.000000 14.502781 9.000000
-53.559062 -3.323833 5.400744 0.000000 65.000000 14.281675 9.000000
-50.524392 -2.115626 7.772819 0.000000 49.000000 14.522878 3.000000
-52.535605 -3.241006 3.970282 0.000000 76.000000 14.651946 23.000000
-53.698500 -2.588133 8.536505 0.000000 30.000000 14.156051 0.000000
-56.308972 -3.858602 5.063145 0.000000 51.000000 14.112509 0.000000
-55.396422 -2.582408 7.409494 0.000000 53.000000 14.620818 6.000000
-52.667012 -3.248678 4.058632 0.000000 66.000000 14.632893 23.000000
-54.339685 -3.832003 4.431987 0.000000 47.000000 14.126885 0.000000
-55.808003 -3.853668 4.900361 0.000000 44.000000 14.115008 0.000000
-55.559194 -3.841810 4.819477 0.000000 54.000000 14.125277 0.000000
-51.957782 -2.736804 6.316624 0.000000 57.000000 14.450887 26.000000
-52.790459 -3.365483 4.709002 0.000000 63.000000 14.357251 22.000000
-51.711658 -1.882499 8.731157 0.000000 72.000000 14.597611 10.000000
-55.586260 -3.845995 4.853823 0.000000 42.000000 14.114510 0.000000
-51.537292 -2.876583 5.896546 0.000000 44.000000 14.391273 27.000000
-53.148423 -2.511155 8.579063 0.000000 42.000000 14.167853 0.000000
-57.335827 -3.574274 5.849032 0.000000 35.000000 14.267993 7.000000
-55.769334 -2.581519 9.283209 0.000000 49.000000 14.151758 0.000000
-52.429724 -3.805372 3.880058 0.000000 41.000000 14.125423 0.000000
-52.960152 -3.516465 4.010222 0.000000 61.000000 14.416122 23.000000
-51.266299 -2.301622 8.631621 0.000000 59.000000 14.181647 0.000000
-52.648153 -3.303943 6.204185 0.000000 26.000000 14.000850 0.000000
-56.740780 -3.313411 6.925451 0.000000 36.000000 14.173767 0.000000
-50.292820 -2.335041 7.849992 0.000000 69.000000 14.270475 3.000000
-54.798399 -3.563431 5.680125 0.000000 57.000000 14.090674 0.000000
-56.013223 -3.525106 5.421308 0.000000 56.000000 14.308689 14.000000
-51.294199 -2.745259 5.816397 0.000000 52.000000 14.516406 27.000000
-53.473931 -3.241459 3.975554 0.000000 65.000000 14.736316 23.000000
-53.781462 -3.241924 6.475199 0.000000 46.000000 14.091525 0.000000
-56.952173 -3.309822 5.507474 0.000000 78.000000 14.578182 7.000000
-55.347665 -3.288805 6.129684 0.000000 58.000000 14.283469 8.000000
-53.099326 -2.475849 6.922715 0.000000 50.000000 14.642881 24.000000
-51.703104 -3.547248 3.982236 0.000000 54.000000 14.278630 21.000000
-53.348753 -2.413370 8.448475 0.000000 48.000000 14.315149 11.000000
-51.998796 -3.853679 3.589890 0.000000 48.000000 14.117590 0.000000
-56.074344 -3.621834 5.845931 0.000000 54.000000 14.107313 0.000000
-51.941392 -3.910966 3.259626 0.000000 58.000000 14.146261 0.000000
-53.525568 -3.451235 5.456543 0.000000 39.000000 14.141439 0.000000
-55.880093 -2.714433 7.449297 0.000000 72.000000 14.527977 6.000000
-52.877535 -3.821868 4.030822 0.000000 42.000000 14.110190 0.000000
-53.754484 -3.306767 5.214055 0.000000 71.000000 14.366228 9.000000
-55.665842 -3.796252 5.484383 0.000000 34.000000 13.999842 0.000000
-54.512581 -3.056903 5.665356 0.000000 66.000000 14.554004 9.000000
-51.898422 -3.901429 3.329290 0.000000 51.000000 14.132710 0.000000
-51.935485 -3.863739 3.486986 0.000000 45.000000 14.129817 0.000000
-53.111128 -2.577943 8.477929 0.000000 43.000000 14.127608 0.000000
-54.152212 -3.035008 4.259153 0.000000 61.000000 14.920262 23.000000
-52.323097 -3.675199 4.672053 0.000000 41.000000 14.027315 0.000000
-55.669780 -2.856334 7.715638 0.000000 58.000000 14.300940 6.000000
-52.649412 -3.188716 4.138452 0.000000 71.000000 14.667285 23.000000
-57.061142 -3.290552 5.626944 0.000000 78.000000 14.574523 7.000000
-53.344191 -2.441597 7.103653 0.000000 68.000000 14.649533 24.000000
-52.690481 -2.911073 7.641259 0.000000 36.000000 13.994706 0.000000
-56.913448 -3.856686 5.130252 0.000000 47.000000 14.151835 0.000000
-54.990639 -3.275198 6.932607 0.000000 36.000000 14.047656 0.000000
-51.379451 -2.181380 9.010756 0.000000 43.000000 14.205306 0.000000
-56.707632 -3.112449 7.589954 0.000000 49.000000 14.184584 0.000000
-55.867482 -3.365905 7.054296 0.000000 29.000000 14.008523 0.000000
-53.135623 -2.527935 8.381412 0.000000 47.000000 14.203774 0.000000
-55.574013 -2.774637 7.715186 0.000000 36.000000 14.370586 6.000000
-52.195981 -3.615625 4.419928 0.000000 38.000000 14.140591 0.000000
-53.952128 -3.415603 5.334515 0.000000 49.000000 14.247633 9.000000
-55.514978 -2.474050 9.415152 0.000000 37.000000 14.195915 0.000000
-55.221116 -2.428927 9.902895 0.000000 41.000000 14.080931 0.000000
-53.718699 -2.427262 9.164674 0.000000 52.000000 14.143110 0.000000
-53.281207 -3.686921 4.825179 0.000000 37.000000 14.062915 0.000000
-55.541648 -2.826885 7.309521 0.000000 67.000000 14.426677 6.000000
-54.203114 -2.356345 9.772358 0.000000 45.000000 14.092097 0.000000
-56.211590 -2.765757 7.520769 0.000000 62.000000 14.490001 6.000000
-54.483696 -2.233894 10.115284 0.000000 54.000000 14.143002 0.000000
-51.298367 -2.262813 8.203713 0.000000 39.000000 14.336942 3.000000
-52.620387 -3.257082 6.188631 0.000000 22.000000 14.047411 0.000000
-52.285406 -1.689395 9.170169 0.000000 68.000000 14.717337 10.000000
-50.481959 -2.355111 7.719994 0.000000 66.000000 14.303593 3.000000
-52.630437 -3.800132 3.994719 0.000000 52.000000 14.118037 0.000000
-53.594321 -3.358293 6.229083 0.000000 35.000000 14.028988 0.000000
-53.493252 -2.178283 9.935518 0.000000 41.000000 14.153677 0.000000
-51.414806 -2.884093 5.680420 0.000000 53.000000 14.430973 27.000000
-52.018564 -2.388757 8.896079 0.000000 39.000000 14.096074 0.000000
-51.972588 -2.496886 6.612392 0.000000 75.000000 14.602677 25.000000
-53.997713 -2.900436 7.566555 0.000000 53.000000 14.145127 0.000000
-53.517161 -2.383312 9.407800 0.000000 45.000000 14.101306 0.000000
-53.005621 -3.861396 3.797280 0.000000 50.000000 14.146905 0.000000
-56.467267 -2.938872 8.361024 0.000000 36.000000 14.121430 0.000000
-50.879365 -2.224740 7.815140 0.000000 49.000000 14.439499 3.000000
-52.413099 -1.602398 9.186862 0.000000 48.000000 14.807985 10.000000
-51.959429 -2.532457 8.143814 0.000000 36.000000 14.155291 0.000000
-52.658057 -2.047048 8.689392 0.000000 45.000000 14.538057 12.000000
-52.295653 -3.217801 4.091183 0.000000 59.000000 14.619612 23.000000
-55.348574 -3.270025 6.954570 0.000000 43.000000 14.079597 0.000000
-54.365991 -2.852399 6.017533 0.000000 65.000000 14.641833 9.000000
-53.338341 -2.773313 7.888818 0.000000 43.000000 14.119699 0.000000
-51.524477 -2.591243 6.938253 0.000000 56.000000 14.383356 25.000000
-53.285140 -3.696980 4.043554 0.000000 68.000000 14.263952 23.000000
-54.068337 -3.930955 4.029700 0.000000 42.000000 14.115330 0.000000
-51.334609 -3.370852 4.930742 0.000000 40.000000 14.158660 0.000000
-53.099314 -2.979562 7.052829 0.000000 41.000000 14.124946 0.000000
-52.859987 -3.700012 4.772571 0.000000 25.000000 14.025814 0.000000
-51.358026 -2.950073 5.341005 0.000000 55.000000 14.453829 28.000000
-55.215455 -3.332410 6.531491 0.000000 44.000000 14.121397 0.000000
-53.780806 -3.614593 4.193683 0.000000 45.000000 14.348088 23.000000
-52.365246 -2.185808 8.749898 0.000000 55.000000 14.361837 12.000000
-56.253370 -3.574496 6.141405 0.000000 37.000000 14.089641 0.000000
-55.784690 -3.326154 6.554883 0.000000 28.000000 14.173407 0.000000
-52.711017 -3.831089 3.903072 0.000000 45.000000 14.120423 0.000000
-51.431344 -2.471313 6.842812 0.000000 33.000000 14.515459 25.000000
-55.148818 -3.200418 6.022261 0.000000 60.000000 14.378841 8.000000
-57.360344 -3.707827 4.985342 0.000000 37.000000 14.374607 7.000000
-54.179124 -2.572736 8.683297 0.000000 47.000000 14.175478 0.000000
-53.229424 -3.255469 4.292423 0.000000 72.000000 14.615154 23.000000
-53.735420 -3.341036 4.263148 0.000000 55.000000 14.587492 23.000000
-56.211738 -2.044687 9.399611 0.000000 52.000000 14.675763 17.000000
-50.350096 -2.118499 7.775685 0.000000 52.000000 14.503337 3.000000
-52.266210 -3.345331 3.278274 0.000000 77.000000 14.713378 18.000000
-52.112504 -3.001543 5.140352 0.000000 75.000000 14.527804 30.000000
-55.948496 -2.004846 9.431345 0.000000 56.000000 14.681231 17.000000
-52.407038 -2.967113 6.714082 0.000000 36.000000 14.164418 0.000000
-55.436713 -2.925540 8.015746 0.000000 34.000000 14.132421 0.000000
-52.834517 -3.440313 5.287840 0.000000 45.000000 14.133804 0.000000
-52.776775 -3.219101 5.033875 0.000000 39.000000 14.408917 22.000000
-53.261087 -2.456020 6.245818 0.000000 59.000000 14.858895 29.000000
-53.746565 -3.345585 4.604696 0.000000 70.000000 14.492251 23.000000
-55.700402 -2.983922 7.929139 0.000000 46.000000 14.123983 0.000000
-54.092519 -3.075548 5.229038 0.000000 60.000000 14.614934 9.000000
-53.491360 -2.996164 5.964489 0.000000 41.000000 14.437906 30.000000
-54.619293 -2.962080 7.606169 0.000000 47.000000 14.132485 0.000000
-54.539201 -2.931291 6.100570 0.000000 66.000000 14.559770 9.000000
-53.171886 -3.331228 3.539499 0.000000 62.000000 14.739831 18.000000
-51.608949 -2.290690 6.740780 0.000000 40.000000 14.732401 25.000000
-54.616748 -2.777880 8.502692 0.000000 40.000000 14.067612 0.000000
-52.471298 -3.399531 5.195564 0.000000 47.000000 14.164357 0.000000
-52.898311 -3.571530 3.394237 0.000000 66.000000 14.523396 18.000000
-51.359843 -3.269557 5.747336 0.000000 44.000000 14.038363 0.000000
-52.661800 -3.828696 3.860056 0.000000 48.000000 14.129769 0.000000
-53.238351 -3.486455 5.217062 0.000000 47.000000 14.145720 0.000000
-55.983827 -3.588305 5.042010 0.000000 54.000000 14.347459 14.000000
-54.755186 -3.759401 5.061882 0.000000 30.000000 14.065178 0.000000
-57.405503 -3.723436 5.113543 0.000000 59.000000 14.329296 7.000000
-54.570084 -2.431575 9.813399 0.000000 39.000000 14.042650 0.000000
-56.090230 -1.918494 9.275097 0.000000 62.000000 14.819086 17.000000
-53.819953 -3.308154 4.381439 0.000000 78.000000 14.594955 23.000000
-55.095967 -2.968968 7.844254 0.000000 27.000000 14.105619 0.000000
-54.029576 -2.629730 8.543487 0.000000 45.000000 14.144715 0.000000
-55.305937 -2.872599 8.176075 0.000000 43.000000 14.128018 0.000000
-51.493104 -2.810739 6.440921 0.000000 47.000000 14.303859 25.000000
-55.580752 -2.619494 9.018479 0.000000 61.000000 14.169255 0.000000
-53.199737 -2.406708 7.004377 0.000000 82.000000 14.696421 24.000000
-55.024189 -3.864491 4.519596 0.000000 51.000000 14.135063 0.000000
-53.688509 -2.549679 6.427650 0.000000 68.000000 14.759450 29.000000
-55.493220 -2.842129 8.725442 0.000000 37.000000 14.026617 0.000000
-51.854017 -3.896078 3.296665 0.000000 48.000000 14.142539 0.000000
-53.801229 -3.301047 4.335370 0.000000 67.000000 14.612444 23.000000
-51.768983 -3.271922 5.965703 0.000000 32.000000 14.014934 0.000000
-53.757276 -2.751391 8.171683 0.000000 42.000000 14.103099 0.000000
-53.313645 -3.152643 4.228737 0.000000 53.000000 14.738611 23.000000
-53.345888 -3.468783 4.071810 0.000000 58.000000 14.480709 23.000000
-53.359027 -2.671953 6.443905 0.000000 61.000000 14.607573 29.000000
-52.556017 -2.896520 5.658854 0.000000 53.000000 14.529728 30.000000
-52.040173 -3.803966 3.619958 0.000000 46.000000 14.160963 0.000000
-55.059998 -3.393305 6.248215 0.000000 34.000000 14.124954 0.000000
-50.791525 -2.205345 8.620155 0.000000 64.000000 14.233408 2.000000
-56.375848 -2.746556 7.847398 0.000000 54.000000 14.435613 6.000000
-55.252730 -3.163648 6.038783 0.000000 64.000000 14.419196 8.000000
-54.059583 -3.191137 5.638264 0.000000 52.000000 14.390975 9.000000
-52.343804 -3.173090 5.085343 0.000000 65.000000 14.399394 30.000000
-57.081928 -3.274609 5.386468 0.000000 64.000000 14.656425 7.000000
-52.001364 -3.824724 3.249126 0.000000 52.000000 14.237279 18.000000
-50.176416 -1.922409 8.509067 0.000000 69.000000 14.478035 2.000000
-52.844394 -3.439952 5.202733 0.000000 27.000000 14.157959 0.000000
-53.001619 -3.372008 4.105394 0.000000 73.000000 14.532818 23.000000
-52.851182 -3.244639 4.213828 0.000000 69.000000 14.611928 23.000000
-54.382093 -3.527440 4.785104 0.000000 34.000000 14.327757 23.000000
-56.565741 -3.024280 8.005854 0.000000 41.000000 14.144165 0.000000
-53.094511 -3.062744 6.075013 0.000000 47.000000 14.307867 30.000000
-54.631664 -3.577381 4.603223 0.000000 30.000000 14.351751 23.000000
-51.499451 -1.848004 9.175807 0.000000 74.000000 14.491536 10.000000
-54.864133 -3.333757 6.796524 0.000000 34.000000 14.016507 0.000000
-51.854810 -3.737091 4.405630 0.000000 38.000000 13.996636 0.000000
-55.657914 -3.788064 5.066580 0.000000 58.000000 14.119386 0.000000
-52.265751 -3.099243 4.101739 0.000000 82.000000 14.727689 23.000000
-53.349757 -3.553686 5.004508 0.000000 59.000000 14.148695 0.000000
-52.146514 -2.389505 6.577181 0.000000 50.000000 14.731083 25.000000
-54.383786 -3.822924 5.028409 0.000000 38.000000 13.979156 0.000000
-53.279332 -2.366541 9.290609 0.000000 31.000000 14.127065 0.000000
-53.762398 -3.576646 5.283493 0.000000 57.000000 14.089532 0.000000
-51.768626 -3.300019 4.698441 0.000000 59.000000 14.328958 22.000000
-54.125412 -2.351725 9.748489 0.000000 29.000000 14.095809 0.000000
-54.470788 -3.256456 4.500216 0.000000 69.000000 14.672364 23.000000
-50.845075 -2.114610 7.900276 0.000000 68.000000 14.519024 3.000000
-51.928499 -3.282261 3.920817 0.000000 78.000000 14.569917 21.000000
-51.880084 -2.495677 7.242252 0.000000 47.000000 14.425854 25.000000
-51.372308 -2.981733 6.295671 0.000000 39.000000 14.167907 0.000000
-53.125441 -3.369441 3.981862 0.000000 55.000000 14.579897 23.000000
-55.795584 -3.364804 6.461743 0.000000 63.000000 14.162416 0.000000
-56.042967 -3.369687 6.595057 0.000000 60.000000 14.144594 0.000000
-54.737027 -3.177618 5.613160 0.000000 65.000000 14.472941 9.000000
-54.378394 -3.438682 4.632267 0.000000 43.000000 14.453637 23.000000
-52.314395 -2.769626 7.645724 0.000000 41.000000 14.094555 0.000000
-54.242176 -3.796978 4.461967 0.000000 39.000000 14.143437 0.000000
-51.790707 -1.697470 8.995820 0.000000 55.000000 14.711051 10.000000
-55.267441 -3.392851 6.331362 0.000000 47.000000 14.122078 0.000000
-51.026354 -2.534183 6.399773 0.000000 68.000000 14.537182 25.000000
-56.457421 -3.640840 5.295934 0.000000 65.000000 14.272285 14.000000
-52.408542 -2.307088 8.256060 0.000000 44.000000 14.382423 12.000000
-52.302740 -3.260403 4.282924 0.000000 62.000000 14.527826 23.000000
-55.877011 -3.630248 5.871144 0.000000 38.000000 14.074329 0.000000
-52.023653 -2.562962 7.901971 0.000000 39.000000 14.197022 0.000000
-57.573208 -3.827532 5.455363 0.000000 41.000000 14.152930 0.000000
-51.710413 -2.795946 5.883947 0.000000 78.000000 14.487880 27.000000
-54.728414 -3.355223 6.780340 0.000000 40.000000 13.987811 0.000000
-52.385640 -3.802393 3.890595 0.000000 44.000000 14.121393 0.000000
-54.921566 -2.804103 8.557197 0.000000 31.000000 14.055815 0.000000
-51.897095 -3.685994 4.526551 0.000000 39.000000 14.016972 0.000000
-55.778057 -3.128742 7.261199 0.000000 45.000000 14.172006 0.000000
-50.792792 -2.359866 8.709956 0.000000 27.000000 14.061218 0.000000
-53.173752 -2.181856 9.720224 0.000000 24.000000 14.178824 0.000000
-54.564262 -3.777151 4.749929 0.000000 41.000000 14.114557 0.000000
-56.044215 -2.966014 8.038179 0.000000 44.000000 14.143405 0.000000
-55.043602 -2.698348 8.683991 0.000000 38.000000 14.134301 0.000000
-52.601527 -2.412818 9.062157 0.000000 43.000000 14.081886 0.000000
-55.134247 -3.265338 7.058416 0.000000 37.000000 14.036453 0.000000
-54.984507 -2.577890 7.826486 0.000000 46.000000 14.475094 13.000000
-55.153865 -3.092181 5.722064 0.000000 61.000000 14.563851 8.000000
-53.604353 -3.403476 5.720560 0.000000 44.000000 14.123425 0.000000
-52.774097 -3.246522 4.298119 0.000000 72.000000 14.580359 23.000000
-53.643844 -2.491758 8.101234 0.000000 65.000000 14.360548 11.000000
-51.627657 -2.487288 5.892800 0.000000 44.000000 14.773811 27.000000
-54.272833 -3.836505 4.432653 0.000000 30.000000 14.116246 0.000000
-53.921928 -3.242951 5.237131 0.000000 57.000000 14.436587 9.000000
-53.891170 -3.372500 5.908234 0.000000 42.000000 14.128979 0.000000
-54.827976 -2.577774 7.523100 0.000000 78.000000 14.542457 13.000000
-53.020972 -2.652735 7.478041 0.000000 27.000000 14.316669 24.000000
-53.647527 -2.444972 6.604384 0.000000 59.000000 14.808514 29.000000
-55.091903 -3.777301 4.892832 0.000000 39.000000 14.124446 0.000000
-52.261352 -2.371695 6.915803 0.000000 50.000000 14.667594 25.000000
-52.610650 -3.426962 5.075375 0.000000 49.000000 14.183203 0.000000
-57.027616 -3.224985 5.591165 0.000000 51.000000 14.643930 7.000000
-57.051139 -3.331267 7.133118 0.000000 52.000000 14.129288 0.000000
-52.902523 -3.418018 3.609933 0.000000 67.000000 14.612919 18.000000
-52.938437 -2.502492 7.146104 0.000000 42.000000 14.542444 24.000000
-55.014141 -2.937589 7.723632 0.000000 43.000000 14.160641 0.000000
-56.766188 -3.617633 5.623491 0.000000 39.000000 14.234768 7.000000
-53.370976 -3.634705 4.924999 0.000000 46.000000 14.094364 0.000000
-51.962356 -3.713939 4.419376 0.000000 40.000000 14.025016 0.000000
-52.064626 -2.452213 6.165797 0.000000 62.000000 14.774134 26.000000
-54.065338 -3.154764 4.596313 0.000000 76.000000 14.706743 23.000000
-54.304771 -3.322306 4.885060 0.000000 66.000000 14.490422 23.000000
-52.027534 -3.710055 4.514050 0.000000 38.000000 14.009254 0.000000
-52.276054 -3.669571 4.711198 0.000000 37.000000 14.017855 0.000000
-52.754973 -2.667702 5.372254 0.000000 77.000000 14.844502 30.000000
-52.334108 -3.424790 5.142819 0.000000 48.000000 14.141726 0.000000
-54.638631 -3.354803 6.705680 0.000000 45.000000 14.000053 0.000000
-51.996543 -2.926270 5.396159 0.000000 51.000000 14.520482 30.000000
-55.713461 -3.730618 5.398882 0.000000 49.000000 14.090149 0.000000
-53.384552 -2.893441 5.844027 0.000000 53.000000 14.558988 30.000000
-55.401015 -3.745681 5.068548 0.000000 61.000000 14.135883 0.000000
-53.501500 -3.522655 5.077078 0.000000 51.000000 14.172862 0.000000
-51.670893 -2.647409 5.941505 0.000000 72.000000 14.611167 27.000000
-56.655563 -3.820193 5.301381 0.000000 64.000000 14.117077 0.000000
-57.009213 -3.273828 5.683371 0.000000 70.000000 14.570601 7.000000
-56.455563 -2.907329 8.410405 0.000000 51.000000 14.137307 0.000000
-56.701179 -3.306335 5.445503 0.000000 66.000000 14.575136 14.000000
-52.291958 -3.796921 3.718260 0.000000 54.000000 14.164402 0.000000
-52.152783 -3.719359 4.358694 0.000000 38.000000 14.053646 0.000000
-57.123438 -3.473416 5.859456 0.000000 55.000000 14.342367 7.000000
-52.070637 -3.642157 4.663972 0.000000 41.000000 14.037969 0.000000
-51.885115 -3.411405 5.060066 0.000000 51.000000 14.135568 0.000000
-53.617831 -3.238644 4.262949 0.000000 65.000000 14.674906 23.000000
-51.645484 -2.823984 7.341841 0.000000 41.000000 14.062743 0.000000
-52.613442 -2.435558 9.258388 0.000000 23.000000 14.008378 0.000000
-55.189890 -2.047135 9.318133 0.000000 69.000000 14.601442 16.000000
-52.609022 -3.711618 4.649725 0.000000 39.000000 14.024681 0.000000
-53.287561 -2.579404 7.986239 0.000000 37.000000 14.274724 11.000000
-53.712786 -2.873120 7.710067 0.000000 30.000000 14.106518 0.000000
-56.501394 -3.477142 4.762931 0.000000 52.000000 14.576688 19.000000
-51.649600 -2.367724 8.678455 0.000000 57.000000 14.140893 0.000000
-57.054376 -3.288844 5.453455 0.000000 80.000000 14.622221 7.000000
-51.684401 -2.914624 5.345420 0.000000 59.000000 14.516618 30.000000
-51.651298 -2.214868 8.995351 0.000000 47.000000 14.202325 0.000000
-54.437591 -2.690199 8.394812 0.000000 46.000000 14.164239 0.000000
-50.355375 -1.809174 8.392045 0.000000 74.000000 14.634529 2.000000
-55.654420 -2.987390 7.851671 0.000000 41.000000 14.137278 0.000000
-53.765703 -3.770971 3.992926 0.000000 67.000000 14.250797 18.000000
-56.521585 -3.622925 6.208874 0.000000 38.000000 14.049703 0.000000
-56.322067 -3.664001 6.099713 0.000000 40.000000 14.021362 0.000000
-50.708930 -2.497241 7.790553 0.000000 41.000000 14.169200 0.000000
-55.375543 -3.241571 7.268900 0.000000 40.000000 14.024775 0.000000
-55.684258 -3.733881 5.755771 0.000000 42.000000 13.988306 0.000000
-54.177740 -3.208034 4.712812 0.000000 51.000000 14.634653 23.000000
-53.077064 -2.959457 6.607915 0.000000 50.000000 14.261895 29.000000
-52.017247 -3.809927 3.681546 0.000000 51.000000 14.136569 0.000000
-51.389749 -2.546192 6.045207 0.000000 69.000000 14.654468 27.000000
-51.160131 -2.797703 6.309037 0.000000 34.000000 14.321247 27.000000
-51.815754 -3.488232 4.637754 0.000000 32.000000 14.169174 0.000000
-56.595750 -3.793626 5.918514 0.000000 42.000000 13.970993 0.000000
-55.152616 -3.154825 6.015249 0.000000 52.000000 14.424788 8.000000
-56.268998 -3.708111 5.744997 0.000000 38.000000 14.069643 0.000000
-56.020283 -3.702533 5.629018 0.000000 56.000000 14.083344 0.000000
-52.984093 -2.294931 8.374746 0.000000 60.000000 14.415030 12.000000
-53.824467 -2.412322 6.734029 0.000000 60.000000 14.821190 29.000000
-55.014769 -3.734143 5.083950 0.000000 44.000000 14.107309 0.000000
-55.666892 -2.657906 7.284303 0.000000 35.000000 14.606976 6.000000
-50.669814 -2.394167 8.522768 0.000000 41.000000 14.067401 0.000000
-54.419462 -2.866254 6.346146 0.000000 59.000000 14.545040 9.000000
-54.553110 -2.389371 9.271352 0.000000 38.000000 14.227406 1.000000
-52.086215 -2.846311 5.911076 0.000000 56.000000 14.466827 26.000000
-51.825213 -3.182175 5.906811 0.000000 40.000000 14.121990 0.000000
-54.295910 -2.800963 5.887922 0.000000 64.000000 14.719582 9.000000
-52.035206 -3.444450 4.978119 0.000000 55.000000 14.139729 0.000000
-52.135078 -3.601726 4.709086 0.000000 40.000000 14.070513 0.000000
-54.430114 -3.020985 5.901106 0.000000 67.000000 14.517426 9.000000
-54.684662 -2.366537 9.970581 0.000000 32.000000 14.073238 0.000000
-52.193630 -3.807407 3.737252 0.000000 57.000000 14.140203 0.000000
-52.456357 -3.806381 3.915179 0.000000 44.000000 14.117453 0.000000
-51.641055 -3.135557 4.574473 0.000000 67.000000 14.508267 22.000000
-54.194232 -3.841466 4.441943 0.000000 44.000000 14.101768 0.000000
-54.544686 -3.312559 6.797605 0.000000 43.000000 14.007185 0.000000
-54.220764 -2.489180 8.949241 0.000000 42.000000 14.187851 0.000000
-53.656314 -2.322303 6.081662 0.000000 2.000000 15.067581 29.000000
-54.633541 -3.862459 4.457941 0.000000 63.000000 14.117705 0.000000
-51.258185 -2.575428 6.852476 0.000000 68.000000 14.397129 25.000000
-53.900092 -2.862466 7.707678 0.000000 26.000000 14.134586 0.000000
-55.343272 -3.938605 4.489269 0.000000 57.000000 14.101489 0.000000
-52.182880 -2.570545 6.297247 0.000000 47.000000 14.636182 26.000000
-52.185766 -3.044147 4.742955 0.000000 77.000000 14.600622 22.000000
-56.728170 -3.180898 7.731567 0.000000 41.000000 14.082742 0.000000
-55.627814 -2.877451 8.195499 0.000000 44.000000 14.147717 0.000000
-52.310393 -3.724857 4.602902 0.000000 45.000000 13.997146 0.000000
-52.210772 -3.506273 4.664371 0.000000 56.000000 14.181014 0.000000
-52.333318 -3.433986 5.191809 0.000000 51.000000 14.119655 0.000000
-52.611174 -3.232824 6.248236 0.000000 43.000000 14.053783 0.000000
-52.545623 -3.298145 3.935730 0.000000 68.000000 14.607384 23.000000
-56.270952 -2.361841 9.304311 0.000000 66.000000 14.402784 17.000000
-52.792424 -2.893364 7.035720 0.000000 58.000000 14.183990 0.000000
-53.120199 -2.927528 7.711193 0.000000 35.000000 13.999599 0.000000
-55.666495 -3.283298 7.073162 0.000000 33.000000 14.064175 0.000000
-51.336793 -2.826539 7.318198 0.000000 32.000000 14.038290 0.000000
-55.894607 -2.404629 7.146071 0.000000 48.000000 14.907919 6.000000
-55.551762 -2.897382 8.142440 0.000000 36.000000 14.135898 0.000000
-52.167036 -2.562595 8.178417 0.000000 39.000000 14.136163 0.000000
-56.277407 -2.360519 9.090386 0.000000 46.000000 14.462208 17.000000
-54.549592 -2.544521 8.774582 0.000000 44.000000 14.212008 0.000000
-53.725301 -2.476373 9.157853 0.000000 45.000000 14.098468 0.000000
-54.696458 -3.232558 7.043418 0.000000 42.000000 14.031687 0.000000
-54.063447 -2.366002 9.785725 0.000000 43.000000 14.066408 0.000000
-52.710942 -2.449873 9.202723 0.000000 37.000000 14.018591 0.000000
-54.126416 -2.260979 9.934580 0.000000 46.000000 14.132828 0.000000
-52.044010 -2.582882 6.773140 0.000000 63.000000 14.483540 25.000000
-53.094712 -3.041119 6.013753 0.000000 21.000000 14.345102 30.000000
-55.874535 -3.336029 5.217496 0.000000 73.000000 14.532060 14.000000
-50.955879 -2.264978 8.713140 0.000000 33.000000 14.166319 0.000000
-53.635068 -2.799570 8.166075 0.000000 31.000000 14.047188 0.000000
-52.952206 -3.339825 3.437698 0.000000 34.000000 14.738795 18.000000
-53.313784 -3.607467 4.003893 0.000000 74.000000 14.363074 23.000000
-52.924267 -3.384431 3.890910 0.000000 73.000000 14.571513 23.000000
-53.981504 -2.584778 8.538618 0.000000 42.000000 14.184704 0.000000
-54.189896 -3.649705 5.325817 0.000000 40.000000 14.047382 0.000000
-52.703058 -3.155595 5.190127 0.000000 59.000000 14.420984 30.000000
-56.054010 -3.894501 4.688917 0.000000 25.000000 14.155361 0.000000
-53.187291 -2.240187 8.106009 0.000000 70.000000 14.558498 11.000000
-51.686570 -2.683462 6.499012 0.000000 58.000000 14.428029 25.000000
-53.964867 -3.077824 5.107310 0.000000 56.000000 14.633776 9.000000
-55.119789 -3.373854 6.032454 0.000000 60.000000 14.207153 8.000000
-55.623558 -2.941849 8.695252 0.000000 38.000000 13.951113 0.000000
-54.024579 -2.752804 6.944079 0.000000 52.000000 14.456630 29.000000
-57.029284 -3.518984 6.399476 0.000000 45.000000 14.144719 0.000000
-50.429945 -1.646209 8.711022 0.000000 59.000000 14.711789 2.000000
-56.549342 -3.312510 7.009370 0.000000 42.000000 14.134459 0.000000
-55.540291 -2.664497 7.326147 0.000000 82.000000 14.577764 6.000000
-55.026758 -2.247961 9.929569 0.000000 45.000000 14.229390 4.000000
-57.210757 -3.493797 5.397710 0.000000 59.000000 14.455097 7.000000
-52.800975 -2.896429 7.523821 0.000000 49.000000 14.050499 0.000000
-57.074638 -3.342506 5.626898 0.000000 79.000000 14.525966 7.000000
-56.496746 -3.669704 4.748309 0.000000 68.000000 14.395581 19.000000
-52.057719 -2.577998 6.544888 0.000000 60.000000 14.550900 25.000000
-53.525653 -2.848005 7.039338 0.000000 26.000000 14.293880 29.000000
-54.226931 -3.245023 4.861695 0.000000 63.000000 14.563650 23.000000
-52.403054 -3.136982 4.885330 0.000000 66.000000 14.493276 22.000000
-52.055236 -2.364690 6.829431 0.000000 73.000000 14.678611 25.000000
-51.395864 -2.440979 5.966723 0.000000 53.000000 14.777018 27.000000
-56.187226 -2.927572 7.908318 0.000000 41.000000 14.228344 6.000000
-53.823065 -3.200633 4.484912 0.000000 76.000000 14.670481 23.000000
-52.355484 -2.854389 5.461538 0.000000 52.000000 14.604787 30.000000
-51.635501 -3.703359 4.377698 0.000000 45.000000 14.016339 0.000000
-56.308980 -2.779200 8.651274 0.000000 27.000000 14.181865 0.000000
