2.926756 -7.591420 31.833181 0.000000 53.000000 14.559029 0.000000
4.093589 -9.297093 32.152833 0.000000 40.000000 14.632936 30.000000
3.904235 -6.996475 32.266125 0.000000 63.000000 14.782607 20.000000
5.218900 -8.117438 32.421932 0.000000 45.000000 14.665866 25.000000
8.446062 -7.022749 33.061636 0.000000 80.000000 14.631084 16.000000
3.003609 -7.556117 31.745833 0.000000 48.000000 14.457793 0.000000
7.928553 -11.049823 33.080167 0.000000 68.000000 14.755209 2.000000
6.510520 -5.318304 32.652155 0.000000 47.000000 14.626684 0.000000
7.508372 -5.999200 32.854438 0.000000 40.000000 14.620318 0.000000
8.043811 -5.858082 33.186660 0.000000 38.000000 14.835840 15.000000
5.141876 -9.356937 32.073377 0.000000 23.000000 14.340474 0.000000
5.919580 -8.516111 33.072301 0.000000 40.000000 15.158950 10.000000
8.463197 -5.089344 33.200709 0.000000 49.000000 14.763700 5.000000
8.298266 -10.616978 32.950168 0.000000 45.000000 14.552248 2.000000
5.121908 -6.237570 32.785983 0.000000 46.000000 15.042065 17.000000
5.659693 -9.713105 32.879097 0.000000 85.000000 15.023066 4.000000
5.211661 -8.107007 32.524787 0.000000 40.000000 14.768024 25.000000
2.900998 -8.307623 32.252323 0.000000 76.000000 14.974562 26.000000
6.917867 -8.208101 32.429764 0.000000 28.000000 14.325582 0.000000
2.558305 -5.779904 32.389807 0.000000 39.000000 15.179315 7.000000
2.853553 -7.028578 31.767607 0.000000 58.000000 14.509837 20.000000
8.314070 -6.621149 33.195263 0.000000 55.000000 14.788911 16.000000
4.834909 -8.946433 32.185312 0.000000 45.000000 14.512904 0.000000
6.026704 -5.101748 32.569233 0.000000 53.000000 14.644606 0.000000
4.209023 -9.349910 32.281266 0.000000 64.000000 14.735006 30.000000
4.380894 -8.684361 31.995483 0.000000 35.000000 14.420081 0.000000
6.725248 -8.710560 32.986163 0.000000 76.000000 14.909636 10.000000
5.783744 -7.872428 32.929891 0.000000 47.000000 15.047378 24.000000
4.917156 -9.300180 32.219875 0.000000 55.000000 14.529890 0.000000
4.805491 -9.397132 32.194713 0.000000 45.000000 14.528130 0.000000
4.178381 -6.623459 32.314337 0.000000 59.000000 14.773651 19.000000
7.215041 -5.623884 33.012515 0.000000 60.000000 14.835119 15.000000
8.198057 -9.030216 32.958671 0.000000 40.000000 14.581093 0.000000
7.062478 -9.941968 32.726547 0.000000 44.000000 14.586458 0.000000
3.563697 -7.797682 31.809830 0.000000 21.000000 14.405726 0.000000
5.516743 -8.045344 32.671102 0.000000 67.000000 14.848756 24.000000
6.807200 -7.671209 33.430157 0.000000 43.000000 15.327435 23.000000
8.596437 -8.054199 33.246853 0.000000 52.000000 14.781578 22.000000
3.682637 -8.047094 32.648297 0.000000 73.000000 15.202062 26.000000
5.260287 -6.291108 32.740537 0.000000 73.000000 14.969242 17.000000
2.870201 -8.980246 31.807381 0.000000 51.000000 14.545358 0.000000
7.868233 -7.347548 32.959542 0.000000 39.000000 14.649494 0.000000
3.455547 -7.791146 32.188233 0.000000 69.000000 14.798258 26.000000
4.197561 -7.820638 32.493490 0.000000 60.000000 14.945079 25.000000
5.117193 -6.917645 32.847355 0.000000 69.000000 15.103102 9.000000
3.218042 -10.540606 32.020472 0.000000 74.000000 14.682694 21.000000
5.869769 -5.052440 32.482353 0.000000 49.000000 14.591708 0.000000
8.407745 -5.259095 33.053428 0.000000 53.000000 14.630898 5.000000
3.290103 -10.047906 31.912942 0.000000 61.000000 14.562685 27.000000
3.407969 -10.477701 31.893071 0.000000 61.000000 14.519096 0.000000
4.707001 -11.284271 32.221912 0.000000 48.000000 14.574924 0.000000
3.577070 -10.602988 31.886063 0.000000 38.000000 14.477605 0.000000
4.883709 -5.859815 32.594073 0.000000 71.000000 14.903006 13.000000
4.515133 -7.144963 32.708432 0.000000 70.000000 15.090426 9.000000
5.465611 -5.679834 33.116455 0.000000 71.000000 15.295141 13.000000
7.122391 -7.439356 33.126332 0.000000 47.000000 14.965498 23.000000
7.741255 -6.113684 32.803787 0.000000 35.000000 14.523046 0.000000
5.493778 -9.592912 32.776853 0.000000 76.000000 14.956969 4.000000
7.334124 -6.045761 32.723028 0.000000 46.000000 14.527380 0.000000
8.609452 -7.216815 33.272826 0.000000 48.000000 14.804335 16.000000
8.274829 -8.116170 33.114522 0.000000 64.000000 14.717918 22.000000
3.863633 -5.900430 32.016642 0.000000 40.000000 14.546727 0.000000
8.009355 -8.411385 33.266674 0.000000 70.000000 14.921214 11.000000
7.599391 -5.803786 33.093715 0.000000 63.000000 14.835883 15.000000
4.971185 -8.431231 32.815175 0.000000 58.000000 15.101506 10.000000
3.734466 -7.288988 32.053804 0.000000 43.000000 14.609555 20.000000
7.385726 -4.999153 33.066651 0.000000 65.000000 14.853151 6.000000
7.667153 -6.508979 32.820801 0.000000 58.000000 14.554875 0.000000
5.600915 -8.224564 32.626968 0.000000 50.000000 14.788319 10.000000
3.142535 -6.963149 32.274704 0.000000 74.000000 14.947001 20.000000
7.152076 -9.518509 32.667614 0.000000 40.000000 14.510424 0.000000
7.561966 -10.105711 32.826259 0.000000 48.000000 14.581760 0.000000
5.066720 -5.424531 32.768419 0.000000 60.000000 15.036176 13.000000
6.346633 -6.275331 32.886816 0.000000 37.000000 14.889935 29.000000
3.296446 -10.386432 31.860875 0.000000 65.000000 14.510423 0.000000
4.860516 -8.277519 32.557315 0.000000 68.000000 14.871777 10.000000
5.568358 -5.910744 32.379336 0.000000 53.000000 14.552604 13.000000
5.880656 -6.854782 32.542829 0.000000 53.000000 14.648672 0.000000
4.483708 -8.498804 32.527450 0.000000 73.000000 14.919716 10.000000
6.474473 -5.131310 32.310570 0.000000 31.000000 14.299722 0.000000
7.813184 -10.541394 32.705078 0.000000 33.000000 14.411698 0.000000
4.116630 -10.716297 31.953640 0.000000 47.000000 14.433247 0.000000
2.664468 -7.662305 31.795443 0.000000 51.000000 14.575807 0.000000
4.090713 -7.594767 32.666239 0.000000 64.000000 15.136049 25.000000
8.338525 -7.637733 33.672260 0.000000 30.000000 15.250789 22.000000
7.875438 -6.303196 32.912249 0.000000 53.000000 14.601728 0.000000
4.146310 -10.155306 32.257568 0.000000 57.000000 14.724654 27.000000
7.871123 -7.773681 33.431258 0.000000 46.000000 15.110620 22.000000
3.300427 -8.172183 32.189766 0.000000 66.000000 14.831527 26.000000
4.850767 -9.155479 32.188549 0.000000 44.000000 14.512824 0.000000
5.219890 -8.252324 32.463636 0.000000 59.000000 14.706484 10.000000
7.794347 -7.812542 33.360579 0.000000 68.000000 15.057163 22.000000
5.370684 -8.537075 32.959927 0.000000 68.000000 15.161372 10.000000
8.413804 -8.911873 33.664396 0.000000 77.000000 15.227674 11.000000
5.260722 -5.481851 32.900924 0.000000 59.000000 15.126140 13.000000
3.290479 -8.827746 32.119570 0.000000 58.000000 14.764856 26.000000
7.456622 -9.804173 32.514265 0.000000 26.000000 14.297954 0.000000
6.327503 -7.697189 33.085556 0.000000 64.000000 15.088381 23.000000
8.356421 -5.710588 33.289397 0.000000 59.000000 14.872376 15.000000
2.995745 -7.543116 31.815870 0.000000 49.000000 14.527955 0.000000
5.471251 -5.128530 32.602737 0.000000 50.000000 14.791157 8.000000
6.571446 -5.393820 32.779301 0.000000 50.000000 14.738657 15.000000
8.500553 -10.817458 33.611287 0.000000 75.000000 15.157925 2.000000
4.999636 -7.432237 32.378047 0.000000 59.000000 14.667817 9.000000
7.400405 -7.648538 33.141741 0.000000 66.000000 14.923643 23.000000
5.143643 -8.394616 32.765891 0.000000 73.000000 15.017947 10.000000
2.922397 -7.527870 31.778986 0.000000 50.000000 14.506875 0.000000
5.667915 -5.723316 33.018411 0.000000 61.000000 15.157743 13.000000
7.277769 -9.173721 32.879710 0.000000 43.000000 14.692282 12.000000
8.458341 -8.062682 33.301431 0.000000 67.000000 14.863282 22.000000
2.864551 -10.791526 31.801285 0.000000 53.000000 14.540548 21.000000
5.153008 -9.140332 32.263824 0.000000 39.000000 14.524604 0.000000
4.853857 -10.125118 32.348693 0.000000 47.000000 14.668941 27.000000
7.763882 -8.066750 33.156100 0.000000 38.000000 14.863257 22.000000
4.040620 -8.177171 32.173528 0.000000 32.000000 14.664041 26.000000
5.806756 -5.845741 32.790801 0.000000 60.000000 14.906523 13.000000
5.264381 -7.150539 32.733454 0.000000 43.000000 14.961471 9.000000
7.966790 -8.060569 33.216175 0.000000 74.000000 14.880503 22.000000
8.102718 -6.572628 33.257751 0.000000 47.000000 14.893360 16.000000
7.835799 -7.979153 33.259344 0.000000 70.000000 14.949584 22.000000
3.318894 -8.487855 32.354689 0.000000 55.000000 14.989172 26.000000
7.893081 -9.769708 32.911538 0.000000 34.000000 14.597419 0.000000
7.788274 -9.847556 32.862388 0.000000 29.000000 14.570775 0.000000
6.734513 -7.878524 33.255092 0.000000 41.000000 15.170967 23.000000
7.463203 -10.078799 32.772210 0.000000 43.000000 14.549084 0.000000
5.682774 -9.126289 32.570146 0.000000 54.000000 14.715937 4.000000
4.668050 -8.856919 32.437311 0.000000 45.000000 14.793734 10.000000
6.309743 -8.037131 32.553796 0.000000 43.000000 14.571529 23.000000
4.537774 -7.052259 32.957449 0.000000 73.000000 15.329528 9.000000
8.080175 -8.793313 33.367036 0.000000 37.000000 15.004945 11.000000
6.793838 -7.483121 33.119864 0.000000 63.000000 15.026455 23.000000
7.937361 -5.214838 32.898362 0.000000 26.000000 14.575454 0.000000
5.269096 -8.700969 32.863660 0.000000 70.000000 15.087951 10.000000
5.483053 -10.245355 32.222384 0.000000 27.000000 14.416449 0.000000
3.083068 -7.050766 32.176041 0.000000 38.000000 14.862608 20.000000
4.177678 -8.175933 32.131566 0.000000 62.000000 14.594899 0.000000
7.544448 -5.535294 33.045485 0.000000 35.000000 14.799927 15.000000
4.052645 -7.000881 32.540573 0.000000 42.000000 15.020843 20.000000
7.287428 -8.479909 32.995609 0.000000 60.000000 14.803746 12.000000
7.597493 -10.697865 32.852839 0.000000 59.000000 14.600501 1.000000
7.640381 -10.018858 32.778752 0.000000 46.000000 14.519201 0.000000
3.750476 -8.401327 32.526947 0.000000 51.000000 15.069390 26.000000
5.109770 -7.872667 32.713339 0.000000 65.000000 14.973446 25.000000
3.929303 -6.409154 32.111524 0.000000 52.000000 14.626149 19.000000
8.419597 -7.006441 33.553182 0.000000 72.000000 15.117631 16.000000
3.209682 -8.810089 32.441783 0.000000 42.000000 15.096787 26.000000
6.834670 -5.830738 32.753546 0.000000 53.000000 14.659540 15.000000
3.264241 -9.766747 31.976111 0.000000 44.000000 14.629812 0.000000
4.945436 -7.490191 32.497547 0.000000 67.000000 14.795884 25.000000
6.868454 -8.989766 32.606424 0.000000 34.000000 14.508617 0.000000
8.061447 -10.390867 33.126592 0.000000 56.000000 14.773433 2.000000
5.430581 -9.330232 32.810300 0.000000 35.000000 15.002650 4.000000
5.506265 -8.014889 32.699962 0.000000 61.000000 14.879150 24.000000
6.364965 -6.449192 32.560524 0.000000 54.000000 14.566805 29.000000
7.383935 -7.211348 32.628453 0.000000 40.000000 14.424608 0.000000
5.480526 -6.944440 32.374760 0.000000 44.000000 14.566113 0.000000
5.758090 -11.064393 32.163429 0.000000 37.000000 14.302416 0.000000
8.312062 -6.916635 33.050408 0.000000 33.000000 14.647537 0.000000
5.789539 -8.853383 32.538729 0.000000 55.000000 14.663320 10.000000
5.242365 -9.128830 32.320120 0.000000 39.000000 14.561407 0.000000
6.807478 -9.118949 32.608651 0.000000 38.000000 14.523285 0.000000
3.649702 -9.922349 32.127973 0.000000 51.000000 14.699512 27.000000
4.372462 -6.227979 32.211192 0.000000 59.000000 14.632945 0.000000
5.299420 -8.317033 32.876406 0.000000 80.000000 15.094217 10.000000
7.950691 -8.147328 32.914871 0.000000 56.000000 14.588883 22.000000
6.232225 -5.234949 32.471114 0.000000 30.000000 14.506476 0.000000
6.362839 -8.035671 32.726808 0.000000 62.000000 14.730000 23.000000
6.169856 -9.518128 32.717001 0.000000 66.000000 14.759924 4.000000
6.118641 -6.601219 32.959716 0.000000 67.000000 15.007983 18.000000
4.826488 -6.724023 32.525969 0.000000 61.000000 14.848064 9.000000
6.863005 -9.298995 32.608984 0.000000 38.000000 14.512239 0.000000
7.232630 -9.984852 32.816782 0.000000 45.000000 14.639933 0.000000
7.014512 -10.135242 32.757251 0.000000 44.000000 14.626334 0.000000
4.763593 -11.267439 32.274126 0.000000 60.000000 14.614441 0.000000
7.475159 -8.510815 33.189425 0.000000 62.000000 14.955007 12.000000
7.461022 -8.732914 32.906636 0.000000 64.000000 14.681107 12.000000
2.863532 -8.927578 31.769284 0.000000 46.000000 14.509434 0.000000
4.198426 -8.165358 32.102468 0.000000 53.000000 14.562168 0.000000
7.234247 -5.787283 32.899953 0.000000 64.000000 14.721009 15.000000
6.298743 -7.977300 32.567698 0.000000 39.000000 14.587390 23.000000
8.509630 -8.977482 33.633882 0.000000 43.000000 15.178182 11.000000
8.013840 -5.535770 33.321552 0.000000 43.000000 14.974010 15.000000
4.632227 -7.724336 32.735068 0.000000 44.000000 15.092516 25.000000
8.685383 -6.265488 33.414591 0.000000 45.000000 14.927545 16.000000
8.204014 -6.058549 33.401018 0.000000 46.000000 15.012844 16.000000
8.289723 -9.949463 33.332205 0.000000 73.000000 14.927936 3.000000
7.638302 -5.795047 33.081981 0.000000 61.000000 14.816428 15.000000
8.687379 -5.425742 33.104090 0.000000 29.000000 14.623216 0.000000
2.843866 -7.007358 32.293389 0.000000 63.000000 15.026458 20.000000
6.299469 -7.448927 32.548077 0.000000 56.000000 14.568036 23.000000
3.513927 -7.427091 31.886662 0.000000 29.000000 14.491123 0.000000
7.964617 -9.812803 32.863356 0.000000 46.000000 14.535608 3.000000
6.243098 -9.429338 32.681417 0.000000 64.000000 14.710094 4.000000
6.775284 -9.105052 32.587813 0.000000 36.000000 14.509482 0.000000
6.921004 -9.126201 32.713182 0.000000 32.000000 14.602350 0.000000
6.881855 -9.344601 32.609836 0.000000 37.000000 14.509212 0.000000
6.282000 -6.716594 32.642876 0.000000 62.000000 14.664403 18.000000
8.179531 -9.757071 33.009579 0.000000 40.000000 14.634717 0.000000
7.860738 -9.697588 32.604954 0.000000 24.000000 14.303957 0.000000
4.905473 -9.057755 32.244078 0.000000 48.000000 14.555972 0.000000
8.677365 -7.288474 33.122930 0.000000 59.000000 14.643708 16.000000
8.370004 -8.270557 33.258572 0.000000 73.000000 14.839423 22.000000
4.745287 -11.270084 32.206599 0.000000 48.000000 14.552094 0.000000
6.024779 -8.214887 32.768856 0.000000 65.000000 14.840392 10.000000
4.735020 -5.824795 32.784301 0.000000 72.000000 15.119654 13.000000
2.939810 -11.191537 31.557388 0.000000 42.000000 14.286408 0.000000
4.822513 -7.782967 32.810255 0.000000 65.000000 15.127139 25.000000
3.870605 -5.764851 32.400038 0.000000 66.000000 14.920569 14.000000
7.221483 -6.024530 32.728088 0.000000 42.000000 14.555401 0.000000
6.927733 -6.875436 32.979741 0.000000 66.000000 14.861881 18.000000
4.836418 -5.628335 32.784857 0.000000 76.000000 15.099431 13.000000
4.681765 -7.014795 32.814181 0.000000 45.000000 15.159807 9.000000
7.997647 -10.680508 33.387527 0.000000 73.000000 15.041903 2.000000
8.515010 -8.738004 33.812064 0.000000 66.000000 15.351485 11.000000
5.503476 -7.037071 32.323759 0.000000 42.000000 14.511493 0.000000
3.101700 -9.668779 31.832223 0.000000 45.000000 14.522262 0.000000
3.886041 -10.568838 31.903579 0.000000 48.000000 14.431472 0.000000
8.598318 -7.001401 33.628745 0.000000 58.000000 15.154990 16.000000
4.847611 -9.348315 32.184354 0.000000 33.000000 14.509364 0.000000
4.437768 -5.075147 32.608361 0.000000 45.000000 15.008320 8.000000
3.147799 -5.205353 31.944922 0.000000 46.000000 14.623131 0.000000
3.853534 -6.680288 32.062947 0.000000 44.000000 14.594119 0.000000
3.689099 -11.085745 31.977813 0.000000 55.000000 14.544466 0.000000
6.621147 -10.751880 33.045691 0.000000 78.000000 14.989222 1.000000
3.360097 -9.208213 32.034312 0.000000 43.000000 14.667148 28.000000
4.390054 -10.976295 31.955939 0.000000 38.000000 14.379499 0.000000
4.621484 -5.657544 32.783760 0.000000 76.000000 15.142376 13.000000
8.000112 -5.196191 32.884233 0.000000 24.000000 14.548773 0.000000
3.372595 -10.903008 31.903573 0.000000 51.000000 14.536620 21.000000
7.831740 -6.379741 32.942272 0.000000 39.000000 14.640064 0.000000
2.915770 -8.931442 31.801692 0.000000 53.000000 14.530457 0.000000
6.819314 -5.087585 32.912037 0.000000 68.000000 14.817816 6.000000
6.663772 -11.008492 32.944122 0.000000 73.000000 14.881076 1.000000
8.543118 -8.735446 33.816510 0.000000 67.000000 15.350080 11.000000
3.410901 -10.454628 31.882856 0.000000 54.000000 14.508497 0.000000
7.145167 -11.003815 33.219623 0.000000 70.000000 15.052147 1.000000
4.694039 -8.946495 32.072274 0.000000 36.000000 14.431112 0.000000
6.358395 -9.070401 32.499910 0.000000 43.000000 14.508821 0.000000
8.236365 -5.360746 33.049093 0.000000 56.000000 14.661753 15.000000
7.607797 -9.996517 32.797633 0.000000 47.000000 14.544355 0.000000
6.471760 -6.526235 32.707063 0.000000 34.000000 14.688366 29.000000
2.995274 -7.917732 31.907018 0.000000 30.000000 14.617268 0.000000
2.744589 -7.659091 31.878841 0.000000 52.000000 14.641029 0.000000
8.527296 -10.835945 33.514320 0.000000 49.000000 15.057536 2.000000
4.348468 -11.219086 32.043585 0.000000 45.000000 14.473804 0.000000
7.431734 -5.125220 33.021330 0.000000 48.000000 14.799368 6.000000
6.856469 -10.069754 32.656846 0.000000 45.000000 14.560425 0.000000
6.969585 -10.112228 32.689186 0.000000 41.000000 14.568913 0.000000
7.081480 -10.161144 32.780748 0.000000 53.000000 14.635618 0.000000
5.685241 -10.193079 32.252207 0.000000 34.000000 14.404232 0.000000
6.417071 -7.389769 32.589619 0.000000 55.000000 14.584612 23.000000
7.941237 -10.299453 33.176435 0.000000 71.000000 14.846839 3.000000
7.785130 -6.161900 32.818793 0.000000 39.000000 14.528748 0.000000
2.973323 -11.089118 31.598649 0.000000 37.000000 14.319931 0.000000
5.731775 -8.355569 32.934162 0.000000 63.000000 15.062201 10.000000
7.537741 -8.827013 32.898581 0.000000 46.000000 14.657511 12.000000
6.978920 -9.936000 32.669893 0.000000 34.000000 14.548117 0.000000
6.877107 -10.014431 32.612039 0.000000 37.000000 14.512341 0.000000
8.646728 -10.359892 33.314763 0.000000 52.000000 14.837749 2.000000
6.240089 -10.469655 32.492847 0.000000 34.000000 14.526137 0.000000
2.836736 -5.648677 32.597242 0.000000 12.000000 15.325330 7.000000
8.389716 -10.065805 33.168456 0.000000 61.000000 14.747180 3.000000
7.885127 -6.303932 32.870380 0.000000 39.000000 14.558762 0.000000
8.196911 -10.144060 33.330324 0.000000 62.000000 14.945103 3.000000
4.106552 -9.123947 32.230118 0.000000 49.000000 14.705928 30.000000
5.370421 -10.644685 32.369996 0.000000 50.000000 14.583999 0.000000
5.570524 -11.067168 32.108946 0.000000 34.000000 14.287501 0.000000
5.966948 -8.213885 32.825582 0.000000 67.000000 14.907759 10.000000
6.729650 -5.328786 32.692570 0.000000 39.000000 14.621364 0.000000
7.809156 -6.282569 32.909586 0.000000 45.000000 14.612696 0.000000
6.743083 -10.499434 32.584769 0.000000 37.000000 14.513097 1.000000
6.771648 -8.308717 32.594493 0.000000 38.000000 14.516765 0.000000
6.272485 -8.885531 32.510468 0.000000 38.000000 14.536750 0.000000
7.724414 -6.750357 32.818561 0.000000 29.000000 14.540956 18.000000
5.658139 -9.338999 32.934519 0.000000 55.000000 15.077632 4.000000
6.633216 -7.768882 33.174599 0.000000 51.000000 15.112926 23.000000
3.322581 -8.806556 32.033006 0.000000 49.000000 14.673553 26.000000
3.213549 -10.913973 31.860861 0.000000 39.000000 14.527386 0.000000
5.948461 -5.043811 32.550607 0.000000 47.000000 14.642399 0.000000
4.031699 -10.255677 32.008560 0.000000 58.000000 14.504397 27.000000
4.060091 -9.994262 32.293550 0.000000 69.000000 14.777531 27.000000
7.750460 -6.115895 32.803521 0.000000 37.000000 14.520900 0.000000
7.069113 -8.545267 32.755803 0.000000 68.000000 14.613735 12.000000
6.886946 -10.970527 32.888890 0.000000 56.000000 14.781309 1.000000
5.980434 -7.736157 32.844868 0.000000 44.000000 14.923875 24.000000
8.284384 -6.574366 33.300576 0.000000 72.000000 14.898071 16.000000
8.301904 -9.239291 33.084021 0.000000 85.000000 14.682518 11.000000
7.177746 -10.036721 32.742143 0.000000 38.000000 14.578116 0.000000
3.114119 -8.654593 32.036256 0.000000 49.000000 14.719427 26.000000
7.000434 -7.515023 33.246367 0.000000 64.000000 15.107966 23.000000
8.382005 -11.166853 32.719057 0.000000 41.000000 14.308886 0.000000
3.710921 -10.749522 32.007713 0.000000 55.000000 14.569263 21.000000
6.168191 -8.405675 32.997222 0.000000 69.000000 15.034546 10.000000
3.706148 -11.116419 32.010675 0.000000 59.000000 14.573140 0.000000
4.377733 -5.403682 32.419133 0.000000 59.000000 14.835399 13.000000
6.374093 -7.666096 33.059698 0.000000 70.000000 15.053529 23.000000
3.420235 -8.597835 32.745973 0.000000 66.000000 15.351408 26.000000
3.220483 -8.844741 31.958979 0.000000 56.000000 14.622004 0.000000
4.284078 -11.153687 31.953584 0.000000 47.000000 14.398898 0.000000
4.926400 -8.078078 32.627928 0.000000 64.000000 14.927400 25.000000
7.795317 -10.943890 32.964439 0.000000 48.000000 14.669221 2.000000
5.765030 -5.930866 32.812217 0.000000 54.000000 14.936031 13.000000
3.820091 -7.036915 32.420908 0.000000 64.000000 14.951342 20.000000
4.560800 -5.874249 32.514817 0.000000 63.000000 14.891562 13.000000
7.976922 -8.524291 32.926682 0.000000 77.000000 14.595071 11.000000
3.663598 -8.294339 32.599200 0.000000 68.000000 15.157905 26.000000
6.307354 -7.309793 32.627027 0.000000 38.000000 14.643697 18.000000
3.378608 -8.406282 32.646609 0.000000 47.000000 15.262675 26.000000
6.593060 -10.469102 32.584338 0.000000 53.000000 14.543400 1.000000
4.276925 -9.041786 32.029557 0.000000 46.000000 14.474726 0.000000
8.583708 -9.490187 33.113121 0.000000 29.000000 14.653288 11.000000
7.785108 -5.732761 33.246569 0.000000 64.000000 14.947461 15.000000
3.947015 -7.965348 32.572167 0.000000 40.000000 15.073400 26.000000
8.475699 -7.087424 33.078450 0.000000 83.000000 14.641472 16.000000
7.050217 -10.179370 32.753315 0.000000 46.000000 14.615169 0.000000
3.776569 -10.760912 32.062828 0.000000 62.000000 14.609765 21.000000
4.431016 -7.029152 32.434220 0.000000 72.000000 14.839253 9.000000
4.036548 -7.619816 32.535798 0.000000 73.000000 15.019466 25.000000
2.669318 -7.633361 31.809943 0.000000 46.000000 14.589007 0.000000
7.408057 -6.318933 32.980093 0.000000 62.000000 14.763854 29.000000
4.788109 -5.047514 32.554927 0.000000 62.000000 14.884269 8.000000
6.398742 -6.620232 32.794304 0.000000 60.000000 14.788712 18.000000
5.313777 -5.055688 32.468813 0.000000 43.000000 14.692323 8.000000
3.712074 -8.364944 32.447613 0.000000 72.000000 14.999603 26.000000
5.064698 -5.753081 32.572143 0.000000 60.000000 14.844474 13.000000
6.998197 -9.200798 32.640910 0.000000 58.000000 14.515801 12.000000
4.380320 -7.039978 32.745315 0.000000 79.000000 15.154137 9.000000
7.547833 -10.136157 32.809668 0.000000 51.000000 14.568415 0.000000
5.831493 -7.711190 32.844077 0.000000 58.000000 14.953604 24.000000
2.742151 -7.703691 31.740000 0.000000 47.000000 14.505630 0.000000
2.667911 -7.816248 31.748142 0.000000 42.000000 14.528804 0.000000
6.574096 -6.337660 32.783055 0.000000 40.000000 14.741789 29.000000
6.231065 -7.750686 32.818731 0.000000 59.000000 14.846962 23.000000
5.841688 -10.716269 32.292786 0.000000 36.000000 14.411910 0.000000
4.217893 -10.909017 31.972828 0.000000 42.000000 14.431289 0.000000
4.065176 -10.187895 32.144549 0.000000 55.000000 14.630647 27.000000
6.893418 -8.716722 32.729196 0.000000 44.000000 14.623674 12.000000
4.427900 -11.195481 32.011951 0.000000 25.000000 14.426573 0.000000
5.110975 -6.919762 32.797097 0.000000 35.000000 15.055182 9.000000
8.023143 -6.787239 33.052646 0.000000 45.000000 14.708899 16.000000
4.299756 -9.014402 32.111456 0.000000 39.000000 14.550213 0.000000
3.987372 -5.812032 31.915207 0.000000 32.000000 14.422101 0.000000
6.192597 -5.055598 32.554461 0.000000 45.000000 14.596172 0.000000
6.397712 -5.269664 32.559333 0.000000 30.000000 14.558933 0.000000
6.957052 -6.523902 32.689555 0.000000 38.000000 14.571841 0.000000
6.350828 -8.974716 32.524921 0.000000 45.000000 14.534852 0.000000
5.489316 -10.859454 32.396828 0.000000 41.000000 14.585913 0.000000
8.288483 -9.276624 33.399644 0.000000 69.000000 14.994200 11.000000
5.564660 -6.987972 32.329558 0.000000 39.000000 14.504638 0.000000
5.995572 -8.481584 33.017510 0.000000 77.000000 15.089757 10.000000
5.404596 -6.345868 32.878730 0.000000 64.000000 15.074951 17.000000
8.542756 -5.113048 33.095267 0.000000 60.000000 14.644199 5.000000
4.764166 -9.071547 32.195719 0.000000 39.000000 14.537578 0.000000
5.391324 -8.806893 32.835348 0.000000 67.000000 15.035207 10.000000
4.601355 -9.273163 32.127109 0.000000 36.000000 14.503766 0.000000
7.292579 -8.638556 33.229987 0.000000 69.000000 15.032102 12.000000
6.533298 -10.643122 32.747259 0.000000 52.000000 14.715107 1.000000
5.855406 -9.433872 32.944814 0.000000 64.000000 15.047308 4.000000
8.285187 -7.871199 33.318605 0.000000 63.000000 14.915554 22.000000
8.378239 -8.066549 33.446339 0.000000 48.000000 15.021523 22.000000
5.852577 -5.005083 32.422192 0.000000 38.000000 14.536343 0.000000
3.758359 -7.932179 32.531026 0.000000 70.000000 15.071768 26.000000
7.717135 -6.493546 32.788595 0.000000 34.000000 14.513116 0.000000
4.665606 -9.034800 32.053904 0.000000 40.000000 14.418955 0.000000
4.174664 -8.170698 32.116614 0.000000 50.000000 14.580881 0.000000
6.965281 -7.606509 33.368849 0.000000 70.000000 15.235051 23.000000
5.964886 -10.839328 32.670834 0.000000 51.000000 14.756714 1.000000
7.542893 -9.981176 32.745195 0.000000 35.000000 14.506321 0.000000
3.650968 -7.659191 32.217960 0.000000 64.000000 14.787332 26.000000
7.787415 -7.912416 33.445493 0.000000 77.000000 15.141697 22.000000
3.734304 -9.812552 31.825866 0.000000 28.000000 14.386482 0.000000
4.502869 -6.495431 32.230603 0.000000 46.000000 14.625237 0.000000
7.863770 -5.112728 33.033351 0.000000 48.000000 14.722653 6.000000
8.596640 -10.937961 33.478720 0.000000 75.000000 15.008489 2.000000
2.677094 -9.124803 31.802094 0.000000 51.000000 14.579732 0.000000
3.386917 -9.998953 31.947547 0.000000 31.000000 14.576729 27.000000
5.604597 -5.222180 32.441721 0.000000 26.000000 14.606245 0.000000
7.712695 -7.317953 32.807901 0.000000 25.000000 14.532922 0.000000
6.932483 -9.313455 32.643780 0.000000 26.000000 14.532068 0.000000
6.460202 -7.161940 32.931287 0.000000 51.000000 14.910205 18.000000
8.204645 -6.422901 33.219337 0.000000 75.000000 14.834885 16.000000
4.570900 -11.269197 32.207164 0.000000 37.000000 14.588362 0.000000
5.752851 -8.197916 32.752071 0.000000 46.000000 14.879654 10.000000
4.819181 -9.377492 32.173072 0.000000 28.000000 14.504144 0.000000
7.028469 -10.139845 32.720433 0.000000 41.000000 14.587438 0.000000
3.101429 -7.084819 32.296289 0.000000 43.000000 14.976547 20.000000
4.406033 -10.845924 32.023757 0.000000 41.000000 14.442607 0.000000
7.335546 -5.402883 32.805526 0.000000 55.000000 14.607838 15.000000
6.750198 -9.936864 32.427716 0.000000 36.000000 14.357916 0.000000
8.362543 -6.267595 33.711167 0.000000 57.000000 15.283952 16.000000
6.291968 -7.583656 32.720197 0.000000 77.000000 14.738044 23.000000
3.889132 -8.118453 32.539555 0.000000 41.000000 15.053334 26.000000
7.633641 -8.357643 32.932977 0.000000 41.000000 14.671537 23.000000
4.368780 -10.237269 32.005310 0.000000 51.000000 14.432181 0.000000
4.794382 -6.593630 33.305278 0.000000 4.000000 15.617430 17.000000
8.351265 -8.742631 33.525585 0.000000 72.000000 15.104614 11.000000
7.289725 -5.853227 32.663082 0.000000 41.000000 14.477797 0.000000
5.992399 -6.360123 32.452354 0.000000 38.000000 14.537230 0.000000
6.181634 -7.984521 32.812815 0.000000 52.000000 14.851295 23.000000
6.835564 -11.168123 32.681941 0.000000 40.000000 14.589269 1.000000
4.633111 -7.072268 32.745420 0.000000 52.000000 15.102468 9.000000
5.243587 -10.808545 32.370544 0.000000 40.000000 14.610512 0.000000
3.703663 -11.064825 31.992691 0.000000 53.000000 14.556046 0.000000
5.980617 -8.471875 33.038986 0.000000 75.000000 15.113840 10.000000
8.412140 -8.321403 33.258359 0.000000 59.000000 14.830585 11.000000
3.183433 -8.083772 32.351300 0.000000 59.000000 15.013598 26.000000
3.649755 -8.850415 31.979667 0.000000 59.000000 14.554339 26.000000
7.273037 -10.802479 33.262468 0.000000 40.000000 15.067896 1.000000
5.905655 -8.974847 32.791159 0.000000 79.000000 14.886619 4.000000
3.293695 -9.612895 31.873665 0.000000 39.000000 14.523505 0.000000
7.908765 -8.666472 33.237336 0.000000 70.000000 14.913099 11.000000
5.281327 -5.946911 32.343750 0.000000 44.000000 14.576556 0.000000
6.486554 -5.980883 32.672273 0.000000 32.000000 14.651284 0.000000
5.270549 -9.085204 32.789617 0.000000 82.000000 15.015180 4.000000
6.425715 -8.404583 32.817053 0.000000 75.000000 14.805455 10.000000
7.289839 -8.134180 32.943656 0.000000 39.000000 14.752401 23.000000
4.176618 -7.829570 32.534931 0.000000 41.000000 14.989931 25.000000
4.147782 -6.084168 32.478343 0.000000 69.000000 14.940448 19.000000
3.680058 -7.843595 32.194804 0.000000 67.000000 14.758709 26.000000
3.626399 -5.187520 32.101824 0.000000 71.000000 14.678690 14.000000
7.450836 -9.993251 32.802008 0.000000 38.000000 14.580783 0.000000
6.988456 -10.595043 32.769999 0.000000 58.000000 14.644148 1.000000
2.939882 -5.668200 32.042718 0.000000 47.000000 14.761436 7.000000
8.173005 -7.717576 33.357508 0.000000 41.000000 14.976607 22.000000
8.691676 -7.502408 33.396075 0.000000 75.000000 14.908132 22.000000
5.491167 -8.322372 32.823351 0.000000 82.000000 15.003016 10.000000
7.594663 -9.920669 32.805786 0.000000 33.000000 14.555025 0.000000
8.582954 -9.387724 33.650859 0.000000 68.000000 15.179782 11.000000
4.191406 -11.258889 32.046717 0.000000 38.000000 14.509036 0.000000
6.181845 -10.737151 32.515943 0.000000 37.000000 14.560672 1.000000
5.293949 -5.950955 32.340075 0.000000 42.000000 14.570374 0.000000
5.439544 -6.535534 32.649964 0.000000 63.000000 14.843877 17.000000
8.179233 -6.479640 33.356094 0.000000 44.000000 14.973948 16.000000
6.213537 -8.916743 32.582180 0.000000 42.000000 14.619015 0.000000
4.402028 -7.307574 32.238878 0.000000 78.000000 14.653989 9.000000
5.509926 -10.887941 32.383675 0.000000 44.000000 14.568818 0.000000
4.694369 -6.976446 32.805601 0.000000 56.000000 15.148828 9.000000
2.874528 -7.699545 31.768746 0.000000 36.000000 14.506656 0.000000
4.435728 -5.901190 32.264081 0.000000 48.000000 14.671756 13.000000
5.875085 -5.852864 32.800609 0.000000 67.000000 14.902129 13.000000
3.851967 -6.137452 32.305768 0.000000 51.000000 14.832114 19.000000
4.118704 -7.966986 32.291490 0.000000 58.000000 14.763511 26.000000
3.087125 -6.071330 31.853024 0.000000 37.000000 14.545607 0.000000
6.278226 -9.288476 32.600594 0.000000 40.000000 14.623790 4.000000
4.485889 -6.207615 32.170606 0.000000 39.000000 14.569989 0.000000
5.300576 -8.009501 32.633818 0.000000 51.000000 14.856534 25.000000
6.965805 -9.974735 32.756797 0.000000 35.000000 14.635865 0.000000
3.750348 -7.798741 32.370236 0.000000 48.000000 14.916027 26.000000
4.093724 -7.860015 32.276138 0.000000 57.000000 14.753600 25.000000
4.798705 -6.131457 32.563635 0.000000 43.000000 14.890622 17.000000
7.899471 -8.316172 33.251906 0.000000 39.000000 14.929264 11.000000
7.066325 -6.475934 32.693661 0.000000 48.000000 14.553481 29.000000
3.761185 -10.967209 31.951729 0.000000 47.000000 14.504172 0.000000
3.592457 -5.249929 31.929525 0.000000 39.000000 14.516994 0.000000
4.904637 -9.040485 32.254829 0.000000 39.000000 14.566667 0.000000
5.734698 -8.224190 32.870848 0.000000 71.000000 14.999631 10.000000
5.542732 -8.084591 32.625330 0.000000 44.000000 14.798632 24.000000
6.450075 -6.081040 32.740866 0.000000 41.000000 14.725894 29.000000
3.499042 -7.754836 32.001304 0.000000 37.000000 14.606383 0.000000
4.237495 -8.055174 32.180981 0.000000 46.000000 14.631016 0.000000
4.675016 -7.393363 32.244698 0.000000 36.000000 14.603777 9.000000
4.867963 -8.564267 32.915436 0.000000 52.000000 15.220782 10.000000
7.174414 -10.117435 32.734286 0.000000 32.000000 14.571108 0.000000
7.310277 -6.759560 32.894760 0.000000 45.000000 14.700356 18.000000
5.921058 -5.845303 32.598827 0.000000 65.000000 14.695209 13.000000
5.400707 -9.199897 32.527295 0.000000 79.000000 14.731762 4.000000
3.170629 -6.340543 32.619728 0.000000 43.000000 15.278958 19.000000
6.468884 -9.138479 32.435895 0.000000 38.000000 14.423535 0.000000
7.246763 -8.641401 33.259230 0.000000 51.000000 15.070108 12.000000
7.421506 -5.281224 32.908705 0.000000 42.000000 14.691225 15.000000
2.802447 -8.169821 32.160529 0.000000 75.000000 14.904897 26.000000
4.796266 -6.981368 32.817586 0.000000 52.000000 15.139690 9.000000
4.791654 -10.859144 32.070667 0.000000 40.000000 14.409547 0.000000
3.113349 -6.989637 32.283630 0.000000 76.000000 14.961715 20.000000
8.704077 -10.355366 33.357705 0.000000 51.000000 14.868036 2.000000
2.726567 -7.527253 31.794581 0.000000 45.000000 14.562246 0.000000
7.995577 -9.317061 32.699072 0.000000 19.000000 14.368465 0.000000
3.388619 -8.805721 32.033467 0.000000 38.000000 14.660479 26.000000
2.911841 -7.094538 32.398908 0.000000 50.000000 15.115819 20.000000
4.133033 -10.378957 32.045678 0.000000 37.000000 14.519974 0.000000
4.567323 -10.779073 32.031708 0.000000 25.000000 14.417357 0.000000
7.160071 -5.897030 32.757464 0.000000 44.000000 14.596732 15.000000
4.180387 -8.558059 32.603334 0.000000 38.000000 15.056112 26.000000
4.183543 -6.709504 32.155668 0.000000 44.000000 14.617288 0.000000
5.896817 -5.837545 32.706131 0.000000 61.000000 14.805203 13.000000
3.089657 -6.705805 31.898095 0.000000 32.000000 14.589204 0.000000
4.007610 -11.025150 31.799371 0.000000 37.000000 14.304575 0.000000
2.696553 -7.662341 31.863591 0.000000 42.000000 14.635940 0.000000
5.552135 -5.940799 32.871606 0.000000 57.000000 15.037762 13.000000
8.648281 -8.368696 33.316234 0.000000 66.000000 14.838871 11.000000
8.501973 -7.145634 33.103696 0.000000 76.000000 14.660802 16.000000
7.657252 -5.619257 33.100519 0.000000 51.000000 14.830692 15.000000
2.817499 -6.908726 31.942806 0.000000 76.000000 14.688706 20.000000
2.823315 -7.315841 31.817639 0.000000 53.000000 14.565001 20.000000
3.334467 -5.660720 32.572124 0.000000 66.000000 15.198809 7.000000
8.459440 -8.001762 33.249653 0.000000 57.000000 14.812376 22.000000
6.322045 -8.575539 33.030936 0.000000 74.000000 15.036036 10.000000
5.368142 -10.891376 32.367025 0.000000 37.000000 14.581558 0.000000
7.529870 -7.537839 33.110434 0.000000 35.000000 14.866485 23.000000
3.361712 -5.269668 32.010182 0.000000 26.000000 14.643198 0.000000
7.089829 -8.579387 33.119925 0.000000 73.000000 14.965896 12.000000
3.082869 -10.385143 31.855224 0.000000 41.000000 14.548632 0.000000
4.088024 -9.282277 32.040135 0.000000 66.000000 14.523767 30.000000
6.245472 -8.978926 32.539726 0.000000 35.000000 14.570920 0.000000
4.628139 -8.806085 32.626169 0.000000 52.000000 14.986763 10.000000
3.593682 -5.520131 32.297468 0.000000 66.000000 14.876887 14.000000
3.868620 -6.665073 32.058170 0.000000 37.000000 14.586354 0.000000
5.454312 -7.170658 32.415260 0.000000 32.000000 14.611123 0.000000
7.882730 -8.524884 33.454448 0.000000 66.000000 15.130941 11.000000
3.547533 -11.041256 31.990560 0.000000 53.000000 14.585936 21.000000
5.120211 -5.094206 32.551830 0.000000 38.000000 14.813223 8.000000
5.540554 -10.692446 32.363784 0.000000 32.000000 14.543076 0.000000
8.091888 -10.138843 33.500536 0.000000 50.000000 15.133216 3.000000
7.866887 -10.245812 33.037846 0.000000 59.000000 14.726414 3.000000
8.549553 -8.468957 33.109701 0.000000 50.000000 14.656935 11.000000
8.606972 -6.927745 33.590237 0.000000 71.000000 15.115526 16.000000
3.976036 -5.767002 32.486973 0.000000 63.000000 14.984069 14.000000
3.829337 -6.435963 32.031969 0.000000 46.000000 14.568753 19.000000
3.667266 -11.056412 31.996124 0.000000 40.000000 14.566860 0.000000
4.717166 -10.096034 32.653517 0.000000 77.000000 14.995298 27.000000
7.558527 -10.767277 32.864036 0.000000 55.000000 14.619441 1.000000
6.336637 -7.529517 32.965527 0.000000 71.000000 14.969025 23.000000
6.693098 -10.862049 33.037702 0.000000 57.000000 14.966667 1.000000
3.240833 -9.577546 31.847709 0.000000 34.000000 14.508925 0.000000
4.402634 -8.599535 32.504771 0.000000 70.000000 14.914122 10.000000
8.192126 -9.922870 33.080478 0.000000 54.000000 14.701533 3.000000
6.128462 -5.668735 32.997166 0.000000 45.000000 15.042628 15.000000
3.880288 -6.744430 32.072827 0.000000 29.000000 14.598310 0.000000
4.378849 -5.487976 32.400414 0.000000 52.000000 14.816848 13.000000
3.646364 -8.400655 32.565086 0.000000 65.000000 15.128043 26.000000
6.595628 -10.942914 33.105783 0.000000 72.000000 15.053267 1.000000
2.824534 -7.680411 31.786318 0.000000 38.000000 14.534094 0.000000
3.730879 -8.483503 32.652442 0.000000 69.000000 15.196239 26.000000
4.366230 -8.471872 32.193691 0.000000 26.000000 14.617091 0.000000
4.824021 -9.294967 32.178113 0.000000 22.000000 14.508087 0.000000
3.572504 -8.163743 32.432145 0.000000 91.000000 15.013047 26.000000
4.508959 -10.149833 32.414733 0.000000 44.000000 14.804217 27.000000
3.727611 -11.086842 31.951710 0.000000 41.000000 14.511029 0.000000
4.015257 -8.700477 32.269719 0.000000 72.000000 14.763387 26.000000
4.076423 -9.276934 32.338092 0.000000 61.000000 14.817784 30.000000
4.017075 -9.879486 32.175593 0.000000 58.000000 14.670884 27.000000
5.794454 -5.892391 32.981161 0.000000 52.000000 15.095368 13.000000
5.999277 -8.941847 32.697323 0.000000 50.000000 14.775598 4.000000
7.916727 -7.741822 33.169753 0.000000 58.000000 14.845318 22.000000
5.950517 -8.557596 33.131227 0.000000 68.000000 15.210291 10.000000
5.458213 -11.273872 32.230936 0.000000 37.000000 14.429907 0.000000
2.764388 -7.600674 31.774547 0.000000 32.000000 14.534890 0.000000
5.309948 -5.742501 32.927765 0.000000 46.000000 15.142331 13.000000
8.076886 -8.485546 33.111877 0.000000 62.000000 14.755868 11.000000
5.645100 -7.373981 32.557008 0.000000 55.000000 14.710793 24.000000
8.372427 -6.414389 33.281641 0.000000 57.000000 14.861506 16.000000
3.264972 -5.709935 32.209022 0.000000 49.000000 14.857636 7.000000
6.018122 -9.007758 32.676698 0.000000 65.000000 14.751551 4.000000
3.145391 -8.901751 31.889313 0.000000 41.000000 14.569194 0.000000
4.367874 -8.977449 32.095304 0.000000 27.000000 14.520453 0.000000
6.923278 -11.112259 32.808289 0.000000 35.000000 14.694975 1.000000
3.558309 -8.479750 32.528417 0.000000 56.000000 15.110185 26.000000
3.818759 -8.100882 32.799007 0.000000 49.000000 15.321699 26.000000
2.769821 -10.140960 31.670700 0.000000 30.000000 14.432132 0.000000
4.866073 -8.742447 32.721023 0.000000 46.000000 15.030877 10.000000
6.446033 -6.339031 32.564496 0.000000 47.000000 14.554090 29.000000
5.446240 -9.142433 32.366647 0.000000 64.000000 14.565194 4.000000
4.175735 -10.224828 32.093402 0.000000 56.000000 14.557941 27.000000
4.512541 -5.424183 32.579600 0.000000 63.000000 14.964855 13.000000
4.869388 -7.514323 32.676685 0.000000 66.000000 14.986800 25.000000
8.273254 -11.068264 33.451336 0.000000 45.000000 15.047915 2.000000
8.414345 -7.739872 33.481825 0.000000 81.000000 15.048862 22.000000
5.204124 -9.988219 32.002085 0.000000 38.000000 14.257945 0.000000
8.061156 -10.956102 33.374120 0.000000 59.000000 15.015774 2.000000
3.946735 -10.028766 31.846690 0.000000 51.000000 14.363358 0.000000
5.203124 -7.433957 32.550231 0.000000 54.000000 14.794677 9.000000
7.168339 -8.619519 33.136313 0.000000 75.000000 14.965858 12.000000
8.185122 -10.791217 33.364018 0.000000 75.000000 14.980498 2.000000
5.036350 -7.621121 32.734723 0.000000 72.000000 15.009414 25.000000
4.258061 -9.148225 32.261070 0.000000 56.000000 14.705195 30.000000
8.311664 -5.865903 33.141935 0.000000 53.000000 14.737206 15.000000
7.778747 -10.052825 33.445556 0.000000 53.000000 15.143533 3.000000
7.469097 -10.558696 32.638772 0.000000 44.000000 14.417267 0.000000
8.393241 -11.068786 33.448437 0.000000 76.000000 15.020504 2.000000
8.381791 -9.212109 33.030756 0.000000 63.000000 14.614022 11.000000
3.389684 -5.973065 32.106560 0.000000 38.000000 14.731805 19.000000
4.729708 -8.738708 32.786379 0.000000 72.000000 15.122776 10.000000
8.219272 -9.910100 32.803386 0.000000 49.000000 14.424755 0.000000
8.632246 -10.547588 33.422442 0.000000 50.000000 14.946112 2.000000
7.972339 -7.702576 33.043548 0.000000 55.000000 14.710399 22.000000
3.360927 -8.647733 32.659252 0.000000 50.000000 15.278671 26.000000
6.149845 -10.991239 32.292666 0.000000 56.000000 14.348682 0.000000
6.822627 -11.231267 32.291757 0.000000 27.000000 14.210005 0.000000
5.434815 -8.274735 32.719568 0.000000 65.000000 14.912974 10.000000
4.644110 -6.732311 32.577274 0.000000 54.000000 14.935633 9.000000
8.003829 -11.048233 33.217985 0.000000 72.000000 14.874689 2.000000
8.222131 -5.090549 33.112615 0.000000 69.000000 14.726844 5.000000
5.937610 -9.978279 32.322564 0.000000 50.000000 14.421412 0.000000
6.146939 -10.661596 33.022286 0.000000 35.000000 15.063431 1.000000
3.545116 -6.475139 32.082685 0.000000 43.000000 14.676603 19.000000
8.443211 -7.724667 33.585048 0.000000 47.000000 15.143986 22.000000
4.285203 -5.317427 32.302556 0.000000 51.000000 14.740243 8.000000
7.143648 -9.824760 32.547369 0.000000 54.000000 14.394454 0.000000
4.742234 -7.997399 32.587206 0.000000 70.000000 14.925259 25.000000
7.276336 -11.011537 33.214942 0.000000 53.000000 15.020702 1.000000
4.573047 -6.264290 32.624015 0.000000 77.000000 14.995937 17.000000
3.946999 -10.299761 31.899789 0.000000 40.000000 14.415278 0.000000
4.510866 -7.095451 32.783874 0.000000 64.000000 15.165143 9.000000
8.361649 -9.188656 32.924462 0.000000 63.000000 14.514106 11.000000
5.757465 -11.107474 32.133566 0.000000 35.000000 14.273314 0.000000
8.433707 -7.081850 33.444457 0.000000 70.000000 15.008321 16.000000
5.272038 -9.350555 32.147483 0.000000 54.000000 14.386352 0.000000
5.281766 -7.135732 32.766959 0.000000 70.000000 14.990705 9.000000
4.416575 -9.491675 31.925972 0.000000 51.000000 14.344736 0.000000
5.386233 -5.528155 32.903832 0.000000 47.000000 15.103282 13.000000
7.181714 -7.594099 33.272105 0.000000 38.000000 15.096032 23.000000
5.973648 -9.591840 32.914905 0.000000 50.000000 14.993817 4.000000
6.804626 -6.710712 32.829683 0.000000 55.000000 14.740216 18.000000
7.031637 -10.156884 32.513588 0.000000 28.000000 14.384329 0.000000
3.455729 -10.722436 31.980164 0.000000 73.000000 14.594562 21.000000
7.435517 -10.774485 32.966012 0.000000 58.000000 14.744448 1.000000
4.242421 -9.371481 32.090941 0.000000 52.000000 14.541875 30.000000
4.187147 -9.402654 32.112978 0.000000 34.000000 14.574765 30.000000
8.556467 -6.887369 33.179725 0.000000 62.000000 14.724059 16.000000
3.385688 -10.613270 31.889764 0.000000 54.000000 14.520422 21.000000
3.095602 -10.305802 31.775374 0.000000 42.000000 14.467867 0.000000
8.467959 -10.129049 33.284565 0.000000 70.000000 14.844803 3.000000
6.829917 -7.854979 33.307469 0.000000 61.000000 15.202695 23.000000
7.176429 -8.749614 32.634959 0.000000 54.000000 14.473473 0.000000
8.756365 -9.308820 32.835692 0.000000 56.000000 14.346379 0.000000
5.491875 -9.181690 32.736374 0.000000 60.000000 14.917738 4.000000
5.371071 -6.433011 32.787069 0.000000 68.000000 14.992099 17.000000
7.946632 -5.870347 32.823609 0.000000 53.000000 14.500386 0.000000
4.082674 -5.477083 32.379380 0.000000 46.000000 14.856917 14.000000
7.149479 -7.518095 32.996462 0.000000 58.000000 14.832833 23.000000
3.674611 -11.235491 31.698030 0.000000 40.000000 14.273581 0.000000
3.451007 -8.959039 31.791844 0.000000 44.000000 14.411201 0.000000
3.029169 -5.082294 31.702947 0.000000 33.000000 14.410581 0.000000
7.270938 -10.670104 32.924695 0.000000 59.000000 14.737713 1.000000
7.457990 -8.726331 32.848560 0.000000 37.000000 14.624883 12.000000
4.182297 -5.100566 32.195974 0.000000 46.000000 14.656995 8.000000
7.117996 -10.331373 32.586221 0.000000 44.000000 14.437736 0.000000
5.220725 -8.294696 32.703876 0.000000 72.000000 14.941460 10.000000
4.383624 -10.983259 31.959645 0.000000 52.000000 14.384444 0.000000
8.325497 -7.794487 33.386861 0.000000 72.000000 14.974107 22.000000
6.712630 -10.746047 33.014095 0.000000 50.000000 14.939560 1.000000
7.169372 -8.855206 33.032069 0.000000 55.000000 14.863612 12.000000
4.863191 -6.947112 32.752839 0.000000 53.000000 15.062609 9.000000
8.150286 -9.354512 32.699553 0.000000 42.000000 14.337251 0.000000
5.591888 -9.695118 32.831810 0.000000 68.000000 14.990668 4.000000
5.624430 -9.758501 32.197504 0.000000 35.000000 14.363142 0.000000
4.895386 -9.804359 32.168710 0.000000 47.000000 14.484268 0.000000
6.178118 -10.622648 32.337650 0.000000 44.000000 14.386922 0.000000
5.769477 -8.966980 32.890324 0.000000 59.000000 15.011571 4.000000
3.686918 -6.802728 32.196339 0.000000 48.000000 14.758807 19.000000
2.780672 -5.896226 31.881017 0.000000 49.000000 14.635769 7.000000
6.403070 -8.307066 32.554500 0.000000 41.000000 14.553105 10.000000
7.444093 -5.927014 32.752388 0.000000 58.000000 14.533596 15.000000
7.364597 -8.408529 32.908918 0.000000 59.000000 14.703089 12.000000
5.941554 -8.419052 33.071507 0.000000 69.000000 15.153672 10.000000
7.584114 -10.917612 32.982401 0.000000 38.000000 14.730057 1.000000
3.171298 -5.418203 31.739099 0.000000 48.000000 14.416858 0.000000
5.855598 -10.793438 32.299515 0.000000 44.000000 14.415648 0.000000
2.705694 -9.009727 31.713651 0.000000 48.000000 14.487306 0.000000
4.337635 -9.485849 31.900816 0.000000 52.000000 14.336280 0.000000
7.680530 -5.585064 33.147196 0.000000 69.000000 14.871613 15.000000
7.613193 -6.886737 32.890783 0.000000 55.000000 14.634425 18.000000
6.546480 -10.373061 32.413953 0.000000 31.000000 14.386166 0.000000
5.565607 -6.333853 32.670395 0.000000 61.000000 14.838057 17.000000
5.453884 -5.748488 32.972305 0.000000 75.000000 15.156448 13.000000
3.889330 -10.988734 31.904520 0.000000 55.000000 14.431719 0.000000
6.087179 -7.668055 32.662919 0.000000 46.000000 14.723921 24.000000
3.711513 -6.557843 31.934471 0.000000 51.000000 14.497452 0.000000
7.988680 -6.866938 32.691409 0.000000 27.000000 14.362377 0.000000
3.609035 -10.597200 32.045097 0.000000 71.000000 14.626721 21.000000
8.628270 -10.900959 33.537970 0.000000 74.000000 15.060005 2.000000
6.574819 -5.390277 32.761105 0.000000 55.000000 14.720156 15.000000
4.887300 -10.306034 32.090728 0.000000 37.000000 14.409595 0.000000
4.608868 -5.088122 32.592599 0.000000 53.000000 14.957851 8.000000
5.812857 -8.910387 32.658928 0.000000 66.000000 14.776196 4.000000
7.324519 -7.477063 32.995204 0.000000 70.000000 14.795754 23.000000
7.461565 -5.515073 33.086280 0.000000 45.000000 14.856832 15.000000
6.429398 -5.861981 32.932245 0.000000 47.000000 14.917451 15.000000
5.544405 -11.078504 32.120149 0.000000 34.000000 14.303816 0.000000
7.692204 -8.070603 33.081402 0.000000 77.000000 14.804822 23.000000
2.770081 -8.828595 31.967197 0.000000 78.000000 14.722291 26.000000
5.824703 -8.481371 33.080345 0.000000 74.000000 15.186254 10.000000
4.741215 -10.020506 32.476043 0.000000 57.000000 14.816661 27.000000
6.944875 -10.972252 32.928342 0.000000 54.000000 14.808060 1.000000
8.134869 -7.623075 33.269792 0.000000 42.000000 14.898561 22.000000
6.449907 -7.675773 33.228478 0.000000 71.000000 15.203205 23.000000
7.811821 -8.133191 32.971399 0.000000 60.000000 14.672653 22.000000
6.001005 -7.434724 32.587383 0.000000 53.000000 14.667634 24.000000
6.380519 -6.997412 33.390347 0.000000 74.000000 15.375853 18.000000
2.830594 -10.706191 31.911953 0.000000 56.000000 14.655825 21.000000
3.441850 -9.600623 31.835115 0.000000 51.000000 14.455430 0.000000
3.983081 -9.774510 31.896722 0.000000 52.000000 14.404886 0.000000
5.356756 -9.366331 32.572415 0.000000 45.000000 14.784927 4.000000
5.841114 -10.512488 32.254948 0.000000 40.000000 14.374992 0.000000
8.072364 -10.039232 33.542210 0.000000 70.000000 15.178006 3.000000
6.493722 -10.893559 32.517908 0.000000 57.000000 14.498723 0.000000
3.195532 -10.540797 32.069176 0.000000 61.000000 14.734976 21.000000
4.390986 -8.866695 31.985883 0.000000 24.000000 14.408618 0.000000
5.673064 -9.713725 32.514518 0.000000 43.000000 14.663477 4.000000
3.020097 -5.960092 31.778428 0.000000 48.000000 14.486320 0.000000
8.220541 -10.505880 32.751401 0.000000 33.000000 14.373612 0.000000
6.916566 -8.066812 32.408187 0.000000 27.000000 14.304729 0.000000
6.021934 -9.472569 33.076480 0.000000 67.000000 15.142078 4.000000
6.477958 -10.666307 32.482673 0.000000 50.000000 14.467463 0.000000
3.885010 -9.415437 31.852067 0.000000 33.000000 14.381263 0.000000
3.161894 -9.229006 32.105070 0.000000 47.000000 14.776998 28.000000
8.655935 -5.064627 33.263951 0.000000 43.000000 14.786129 5.000000
5.522147 -9.459126 32.718167 0.000000 68.000000 14.893717 4.000000
7.198674 -11.192548 32.742561 0.000000 44.000000 14.574239 1.000000
