-18.640927 1.864620 -24.306195 0.000000 62.000000 14.853168 24.000000
-18.176797 2.166701 -23.313166 0.000000 43.000000 14.653778 27.000000
-14.075103 1.796365 -26.144001 0.000000 49.000000 14.607792 0.000000
-14.568507 2.401389 -22.383698 0.000000 32.000000 14.440693 0.000000
-17.735285 2.079795 -24.597626 0.000000 57.000000 14.585505 0.000000
-15.365683 1.924152 -22.851656 0.000000 60.000000 14.880849 28.000000
-15.094429 1.904890 -22.446649 0.000000 43.000000 14.939137 23.000000
-15.184493 2.440350 -23.405320 0.000000 28.000000 14.301631 0.000000
-18.768188 1.863461 -26.260252 0.000000 47.000000 14.637795 0.000000
-17.209351 1.594047 -23.822332 0.000000 51.000000 15.142839 25.000000
-17.147808 1.782604 -22.473682 0.000000 70.000000 15.105582 21.000000
-16.102236 1.939514 -23.495961 0.000000 55.000000 14.810433 20.000000
-14.280560 2.263897 -23.413626 0.000000 26.000000 14.454854 0.000000
-14.371496 2.247523 -23.481146 0.000000 24.000000 14.465661 0.000000
-14.468643 2.251124 -23.559461 0.000000 25.000000 14.455558 0.000000
-15.898291 1.811096 -25.815661 0.000000 51.000000 14.672663 0.000000
-14.665609 2.250791 -23.701356 0.000000 29.000000 14.444554 0.000000
-17.028178 2.031678 -23.036947 0.000000 64.000000 14.792085 27.000000
-15.884123 1.848045 -25.719593 0.000000 43.000000 14.646418 0.000000
-16.838819 1.405113 -25.968915 0.000000 40.000000 15.080738 17.000000
-16.194650 2.239187 -24.408312 0.000000 28.000000 14.412415 0.000000
-17.376703 1.560472 -28.649196 0.000000 53.000000 14.637904 1.000000
-17.994751 2.231999 -24.831012 0.000000 48.000000 14.414156 0.000000
-15.744211 1.903126 -22.889218 0.000000 70.000000 14.906366 28.000000
-15.540824 1.691600 -24.120889 0.000000 60.000000 14.973387 13.000000
-17.868780 2.246558 -24.692688 0.000000 29.000000 14.412286 0.000000
-18.738631 1.849721 -26.251409 0.000000 73.000000 14.651747 0.000000
-15.186670 1.968965 -22.798255 0.000000 41.000000 14.838145 28.000000
-18.165515 2.258695 -24.708122 0.000000 31.000000 14.405433 0.000000
-16.182970 1.162290 -26.720139 0.000000 49.000000 15.222240 14.000000
-18.813155 1.620124 -25.025662 0.000000 28.000000 15.019258 8.000000
-17.309557 1.821758 -23.073996 0.000000 55.000000 15.003035 27.000000
-19.620018 1.695219 -23.488151 0.000000 45.000000 15.136230 15.000000
-14.246185 1.889727 -24.498834 0.000000 32.000000 14.703848 6.000000
-14.497686 1.344177 -26.573529 0.000000 58.000000 15.018624 12.000000
-19.210505 2.276817 -24.666088 0.000000 37.000000 14.416582 0.000000
-19.365379 2.290375 -24.654432 0.000000 43.000000 14.408043 0.000000
-19.504802 2.263344 -24.618458 0.000000 36.000000 14.442196 0.000000
-19.663225 2.288452 -24.607852 0.000000 40.000000 14.422149 0.000000
-16.548020 1.734144 -26.319998 0.000000 57.000000 14.707644 14.000000
-18.541380 1.799177 -24.098648 0.000000 49.000000 14.939165 24.000000
-14.843532 2.450517 -21.947542 0.000000 30.000000 14.447312 0.000000
-14.222055 1.649161 -22.616810 0.000000 63.000000 15.153668 23.000000
-15.745186 1.763429 -23.117039 0.000000 49.000000 15.019572 28.000000
-17.891347 1.785233 -23.169575 0.000000 53.000000 15.042183 27.000000
-14.564786 2.390765 -22.329272 0.000000 26.000000 14.457273 0.000000
-17.124837 2.226781 -22.888553 0.000000 34.000000 14.617199 0.000000
-15.251429 1.698354 -24.063925 0.000000 70.000000 14.966311 13.000000
-15.415708 2.442901 -23.454564 0.000000 30.000000 14.298971 0.000000
-14.121485 2.352611 -23.292472 0.000000 20.000000 14.376616 0.000000
-14.081332 2.260945 -23.363905 0.000000 27.000000 14.458714 0.000000
-14.002721 2.228432 -23.690256 0.000000 25.000000 14.452515 0.000000
-16.575693 1.718884 -23.428744 0.000000 54.000000 15.048225 27.000000
-19.484537 1.979748 -23.108812 0.000000 23.000000 14.893024 15.000000
-13.969656 2.193039 -23.905262 0.000000 25.000000 14.462750 0.000000
-15.700606 2.234776 -22.706725 0.000000 44.000000 14.596386 28.000000
-13.955930 2.160361 -24.467254 0.000000 21.000000 14.431763 0.000000
-16.012320 1.815327 -22.145156 0.000000 56.000000 15.083433 22.000000
-17.509512 1.657473 -24.123272 0.000000 58.000000 15.053044 25.000000
-18.698432 1.773828 -24.724946 0.000000 45.000000 14.897666 8.000000
-15.311799 2.061961 -25.406422 0.000000 37.000000 14.455714 0.000000
-14.100527 2.043097 -25.198559 0.000000 24.000000 14.469485 0.000000
-15.626272 1.856898 -23.004932 0.000000 70.000000 14.936533 28.000000
-15.635077 1.691598 -22.570367 0.000000 40.000000 15.149762 28.000000
-15.830368 1.740475 -22.032082 0.000000 50.000000 15.166239 22.000000
-19.681643 1.911605 -23.457286 0.000000 76.000000 14.926181 15.000000
-15.816300 1.819550 -22.734052 0.000000 71.000000 15.008505 28.000000
-20.120198 2.122623 -23.564902 0.000000 69.000000 14.714720 10.000000
-14.287212 2.100600 -25.669566 0.000000 20.000000 14.363818 0.000000
-14.345516 2.127903 -25.793224 0.000000 21.000000 14.324168 0.000000
-17.561507 1.500550 -24.529328 0.000000 48.000000 15.164535 19.000000
-17.464348 1.818720 -22.959633 0.000000 53.000000 15.022518 27.000000
-14.469247 2.127419 -25.999493 0.000000 22.000000 14.304371 0.000000
-16.314285 1.429674 -26.453280 0.000000 66.000000 14.989668 14.000000
-15.771961 2.070671 -26.372599 0.000000 25.000000 14.349288 0.000000
-15.836527 2.044961 -26.455287 0.000000 28.000000 14.367050 0.000000
-14.139010 1.883708 -24.773506 0.000000 65.000000 14.676467 6.000000
-14.527626 1.627580 -27.431596 0.000000 38.000000 14.641406 9.000000
-15.185109 1.905626 -26.673138 0.000000 25.000000 14.465764 0.000000
-14.204023 1.850628 -24.605014 0.000000 57.000000 14.729776 6.000000
-13.887058 1.864386 -25.168691 0.000000 60.000000 14.645381 5.000000
-14.152836 1.895122 -24.900053 0.000000 45.000000 14.651237 6.000000
-17.384355 1.905974 -27.625761 0.000000 38.000000 14.409824 0.000000
-14.405782 1.494685 -26.491961 0.000000 54.000000 14.876124 12.000000
-15.175131 1.925892 -22.504211 0.000000 56.000000 14.913694 23.000000
-16.247692 1.683083 -26.167378 0.000000 57.000000 14.768491 14.000000
-17.926068 2.013727 -27.907613 0.000000 25.000000 14.283787 0.000000
-16.372753 1.398709 -26.968136 0.000000 69.000000 14.963961 14.000000
-18.189985 1.993011 -27.972096 0.000000 27.000000 14.303293 0.000000
-17.129613 1.970884 -27.600974 0.000000 26.000000 14.342172 0.000000
-18.329327 2.000142 -28.013015 0.000000 26.000000 14.294870 0.000000
-17.258837 1.930423 -27.598303 0.000000 29.000000 14.385687 0.000000
-18.474602 2.014043 -28.054894 0.000000 27.000000 14.279752 0.000000
-17.388062 1.887768 -27.589213 0.000000 36.000000 14.432102 0.000000
-19.483562 2.135971 -23.023011 0.000000 64.000000 14.747448 26.000000
-18.765573 2.005192 -24.913266 0.000000 43.000000 14.648246 8.000000
-16.726798 1.604733 -23.439288 0.000000 65.000000 15.163970 27.000000
-16.895662 1.636542 -26.369245 0.000000 43.000000 14.807197 17.000000
-18.883451 1.966159 -28.089587 0.000000 31.000000 14.332981 0.000000
-17.812702 1.877663 -27.628460 0.000000 30.000000 14.447659 0.000000
-19.002614 1.899009 -28.055052 0.000000 37.000000 14.406353 0.000000
-17.972656 1.924685 -27.671033 0.000000 28.000000 14.399905 0.000000
-19.818425 2.061641 -23.284977 0.000000 56.000000 14.799689 26.000000
-18.246804 1.875350 -27.640744 0.000000 32.000000 14.458725 0.000000
-18.411126 1.921666 -27.672808 0.000000 32.000000 14.412955 0.000000
-15.544423 1.670718 -24.870101 0.000000 53.000000 14.910056 29.000000
-15.336827 2.232354 -22.461158 0.000000 48.000000 14.617872 28.000000
-18.845860 1.903744 -27.629983 0.000000 41.000000 14.445732 0.000000
-19.001559 1.921638 -27.627189 0.000000 39.000000 14.431910 0.000000
-19.162144 1.953371 -27.632145 0.000000 30.000000 14.403584 0.000000
-19.314090 1.963981 -27.614395 0.000000 32.000000 14.398590 0.000000
-16.757375 1.586697 -23.266466 0.000000 73.000000 15.202015 27.000000
-15.044858 2.179886 -22.432235 0.000000 67.000000 14.666417 0.000000
-18.408806 2.357345 -23.601253 0.000000 39.000000 14.437456 0.000000
-18.996255 1.920878 -24.502946 0.000000 36.000000 14.783487 24.000000
-16.285682 2.192105 -24.610365 0.000000 27.000000 14.438618 0.000000
-18.448260 1.897889 -25.676773 0.000000 43.000000 14.661658 4.000000
-17.964043 1.785100 -23.983729 0.000000 60.000000 14.952561 25.000000
-15.315655 2.002466 -23.478409 0.000000 29.000000 14.731479 20.000000
-20.055837 1.979958 -23.677235 0.000000 74.000000 14.842320 10.000000
-14.832968 1.800882 -22.810529 0.000000 55.000000 14.995471 23.000000
-15.878885 2.045350 -25.570839 0.000000 28.000000 14.467003 0.000000
-17.834061 1.762166 -23.840089 0.000000 60.000000 14.988440 25.000000
-15.771904 2.107341 -26.159429 0.000000 23.000000 14.336805 0.000000
-20.037885 1.883012 -23.273832 0.000000 42.000000 14.983521 26.000000
-20.255962 2.159489 -23.333323 0.000000 40.000000 14.707285 26.000000
-16.935253 1.966986 -26.764344 0.000000 34.000000 14.435479 0.000000
-18.359763 1.834218 -26.979300 0.000000 47.000000 14.576527 0.000000
-16.537242 1.718201 -26.905833 0.000000 41.000000 14.657423 14.000000
-13.891610 1.557937 -27.501301 0.000000 38.000000 14.687890 9.000000
-17.333095 1.624057 -24.466839 0.000000 53.000000 15.043523 19.000000
-14.304469 1.939330 -23.888337 0.000000 62.000000 14.724512 7.000000
-16.034989 1.657660 -23.848766 0.000000 70.000000 15.049223 20.000000
-15.559405 1.589608 -24.314111 0.000000 74.000000 15.053435 13.000000
-16.965033 1.910099 -28.014803 0.000000 29.000000 14.352223 0.000000
-15.718491 1.872081 -27.698374 0.000000 29.000000 14.396393 0.000000
-16.212729 1.367891 -26.943876 0.000000 65.000000 14.993560 14.000000
-13.967914 1.431842 -26.783402 0.000000 49.000000 14.895578 11.000000
-16.199693 1.690164 -22.253700 0.000000 47.000000 15.199957 22.000000
-17.187558 1.246556 -25.340713 0.000000 60.000000 15.316966 18.000000
-15.784486 1.762176 -28.036143 0.000000 30.000000 14.469173 0.000000
-17.683752 1.884681 -23.631756 0.000000 72.000000 14.886622 25.000000
-15.817862 1.746956 -28.162121 0.000000 31.000000 14.470922 0.000000
-17.076935 1.737257 -28.592363 0.000000 32.000000 14.461662 0.000000
-19.424456 2.138157 -22.949331 0.000000 51.000000 14.752171 16.000000
-14.124150 1.995328 -24.417933 0.000000 30.000000 14.605179 0.000000
-19.912165 2.478695 -24.252563 0.000000 33.000000 14.278892 0.000000
-16.072747 1.684055 -23.560968 0.000000 73.000000 15.056213 20.000000
-14.031053 1.693523 -22.771242 0.000000 44.000000 15.087787 23.000000
-16.998192 1.782603 -23.493445 0.000000 58.000000 14.987536 27.000000
-17.376753 1.744323 -25.655527 0.000000 39.000000 14.791546 18.000000
-19.346953 2.110338 -23.272469 0.000000 63.000000 14.741696 15.000000
-20.018118 1.865904 -23.012194 0.000000 49.000000 15.029443 26.000000
-13.789637 1.209416 -26.737471 0.000000 5.000000 15.117527 11.000000
-18.156209 1.878878 -22.664498 0.000000 56.000000 15.012084 21.000000
-17.862956 1.141758 -28.336475 0.000000 15.000000 15.100348 1.000000
-18.577524 2.050086 -26.832942 0.000000 27.000000 14.383615 0.000000
-18.543525 2.048265 -26.990239 0.000000 28.000000 14.366960 0.000000
-15.430067 1.715467 -24.185405 0.000000 49.000000 14.939841 13.000000
-16.614261 1.716873 -27.561936 0.000000 42.000000 14.586843 0.000000
-17.331111 1.984378 -22.946001 0.000000 59.000000 14.856370 27.000000
-14.705495 1.935361 -24.818930 0.000000 47.000000 14.633296 0.000000
-18.988454 1.771594 -25.970562 0.000000 46.000000 14.766746 4.000000
-18.353639 1.896557 -27.864613 0.000000 33.000000 14.415009 0.000000
-14.412067 1.678821 -24.759144 0.000000 52.000000 14.887998 6.000000
-18.350772 1.955114 -28.246859 0.000000 30.000000 14.313834 0.000000
-15.943518 1.856674 -22.322644 0.000000 53.000000 15.020814 22.000000
-18.301640 1.833037 -28.493607 0.000000 28.000000 14.406239 0.000000
-18.287193 1.792059 -28.631660 0.000000 30.000000 14.431101 0.000000
-18.272747 1.734502 -28.757469 0.000000 43.000000 14.473808 0.000000
-18.279522 1.735702 -28.933536 0.000000 49.000000 14.452997 0.000000
-17.038283 1.597088 -23.823517 0.000000 58.000000 15.135686 25.000000
-16.216763 1.402282 -26.438501 0.000000 51.000000 15.016259 14.000000
-15.023233 2.417883 -22.054666 0.000000 38.000000 14.471899 0.000000
-14.189488 2.397020 -22.154023 0.000000 30.000000 14.461972 0.000000
-16.781963 2.123615 -22.264089 0.000000 48.000000 14.781814 22.000000
-17.128833 1.580053 -24.139102 0.000000 68.000000 15.119276 25.000000
-14.485413 2.366620 -22.353071 0.000000 31.000000 14.476730 0.000000
-18.836584 1.711546 -26.494906 0.000000 50.000000 14.763947 3.000000
-14.695980 2.372674 -22.487108 0.000000 26.000000 14.460582 0.000000
-17.013873 1.735619 -23.682212 0.000000 38.000000 15.013372 25.000000
-15.947897 2.365957 -22.742888 0.000000 37.000000 14.467790 0.000000
-17.508169 1.650131 -23.917089 0.000000 58.000000 15.083467 25.000000
-15.962085 1.682018 -24.213827 0.000000 45.000000 14.982314 13.000000
-17.660041 1.633253 -28.575725 0.000000 33.000000 14.580480 1.000000
-15.752203 1.603392 -26.700769 0.000000 42.000000 14.776156 14.000000
-18.464798 2.392092 -23.582976 0.000000 35.000000 14.406301 0.000000
-18.604420 2.390404 -23.601331 0.000000 35.000000 14.409180 0.000000
-15.673194 1.889794 -23.091142 0.000000 62.000000 14.895268 28.000000
-18.896449 2.404801 -23.636550 0.000000 44.000000 14.397749 0.000000
-14.686694 1.334522 -26.813287 0.000000 43.000000 15.005702 12.000000
-19.955317 2.139517 -23.625241 0.000000 52.000000 14.687305 10.000000
-19.690036 2.174866 -23.433753 0.000000 42.000000 14.667498 15.000000
-18.676814 2.410210 -23.418834 0.000000 35.000000 14.411697 0.000000
-15.823412 2.023895 -22.127562 0.000000 38.000000 14.873803 22.000000
-15.868804 1.833856 -22.205904 0.000000 75.000000 15.054848 22.000000
-19.121437 2.427005 -23.401566 0.000000 43.000000 14.407347 0.000000
-15.942675 1.778759 -24.706967 0.000000 35.000000 14.830364 13.000000
-14.745588 2.479709 -21.930104 0.000000 29.000000 14.417982 0.000000
-15.394532 1.788643 -23.570965 0.000000 60.000000 14.935338 20.000000
-16.543540 1.675008 -26.508389 0.000000 40.000000 14.745123 14.000000
-17.164444 1.306561 -24.824571 0.000000 10.000000 15.314795 19.000000
-14.604585 2.395237 -22.296542 0.000000 31.000000 14.457438 0.000000
-14.577765 2.385796 -22.393787 0.000000 34.000000 14.455266 0.000000
-14.555814 2.379347 -22.494411 0.000000 35.000000 14.449856 0.000000
-16.795087 2.272024 -22.708418 0.000000 48.000000 14.584781 0.000000
-17.686975 1.992653 -24.622319 0.000000 64.000000 14.668169 19.000000
-14.506782 2.325653 -23.307926 0.000000 26.000000 14.410667 0.000000
-14.577777 1.468054 -27.523420 0.000000 41.000000 14.790737 9.000000
-17.478615 1.810717 -23.475215 0.000000 62.000000 14.972886 27.000000
-14.541682 2.225540 -23.573006 0.000000 38.000000 14.481159 0.000000
-14.564531 2.228769 -23.677542 0.000000 36.000000 14.466743 0.000000
-14.589730 2.223411 -23.777415 0.000000 35.000000 14.461436 0.000000
-18.843011 1.829260 -26.538992 0.000000 49.000000 14.642209 3.000000
-15.599622 2.195571 -22.100814 0.000000 58.000000 14.701033 22.000000
-15.194530 1.700991 -24.813082 0.000000 52.000000 14.878208 29.000000
-15.615206 1.783684 -22.997657 0.000000 48.000000 15.009822 28.000000
-19.932760 1.994873 -23.833472 0.000000 76.000000 14.807076 10.000000
-17.617051 1.635334 -23.359104 0.000000 53.000000 15.163390 27.000000
-13.834094 2.156302 -24.472338 0.000000 24.000000 14.432376 0.000000
-13.904011 2.169088 -24.569931 0.000000 22.000000 14.410346 0.000000
-15.437524 1.726702 -23.597268 0.000000 57.000000 14.994920 20.000000
-13.976436 2.134000 -24.641783 0.000000 25.000000 14.438824 0.000000
-17.067478 1.629746 -25.048073 0.000000 69.000000 14.966372 18.000000
-15.670361 2.066215 -25.344688 0.000000 37.000000 14.466805 0.000000
-14.579599 2.079946 -25.172359 0.000000 29.000000 14.447022 0.000000
-17.810173 1.686588 -23.327040 0.000000 65.000000 15.120591 27.000000
-17.187489 1.587989 -24.180239 0.000000 57.000000 15.108142 25.000000
-15.863314 2.086843 -25.505708 0.000000 35.000000 14.432736 0.000000
-19.334010 1.974981 -26.098488 0.000000 43.000000 14.558411 0.000000
-15.962528 2.082661 -25.573230 0.000000 32.000000 14.431626 0.000000
-15.105514 2.046077 -25.482540 0.000000 26.000000 14.458120 0.000000
-15.180952 1.594028 -26.657155 0.000000 48.000000 14.777003 12.000000
-15.338413 2.061424 -25.606739 0.000000 28.000000 14.434368 0.000000
-15.947360 1.683127 -26.627093 0.000000 55.000000 14.709786 14.000000
-15.575393 2.043945 -25.699092 0.000000 38.000000 14.446897 0.000000
-15.699633 2.045423 -25.748659 0.000000 31.000000 14.442766 0.000000
-19.839329 1.886119 -22.978083 0.000000 49.000000 15.009014 26.000000
-17.350863 2.055088 -26.200707 0.000000 33.000000 14.420988 0.000000
-17.484509 2.066784 -26.243096 0.000000 38.000000 14.407733 0.000000
-17.876909 1.764017 -23.832228 0.000000 69.000000 14.988486 25.000000
-17.747108 2.058282 -26.299522 0.000000 35.000000 14.415979 0.000000
-18.588562 1.649713 -24.263377 0.000000 41.000000 15.070241 24.000000
-18.019504 2.063949 -26.352399 0.000000 31.000000 14.410778 0.000000
-18.120081 1.944323 -23.362540 0.000000 51.000000 14.867816 27.000000
-18.286102 2.027367 -26.365207 0.000000 37.000000 14.451912 0.000000
-17.594586 2.065424 -26.095653 0.000000 31.000000 14.428219 0.000000
-17.734084 2.060569 -26.095143 0.000000 29.000000 14.436361 0.000000
-17.880116 2.070122 -26.099702 0.000000 29.000000 14.429772 0.000000
-18.289371 1.833061 -22.826264 0.000000 53.000000 15.042540 21.000000
-17.537779 1.670779 -24.692108 0.000000 55.000000 14.976590 19.000000
-18.164358 2.058006 -26.077876 0.000000 36.000000 14.450905 0.000000
-19.008604 1.891568 -24.254480 0.000000 42.000000 14.840803 24.000000
-15.274190 1.875770 -24.025655 0.000000 57.000000 14.794897 13.000000
-18.982984 1.736352 -25.558610 0.000000 42.000000 14.847902 4.000000
-19.588966 2.087526 -26.418334 0.000000 49.000000 14.416641 0.000000
-19.487722 2.118289 -25.907191 0.000000 39.000000 14.441131 0.000000
-18.142410 2.072142 -23.331314 0.000000 66.000000 14.744870 27.000000
-18.407384 1.820436 -23.954839 0.000000 63.000000 14.931068 24.000000
-16.960924 2.394018 -22.941874 0.000000 41.000000 14.441245 0.000000
-17.876115 1.478353 -28.746314 0.000000 53.000000 14.720246 1.000000
-16.882229 2.382352 -23.037689 0.000000 40.000000 14.440232 0.000000
-19.999041 2.117895 -24.732911 0.000000 68.000000 14.585382 0.000000
-15.263140 2.422904 -23.435691 0.000000 25.000000 14.317389 0.000000
-15.183917 2.307960 -23.491465 0.000000 25.000000 14.423457 0.000000
-16.043098 1.276985 -27.213577 0.000000 37.000000 15.049604 14.000000
-15.057583 2.242869 -23.689517 0.000000 30.000000 14.462917 0.000000
-15.003415 2.239067 -23.803500 0.000000 35.000000 14.452624 0.000000
-17.297758 1.453686 -24.063789 0.000000 63.000000 15.257217 25.000000
-16.780629 1.854428 -23.365647 0.000000 67.000000 14.925454 27.000000
-14.802987 2.156762 -24.239356 0.000000 29.000000 14.480740 0.000000
-14.446458 1.640440 -27.419977 0.000000 51.000000 14.628039 9.000000
-17.247053 1.248062 -25.476340 0.000000 64.000000 15.301626 18.000000
-14.704156 2.266832 -24.669021 0.000000 24.000000 14.320822 0.000000
-14.669004 2.221896 -24.770658 0.000000 23.000000 14.353223 0.000000
-15.792625 2.083786 -25.426433 0.000000 39.000000 14.443026 0.000000
-16.811693 1.730198 -23.697452 0.000000 55.000000 15.012318 25.000000
-15.777500 2.064011 -25.540200 0.000000 40.000000 14.449537 0.000000
-17.041909 1.552414 -24.458109 0.000000 63.000000 15.108866 19.000000
-19.824782 2.002404 -23.173797 0.000000 51.000000 14.871172 26.000000
-14.536200 2.035692 -25.551850 0.000000 25.000000 14.447341 0.000000
-15.751793 2.004970 -25.884447 0.000000 38.000000 14.468918 0.000000
-14.536986 2.054958 -25.691906 0.000000 24.000000 14.412489 0.000000
-15.760810 2.048029 -26.038208 0.000000 32.000000 14.409082 0.000000
-14.546142 2.125379 -25.865359 0.000000 20.000000 14.323263 0.000000
-16.333407 1.255603 -26.389537 0.000000 51.000000 15.170196 14.000000
-14.544445 2.044110 -25.942713 0.000000 23.000000 14.395266 0.000000
-15.782814 2.086231 -26.321353 0.000000 26.000000 14.339841 0.000000
-18.891157 1.831900 -26.317481 0.000000 48.000000 14.665594 3.000000
-17.949202 1.818379 -23.861633 0.000000 45.000000 14.932870 25.000000
-16.045641 2.093371 -22.149507 0.000000 48.000000 14.807516 22.000000
-13.719250 1.342061 -27.554028 0.000000 52.000000 14.892389 9.000000
-16.289627 1.885616 -27.888229 0.000000 28.000000 14.374973 0.000000
-16.892871 2.227846 -22.924816 0.000000 37.000000 14.606645 0.000000
-15.186410 1.837359 -27.706438 0.000000 32.000000 14.417541 0.000000
-16.408313 1.786823 -28.030741 0.000000 37.000000 14.459879 0.000000
-14.808793 1.473835 -27.089837 0.000000 51.000000 14.839099 12.000000
-17.549357 1.857430 -24.483271 0.000000 51.000000 14.814901 19.000000
-15.335536 1.788482 -27.874311 0.000000 32.000000 14.450724 0.000000
-13.327568 1.399121 -26.377658 0.000000 58.000000 14.958690 11.000000
-15.415884 1.769304 -27.957974 0.000000 32.000000 14.462256 0.000000
-16.643827 1.768978 -28.330495 0.000000 39.000000 14.449441 0.000000
-15.504099 1.765105 -28.050124 0.000000 25.000000 14.458138 0.000000
-16.728832 1.762814 -28.424844 0.000000 34.000000 14.446953 0.000000
-15.595673 1.766732 -28.144661 0.000000 30.000000 14.448043 0.000000
-15.277827 1.655630 -23.797623 0.000000 53.000000 15.039283 20.000000
-15.687145 1.752189 -28.221865 0.000000 29.000000 14.455956 0.000000
-16.906844 1.740831 -28.596555 0.000000 36.000000 14.453665 0.000000
-15.784550 1.748432 -28.304612 0.000000 31.000000 14.452671 0.000000
-17.200614 1.650424 -23.841366 0.000000 56.000000 15.084492 25.000000
-16.035095 1.875975 -26.200919 0.000000 33.000000 14.568135 14.000000
-16.739379 1.609806 -25.019888 0.000000 43.000000 14.981676 18.000000
-18.600079 2.403673 -23.395413 0.000000 41.000000 14.419028 0.000000
-18.510331 2.398643 -23.503140 0.000000 33.000000 14.409826 0.000000
-18.409719 1.997951 -23.842465 0.000000 50.000000 14.767403 24.000000
-19.584354 2.498269 -24.085205 0.000000 36.000000 14.270583 0.000000
-19.633531 1.902773 -23.027565 0.000000 64.000000 14.982100 26.000000
-14.810971 1.756646 -26.526145 0.000000 37.000000 14.621526 12.000000
-19.371216 1.957680 -23.346853 0.000000 38.000000 14.885558 15.000000
-19.189398 2.277700 -24.443122 0.000000 51.000000 14.440257 0.000000
-17.703980 1.710245 -24.173361 0.000000 67.000000 14.999541 25.000000
-14.815624 1.114270 -26.906337 0.000000 4.000000 15.217061 12.000000
-18.355098 2.087334 -26.036004 0.000000 42.000000 14.430933 0.000000
-18.426406 1.849655 -23.891773 0.000000 55.000000 14.909571 24.000000
-15.817926 1.887269 -25.133222 0.000000 36.000000 14.671773 0.000000
-16.821617 1.946768 -26.817134 0.000000 30.000000 14.446977 0.000000
-18.169294 1.801157 -26.477691 0.000000 52.000000 14.661262 0.000000
-17.258083 1.880406 -23.605333 0.000000 58.000000 14.883886 25.000000
-16.770072 1.897503 -27.085398 0.000000 36.000000 14.464578 0.000000
-17.580933 1.273165 -28.693705 0.000000 56.000000 14.923088 1.000000
-13.769869 1.695536 -25.237299 0.000000 52.000000 14.802669 5.000000
-17.989668 1.978227 -27.917173 0.000000 29.000000 14.319465 0.000000
-17.984458 1.976939 -28.073068 0.000000 26.000000 14.303111 0.000000
-16.457639 1.809384 -25.817743 0.000000 56.000000 14.687206 17.000000
-14.958640 1.579631 -26.591482 0.000000 51.000000 14.793485 12.000000
-15.037813 1.608684 -24.240669 0.000000 27.000000 15.030541 13.000000
-16.535141 1.569702 -23.485426 0.000000 63.000000 15.189106 27.000000
-16.714655 1.844747 -27.978786 0.000000 31.000000 14.415336 0.000000
-17.949634 1.828483 -28.440764 0.000000 31.000000 14.408470 0.000000
-16.706496 1.787896 -28.092616 0.000000 38.000000 14.458834 0.000000
-17.952098 1.805030 -28.583255 0.000000 36.000000 14.415819 0.000000
-20.005688 2.012841 -22.996148 0.000000 59.000000 14.884988 26.000000
-16.725013 1.770555 -28.397163 0.000000 30.000000 14.442284 0.000000
-19.669102 2.009890 -23.501555 0.000000 54.000000 14.823279 15.000000
-14.538297 2.464985 -23.156240 0.000000 28.000000 14.290031 0.000000
-19.671718 1.853337 -23.625208 0.000000 24.000000 14.964969 15.000000
-17.203152 1.698092 -23.743461 0.000000 43.000000 15.048196 25.000000
-13.690334 1.580519 -25.238106 0.000000 41.000000 14.914977 5.000000
-14.134289 1.471023 -27.302055 0.000000 48.000000 14.802285 9.000000
-14.860496 2.299912 -23.503942 0.000000 33.000000 14.422489 0.000000
-14.935341 2.274412 -23.570285 0.000000 35.000000 14.442118 0.000000
-17.388470 1.735274 -24.332256 0.000000 60.000000 14.949452 25.000000
-13.916367 2.229205 -23.494120 0.000000 25.000000 14.471761 0.000000
-14.005272 2.224751 -23.566782 0.000000 25.000000 14.470101 0.000000
-16.212051 1.484723 -26.460812 0.000000 51.000000 14.931746 14.000000
-14.197907 2.235857 -23.715375 0.000000 25.000000 14.446881 0.000000
-14.400810 2.051715 -22.251342 0.000000 57.000000 14.799005 23.000000
-14.396388 2.224609 -23.842988 0.000000 28.000000 14.448360 0.000000
-15.809083 1.586957 -23.738585 0.000000 57.000000 15.126554 20.000000
-16.438583 1.850372 -22.177017 0.000000 52.000000 15.055006 22.000000
-14.718561 2.215568 -24.023273 0.000000 31.000000 14.444621 0.000000
-14.945572 2.211500 -24.132789 0.000000 32.000000 14.441668 0.000000
-16.837393 1.574828 -24.432221 0.000000 63.000000 15.084727 19.000000
-16.198382 2.238842 -24.419842 0.000000 33.000000 14.411550 0.000000
-16.311149 2.228368 -24.464730 0.000000 30.000000 14.419549 0.000000
-15.742887 1.759844 -26.888490 0.000000 69.000000 14.599433 14.000000
-16.098911 1.643939 -23.938546 0.000000 51.000000 15.054262 20.000000
-15.912012 1.440674 -26.579978 0.000000 54.000000 14.955104 14.000000
-15.965404 1.947587 -22.880867 0.000000 49.000000 14.868308 28.000000
-16.057217 2.158747 -23.085137 0.000000 34.000000 14.637743 28.000000
-18.381343 2.222058 -24.932678 0.000000 34.000000 14.421649 0.000000
-14.446564 1.504923 -27.555436 0.000000 45.000000 14.747447 9.000000
-14.025283 1.751883 -25.561775 0.000000 48.000000 14.716217 5.000000
-15.350956 2.256077 -22.094947 0.000000 47.000000 14.635773 0.000000
-19.241586 2.251763 -24.949808 0.000000 38.000000 14.410327 0.000000
-18.601175 1.789883 -25.554521 0.000000 59.000000 14.786258 4.000000
-19.389106 2.260041 -24.945328 0.000000 45.000000 14.406055 0.000000
-16.880483 1.580366 -23.701400 0.000000 63.000000 15.162326 25.000000
-15.844353 2.136493 -23.577579 0.000000 49.000000 14.599558 20.000000
-19.822705 2.262387 -24.901781 0.000000 47.000000 14.418753 0.000000
-19.963337 2.249913 -24.873969 0.000000 48.000000 14.437557 0.000000
-15.275273 2.321437 -22.139708 0.000000 44.000000 14.564047 0.000000
-19.473193 2.318380 -24.503084 0.000000 37.000000 14.399745 0.000000
-18.656737 1.660560 -24.979455 0.000000 56.000000 14.980623 8.000000
-19.775209 2.365317 -24.453938 0.000000 32.000000 14.365699 0.000000
-19.925357 2.382916 -24.422341 0.000000 34.000000 14.355275 0.000000
-20.053526 2.347912 -24.360637 0.000000 30.000000 14.399976 0.000000
-14.709464 2.451070 -21.895007 0.000000 33.000000 14.449530 0.000000
-14.632918 2.437407 -21.989013 0.000000 29.000000 14.450753 0.000000
-14.559366 2.409050 -22.075719 0.000000 32.000000 14.467464 0.000000
-14.489844 2.401447 -22.174918 0.000000 28.000000 14.462249 0.000000
-15.891482 1.917358 -23.521632 0.000000 61.000000 14.824632 20.000000
-16.998868 1.401850 -24.558505 0.000000 52.000000 15.246152 19.000000
-15.222895 2.435675 -23.375941 0.000000 28.000000 14.310473 0.000000
-14.235652 1.910227 -24.397442 0.000000 31.000000 14.694626 0.000000
-13.947892 2.326286 -23.221124 0.000000 20.000000 14.406723 0.000000
-15.133081 2.292663 -23.527971 0.000000 30.000000 14.433363 0.000000
-13.909604 2.284949 -23.315366 0.000000 25.000000 14.436306 0.000000
-13.712367 1.674416 -25.250069 0.000000 54.000000 14.820871 5.000000
-15.586468 2.003273 -22.544190 0.000000 55.000000 14.841949 28.000000
-16.289247 1.730179 -23.697479 0.000000 47.000000 15.000121 20.000000
-17.216801 0.964099 -25.331668 0.000000 0.000000 15.599257 18.000000
-15.249286 1.864489 -25.109692 0.000000 46.000000 14.683752 29.000000
-14.972237 2.219281 -24.852461 0.000000 27.000000 14.353721 0.000000
-14.974136 2.136602 -24.920046 0.000000 30.000000 14.428306 0.000000
-13.822844 2.079757 -25.052664 0.000000 23.000000 14.442964 0.000000
-17.989285 1.899687 -26.478993 0.000000 71.000000 14.559028 0.000000
-17.252648 1.336181 -24.830046 0.000000 13.000000 15.286818 19.000000
-13.347311 1.629372 -26.448824 0.000000 59.000000 14.722427 11.000000
-15.187381 2.051526 -25.763332 0.000000 34.000000 14.423080 0.000000
-15.453206 2.161934 -22.410697 0.000000 50.000000 14.696216 0.000000
-15.088440 1.703629 -24.338446 0.000000 44.000000 14.926423 13.000000
-18.766022 1.596362 -24.279988 0.000000 49.000000 15.125523 24.000000
-16.437561 2.035639 -24.377519 0.000000 46.000000 14.623756 0.000000
-17.094778 1.649830 -25.379024 0.000000 53.000000 14.909883 18.000000
-14.234410 2.086889 -26.024331 0.000000 22.000000 14.336354 0.000000
-13.911616 1.608741 -23.843913 0.000000 53.000000 15.048724 7.000000
-15.574479 1.988580 -26.439579 0.000000 29.000000 14.418697 0.000000
-15.642809 1.964867 -26.519152 0.000000 33.000000 14.434912 0.000000
-15.713874 1.941004 -26.596172 0.000000 30.000000 14.451627 0.000000
-14.305064 1.673791 -27.415813 0.000000 37.000000 14.592070 9.000000
-18.466669 2.063219 -22.813474 0.000000 49.000000 14.819484 21.000000
-15.781377 1.189014 -27.126989 0.000000 53.000000 15.140602 14.000000
-17.346328 1.943626 -27.729285 0.000000 34.000000 14.359903 0.000000
-17.106335 1.547997 -26.071310 0.000000 48.000000 14.933549 17.000000
-17.609104 1.996842 -27.852558 0.000000 30.000000 14.299335 0.000000
-17.742206 2.010318 -27.900152 0.000000 29.000000 14.283713 0.000000
-18.040102 2.002496 -22.519529 0.000000 59.000000 14.902852 21.000000
-18.007712 2.010612 -27.966392 0.000000 28.000000 14.282187 0.000000
-15.625574 2.253913 -22.177081 0.000000 39.000000 14.635116 22.000000
-17.112771 1.975745 -27.619884 0.000000 27.000000 14.334825 0.000000
-18.155105 1.806769 -24.098647 0.000000 69.000000 14.922593 25.000000
-17.375886 1.664320 -23.930484 0.000000 44.000000 15.064775 25.000000
-13.575394 1.625452 -25.306942 0.000000 45.000000 14.859921 5.000000
-17.366864 1.886839 -27.578872 0.000000 36.000000 14.433691 0.000000
-17.464669 1.655025 -23.069274 0.000000 71.000000 15.172823 27.000000
-14.916633 1.505160 -26.663167 0.000000 48.000000 14.858429 12.000000
-17.004675 1.661406 -25.182268 0.000000 51.000000 14.918379 18.000000
-19.929290 1.881694 -22.904056 0.000000 62.000000 15.023828 26.000000
-19.029958 1.709345 -25.650377 0.000000 55.000000 14.865520 4.000000
-15.808585 1.289805 -27.141611 0.000000 46.000000 15.039471 14.000000
-17.719254 2.027677 -23.055725 0.000000 57.000000 14.810106 27.000000
-17.938340 1.921499 -27.613606 0.000000 29.000000 14.408718 0.000000
-16.492484 1.734595 -24.496242 0.000000 38.000000 14.910760 19.000000
-17.453382 1.992735 -22.659762 0.000000 62.000000 14.883080 21.000000
-17.828181 0.950184 -28.401057 0.000000 5.000000 15.282589 1.000000
-18.359613 1.909966 -27.569864 0.000000 38.000000 14.434937 0.000000
-17.723375 1.890101 -25.413141 0.000000 62.000000 14.682062 0.000000
-18.655841 1.935574 -27.550781 0.000000 36.000000 14.418567 0.000000
-18.801089 1.944574 -27.532521 0.000000 42.000000 14.415073 0.000000
-17.294513 1.932309 -22.371851 0.000000 61.000000 14.971734 21.000000
-14.212483 1.596855 -26.884008 0.000000 60.000000 14.726071 12.000000
-14.647850 1.670712 -26.526051 0.000000 51.000000 14.703089 12.000000
-19.389164 1.987502 -27.432966 0.000000 34.000000 14.397360 0.000000
-16.995218 1.703755 -23.589074 0.000000 54.000000 15.055051 25.000000
-18.353014 2.406653 -23.325856 0.000000 41.000000 14.418105 0.000000
-16.179272 2.217706 -24.445760 0.000000 27.000000 14.429188 0.000000
-16.116566 2.184364 -24.552519 0.000000 32.000000 14.448852 0.000000
-15.957014 2.174637 -24.931196 0.000000 27.000000 14.412248 0.000000
-14.785879 1.565710 -27.104323 0.000000 47.000000 14.745667 12.000000
-14.807490 1.608596 -27.634625 0.000000 39.000000 14.644001 0.000000
-17.325221 2.053866 -23.723675 0.000000 54.000000 14.699848 25.000000
-15.694491 2.047569 -25.658382 0.000000 34.000000 14.450655 0.000000
-16.976997 1.773258 -25.056244 0.000000 33.000000 14.820774 18.000000
-15.638144 2.043152 -25.930944 0.000000 31.000000 14.423108 0.000000
-18.304693 2.048424 -24.345863 0.000000 58.000000 14.658261 24.000000
-15.578030 2.053427 -26.355352 0.000000 24.000000 14.363822 0.000000
-15.555157 1.981280 -26.446984 0.000000 25.000000 14.424665 0.000000
-15.805602 1.932188 -22.778812 0.000000 53.000000 14.891333 28.000000
-15.539149 1.946242 -26.563854 0.000000 27.000000 14.445969 0.000000
-17.728109 1.731955 -23.137690 0.000000 66.000000 15.094875 27.000000
-16.731608 1.889330 -27.060015 0.000000 40.000000 14.474649 0.000000
-14.833440 1.647428 -27.413264 0.000000 36.000000 14.630898 0.000000
-16.749500 1.600958 -23.443905 0.000000 66.000000 15.167732 27.000000
-16.918139 1.726216 -27.320174 0.000000 49.000000 14.611823 0.000000
-17.568094 1.611809 -24.280303 0.000000 55.000000 15.082137 25.000000
-15.581900 1.885839 -27.650020 0.000000 31.000000 14.384964 0.000000
-14.136881 1.896021 -22.883443 0.000000 50.000000 14.876497 23.000000
-15.598903 1.835466 -27.752145 0.000000 29.000000 14.423930 0.000000
-19.099273 2.193046 -22.890179 0.000000 49.000000 14.696687 16.000000
-14.220261 1.626408 -26.542416 0.000000 38.000000 14.735266 12.000000
-14.195983 1.897908 -22.286443 0.000000 43.000000 14.943065 23.000000
-15.192164 2.069452 -23.476949 0.000000 48.000000 14.662213 0.000000
-16.877263 1.758775 -28.373889 0.000000 46.000000 14.460160 0.000000
-15.842118 1.573235 -24.307436 0.000000 72.000000 15.077059 13.000000
-18.190695 2.179171 -23.506639 0.000000 42.000000 14.619983 27.000000
-17.052321 2.112167 -22.323834 0.000000 52.000000 14.792796 21.000000
-16.955605 1.751094 -28.643075 0.000000 34.000000 14.439384 0.000000
-15.764045 1.749597 -28.367021 0.000000 29.000000 14.444024 0.000000
-19.634830 2.500799 -24.200150 0.000000 32.000000 14.256338 0.000000
-19.545646 2.461697 -24.308130 0.000000 29.000000 14.280967 0.000000
-19.416721 2.302555 -24.352001 0.000000 45.000000 14.431116 0.000000
-15.396722 1.558362 -26.801615 0.000000 65.000000 14.801250 12.000000
-18.949267 1.871307 -25.895077 0.000000 51.000000 14.675254 4.000000
-19.132873 2.250979 -24.856938 0.000000 35.000000 14.418996 0.000000
-16.668565 1.674332 -26.446291 0.000000 45.000000 14.755693 17.000000
-18.314898 1.974976 -22.886392 0.000000 64.000000 14.895405 21.000000
-17.091652 1.375654 -24.723472 0.000000 52.000000 15.255813 19.000000
-18.229444 1.852333 -27.635955 0.000000 34.000000 14.481723 0.000000
-18.227625 1.882650 -27.824898 0.000000 28.000000 14.430339 0.000000
-17.303879 1.472237 -24.005805 0.000000 48.000000 15.245445 25.000000
-17.522382 1.574026 -24.919136 0.000000 49.000000 15.046842 19.000000
-18.211016 1.864634 -28.324344 0.000000 29.000000 14.391745 0.000000
-18.215972 1.876605 -28.504268 0.000000 28.000000 14.359758 0.000000
-16.788041 1.770364 -23.098055 0.000000 75.000000 15.039195 27.000000
-16.621719 1.947959 -23.365009 0.000000 59.000000 14.828898 27.000000
-14.460976 2.462074 -21.897422 0.000000 39.000000 14.432518 0.000000
-14.528415 2.452556 -21.975356 0.000000 42.000000 14.434796 0.000000
-15.253908 1.577170 -26.618733 0.000000 68.000000 14.799771 12.000000
-14.672461 2.429629 -22.124372 0.000000 38.000000 14.444200 0.000000
-16.006908 1.652940 -23.892170 0.000000 49.000000 15.048379 20.000000
-16.947384 1.551127 -25.650837 0.000000 51.000000 14.973956 18.000000
-17.856481 1.749235 -24.154956 0.000000 46.000000 14.966441 25.000000
-14.996855 2.395567 -22.409445 0.000000 40.000000 14.453598 0.000000
-18.548384 1.828693 -24.199188 0.000000 47.000000 14.898714 24.000000
-17.056732 1.587516 -23.331434 0.000000 53.000000 15.200901 27.000000
-17.903209 1.906139 -23.238901 0.000000 64.000000 14.914566 27.000000
-18.832121 2.418232 -23.655617 0.000000 33.000000 14.380761 0.000000
-18.415181 2.089497 -22.959228 0.000000 47.000000 14.775803 21.000000
-17.979888 1.823712 -23.341349 0.000000 67.000000 14.986733 27.000000
-19.074517 1.914235 -25.666053 0.000000 55.000000 14.661264 4.000000
-16.096998 1.854519 -22.263899 0.000000 46.000000 15.033141 22.000000
-18.617757 2.409147 -23.380191 0.000000 38.000000 14.415713 0.000000
-18.763444 2.418871 -23.370229 0.000000 34.000000 14.410578 0.000000
-17.429200 1.955602 -23.610130 0.000000 57.000000 14.812648 25.000000
-13.779103 1.686456 -26.632231 0.000000 44.000000 14.655213 11.000000
-19.052174 2.433375 -23.337910 0.000000 37.000000 14.406550 0.000000
-19.481919 2.445030 -23.269619 0.000000 36.000000 14.412690 0.000000
-15.072816 1.812719 -22.507810 0.000000 61.000000 15.023324 23.000000
-18.029088 1.432571 -28.819432 0.000000 34.000000 14.761089 1.000000
-14.516387 2.434156 -22.024146 0.000000 38.000000 14.447312 0.000000
-14.477907 2.414037 -22.116746 0.000000 38.000000 14.455997 0.000000
-14.442401 2.404729 -22.213266 0.000000 31.000000 14.453571 0.000000
-17.608681 1.788550 -23.035084 0.000000 51.000000 15.047388 27.000000
-19.724445 2.241542 -23.300750 0.000000 50.000000 14.617007 26.000000
-15.569894 1.792833 -24.782933 0.000000 42.000000 14.799134 29.000000
-15.763611 1.692864 -22.065207 0.000000 46.000000 15.208254 22.000000
-17.012692 1.506171 -23.977353 0.000000 52.000000 15.208124 25.000000
-14.311566 2.257599 -23.597403 0.000000 30.000000 14.441191 0.000000
-14.330194 2.247676 -23.696402 0.000000 30.000000 14.440364 0.000000
-14.318525 1.764279 -22.243426 0.000000 51.000000 15.083508 23.000000
-19.074652 2.247367 -23.077861 0.000000 36.000000 14.621067 16.000000
-17.255220 1.564257 -24.797156 0.000000 39.000000 15.064003 19.000000
-18.796770 1.983586 -24.689785 0.000000 48.000000 14.695542 8.000000
-14.669452 2.304711 -24.619257 0.000000 27.000000 14.287972 0.000000
-14.722101 2.271550 -24.694567 0.000000 28.000000 14.313686 0.000000
-14.777861 2.230089 -24.763359 0.000000 26.000000 14.348449 0.000000
-14.836557 2.190583 -24.830910 0.000000 30.000000 14.381478 0.000000
-16.940892 1.826739 -22.451197 0.000000 50.000000 15.059427 21.000000
-14.965301 2.103823 -24.958120 0.000000 31.000000 14.456385 0.000000
-15.188504 1.923191 -22.926700 0.000000 45.000000 14.869232 28.000000
-16.919911 1.580888 -25.346728 0.000000 43.000000 14.977909 18.000000
-15.981365 1.268777 -26.894237 0.000000 57.000000 15.092187 14.000000
-16.765191 1.576985 -26.204579 0.000000 51.000000 14.881807 17.000000
-15.541548 2.077982 -25.488282 0.000000 31.000000 14.435974 0.000000
-18.749634 1.898830 -24.422307 0.000000 66.000000 14.808682 24.000000
-15.637605 2.085334 -25.562629 0.000000 33.000000 14.422565 0.000000
-13.746509 1.762496 -26.463074 0.000000 50.000000 14.597914 11.000000
-14.679292 2.051729 -25.432806 0.000000 33.000000 14.448128 0.000000
-15.831730 2.057031 -25.674825 0.000000 31.000000 14.442616 0.000000
-15.019017 1.841524 -22.894165 0.000000 70.000000 14.950052 23.000000
-17.181735 1.359523 -24.617069 0.000000 47.000000 15.285896 19.000000
-18.466407 2.043885 -25.273077 0.000000 49.000000 14.562397 0.000000
-17.248817 1.383440 -23.847255 0.000000 57.000000 15.350178 25.000000
-15.241935 2.077629 -25.718006 0.000000 25.000000 14.403516 0.000000
-15.215977 1.889180 -22.796117 0.000000 51.000000 14.918329 28.000000
-15.598701 2.031789 -25.814268 0.000000 40.000000 14.446580 0.000000
-15.359815 1.722980 -22.522419 0.000000 53.000000 15.117538 28.000000
-18.398765 1.867893 -24.434386 0.000000 58.000000 14.829856 24.000000
-17.483847 2.076764 -26.293739 0.000000 32.000000 14.392114 0.000000
-17.618832 2.092060 -26.324410 0.000000 34.000000 14.376630 0.000000
-14.888928 1.630411 -27.169366 0.000000 37.000000 14.676496 12.000000
-14.449089 2.005181 -24.107375 0.000000 56.000000 14.637872 7.000000
-17.490189 1.750782 -22.395003 0.000000 72.000000 15.154036 21.000000
-17.665706 1.847554 -22.496345 0.000000 51.000000 15.050623 21.000000
-17.422676 1.398913 -24.657712 0.000000 62.000000 15.247833 19.000000
-17.321580 2.038501 -26.043385 0.000000 32.000000 14.454453 0.000000
-17.612048 2.082942 -26.062190 0.000000 33.000000 14.414984 0.000000
-18.881334 2.294758 -23.184377 0.000000 38.000000 14.557504 16.000000
-17.896101 2.096663 -26.046336 0.000000 28.000000 14.409775 0.000000
-18.794025 1.742350 -24.998546 0.000000 39.000000 14.900438 8.000000
-19.131226 2.099716 -26.355794 0.000000 46.000000 14.400855 0.000000
-17.650635 2.007037 -24.570539 0.000000 41.000000 14.658847 19.000000
-17.991195 1.433193 -28.734340 0.000000 40.000000 14.769143 1.000000
-18.323986 2.120814 -26.001776 0.000000 33.000000 14.400792 0.000000
-19.421558 2.124071 -26.335251 0.000000 35.000000 14.385756 0.000000
-16.014057 1.849102 -26.016416 0.000000 54.000000 14.615064 0.000000
-13.884893 1.709725 -25.140741 0.000000 53.000000 14.802109 5.000000
-17.677778 2.046615 -23.690605 0.000000 58.000000 14.719008 25.000000
-19.623062 2.238314 -25.743031 0.000000 30.000000 14.343502 0.000000
-19.793787 2.326301 -25.746260 0.000000 30.000000 14.259725 0.000000
-15.677616 1.721004 -26.658285 0.000000 42.000000 14.662349 0.000000
-19.233106 2.300239 -23.120470 0.000000 26.000000 14.567462 16.000000
-18.977249 2.013584 -22.820020 0.000000 45.000000 14.879992 16.000000
-18.887680 1.807305 -24.809675 0.000000 49.000000 14.859317 8.000000
-15.073079 2.318637 -23.484921 0.000000 25.000000 14.410994 0.000000
-15.007697 2.270269 -23.577059 0.000000 29.000000 14.447164 0.000000
-16.525377 1.931098 -24.244495 0.000000 65.000000 14.744602 19.000000
-15.337181 1.781526 -25.192693 0.000000 38.000000 14.758898 29.000000
-16.580296 1.550332 -25.943655 0.000000 61.000000 14.933271 17.000000
-19.590912 1.965992 -23.367448 0.000000 48.000000 14.880123 15.000000
-16.966148 1.611846 -24.384181 0.000000 70.000000 15.056360 19.000000
-18.212471 1.761437 -22.738328 0.000000 50.000000 15.121771 21.000000
-14.664384 2.265432 -24.417448 0.000000 21.000000 14.349543 0.000000
-16.904690 1.621380 -23.253822 0.000000 58.000000 15.172425 27.000000
-14.592708 2.264724 -24.664811 0.000000 25.000000 14.320784 0.000000
-14.556927 2.208939 -24.758891 0.000000 24.000000 14.364796 0.000000
-15.661129 2.087029 -25.402114 0.000000 36.000000 14.439462 0.000000
-14.457067 2.076682 -25.190420 0.000000 28.000000 14.445372 0.000000
-15.214932 2.110194 -23.473693 0.000000 62.000000 14.622638 20.000000
-14.440689 2.044569 -25.299350 0.000000 31.000000 14.464654 0.000000
-15.634400 2.059284 -25.638807 0.000000 42.000000 14.439811 0.000000
-14.429395 2.025224 -25.417975 0.000000 34.000000 14.470281 0.000000
-15.625638 2.050106 -25.760161 0.000000 33.000000 14.435092 0.000000
-15.071152 1.938526 -25.379658 0.000000 42.000000 14.575714 0.000000
-16.530771 1.802268 -24.714520 0.000000 60.000000 14.819910 19.000000
-15.799769 1.583219 -26.543275 0.000000 55.000000 14.814999 14.000000
-17.812951 1.892040 -22.480873 0.000000 61.000000 15.011611 21.000000
-14.426910 2.124324 -25.863235 0.000000 21.000000 14.321762 0.000000
-18.331971 2.046200 -22.893483 0.000000 46.000000 14.824254 21.000000
-14.431476 2.125038 -25.991480 0.000000 22.000000 14.306754 0.000000
-16.818429 1.838370 -22.992684 0.000000 53.000000 14.984185 27.000000
-19.200541 2.187899 -23.151374 0.000000 52.000000 14.674827 16.000000
-15.646114 2.039304 -26.389980 0.000000 28.000000 14.375554 0.000000
-15.652682 1.984985 -26.479305 0.000000 28.000000 14.419634 0.000000
-17.686722 1.619099 -23.324923 0.000000 68.000000 15.184986 27.000000
-14.346618 1.365860 -26.760446 0.000000 52.000000 14.972556 12.000000
-16.172970 1.836789 -27.934211 0.000000 33.000000 14.415585 0.000000
-17.008039 1.656451 -25.877813 0.000000 46.000000 14.845249 17.000000
-15.100074 1.802345 -27.783685 0.000000 26.000000 14.441628 0.000000
-15.462429 1.637776 -24.778361 0.000000 46.000000 14.951169 29.000000
-15.176561 1.789266 -27.876360 0.000000 24.000000 14.445998 0.000000
-14.507314 1.897543 -24.654273 0.000000 60.000000 14.684728 6.000000
-15.256952 1.789982 -27.973486 0.000000 24.000000 14.436256 0.000000
-18.277897 1.791999 -26.695708 0.000000 50.000000 14.648409 3.000000
-14.110760 1.812332 -22.925469 0.000000 42.000000 14.954302 23.000000
-16.259309 1.490701 -26.362827 0.000000 47.000000 14.937919 14.000000
-16.198210 1.900021 -22.185835 0.000000 55.000000 14.999075 22.000000
-16.625044 1.750183 -28.482803 0.000000 32.000000 14.450564 0.000000
-19.719355 2.125027 -23.738875 0.000000 27.000000 14.683419 15.000000
-19.061911 1.797838 -26.485675 0.000000 44.000000 14.684530 3.000000
-15.610432 1.754324 -28.306322 0.000000 29.000000 14.442555 0.000000
-17.049561 1.609269 -24.441236 0.000000 66.000000 15.054461 19.000000
-18.592278 2.426472 -23.165085 0.000000 43.000000 14.422070 0.000000
-17.894102 1.716133 -23.729304 0.000000 51.000000 15.048017 25.000000
-17.248048 1.812820 -25.722039 0.000000 50.000000 14.713022 18.000000
-19.377825 2.504283 -24.051800 0.000000 36.000000 14.263533 0.000000
-19.443944 2.228405 -23.866891 0.000000 42.000000 14.559905 15.000000
-17.785498 1.590177 -23.210850 0.000000 52.000000 15.228840 27.000000
-18.510787 2.236688 -25.429691 0.000000 34.000000 14.354312 0.000000
-18.354726 2.134219 -22.839448 0.000000 53.000000 14.743418 21.000000
-18.390383 2.167619 -25.662447 0.000000 30.000000 14.393965 0.000000
-15.937484 1.748944 -22.984112 0.000000 54.000000 15.053389 28.000000
-15.315529 2.298466 -22.132596 0.000000 46.000000 14.588606 0.000000
-17.340201 1.757427 -23.197281 0.000000 59.000000 15.053809 27.000000
-14.298825 1.703319 -22.521888 0.000000 49.000000 15.112325 23.000000
-18.155292 2.065854 -26.310927 0.000000 31.000000 14.416718 0.000000
-16.293075 1.602217 -26.531384 0.000000 45.000000 14.808995 14.000000
-15.673961 1.829578 -24.952915 0.000000 56.000000 14.745971 29.000000
-17.959673 1.933822 -27.116613 0.000000 36.000000 14.452803 0.000000
-16.760200 1.910981 -26.826388 0.000000 33.000000 14.480053 0.000000
-16.848267 1.927457 -25.938856 0.000000 48.000000 14.565441 17.000000
-17.706059 1.760859 -23.903309 0.000000 54.000000 14.979645 25.000000
-17.606411 1.738773 -23.791704 0.000000 54.000000 15.011792 25.000000
-20.005861 1.809049 -22.932132 0.000000 52.000000 15.094630 26.000000
-14.358082 2.157018 -23.133782 0.000000 36.000000 14.594274 0.000000
-17.904998 1.930262 -28.051619 0.000000 28.000000 14.350032 0.000000
-17.570586 2.194523 -22.862414 0.000000 39.000000 14.662601 0.000000
-19.580936 1.896267 -23.641757 0.000000 36.000000 14.918342 15.000000
-16.696736 1.905259 -27.909239 0.000000 29.000000 14.362617 0.000000
-17.891823 1.847540 -28.309203 0.000000 38.000000 14.402965 0.000000
-20.094128 2.259673 -23.560743 0.000000 49.000000 14.578433 10.000000
-16.082607 1.671630 -23.949350 0.000000 52.000000 15.025159 20.000000
-16.683025 1.774206 -28.119979 0.000000 44.000000 14.468811 0.000000
-17.896933 1.788648 -28.579376 0.000000 32.000000 14.431239 0.000000
-20.043586 2.181853 -23.178049 0.000000 57.000000 14.697546 26.000000
-16.218458 2.052579 -22.472319 0.000000 33.000000 14.815817 22.000000
-14.103366 1.580178 -27.017854 0.000000 42.000000 14.725052 12.000000
-16.840709 1.625538 -23.312422 0.000000 75.000000 15.160216 27.000000
-14.308426 2.354247 -23.297296 0.000000 26.000000 14.378819 0.000000
-18.042376 1.771791 -23.943687 0.000000 50.000000 14.972112 25.000000
-14.431796 2.251671 -23.414423 0.000000 31.000000 14.470445 0.000000
-15.712758 1.757643 -23.064493 0.000000 67.000000 15.030464 28.000000
-14.574285 2.248995 -23.574752 0.000000 36.000000 14.458425 0.000000
-15.399583 1.507897 -24.766081 0.000000 53.000000 15.080100 29.000000
-14.729390 2.253844 -23.729232 0.000000 36.000000 14.439881 0.000000
-16.655589 1.960617 -25.410582 0.000000 47.000000 14.587336 0.000000
-16.793937 1.872386 -24.140477 0.000000 57.000000 14.820890 25.000000
-15.580391 1.692009 -26.833418 0.000000 50.000000 14.669207 12.000000
-13.923729 2.231808 -23.809852 0.000000 28.000000 14.433881 0.000000
-15.073604 2.222800 -23.998095 0.000000 28.000000 14.448566 0.000000
