-74.378257 -27.400918 4.941819 0.000000 43.000000 14.161505 0.000000
-77.774566 -26.994556 5.614670 0.000000 31.000000 13.954107 0.000000
-79.161035 -26.404635 5.657548 0.000000 41.000000 14.099110 0.000000
-74.808335 -22.589436 4.552051 0.000000 67.000000 14.605851 23.000000
-76.782757 -22.602330 5.392062 0.000000 46.000000 14.040551 0.000000
-79.888238 -26.534856 5.735715 0.000000 43.000000 14.119999 0.000000
-78.292451 -22.366647 5.513982 0.000000 54.000000 14.123902 0.000000
-76.654179 -25.777165 5.342250 0.000000 42.000000 14.072518 0.000000
-79.641294 -25.874027 5.703681 0.000000 47.000000 14.118345 0.000000
-77.405545 -27.093351 5.573205 0.000000 28.000000 13.945289 0.000000
-79.575284 -22.539485 5.871561 0.000000 43.000000 13.943081 0.000000
-76.216662 -25.526280 5.247603 0.000000 48.000000 14.107132 0.000000
-77.757848 -25.616225 5.457153 0.000000 54.000000 14.107916 0.000000
-76.965758 -24.152629 5.517985 0.000000 34.000000 13.940531 0.000000
-79.793499 -26.995658 5.873810 0.000000 32.000000 13.970361 0.000000
-75.103218 -22.542709 4.756183 0.000000 81.000000 14.443470 23.000000
-74.794218 -26.636835 4.728322 0.000000 60.000000 14.429290 3.000000
-75.433586 -25.033122 5.121085 0.000000 47.000000 14.126595 0.000000
-75.943151 -24.581466 5.079105 0.000000 48.000000 14.237096 19.000000
-77.282500 -25.162232 5.347397 0.000000 50.000000 14.152384 0.000000
-76.913703 -25.059261 5.298703 0.000000 51.000000 14.150760 0.000000
-77.365920 -28.291116 5.400166 0.000000 40.000000 14.111381 0.000000
-76.006538 -27.994128 5.177164 0.000000 32.000000 14.148509 0.000000
-74.392901 -25.478839 4.951021 0.000000 53.000000 14.154368 0.000000
-75.835527 -24.311101 5.227136 0.000000 49.000000 14.075871 0.000000
-75.455163 -28.028122 5.021895 0.000000 37.000000 14.227791 26.000000
-78.905588 -24.337945 5.624063 0.000000 30.000000 14.097744 0.000000
-76.967960 -24.096576 5.499147 0.000000 18.000000 13.959494 0.000000
-77.824164 -26.999525 5.622898 0.000000 34.000000 13.952661 0.000000
-77.473486 -28.166132 5.399354 0.000000 37.000000 14.126731 0.000000
-79.598468 -27.369825 5.854700 0.000000 29.000000 13.962922 0.000000
-74.374206 -23.121420 4.986450 0.000000 56.000000 14.116736 0.000000
-77.335143 -25.176793 5.190115 0.000000 46.000000 14.315340 12.000000
-74.148594 -23.533522 4.912700 0.000000 70.000000 14.159300 0.000000
-74.390934 -23.871631 5.080590 0.000000 33.000000 14.025723 0.000000
-75.255805 -25.807857 5.079282 0.000000 51.000000 14.143973 0.000000
-74.504186 -24.196637 5.057917 0.000000 46.000000 14.063503 0.000000
-76.318349 -23.508074 5.242423 0.000000 49.000000 14.126015 0.000000
-74.932526 -24.827536 5.054497 0.000000 53.000000 14.124814 0.000000
-76.036301 -24.804082 5.212182 0.000000 31.000000 14.117838 0.000000
-78.555355 -24.061237 5.694929 0.000000 30.000000 13.980168 0.000000
-74.963203 -25.557294 5.104771 0.000000 46.000000 14.079150 0.000000
-74.988884 -25.725832 5.077851 0.000000 43.000000 14.109296 0.000000
-76.722222 -23.939255 4.913370 0.000000 56.000000 14.506660 8.000000
-75.069446 -26.079538 5.078276 0.000000 48.000000 14.119769 0.000000
-74.667029 -26.910475 5.086522 0.000000 34.000000 14.057181 0.000000
-77.340250 -24.599486 5.387283 0.000000 52.000000 14.120674 0.000000
-76.785190 -23.923223 4.809650 0.000000 53.000000 14.617942 8.000000
-75.029666 -25.036040 5.035580 0.000000 55.000000 14.156694 0.000000
-78.826645 -26.611814 5.570751 0.000000 41.000000 14.139891 0.000000
-77.196969 -26.108242 5.383090 0.000000 48.000000 14.105453 0.000000
-75.306232 -27.872979 5.062702 0.000000 47.000000 14.167220 0.000000
-74.651093 -22.581132 4.639656 0.000000 71.000000 14.497788 23.000000
-76.214044 -27.994399 5.247097 0.000000 38.000000 14.107279 0.000000
-78.505786 -24.497050 5.559207 0.000000 44.000000 14.107941 0.000000
-78.517893 -22.405257 5.597323 0.000000 37.000000 14.071812 0.000000
-74.513809 -25.031330 4.965741 0.000000 36.000000 14.156133 0.000000
-76.321271 -24.982352 5.108399 0.000000 63.000000 14.259203 6.000000
-78.339830 -24.335405 5.537786 0.000000 42.000000 14.106723 0.000000
-75.691757 -27.503263 5.150138 0.000000 40.000000 14.132720 0.000000
-76.190848 -24.264074 4.966038 0.000000 44.000000 14.382620 19.000000
-75.369702 -27.181622 5.093917 0.000000 44.000000 14.144874 0.000000
-74.683714 -25.545956 5.001446 0.000000 40.000000 14.143732 0.000000
-79.535460 -28.330712 5.390352 0.000000 41.000000 14.414484 28.000000
-76.784347 -27.142366 5.381140 0.000000 37.000000 14.051587 0.000000
-76.404515 -24.263267 4.836251 0.000000 64.000000 14.540108 19.000000
-75.470890 -23.565734 5.119702 0.000000 59.000000 14.133010 0.000000
-76.516615 -26.824780 5.403077 0.000000 37.000000 13.993648 0.000000
-74.885052 -24.091573 5.204304 0.000000 24.000000 13.969964 0.000000
-74.492203 -24.883562 5.013194 0.000000 33.000000 14.106195 0.000000
-79.020426 -22.974293 5.190769 0.000000 44.000000 14.542588 21.000000
-74.545314 -26.242628 5.022020 0.000000 41.000000 14.104632 0.000000
-79.337985 -24.164087 5.745668 0.000000 40.000000 14.035728 0.000000
-79.794678 -26.714787 5.705223 0.000000 52.000000 14.137559 0.000000
-79.515998 -27.755482 5.684379 0.000000 34.000000 14.120526 0.000000
-79.559231 -27.339359 5.478927 0.000000 46.000000 14.329937 11.000000
-75.701014 -25.963019 5.170434 0.000000 50.000000 14.113863 0.000000
-75.524610 -27.483635 4.999500 0.000000 39.000000 14.259372 0.000000
-78.256300 -27.482580 5.502909 0.000000 49.000000 14.129984 0.000000
-74.117814 -25.641092 5.065107 0.000000 44.000000 14.004131 0.000000
-75.961995 -22.759087 4.804156 0.000000 53.000000 14.512068 24.000000
-74.503875 -23.177816 5.006656 0.000000 53.000000 14.114251 0.000000
-75.094620 -23.300665 5.078490 0.000000 42.000000 14.122961 0.000000
-74.342843 -22.329348 4.744697 0.000000 55.000000 14.352028 23.000000
-74.648580 -27.340571 4.718099 0.000000 58.000000 14.419725 17.000000
-76.118950 -23.036550 4.827031 0.000000 72.000000 14.510627 24.000000
-78.494104 -26.692654 5.562144 0.000000 31.000000 14.103451 0.000000
-74.430459 -24.057947 5.105015 0.000000 28.000000 14.006868 0.000000
-74.160668 -28.409922 5.111404 0.000000 27.000000 13.964054 0.000000
-77.217063 -25.314948 5.026889 0.000000 56.000000 14.461099 12.000000
-78.543648 -26.196981 5.557110 0.000000 46.000000 14.115138 0.000000
-74.806662 -27.701574 5.050525 0.000000 35.000000 14.111730 0.000000
-76.286708 -25.808203 5.270414 0.000000 25.000000 14.094002 0.000000
-74.161883 -25.572571 4.998861 0.000000 55.000000 14.075728 0.000000
-76.014649 -25.798507 4.867969 0.000000 54.000000 14.455961 4.000000
-78.329927 -24.758610 5.517255 0.000000 52.000000 14.125727 0.000000
-76.666799 -22.620729 5.380112 0.000000 50.000000 14.036710 0.000000
-75.750474 -24.156526 5.333137 0.000000 28.000000 13.959342 0.000000
-77.929101 -24.702028 5.494037 0.000000 34.000000 14.094529 0.000000
-76.144802 -22.360027 5.328532 0.000000 35.000000 14.017229 0.000000
-74.232451 -23.478336 4.960468 0.000000 49.000000 14.123311 0.000000
-74.944116 -26.286083 5.084726 0.000000 52.000000 14.096430 0.000000
-76.061060 -22.514614 5.324940 0.000000 32.000000 14.009464 0.000000
-79.406135 -22.731970 5.768767 0.000000 44.000000 14.022057 0.000000
-76.602165 -22.542790 5.407349 0.000000 41.000000 14.000983 0.000000
-79.626844 -22.784709 5.736945 0.000000 50.000000 14.083432 0.000000
-77.877897 -22.877139 5.536392 0.000000 38.000000 14.045639 0.000000
-77.704110 -22.550863 5.618618 0.000000 40.000000 13.940667 0.000000
-79.908002 -22.434922 5.496743 0.000000 52.000000 14.359448 22.000000
-80.115959 -22.901220 5.723829 0.000000 44.000000 14.162569 0.000000
-80.177049 -27.790307 5.771079 0.000000 39.000000 14.124014 0.000000
-75.785885 -23.142050 4.844499 0.000000 70.000000 14.448280 24.000000
-77.951790 -25.396487 5.511943 0.000000 38.000000 14.079856 0.000000
-74.354078 -23.664388 4.741083 0.000000 57.000000 14.357128 7.000000
-78.620768 -23.847085 5.562784 0.000000 41.000000 14.119945 0.000000
-74.702398 -27.884068 5.006443 0.000000 53.000000 14.141307 0.000000
-74.445188 -24.425666 4.749075 0.000000 44.000000 14.361530 10.000000
-74.537578 -27.525627 4.986176 0.000000 42.000000 14.139100 0.000000
-75.950939 -28.005101 5.199752 0.000000 36.000000 14.118610 0.000000
-78.308430 -25.594154 5.629007 0.000000 39.000000 14.012094 0.000000
-75.171075 -22.937743 4.595983 0.000000 64.000000 14.611375 24.000000
-77.044737 -27.344371 5.202440 0.000000 48.000000 14.263858 30.000000
-77.518245 -25.722376 5.430512 0.000000 33.000000 14.101912 0.000000
-78.621131 -24.795867 5.527574 0.000000 47.000000 14.154881 0.000000
-75.460795 -23.710144 4.784067 0.000000 62.000000 14.464197 7.000000
-75.250623 -24.109033 5.267160 0.000000 22.000000 13.957120 0.000000
-76.450643 -25.241441 5.239725 0.000000 48.000000 14.146578 0.000000
-76.767829 -26.177212 5.304533 0.000000 58.000000 14.125257 0.000000
-79.109869 -22.918590 5.140234 0.000000 72.000000 14.604754 21.000000
-76.792466 -23.272262 5.331756 0.000000 46.000000 14.101616 0.000000
-77.385782 -24.432147 5.013330 0.000000 64.000000 14.497349 18.000000
-79.069358 -27.780215 5.618393 0.000000 38.000000 14.125508 0.000000
-76.094484 -25.401714 5.058202 0.000000 57.000000 14.278271 6.000000
-75.650829 -23.503125 5.162389 0.000000 44.000000 14.115047 0.000000
-75.590791 -24.465664 4.929208 0.000000 61.000000 14.337968 10.000000
-77.182434 -26.580190 5.395423 0.000000 40.000000 14.091268 0.000000
-79.629170 -24.065459 5.825919 0.000000 36.000000 13.995590 0.000000
-77.722816 -25.884517 5.460059 0.000000 33.000000 14.100300 0.000000
-77.669881 -24.662433 5.438035 0.000000 33.000000 14.114963 0.000000
-79.454777 -23.618328 5.202603 0.000000 70.000000 14.589598 9.000000
-74.183967 -25.748123 4.926361 0.000000 45.000000 14.150548 0.000000
-74.631319 -23.179740 5.011517 0.000000 54.000000 14.126668 0.000000
-77.947570 -24.489955 5.454350 0.000000 44.000000 14.136349 0.000000
-76.352046 -27.184163 5.345658 0.000000 28.000000 14.028285 0.000000
-77.019961 -24.144994 5.523503 0.000000 28.000000 13.942393 0.000000
-78.344626 -24.268923 5.562896 0.000000 34.000000 14.082493 0.000000
-75.384220 -27.310393 4.868450 0.000000 64.000000 14.370234 16.000000
-76.667662 -26.322751 5.319960 0.000000 35.000000 14.096427 0.000000
-74.949946 -23.114601 4.849278 0.000000 47.000000 14.330504 24.000000
-79.546812 -24.585575 5.699911 0.000000 52.000000 14.109304 0.000000
-77.384431 -26.231250 5.426627 0.000000 43.000000 14.087666 0.000000
-77.930624 -24.723235 5.499520 0.000000 41.000000 14.089302 0.000000
-79.631560 -24.608346 5.663012 0.000000 43.000000 14.157324 0.000000
-77.258049 -28.149987 5.200787 0.000000 28.000000 14.294341 29.000000
-78.696778 -25.245301 5.528637 0.000000 44.000000 14.164057 0.000000
-79.497087 -25.693754 5.820576 0.000000 26.000000 13.983023 0.000000
-75.806799 -23.220130 5.013186 0.000000 61.000000 14.283971 24.000000
-79.289421 -28.268579 5.428016 0.000000 67.000000 14.343895 28.000000
-74.746988 -23.952837 4.798942 0.000000 40.000000 14.352932 7.000000
-77.407312 -23.642255 5.427727 0.000000 49.000000 14.089670 0.000000
-78.502508 -24.642505 5.574985 0.000000 48.000000 14.091864 0.000000
-74.234855 -23.110349 4.834305 0.000000 58.000000 14.248640 25.000000
-74.976496 -26.275061 5.069658 0.000000 45.000000 14.115739 0.000000
-79.026160 -23.771961 5.714928 0.000000 35.000000 14.024019 0.000000
-77.211950 -24.041726 5.555034 0.000000 35.000000 13.937114 0.000000
-78.423548 -23.707730 5.562427 0.000000 49.000000 14.093630 0.000000
-79.099935 -22.904697 5.473163 0.000000 49.000000 14.273539 21.000000
-76.052533 -25.490056 5.371052 0.000000 27.000000 13.962622 0.000000
-74.861589 -24.403668 4.723682 0.000000 53.000000 14.442998 10.000000
-79.042280 -23.656639 5.650861 0.000000 49.000000 14.089677 0.000000
-77.627678 -27.878736 5.270289 0.000000 30.000000 14.275461 0.000000
-75.028784 -24.547814 4.893089 0.000000 42.000000 14.297756 10.000000
-78.280718 -27.135430 5.676341 0.000000 29.000000 13.961447 0.000000
-74.599558 -22.543382 4.797221 0.000000 67.000000 14.334701 23.000000
-76.406551 -23.413387 5.278886 0.000000 53.000000 14.101814 0.000000
-76.232428 -22.440375 5.362107 0.000000 35.000000 13.995811 0.000000
-76.157360 -23.367028 5.226305 0.000000 45.000000 14.120215 0.000000
-75.215114 -22.752821 4.825595 0.000000 54.000000 14.389827 24.000000
-79.235113 -22.911807 5.481160 0.000000 28.000000 14.283895 21.000000
-77.849201 -23.059714 5.291690 0.000000 34.000000 14.284213 0.000000
-78.174837 -23.139533 5.542606 0.000000 53.000000 14.079636 0.000000
-77.216781 -24.703180 5.203850 0.000000 40.000000 14.285726 18.000000
-77.963941 -27.591392 5.454345 0.000000 44.000000 14.138568 0.000000
-76.704815 -23.197959 5.302139 0.000000 43.000000 14.119108 0.000000
-78.659732 -25.474605 5.695588 0.000000 40.000000 13.993630 0.000000
-76.310217 -22.511976 5.361580 0.000000 32.000000 14.006853 0.000000
-79.554840 -23.472121 5.567073 0.000000 66.000000 14.242007 9.000000
-74.252097 -22.606008 5.085752 0.000000 38.000000 14.001834 0.000000
-77.026908 -25.784263 5.338323 0.000000 42.000000 14.126812 0.000000
-74.546060 -28.393479 5.041213 0.000000 26.000000 14.085716 0.000000
-76.314745 -23.423709 5.215402 0.000000 39.000000 14.152300 0.000000
-75.192183 -23.280860 5.104026 0.000000 44.000000 14.110853 0.000000
-78.336838 -27.256485 5.528287 0.000000 45.000000 14.115730 0.000000
-75.208595 -24.813077 5.093057 0.000000 37.000000 14.123940 0.000000
-74.461557 -23.831183 5.102050 0.000000 33.000000 14.014011 0.000000
-74.894957 -22.979885 4.738495 0.000000 65.000000 14.432833 23.000000
-77.004099 -24.574658 4.889462 0.000000 67.000000 14.568466 18.000000
-74.197290 -26.235600 4.965843 0.000000 50.000000 14.113231 0.000000
-79.136337 -25.853315 5.671337 0.000000 38.000000 14.082108 0.000000
-76.458842 -24.210711 5.389133 0.000000 39.000000 13.999651 0.000000
-74.930869 -24.228332 5.194658 0.000000 34.000000 13.985717 0.000000
-78.749200 -26.898831 5.701682 0.000000 22.000000 13.999691 0.000000
-77.448645 -23.397371 5.396595 0.000000 48.000000 14.126105 0.000000
-75.585468 -24.919528 5.176404 0.000000 45.000000 14.092322 0.000000
-76.663865 -23.392139 5.284934 0.000000 49.000000 14.130617 0.000000
-75.882372 -22.859431 4.808189 0.000000 77.000000 14.497305 24.000000
-77.497824 -25.243625 5.385098 0.000000 45.000000 14.144147 0.000000
-76.943125 -25.001338 5.335884 0.000000 42.000000 14.117899 0.000000
-77.973220 -27.649628 5.490729 0.000000 42.000000 14.103773 0.000000
-77.854106 -25.577123 5.470706 0.000000 49.000000 14.107504 0.000000
-76.172863 -25.534361 5.275482 0.000000 49.000000 14.073586 0.000000
-74.528935 -22.905301 4.893624 0.000000 63.000000 14.229633 23.000000
-76.304561 -25.690676 5.282681 0.000000 43.000000 14.084262 0.000000
-78.139451 -25.905654 5.471704 0.000000 44.000000 14.145102 0.000000
-74.806701 -22.960108 4.675230 0.000000 68.000000 14.483583 23.000000
-78.324447 -22.492597 5.609145 0.000000 44.000000 14.033940 0.000000
-79.295212 -28.239437 5.458986 0.000000 68.000000 14.313993 28.000000
-76.659742 -25.058203 5.256581 0.000000 33.000000 14.158152 0.000000
-76.741792 -24.773040 4.904934 0.000000 58.000000 14.517665 19.000000
-74.956359 -24.462771 4.726634 0.000000 61.000000 14.452889 10.000000
-75.050082 -24.914707 5.072056 0.000000 48.000000 14.123313 0.000000
-76.961927 -26.512715 5.350734 0.000000 43.000000 14.105728 0.000000
-79.018582 -26.827447 5.700997 0.000000 51.000000 14.036797 0.000000
-77.124209 -26.695484 5.407652 0.000000 38.000000 14.071277 0.000000
-74.778899 -23.325802 5.032397 0.000000 45.000000 14.125937 0.000000
-77.354581 -26.904710 5.558343 0.000000 33.000000 13.953123 0.000000
-79.366284 -27.220570 5.794574 0.000000 35.000000 13.991098 0.000000
-75.016244 -22.607602 4.646459 0.000000 81.000000 14.540425 23.000000
-75.247135 -24.310571 4.966103 0.000000 66.000000 14.254940 10.000000
-77.633246 -22.695911 5.577379 0.000000 39.000000 13.971945 0.000000
-79.658800 -27.762292 5.682950 0.000000 42.000000 14.141253 0.000000
-75.813263 -22.707073 5.239120 0.000000 61.000000 14.060986 0.000000
-79.529535 -23.318060 5.396301 0.000000 66.000000 14.407789 21.000000
-74.410725 -27.206107 5.075101 0.000000 48.000000 14.033838 0.000000
-75.354036 -24.395141 4.680344 0.000000 74.000000 14.552530 10.000000
-80.093677 -28.378925 5.761563 0.000000 31.000000 14.122169 0.000000
-77.138246 -24.248107 5.481392 0.000000 22.000000 14.000113 0.000000
-75.294051 -22.933644 4.642715 0.000000 62.000000 14.581702 24.000000
-77.365384 -26.471018 5.422602 0.000000 36.000000 14.089078 0.000000
-79.745039 -26.081685 5.734814 0.000000 44.000000 14.101527 0.000000
-76.139514 -22.560155 5.401183 0.000000 23.000000 13.944530 0.000000
-74.813510 -24.533833 4.752791 0.000000 67.000000 14.407655 10.000000
-76.863888 -23.675638 4.985422 0.000000 55.000000 14.454427 8.000000
-75.565765 -27.989839 4.967350 0.000000 46.000000 14.296792 0.000000
-80.007396 -27.228441 5.859572 0.000000 29.000000 14.013393 0.000000
-76.095524 -22.707514 4.982433 0.000000 30.000000 14.353485 24.000000
-79.652125 -23.140463 5.469114 0.000000 26.000000 14.352222 21.000000
-75.548530 -25.360526 5.162636 0.000000 44.000000 14.100969 0.000000
-76.871627 -26.452340 5.339005 0.000000 33.000000 14.105138 0.000000
-78.523727 -23.880888 5.709115 0.000000 34.000000 13.961836 0.000000
-76.121013 -25.342202 4.832003 0.000000 75.000000 14.505980 6.000000
-79.026146 -25.349886 5.567212 0.000000 42.000000 14.170376 0.000000
-78.656211 -22.651563 5.740230 0.000000 32.000000 13.948922 0.000000
-76.951690 -25.045562 5.306352 0.000000 55.000000 14.148318 0.000000
-77.681994 -23.067849 5.400003 0.000000 38.000000 14.154284 0.000000
-76.490332 -23.158149 5.125514 0.000000 57.000000 14.265107 24.000000
-74.364992 -22.610326 4.469913 0.000000 30.000000 14.627283 23.000000
-75.334076 -24.255548 5.161892 0.000000 36.000000 14.072706 0.000000
-74.409374 -28.432153 5.034619 0.000000 28.000000 14.073766 0.000000
-80.082380 -27.551911 5.764784 0.000000 37.000000 14.117450 0.000000
-75.894966 -27.471717 5.150621 0.000000 31.000000 14.159721 0.000000
-75.049851 -24.065334 5.257337 0.000000 20.000000 13.939703 0.000000
-75.592728 -24.028965 5.319154 0.000000 28.000000 13.951865 0.000000
-77.090594 -23.866556 5.308324 0.000000 39.000000 14.165147 0.000000
-80.076333 -26.334778 5.803502 0.000000 40.000000 14.078270 0.000000
-74.634394 -23.848884 5.135961 0.000000 34.000000 14.003783 0.000000
-74.973090 -23.797806 4.630908 0.000000 36.000000 14.549998 7.000000
-79.969658 -24.597426 5.705145 0.000000 41.000000 14.161298 0.000000
-74.498758 -24.637610 4.995009 0.000000 41.000000 14.125099 0.000000
-75.027750 -23.272952 5.075226 0.000000 43.000000 14.117153 0.000000
-75.296638 -24.585440 4.975651 0.000000 44.000000 14.252174 10.000000
-79.139188 -22.899979 5.226066 0.000000 54.000000 14.523675 21.000000
-74.980722 -22.588115 4.944979 0.000000 66.000000 14.239844 23.000000
-76.596634 -24.567276 4.582806 0.000000 72.000000 14.817205 19.000000
-74.891874 -24.009644 5.218810 0.000000 26.000000 13.956513 0.000000
-74.568501 -22.709462 4.621206 0.000000 69.000000 14.504900 23.000000
-77.206642 -25.126626 5.355607 0.000000 48.000000 14.133992 0.000000
-78.794546 -26.711651 5.561083 0.000000 24.000000 14.145130 0.000000
-74.907609 -22.944956 4.667233 0.000000 69.000000 14.505152 23.000000
-75.135555 -24.103207 5.277861 0.000000 21.000000 13.930957 0.000000
-76.575977 -22.984645 4.857546 0.000000 65.000000 14.542195 24.000000
-75.403973 -24.728452 5.143140 0.000000 42.000000 14.100738 0.000000
-77.159821 -26.838950 5.441843 0.000000 28.000000 14.042216 0.000000
-77.672346 -27.765450 5.478370 0.000000 25.000000 14.075332 0.000000
-74.444971 -24.306058 4.825253 0.000000 58.000000 14.286022 10.000000
-75.059125 -22.826511 4.664965 0.000000 78.000000 14.527888 24.000000
-78.378902 -25.784544 5.597068 0.000000 30.000000 14.053269 0.000000
-74.264188 -25.369366 5.006412 0.000000 47.000000 14.082080 0.000000
-76.463791 -26.403215 5.299448 0.000000 36.000000 14.089181 0.000000
-74.384382 -25.548283 5.090575 0.000000 34.000000 14.014944 0.000000
-75.471172 -24.050096 5.277641 0.000000 26.000000 13.976559 0.000000
-75.769330 -22.636091 4.952596 0.000000 70.000000 14.338938 24.000000
-74.457352 -25.859911 5.000165 0.000000 55.000000 14.114391 0.000000
-76.205945 -24.020404 5.372175 0.000000 33.000000 13.982255 0.000000
-79.814989 -25.115171 5.669699 0.000000 50.000000 14.175503 0.000000
-78.261294 -25.267904 5.354441 0.000000 25.000000 14.277764 0.000000
-79.088296 -23.586540 5.632638 0.000000 49.000000 14.113955 0.000000
-78.208806 -27.578278 5.510925 0.000000 34.000000 14.115620 0.000000
-75.810203 -24.775088 5.178668 0.000000 43.000000 14.120469 0.000000
-74.591796 -24.318892 5.031646 0.000000 44.000000 14.101380 0.000000
-75.424756 -22.467179 5.141273 0.000000 53.000000 14.105398 0.000000
-78.048838 -22.429338 5.536465 0.000000 22.000000 14.068682 0.000000
-76.606644 -27.243318 5.408159 0.000000 36.000000 14.000786 0.000000
-74.963396 -27.102503 5.174273 0.000000 41.000000 14.010313 0.000000
-74.263818 -23.150439 4.771993 0.000000 58.000000 14.314296 25.000000
-74.901742 -27.233139 5.012907 0.000000 47.000000 14.161860 0.000000
-76.969688 -23.667968 4.983452 0.000000 64.000000 14.470686 8.000000
-74.487750 -22.760263 4.727338 0.000000 39.000000 14.388823 23.000000
-75.051090 -26.540757 5.098351 0.000000 30.000000 14.097396 0.000000
-76.738416 -27.965516 5.307178 0.000000 51.000000 14.118659 0.000000
-78.913274 -25.519755 5.624671 0.000000 44.000000 14.098181 0.000000
-76.095340 -22.424379 5.371103 0.000000 32.000000 13.968360 0.000000
-78.875823 -26.282499 5.610154 0.000000 50.000000 14.107501 0.000000
-75.106464 -27.762005 5.078983 0.000000 40.000000 14.124074 0.000000
-75.132696 -27.733406 5.050625 0.000000 23.000000 14.155719 0.000000
-77.232835 -24.639480 4.874206 0.000000 68.000000 14.614513 18.000000
-79.209810 -26.082472 5.665260 0.000000 30.000000 14.098065 0.000000
-77.868669 -27.785486 5.501382 0.000000 36.000000 14.079079 0.000000
-77.430499 -23.223146 5.421733 0.000000 44.000000 14.098744 0.000000
-77.640270 -27.634045 5.456008 0.000000 37.000000 14.093151 0.000000
-76.648638 -27.883545 5.304820 0.000000 49.000000 14.108855 0.000000
-77.190703 -23.927773 5.060022 0.000000 66.000000 14.424706 8.000000
-78.844150 -27.497407 5.603851 0.000000 46.000000 14.109463 0.000000
-75.142116 -23.430866 5.056354 0.000000 44.000000 14.151317 0.000000
-75.384417 -23.915545 5.147859 0.000000 54.000000 14.093418 0.000000
-76.841931 -27.061141 5.358834 0.000000 41.000000 14.081476 0.000000
-78.486833 -27.212401 5.635052 0.000000 45.000000 14.030229 0.000000
-78.446169 -24.091905 5.393464 0.000000 23.000000 14.264100 0.000000
-78.384000 -27.093396 5.738795 0.000000 23.000000 13.913534 0.000000
-78.591224 -27.517333 5.596410 0.000000 32.000000 14.082633 0.000000
-79.086141 -25.005593 5.435047 0.000000 56.000000 14.309440 1.000000
-77.236946 -26.501881 5.399355 0.000000 43.000000 14.094743 0.000000
-77.851955 -26.741017 5.526642 0.000000 46.000000 14.051791 0.000000
-77.413494 -22.370673 5.370016 0.000000 43.000000 14.147687 0.000000
-77.619132 -26.574275 5.449470 0.000000 52.000000 14.096770 0.000000
-75.962317 -25.292012 5.051561 0.000000 54.000000 14.266979 6.000000
-77.421253 -26.752294 5.452807 0.000000 36.000000 14.066706 0.000000
-75.756895 -26.197012 5.214154 0.000000 40.000000 14.078101 0.000000
-79.005688 -24.073187 5.786332 0.000000 31.000000 13.950502 0.000000
-78.252354 -22.347700 5.551172 0.000000 54.000000 14.081631 0.000000
-75.923019 -25.206880 4.933570 0.000000 55.000000 14.378572 6.000000
-75.397142 -25.900002 5.129828 0.000000 43.000000 14.113004 0.000000
-74.615385 -22.475744 4.688305 0.000000 65.000000 14.444757 23.000000
-75.229223 -25.756467 5.093799 0.000000 42.000000 14.125995 0.000000
-76.226387 -24.355721 4.887479 0.000000 72.000000 14.465263 19.000000
-75.553340 -22.981541 4.656633 0.000000 74.000000 14.602974 24.000000
-76.228473 -27.076608 5.373881 0.000000 33.000000 13.983611 0.000000
-76.830688 -25.777683 5.382480 0.000000 39.000000 14.056526 0.000000
-77.406208 -28.180685 5.367840 0.000000 38.000000 14.148858 0.000000
-74.742805 -25.318700 4.991974 0.000000 52.000000 14.161108 0.000000
-76.993854 -25.612642 5.336498 0.000000 41.000000 14.124150 0.000000
-74.924993 -23.526571 4.868719 0.000000 64.000000 14.307867 7.000000
-76.210319 -22.737270 5.043352 0.000000 36.000000 14.308649 24.000000
-76.142726 -22.886209 4.831286 0.000000 71.000000 14.509627 24.000000
-75.324687 -26.637062 5.190395 0.000000 32.000000 14.043195 0.000000
-75.154892 -24.305061 5.052333 0.000000 55.000000 14.157028 0.000000
-80.020023 -23.470218 5.729644 0.000000 42.000000 14.143835 0.000000
-75.058023 -24.035476 5.263866 0.000000 19.000000 13.934339 0.000000
-77.249490 -25.536069 5.248711 0.000000 50.000000 14.245700 12.000000
-74.424235 -23.420465 4.962695 0.000000 51.000000 14.147039 0.000000
-74.324564 -23.274027 4.967771 0.000000 56.000000 14.128531 0.000000
-74.201357 -24.006298 5.044709 0.000000 28.000000 14.035639 0.000000
-75.623135 -27.336581 5.110352 0.000000 44.000000 14.162861 0.000000
-74.203338 -24.331765 4.954990 0.000000 52.000000 14.124802 0.000000
-74.212342 -24.494617 4.928623 0.000000 61.000000 14.152144 0.000000
-75.139333 -23.874442 4.633858 0.000000 44.000000 14.569555 7.000000
-78.901924 -22.872681 5.470303 0.000000 72.000000 14.249597 0.000000
-74.532991 -25.122030 4.777132 0.000000 70.000000 14.345604 2.000000
-80.108952 -22.399137 5.899808 0.000000 30.000000 13.987259 0.000000
-77.747856 -23.107418 5.457417 0.000000 49.000000 14.106303 0.000000
-77.119336 -23.272638 5.334802 0.000000 48.000000 14.142799 0.000000
-74.379088 -25.862804 5.004900 0.000000 44.000000 14.099116 0.000000
-74.194949 -24.520947 4.937358 0.000000 41.000000 14.141137 0.000000
-76.198029 -24.619403 4.905699 0.000000 55.000000 14.443376 19.000000
-77.618006 -23.201817 5.422458 0.000000 42.000000 14.123382 0.000000
-76.771668 -23.636827 4.761016 0.000000 70.000000 14.664301 8.000000
-76.221382 -27.313437 5.268991 0.000000 37.000000 14.086578 0.000000
-75.596877 -22.974284 4.775003 0.000000 56.000000 14.491579 24.000000
-79.659877 -24.817228 5.661400 0.000000 47.000000 14.162750 0.000000
-77.183107 -23.125908 5.364371 0.000000 49.000000 14.122126 0.000000
-76.248249 -25.725180 5.340405 0.000000 36.000000 14.019454 0.000000
-79.610460 -26.159298 5.685078 0.000000 41.000000 14.132607 0.000000
-74.263941 -27.733805 4.971548 0.000000 37.000000 14.116591 0.000000
-75.423350 -25.094985 5.098256 0.000000 47.000000 14.147830 0.000000
-76.524363 -22.389483 5.290734 0.000000 33.000000 14.106006 0.000000
-75.509055 -24.250804 4.802543 0.000000 68.000000 14.452416 10.000000
-79.820825 -22.399527 5.866879 0.000000 35.000000 13.980923 0.000000
-75.180406 -27.299407 4.811011 0.000000 55.000000 14.399584 16.000000
-79.594471 -22.421940 5.841217 0.000000 36.000000 13.975740 0.000000
-78.521287 -22.654615 5.724282 0.000000 30.000000 13.946478 0.000000
-75.225224 -22.473613 4.967438 0.000000 56.000000 14.250654 15.000000
-75.656235 -22.870786 4.626008 0.000000 78.000000 14.647232 24.000000
-78.572695 -23.478746 5.588298 0.000000 40.000000 14.088165 0.000000
-75.858225 -27.545159 5.184722 0.000000 38.000000 14.120965 0.000000
-74.746510 -22.349899 4.652933 0.000000 68.000000 14.497536 23.000000
-74.251759 -27.162322 5.039538 0.000000 40.000000 14.047578 0.000000
-75.103967 -23.492905 5.059315 0.000000 53.000000 14.143224 0.000000
-74.215219 -27.022166 5.131579 0.000000 32.000000 13.951441 0.000000
-75.607426 -27.058556 5.268557 0.000000 41.000000 14.003985 0.000000
-75.144661 -23.557842 4.692593 0.000000 69.000000 14.512081 7.000000
-77.045061 -23.470872 4.919327 0.000000 72.000000 14.544414 8.000000
-75.220723 -26.509788 5.117375 0.000000 44.000000 14.101486 0.000000
-79.858837 -24.743678 5.712826 0.000000 43.000000 14.138702 0.000000
-75.088418 -25.802258 5.044765 0.000000 38.000000 14.155538 0.000000
-75.738119 -22.419758 5.145171 0.000000 51.000000 14.143911 0.000000
-74.822955 -25.820464 5.018772 0.000000 57.000000 14.145394 0.000000
-74.829596 -25.680738 5.144563 0.000000 37.000000 14.021657 0.000000
-75.280876 -23.369584 5.100282 0.000000 46.000000 14.126556 0.000000
-77.189540 -24.219048 5.520969 0.000000 34.000000 13.967836 0.000000
-74.348880 -27.231843 5.006536 0.000000 33.000000 14.093410 0.000000
-76.320174 -22.769552 5.290658 0.000000 51.000000 14.078470 0.000000
-74.942234 -25.701595 5.088983 0.000000 29.000000 14.091958 0.000000
-79.960766 -22.931142 5.706542 0.000000 38.000000 14.158711 0.000000
-75.323485 -25.355101 5.212805 0.000000 19.000000 14.020829 0.000000
-75.395445 -22.492293 5.142487 0.000000 51.000000 14.100232 0.000000
-78.687738 -27.688301 5.579248 0.000000 22.000000 14.112689 0.000000
-74.400432 -22.638242 4.953729 0.000000 57.000000 14.152703 0.000000
-74.764690 -23.918240 4.807579 0.000000 35.000000 14.346768 7.000000
-79.089599 -27.121133 5.700434 0.000000 34.000000 14.046958 0.000000
-75.375805 -24.175679 5.276796 0.000000 27.000000 13.964500 0.000000
-76.779736 -22.790208 5.353090 0.000000 51.000000 14.078756 0.000000
-75.516160 -23.047823 4.742301 0.000000 50.000000 14.513066 24.000000
-74.722776 -22.992232 4.859615 0.000000 51.000000 14.289543 23.000000
-77.723742 -23.042590 5.461574 0.000000 49.000000 14.098924 0.000000
-78.020513 -23.287219 5.525496 0.000000 47.000000 14.075720 0.000000
-75.214289 -22.885666 4.555692 0.000000 65.000000 14.657140 24.000000
-74.646398 -23.231091 5.007886 0.000000 51.000000 14.132305 0.000000
-78.472459 -23.265697 5.566657 0.000000 49.000000 14.096052 0.000000
-76.804031 -23.329435 5.331020 0.000000 43.000000 14.103909 0.000000
-74.196343 -24.712302 4.958736 0.000000 43.000000 14.120144 0.000000
-76.999407 -23.406235 5.322502 0.000000 62.000000 14.138769 0.000000
-80.061434 -22.528846 5.493481 0.000000 24.000000 14.383428 22.000000
-74.974598 -25.485346 5.087231 0.000000 51.000000 14.098070 0.000000
-79.257719 -23.982187 5.709274 0.000000 31.000000 14.060934 0.000000
-78.269062 -23.863647 5.632148 0.000000 35.000000 14.003658 0.000000
-75.456695 -26.212983 5.159338 0.000000 38.000000 14.091818 0.000000
-78.739581 -24.062773 5.693229 0.000000 40.000000 14.006765 0.000000
-79.002913 -24.171244 5.759778 0.000000 37.000000 13.976437 0.000000
-79.167083 -24.268588 5.700519 0.000000 38.000000 14.057352 0.000000
-74.213028 -22.702616 4.989712 0.000000 38.000000 14.091709 0.000000
-75.382449 -27.519971 5.067496 0.000000 51.000000 14.172776 0.000000
-79.790692 -24.596589 5.684720 0.000000 51.000000 14.157334 0.000000
-80.093830 -24.728597 5.785153 0.000000 41.000000 14.098816 0.000000
-75.714798 -23.447573 5.152377 0.000000 50.000000 14.133618 0.000000
-75.598026 -23.281380 4.948869 0.000000 60.000000 14.319466 0.000000
-78.716313 -25.936118 5.567624 0.000000 39.000000 14.128070 0.000000
-75.000050 -26.980956 5.200443 0.000000 36.000000 13.989340 0.000000
-78.200259 -22.929780 5.544489 0.000000 43.000000 14.081208 0.000000
-77.927867 -22.927305 5.490616 0.000000 42.000000 14.097752 0.000000
-78.502302 -24.131875 5.713762 0.000000 30.000000 13.954334 0.000000
-76.837997 -25.913126 5.287239 0.000000 41.000000 14.151881 0.000000
-79.554711 -23.238451 5.464033 0.000000 60.000000 14.344083 21.000000
-78.539968 -22.949829 5.582665 0.000000 44.000000 14.089321 0.000000
-78.692099 -28.233854 5.304295 0.000000 38.000000 14.385706 20.000000
-78.127572 -26.709526 5.485801 0.000000 24.000000 14.129528 0.000000
-74.709309 -24.460659 4.702431 0.000000 66.000000 14.443462 10.000000
-75.629513 -27.982381 5.009177 0.000000 37.000000 14.263969 0.000000
-76.207837 -24.427560 4.962641 0.000000 42.000000 14.388283 19.000000
-75.998268 -24.502450 4.960448 0.000000 61.000000 14.362116 19.000000
-76.705258 -22.782670 5.277732 0.000000 52.000000 14.143351 0.000000
-74.409498 -22.654775 4.983728 0.000000 61.000000 14.124206 0.000000
-74.281494 -22.629332 5.082215 0.000000 35.000000 14.009314 0.000000
-75.256755 -23.152636 5.086153 0.000000 37.000000 14.137294 0.000000
-78.970842 -25.047251 5.474863 0.000000 44.000000 14.254398 1.000000
-74.282302 -22.362424 4.980494 0.000000 39.000000 14.110210 0.000000
-77.880847 -25.454302 5.549254 0.000000 31.000000 14.033294 0.000000
-74.190455 -23.156551 4.940321 0.000000 51.000000 14.137594 0.000000
-75.160354 -22.456585 4.826642 0.000000 57.000000 14.381385 15.000000
-74.798641 -24.335146 4.784273 0.000000 49.000000 14.374451 10.000000
-75.649476 -22.976468 4.527038 0.000000 68.000000 14.744379 24.000000
-76.209239 -23.421939 5.249301 0.000000 49.000000 14.104445 0.000000
-74.373355 -26.412503 4.951563 0.000000 49.000000 14.151188 0.000000
-76.407021 -23.532448 5.281477 0.000000 49.000000 14.099311 0.000000
-80.002251 -25.493390 5.890948 0.000000 36.000000 13.981609 0.000000
-78.158342 -23.169945 5.509489 0.000000 46.000000 14.110218 0.000000
-79.525621 -27.507302 5.454717 0.000000 57.000000 14.349380 11.000000
-75.595712 -24.962911 5.137564 0.000000 23.000000 14.132191 0.000000
-75.590224 -26.306105 5.155485 0.000000 42.000000 14.113692 0.000000
-74.175742 -28.091361 4.920164 0.000000 38.000000 14.155576 0.000000
-74.750422 -25.764220 4.992235 0.000000 49.000000 14.161879 0.000000
-78.488760 -22.934469 5.572014 0.000000 48.000000 14.092949 0.000000
-77.553445 -26.269949 5.433482 0.000000 39.000000 14.103729 0.000000
-78.338372 -24.802239 5.495890 0.000000 57.000000 14.148037 0.000000
-75.744597 -25.159656 5.140705 0.000000 47.000000 14.149212 0.000000
-76.845491 -24.943945 5.345558 0.000000 42.000000 14.095111 0.000000
-76.971267 -25.074208 5.307013 0.000000 50.000000 14.150310 0.000000
-78.972449 -25.253339 5.625347 0.000000 47.000000 14.105514 0.000000
-77.398598 -23.624141 5.056474 0.000000 41.000000 14.456334 8.000000
-76.448487 -24.455235 4.704865 0.000000 64.000000 14.676233 19.000000
-75.600903 -23.365456 5.114824 0.000000 27.000000 14.155424 0.000000
-75.548761 -27.814485 5.141481 0.000000 51.000000 14.121961 0.000000
-77.715983 -25.678369 5.474759 0.000000 53.000000 14.084811 0.000000
-78.278608 -24.079945 5.626637 0.000000 34.000000 14.010410 0.000000
-76.123056 -26.455206 5.237138 0.000000 47.000000 14.104843 0.000000
-77.607568 -22.864453 5.468305 0.000000 37.000000 14.076545 0.000000
-78.032986 -25.985300 5.488939 0.000000 46.000000 14.113628 0.000000
-80.201345 -26.243340 5.831709 0.000000 36.000000 14.067227 0.000000
-75.388289 -24.059986 5.311086 0.000000 20.000000 13.932214 0.000000
-74.775307 -27.028656 5.124222 0.000000 41.000000 14.034470 0.000000
-78.693537 -26.644613 5.564236 0.000000 42.000000 14.128347 0.000000
-76.275983 -27.258544 5.232433 0.000000 42.000000 14.130184 0.000000
-79.215227 -27.053874 5.837933 0.000000 25.000000 13.927710 0.000000
-74.410556 -23.030984 4.793234 0.000000 69.000000 14.313093 25.000000
-79.816221 -27.918833 5.705458 0.000000 52.000000 14.140239 0.000000
-77.668575 -25.250677 5.467752 0.000000 39.000000 14.085342 0.000000
-77.171680 -26.489060 5.374756 0.000000 35.000000 14.110291 0.000000
-75.421301 -24.541436 4.933126 0.000000 53.000000 14.311166 10.000000
-79.159889 -24.811162 5.668993 0.000000 49.000000 14.087615 0.000000
-74.771277 -22.594818 4.542948 0.000000 70.000000 14.609859 23.000000
-78.606983 -24.682796 5.565902 0.000000 43.000000 14.114992 0.000000
-75.680817 -24.387636 5.174099 0.000000 28.000000 14.107500 0.000000
-76.778836 -22.845511 5.214241 0.000000 46.000000 14.216208 24.000000
-74.352174 -27.583050 4.990135 0.000000 36.000000 14.110106 0.000000
-78.449616 -24.605059 5.533231 0.000000 55.000000 14.126083 0.000000
-79.437592 -24.562590 5.677756 0.000000 35.000000 14.116486 0.000000
-75.423224 -27.902319 5.102167 0.000000 48.000000 14.143938 0.000000
-80.033950 -22.987361 5.314304 0.000000 62.000000 14.557243 21.000000
-75.856338 -25.214944 4.979477 0.000000 59.000000 14.324069 6.000000
-76.170083 -23.070254 4.951524 0.000000 62.000000 14.394192 24.000000
-79.607752 -24.316221 5.771161 0.000000 41.000000 14.046949 0.000000
-79.717552 -23.679986 5.347988 0.000000 50.000000 14.481083 9.000000
-78.457936 -24.273697 5.549794 0.000000 42.000000 14.110797 0.000000
-76.547792 -25.597263 5.369795 0.000000 37.000000 14.030840 0.000000
-77.747921 -25.504966 5.467608 0.000000 42.000000 14.096215 0.000000
-75.120918 -26.374821 5.070514 0.000000 34.000000 14.134420 0.000000
-79.333033 -23.282360 5.146163 0.000000 50.000000 14.629057 21.000000
-78.621075 -23.006302 5.574076 0.000000 38.000000 14.108798 0.000000
-77.418283 -27.699278 5.426780 0.000000 31.000000 14.092092 0.000000
-78.826991 -23.169235 5.308745 0.000000 44.000000 14.399538 21.000000
-76.095079 -24.464917 4.874549 0.000000 62.000000 14.460318 19.000000
-77.367201 -24.969715 5.415839 0.000000 49.000000 14.096025 0.000000
-75.808522 -22.995639 4.701548 0.000000 72.000000 14.592980 24.000000
-74.546548 -23.341005 5.010103 0.000000 44.000000 14.116606 0.000000
-75.927442 -23.333657 5.197591 0.000000 49.000000 14.117574 0.000000
-76.885813 -26.797945 5.371033 0.000000 36.000000 14.075323 0.000000
-74.108567 -24.392343 4.969639 0.000000 41.000000 14.097472 0.000000
-77.395232 -26.612288 5.365597 0.000000 49.000000 14.149596 0.000000
-74.298609 -22.508484 5.096114 0.000000 43.000000 13.997857 0.000000
-76.465746 -23.265191 5.261148 0.000000 54.000000 14.127394 0.000000
-79.604860 -23.269348 5.093545 0.000000 72.000000 14.717950 21.000000
-78.367634 -26.659804 5.513421 0.000000 29.000000 14.134624 0.000000
-74.427131 -23.188247 4.729614 0.000000 78.000000 14.378370 25.000000
-79.356961 -22.989017 5.202831 0.000000 58.000000 14.576145 21.000000
-74.325431 -24.423625 4.693373 0.000000 66.000000 14.400526 10.000000
-78.262459 -27.817117 5.552401 0.000000 34.000000 14.081780 0.000000
-74.435894 -23.948771 5.136962 0.000000 29.000000 13.975949 0.000000
-79.623333 -23.652917 5.161914 0.000000 63.000000 14.652707 9.000000
-75.918656 -24.302640 5.271102 0.000000 45.000000 14.043550 0.000000
-76.389483 -25.337865 5.206647 0.000000 36.000000 14.171082 0.000000
-79.938887 -26.757102 5.806661 0.000000 45.000000 14.056553 0.000000
-76.448670 -24.622854 4.644736 0.000000 72.000000 14.735835 19.000000
-75.747242 -28.189628 5.178701 0.000000 30.000000 14.111923 0.000000
-76.887529 -23.759667 4.904902 0.000000 76.000000 14.537404 8.000000
-74.827692 -24.900265 5.035858 0.000000 50.000000 14.129106 0.000000
-75.146305 -23.457777 5.058045 0.000000 51.000000 14.150208 0.000000
-77.981632 -25.316536 5.421586 0.000000 37.000000 14.173418 0.000000
-74.449685 -23.195185 4.979835 0.000000 50.000000 14.133498 0.000000
-75.646025 -22.934488 4.622453 0.000000 74.000000 14.649374 24.000000
-79.013349 -25.016148 5.312470 0.000000 55.000000 14.421048 1.000000
-74.319767 -24.378881 4.868695 0.000000 65.000000 14.226048 10.000000
-74.178669 -23.725840 4.923094 0.000000 45.000000 14.153069 0.000000
-77.120593 -25.935630 5.375069 0.000000 43.000000 14.103072 0.000000
-75.972884 -22.439112 5.215443 0.000000 34.000000 14.106031 0.000000
-77.239107 -26.113519 5.392999 0.000000 47.000000 14.101333 0.000000
-80.127513 -25.836313 5.839748 0.000000 36.000000 14.049278 0.000000
-75.307507 -22.765110 4.767657 0.000000 71.000000 14.459727 24.000000
-77.007089 -24.146561 5.509438 0.000000 20.000000 13.954589 0.000000
-75.111768 -23.896399 4.609130 0.000000 18.000000 14.590329 7.000000
-74.678419 -23.257806 5.019825 0.000000 43.000000 14.124806 0.000000
-77.585397 -26.665627 5.447103 0.000000 51.000000 14.094554 0.000000
-75.869963 -26.552852 5.190462 0.000000 58.000000 14.116865 0.000000
-75.112915 -24.123778 5.244076 0.000000 27.000000 13.961370 0.000000
-75.471687 -26.279853 5.146753 0.000000 47.000000 14.106315 0.000000
-77.942176 -27.087276 5.658950 0.000000 25.000000 13.932899 0.000000
-79.653680 -23.726825 5.309336 0.000000 64.000000 14.510743 9.000000
-79.521883 -28.203212 5.482047 0.000000 46.000000 14.321796 28.000000
-76.284521 -27.134504 5.431043 0.000000 29.000000 13.934553 0.000000
-74.620366 -25.055365 5.011596 0.000000 42.000000 14.125109 0.000000
-78.407547 -27.789069 5.530039 0.000000 31.000000 14.123556 0.000000
-77.360790 -23.386692 5.158763 0.000000 48.000000 14.349872 8.000000
-74.994627 -23.661693 4.570201 0.000000 59.000000 14.613060 7.000000
-75.568707 -23.697014 5.112404 0.000000 68.000000 14.153468 0.000000
-78.279679 -28.002083 5.527841 0.000000 42.000000 14.108443 0.000000
-78.246811 -26.721426 5.556699 0.000000 40.000000 14.075405 0.000000
-75.796464 -27.714197 5.179468 0.000000 41.000000 14.117819 0.000000
-76.514791 -27.983461 5.241940 0.000000 59.000000 14.153058 0.000000
-79.888112 -23.454819 5.711815 0.000000 32.000000 14.143662 0.000000
-79.093450 -24.830943 5.641644 0.000000 42.000000 14.105729 0.000000
-79.346223 -27.209884 5.813717 0.000000 27.000000 13.969418 0.000000
-75.021918 -26.588287 5.034741 0.000000 44.000000 14.156477 0.000000
-75.300254 -23.591383 4.686409 0.000000 87.000000 14.539248 7.000000
-76.649536 -24.759200 5.148226 0.000000 54.000000 14.264132 19.000000
-76.259659 -22.429654 5.288004 0.000000 20.000000 14.072916 0.000000
-77.406201 -22.871141 5.479028 0.000000 40.000000 14.038690 0.000000
-76.874653 -23.230296 5.326820 0.000000 48.000000 14.117620 0.000000
-79.703333 -26.720922 5.727948 0.000000 42.000000 14.102690 0.000000
-77.675643 -23.331115 5.451730 0.000000 44.000000 14.102173 0.000000
-76.183320 -22.677982 5.363102 0.000000 50.000000 13.988185 0.000000
-75.669936 -23.589463 5.128860 0.000000 34.000000 14.150852 0.000000
-79.211930 -26.454323 5.658465 0.000000 44.000000 14.105084 0.000000
-77.347690 -26.194118 5.392297 0.000000 48.000000 14.116712 0.000000
-77.700732 -26.031898 5.422829 0.000000 25.000000 14.134201 0.000000
-74.766034 -23.268463 5.041522 0.000000 52.000000 14.115156 0.000000
-76.607809 -27.937043 5.270148 0.000000 42.000000 14.137687 0.000000
-76.724702 -25.823312 5.311690 0.000000 55.000000 14.112334 0.000000
-78.784478 -24.655232 5.608725 0.000000 33.000000 14.096564 0.000000
-74.201795 -24.668524 4.971827 0.000000 35.000000 14.107911 0.000000
-76.103285 -23.713439 5.058434 0.000000 39.000000 14.279231 0.000000
-74.317338 -22.705506 5.036737 0.000000 24.000000 14.059221 0.000000
-77.858014 -25.650394 5.473277 0.000000 50.000000 14.105485 0.000000
-78.552517 -25.043869 5.520737 0.000000 59.000000 14.152377 0.000000
-74.148808 -23.153924 4.925129 0.000000 54.000000 14.147014 0.000000
-74.500900 -22.640410 4.758035 0.000000 80.000000 14.360186 23.000000
-76.029615 -27.017882 5.331135 0.000000 31.000000 13.999073 0.000000
-77.016209 -25.108586 5.314149 0.000000 56.000000 14.149317 0.000000
-79.784244 -27.526753 5.411167 0.000000 48.000000 14.427503 11.000000
-75.686547 -23.108570 4.757436 0.000000 65.000000 14.521111 24.000000
-75.503052 -26.461495 5.148828 0.000000 41.000000 14.108500 0.000000
-75.109237 -23.553516 4.839362 0.000000 55.000000 14.361869 7.000000
-74.587015 -24.322858 5.036374 0.000000 44.000000 14.096049 0.000000
-76.393790 -25.005917 4.942704 0.000000 65.000000 14.433183 6.000000
-79.680311 -23.775312 5.139147 0.000000 54.000000 14.682970 9.000000
-78.404540 -25.408318 5.369388 0.000000 44.000000 14.282325 0.000000
-74.337450 -24.082395 5.089497 0.000000 29.000000 14.009666 0.000000
-75.719648 -24.066638 5.283222 0.000000 22.000000 14.004630 0.000000
-74.861000 -23.382447 5.042929 0.000000 43.000000 14.126604 0.000000
-74.421861 -23.049851 4.814439 0.000000 77.000000 14.293612 25.000000
-79.068044 -26.496757 5.606351 0.000000 45.000000 14.137262 0.000000
-74.876108 -27.030319 5.147186 0.000000 31.000000 14.025348 0.000000
-74.359913 -23.324415 4.977604 0.000000 49.000000 14.123568 0.000000
-74.674272 -23.821547 5.159324 0.000000 34.000000 13.986027 0.000000
-80.207202 -25.461259 5.869196 0.000000 34.000000 14.030876 0.000000
-74.468303 -24.452332 4.717037 0.000000 60.000000 14.396399 10.000000
-75.282176 -26.560932 5.081107 0.000000 40.000000 14.145731 0.000000
-76.343401 -27.359081 5.125099 0.000000 41.000000 14.245649 0.000000
-74.335228 -27.193165 5.050320 0.000000 49.000000 14.048182 0.000000
-79.144484 -25.617354 5.719975 0.000000 39.000000 14.035019 0.000000
-77.050212 -22.591650 5.415195 0.000000 42.000000 14.053797 0.000000
-75.038063 -22.562827 5.076842 0.000000 51.000000 14.116946 0.000000
-74.878456 -22.518579 4.592369 0.000000 42.000000 14.575386 23.000000
-77.615412 -23.290776 5.426460 0.000000 48.000000 14.119066 0.000000
-75.257892 -23.086410 4.695073 0.000000 71.000000 14.524935 24.000000
-75.592233 -24.024980 5.320854 0.000000 25.000000 13.950114 0.000000
-75.398357 -26.389623 5.166115 0.000000 44.000000 14.077215 0.000000
-78.592152 -25.407183 5.621990 0.000000 32.000000 14.057413 0.000000
-78.290791 -23.950956 5.709217 0.000000 26.000000 13.930236 0.000000
-76.387499 -24.897904 5.237101 0.000000 52.000000 14.140639 0.000000
-76.531607 -22.532095 5.389367 0.000000 22.000000 14.009259 0.000000
-75.552854 -27.649295 5.171244 0.000000 41.000000 14.093025 0.000000
-80.150825 -23.562515 5.803436 0.000000 47.000000 14.088408 0.000000
-78.146452 -26.962437 5.679374 0.000000 33.000000 13.940286 0.000000
-78.287377 -23.975824 5.649837 0.000000 23.000000 13.988608 0.000000
-78.111904 -28.306855 5.551515 0.000000 42.000000 14.062299 0.000000
-74.674954 -23.980271 5.169950 0.000000 22.000000 13.975591 0.000000
-74.567484 -23.659253 4.702061 0.000000 61.000000 14.424650 7.000000
-78.839838 -25.038085 5.487288 0.000000 68.000000 14.224372 1.000000
-77.734132 -27.952656 5.485699 0.000000 38.000000 14.076425 0.000000
-74.784913 -22.898904 4.820086 0.000000 40.000000 14.337111 23.000000
-77.557600 -27.780937 5.457542 0.000000 35.000000 14.080452 0.000000
-79.269841 -24.272534 5.486627 0.000000 25.000000 14.283175 0.000000
-75.586736 -27.191146 5.207508 0.000000 35.000000 14.061676 0.000000
-74.790968 -24.635041 4.780974 0.000000 68.000000 14.376683 10.000000
-79.856652 -27.644302 5.576219 0.000000 36.000000 14.273758 11.000000
-76.952931 -27.618894 5.352441 0.000000 37.000000 14.102820 0.000000
-79.983887 -22.706661 5.793903 0.000000 35.000000 14.075279 0.000000
-79.318401 -23.058462 5.265276 0.000000 73.000000 14.509059 21.000000
-78.722520 -23.802713 5.582461 0.000000 42.000000 14.114209 0.000000
-74.980815 -26.536229 5.062837 0.000000 49.000000 14.123081 0.000000
-74.279345 -24.256317 4.979077 0.000000 38.000000 14.111214 0.000000
-79.180731 -23.594850 5.611013 0.000000 44.000000 14.147881 0.000000
-76.319696 -26.436039 5.289029 0.000000 40.000000 14.080019 0.000000
-74.745230 -26.229146 5.062833 0.000000 45.000000 14.091227 0.000000
-77.126033 -24.139842 5.534036 0.000000 22.000000 13.946301 0.000000
-75.638829 -22.448460 5.027799 0.000000 48.000000 14.246778 15.000000
-74.924905 -24.560846 4.841720 0.000000 57.000000 14.334606 10.000000
-76.756488 -26.351871 5.323145 0.000000 41.000000 14.105282 0.000000
-78.611382 -25.498780 5.508113 0.000000 42.000000 14.172845 0.000000
-76.993264 -22.721385 5.390306 0.000000 40.000000 14.070757 0.000000
-75.684785 -25.617908 5.218259 0.000000 38.000000 14.064282 0.000000
-78.121777 -24.540737 5.511958 0.000000 36.000000 14.102827 0.000000
-75.441769 -23.766607 4.706820 0.000000 64.000000 14.538161 7.000000
-75.302152 -25.124025 5.115109 0.000000 49.000000 14.114742 0.000000
-77.505735 -22.374506 5.522514 0.000000 39.000000 14.009063 0.000000
-75.203021 -22.695449 4.827426 0.000000 62.000000 14.386378 24.000000
-78.698888 -27.341743 5.605990 0.000000 34.000000 14.087700 0.000000
-74.727857 -24.034838 5.203159 0.000000 34.000000 13.949841 0.000000
-75.654816 -22.812057 4.544954 0.000000 66.000000 14.727350 24.000000
-74.275466 -23.380846 4.967953 0.000000 59.000000 14.121711 0.000000
-77.663460 -25.917127 5.388610 0.000000 46.000000 14.163066 0.000000
-79.774639 -23.674451 5.156966 0.000000 58.000000 14.678070 9.000000
-74.849635 -23.660729 4.552366 0.000000 62.000000 14.611124 7.000000
-76.248055 -25.456892 4.638733 0.000000 55.000000 14.714654 6.000000
-74.470002 -23.868738 5.074639 0.000000 30.000000 14.042312 0.000000
