17.646929 -17.133486 16.803340 0.000000 57.000000 14.803340 6.000000
19.322945 -16.492767 16.681431 0.000000 46.000000 14.681431 0.000000
16.512961 -15.092612 17.124404 0.000000 67.000000 15.124404 19.000000
15.970049 -16.093785 17.015372 0.000000 65.000000 15.015372 12.000000
17.129261 -14.108694 16.614250 0.000000 51.000000 14.614250 15.000000
20.453201 -14.776359 16.884788 0.000000 64.000000 14.884788 26.000000
21.723724 -12.097694 16.669002 0.000000 49.000000 14.669002 0.000000
18.677547 -13.484340 16.454060 0.000000 29.000000 14.454060 0.000000
19.112286 -13.167349 16.643842 0.000000 76.000000 14.643842 9.000000
21.225374 -13.965523 17.084863 0.000000 59.000000 15.084863 23.000000
21.394520 -13.475607 17.032160 0.000000 75.000000 15.032160 23.000000
19.460867 -14.584388 16.613542 0.000000 35.000000 14.613542 28.000000
21.847334 -13.802080 16.900069 0.000000 69.000000 14.900069 23.000000
18.527470 -13.006810 16.421560 0.000000 32.000000 14.421560 0.000000
18.710516 -13.338413 16.468905 0.000000 26.000000 14.468905 0.000000
20.722263 -15.282432 16.953130 0.000000 66.000000 14.953130 14.000000
17.521210 -11.434650 16.606724 0.000000 40.000000 14.606724 0.000000
18.301329 -14.005321 17.266859 0.000000 69.000000 15.266859 15.000000
19.464441 -16.617484 16.530410 0.000000 40.000000 14.530410 0.000000
18.150280 -13.977965 17.015421 0.000000 68.000000 15.015421 15.000000
19.391785 -14.405424 17.093374 0.000000 49.000000 15.093374 28.000000
19.878315 -13.775103 16.749982 0.000000 55.000000 14.749982 24.000000
18.410604 -14.440900 16.604360 0.000000 44.000000 14.604360 0.000000
21.732023 -14.632048 16.983421 0.000000 56.000000 14.983421 25.000000
15.851027 -14.154916 16.748143 0.000000 56.000000 14.748143 18.000000
16.607039 -12.993639 16.755013 0.000000 52.000000 14.755013 17.000000
17.342916 -13.446425 16.597183 0.000000 38.000000 14.597183 0.000000
16.574728 -17.202361 16.684505 0.000000 40.000000 14.684505 0.000000
19.732588 -12.136112 16.642951 0.000000 44.000000 14.642951 0.000000
19.340633 -12.231303 16.625432 0.000000 44.000000 14.625432 0.000000
19.315811 -16.257550 17.107945 0.000000 41.000000 15.107945 27.000000
16.514771 -13.415175 16.923033 0.000000 46.000000 14.923033 17.000000
20.038477 -16.831190 16.684958 0.000000 48.000000 14.684958 0.000000
20.839558 -13.270233 16.553608 0.000000 45.000000 14.553608 0.000000
15.909689 -13.226822 16.813767 0.000000 59.000000 14.813767 17.000000
22.014582 -15.280176 16.763328 0.000000 51.000000 14.763328 14.000000
21.845200 -14.200230 16.930845 0.000000 76.000000 14.930845 25.000000
21.369804 -11.932599 16.637149 0.000000 47.000000 14.637149 0.000000
15.961564 -15.626452 16.911965 0.000000 60.000000 14.911965 19.000000
18.071726 -15.320773 16.891809 0.000000 77.000000 14.891809 21.000000
18.456261 -14.355001 16.817028 0.000000 73.000000 14.817028 15.000000
18.300316 -14.147357 16.995177 0.000000 53.000000 14.995177 15.000000
20.815041 -15.228381 16.855740 0.000000 64.000000 14.855740 14.000000
19.670664 -13.309192 16.667066 0.000000 44.000000 14.667066 0.000000
17.493681 -14.364737 16.681913 0.000000 43.000000 14.681913 0.000000
19.263729 -11.823282 16.483180 0.000000 37.000000 14.483180 0.000000
15.986695 -13.578586 16.645195 0.000000 36.000000 14.645195 0.000000
15.930369 -12.535752 16.458227 0.000000 29.000000 14.458227 0.000000
15.983784 -12.280831 16.609451 0.000000 36.000000 14.609451 0.000000
18.363436 -12.903096 16.454899 0.000000 40.000000 14.454899 0.000000
18.624329 -12.747083 16.620195 0.000000 43.000000 14.620195 0.000000
19.827507 -14.931893 16.862938 0.000000 58.000000 14.862938 26.000000
18.312260 -11.106635 16.476950 0.000000 38.000000 14.476950 0.000000
21.355522 -13.856341 17.100552 0.000000 54.000000 15.100552 23.000000
17.203745 -14.216941 16.653380 0.000000 41.000000 14.653380 0.000000
19.494583 -16.050171 17.250521 0.000000 55.000000 15.250521 27.000000
19.894968 -17.078802 16.703360 0.000000 80.000000 14.703360 5.000000
16.413376 -11.194588 16.495594 0.000000 35.000000 14.495594 0.000000
20.021839 -14.372055 17.168550 0.000000 73.000000 15.168550 26.000000
17.996759 -16.569159 16.703221 0.000000 50.000000 14.703221 6.000000
21.373272 -11.643758 16.736805 0.000000 56.000000 14.736805 11.000000
19.357727 -16.411640 16.943177 0.000000 69.000000 14.943177 27.000000
18.942490 -12.238897 16.646248 0.000000 46.000000 14.646248 0.000000
20.696056 -13.585421 17.130426 0.000000 70.000000 15.130426 23.000000
16.041818 -12.289332 16.617852 0.000000 36.000000 14.617852 0.000000
19.598797 -12.140908 16.584540 0.000000 42.000000 14.584540 0.000000
19.707020 -15.780956 16.797626 0.000000 58.000000 14.797626 29.000000
19.340937 -11.007900 16.680124 0.000000 41.000000 14.680124 0.000000
19.503277 -16.326068 16.936864 0.000000 70.000000 14.936864 27.000000
18.421280 -16.032652 16.790325 0.000000 79.000000 14.790325 20.000000
20.816957 -11.257992 16.659159 0.000000 45.000000 14.659159 0.000000
19.257885 -12.169528 16.646155 0.000000 42.000000 14.646155 0.000000
20.834641 -13.313827 16.577705 0.000000 44.000000 14.577705 0.000000
17.997448 -16.999792 16.941166 0.000000 63.000000 14.941166 6.000000
17.949854 -12.205760 16.579664 0.000000 40.000000 14.579664 0.000000
20.114088 -14.901891 16.896423 0.000000 78.000000 14.896423 26.000000
21.599909 -15.841354 16.579511 0.000000 45.000000 14.579511 0.000000
16.757894 -16.670727 16.591640 0.000000 38.000000 14.591640 0.000000
18.401114 -15.820885 16.444517 0.000000 51.000000 14.444517 0.000000
16.471004 -16.235648 16.672503 0.000000 70.000000 14.672503 12.000000
21.124323 -16.370807 16.613853 0.000000 46.000000 14.613853 0.000000
20.171988 -14.847148 16.717192 0.000000 71.000000 14.717192 26.000000
17.533413 -15.225314 16.667066 0.000000 61.000000 14.667066 21.000000
15.940992 -11.357966 17.037537 0.000000 64.000000 15.037537 2.000000
17.022560 -13.233432 16.624814 0.000000 36.000000 14.624814 0.000000
19.535072 -14.698351 16.945771 0.000000 54.000000 14.945771 28.000000
17.654337 -13.710314 16.933493 0.000000 68.000000 14.933493 15.000000
22.003960 -15.965396 16.435679 0.000000 40.000000 14.435679 0.000000
21.291586 -11.348200 16.604087 0.000000 48.000000 14.604087 0.000000
20.842594 -15.439651 16.918091 0.000000 57.000000 14.918091 14.000000
19.121773 -16.581272 16.648517 0.000000 59.000000 14.648517 5.000000
16.780279 -13.937302 16.708137 0.000000 48.000000 14.708137 18.000000
20.801172 -15.845096 16.446159 0.000000 39.000000 14.446159 0.000000
16.658220 -15.282616 16.551547 0.000000 52.000000 14.551547 19.000000
17.615341 -13.072740 16.781736 0.000000 39.000000 14.781736 3.000000
20.808100 -14.544057 17.080651 0.000000 55.000000 15.080651 25.000000
17.392725 -15.782580 16.874338 0.000000 45.000000 14.874338 20.000000
16.554268 -14.058501 16.483573 0.000000 52.000000 14.483573 0.000000
16.066010 -15.293777 16.944317 0.000000 79.000000 14.944317 19.000000
16.471746 -15.162200 17.028588 0.000000 59.000000 15.028588 19.000000
17.297531 -11.942676 16.746794 0.000000 46.000000 14.746794 7.000000
19.365252 -16.386818 17.143782 0.000000 60.000000 15.143782 27.000000
21.626638 -12.081689 16.563540 0.000000 44.000000 14.563540 0.000000
21.279915 -13.292878 17.103106 0.000000 69.000000 15.103106 23.000000
17.129150 -16.263401 16.458738 0.000000 37.000000 14.458738 0.000000
19.471903 -11.786594 17.441987 0.000000 47.000000 15.441987 4.000000
18.397076 -14.013885 17.016347 0.000000 36.000000 15.016347 15.000000
20.481449 -15.960483 16.601971 0.000000 43.000000 14.601971 0.000000
18.239834 -16.511271 16.558068 0.000000 38.000000 14.558068 0.000000
18.620049 -16.845673 16.627760 0.000000 40.000000 14.627760 0.000000
19.681139 -13.483832 16.640086 0.000000 57.000000 14.640086 24.000000
18.614269 -12.757990 16.645362 0.000000 41.000000 14.645362 0.000000
18.472881 -14.311612 17.017726 0.000000 65.000000 15.017726 15.000000
16.799376 -16.485180 16.610717 0.000000 35.000000 14.610717 0.000000
18.451395 -13.030838 16.506998 0.000000 41.000000 14.506998 0.000000
19.322533 -16.244712 17.159145 0.000000 60.000000 15.159145 27.000000
18.861326 -17.069760 16.819047 0.000000 75.000000 14.819047 5.000000
20.433758 -13.222535 16.665047 0.000000 36.000000 14.665047 0.000000
18.406931 -12.694473 16.766983 0.000000 64.000000 14.766983 8.000000
16.127174 -14.711620 17.322971 0.000000 76.000000 15.322971 19.000000
19.922081 -16.619585 16.467880 0.000000 51.000000 14.467880 0.000000
16.280799 -12.491622 16.423986 0.000000 40.000000 14.423986 0.000000
21.666403 -14.151234 17.020807 0.000000 73.000000 15.020807 25.000000
18.431219 -15.121881 16.685372 0.000000 48.000000 14.685372 0.000000
19.258127 -14.229974 17.141976 0.000000 66.000000 15.141976 28.000000
19.985128 -13.853585 16.711193 0.000000 47.000000 14.711193 24.000000
21.867886 -14.445270 16.994844 0.000000 57.000000 14.994844 25.000000
21.194756 -15.014194 16.559671 0.000000 42.000000 14.559671 0.000000
17.475616 -14.067552 16.374066 0.000000 26.000000 14.374066 0.000000
19.376108 -15.819852 17.049822 0.000000 58.000000 15.049822 29.000000
18.837908 -15.503123 17.093619 0.000000 42.000000 15.093619 29.000000
19.899889 -14.648155 17.233321 0.000000 57.000000 15.233321 26.000000
16.365374 -16.910071 16.847581 0.000000 42.000000 14.847581 1.000000
21.623369 -11.225743 16.544471 0.000000 42.000000 14.544471 0.000000
20.995569 -17.030301 16.499892 0.000000 48.000000 14.499892 0.000000
17.766958 -13.917041 17.025022 0.000000 73.000000 15.025022 15.000000
17.774416 -11.489911 16.600683 0.000000 38.000000 14.600683 0.000000
19.398937 -15.613428 17.042122 0.000000 68.000000 15.042122 29.000000
20.133017 -13.514436 16.852778 0.000000 59.000000 14.852778 24.000000
19.857048 -13.126194 16.935498 0.000000 55.000000 14.935498 9.000000
18.704330 -12.962915 16.595300 0.000000 40.000000 14.595300 0.000000
16.828972 -12.626849 16.342476 0.000000 31.000000 14.342476 0.000000
18.860086 -13.188307 16.470611 0.000000 35.000000 14.470611 0.000000
19.553404 -13.529952 16.964818 0.000000 43.000000 14.964818 24.000000
21.002657 -14.009676 16.755993 0.000000 67.000000 14.755993 23.000000
20.965628 -13.592118 17.023049 0.000000 67.000000 15.023049 23.000000
17.934364 -16.119226 16.918576 0.000000 46.000000 14.918576 20.000000
17.452944 -14.566885 17.061176 0.000000 66.000000 15.061176 16.000000
21.704111 -13.170130 16.453412 0.000000 52.000000 14.453412 0.000000
19.910309 -13.911337 16.367806 0.000000 36.000000 14.367806 0.000000
20.895386 -15.088905 16.716105 0.000000 37.000000 14.716105 14.000000
20.942183 -16.454558 16.626307 0.000000 42.000000 14.626307 0.000000
20.641165 -16.480506 16.552570 0.000000 40.000000 14.552570 0.000000
18.289234 -14.220399 17.109314 0.000000 67.000000 15.109314 15.000000
16.537148 -16.036998 16.851120 0.000000 65.000000 14.851120 12.000000
16.023002 -13.965722 16.996209 0.000000 42.000000 14.996209 18.000000
21.856459 -12.544693 16.334163 0.000000 30.000000 14.334163 0.000000
16.441152 -13.534590 16.811817 0.000000 71.000000 14.811817 17.000000
19.747683 -16.951988 17.127419 0.000000 51.000000 15.127419 5.000000
18.863495 -14.715577 17.007008 0.000000 79.000000 15.007008 28.000000
18.144213 -12.367326 16.791925 0.000000 81.000000 14.791925 8.000000
19.421633 -17.194163 16.911259 0.000000 81.000000 14.911259 5.000000
21.763111 -13.154693 17.012891 0.000000 47.000000 15.012891 23.000000
21.557735 -15.452883 16.808638 0.000000 55.000000 14.808638 14.000000
18.250723 -15.797171 16.929129 0.000000 78.000000 14.929129 20.000000
18.760984 -13.159042 16.476187 0.000000 44.000000 14.476187 0.000000
18.056780 -16.436707 16.775189 0.000000 47.000000 14.775189 20.000000
20.946257 -13.710741 17.102260 0.000000 48.000000 15.102260 23.000000
15.988233 -15.980127 16.671023 0.000000 53.000000 14.671023 12.000000
17.107243 -11.093716 16.412678 0.000000 27.000000 14.412678 0.000000
21.103212 -15.334920 16.763934 0.000000 58.000000 14.763934 14.000000
18.737375 -14.528554 16.829039 0.000000 73.000000 14.829039 28.000000
18.263010 -14.100466 16.959566 0.000000 64.000000 14.959566 15.000000
15.805993 -13.559440 16.545893 0.000000 43.000000 14.545893 0.000000
18.141796 -13.841715 17.077641 0.000000 63.000000 15.077641 15.000000
17.492121 -16.972553 16.616296 0.000000 48.000000 14.616296 6.000000
19.782522 -14.398247 17.051223 0.000000 53.000000 15.051223 26.000000
21.803909 -16.336967 16.654183 0.000000 40.000000 14.654183 0.000000
17.970610 -16.500126 16.474728 0.000000 54.000000 14.474728 0.000000
16.577644 -11.478279 16.612971 0.000000 33.000000 14.612971 7.000000
17.146969 -15.041308 16.498491 0.000000 51.000000 14.498491 0.000000
18.725933 -14.411837 16.770963 0.000000 70.000000 14.770963 28.000000
17.324516 -13.440796 16.618390 0.000000 30.000000 14.618390 0.000000
17.072840 -13.108187 16.674273 0.000000 52.000000 14.674273 0.000000
19.706888 -11.625488 17.097537 0.000000 33.000000 15.097537 4.000000
16.064307 -13.506545 16.651804 0.000000 40.000000 14.651804 0.000000
20.794266 -14.126101 16.873273 0.000000 71.000000 14.873273 23.000000
18.202759 -14.172824 16.861903 0.000000 62.000000 14.861903 15.000000
19.253056 -12.349976 16.686013 0.000000 36.000000 14.686013 0.000000
16.419029 -12.377194 16.544873 0.000000 34.000000 14.544873 0.000000
19.098478 -15.882033 16.911271 0.000000 69.000000 14.911271 27.000000
19.287008 -11.031559 16.603934 0.000000 60.000000 14.603934 0.000000
20.440514 -11.811511 16.434360 0.000000 36.000000 14.434360 0.000000
21.446915 -13.264768 16.957233 0.000000 64.000000 14.957233 23.000000
16.565213 -16.485336 16.604273 0.000000 35.000000 14.604273 0.000000
15.841025 -13.490445 16.572417 0.000000 45.000000 14.572417 0.000000
16.828683 -15.731293 16.586833 0.000000 43.000000 14.586833 0.000000
20.585911 -14.734283 17.080778 0.000000 71.000000 15.080778 25.000000
17.193811 -13.158677 16.650079 0.000000 44.000000 14.650079 3.000000
20.745441 -14.572533 17.096565 0.000000 55.000000 15.096565 25.000000
18.157358 -15.428985 16.875035 0.000000 47.000000 14.875035 21.000000
19.392345 -14.306366 16.891185 0.000000 56.000000 14.891185 28.000000
21.859373 -15.358983 16.821802 0.000000 72.000000 14.821802 14.000000
16.369783 -17.195513 16.321506 0.000000 36.000000 14.321506 0.000000
17.716217 -12.246189 16.588103 0.000000 37.000000 14.588103 0.000000
20.447802 -14.217565 16.689363 0.000000 38.000000 14.689363 0.000000
20.174185 -16.244128 16.767739 0.000000 67.000000 14.767739 13.000000
16.153863 -14.708069 17.309513 0.000000 57.000000 15.309513 19.000000
19.060684 -14.481233 17.221931 0.000000 79.000000 15.221931 28.000000
21.421656 -15.143496 16.807615 0.000000 44.000000 14.807615 14.000000
16.108203 -13.479800 16.582338 0.000000 41.000000 14.582338 0.000000
18.624060 -16.406670 16.577921 0.000000 32.000000 14.577921 0.000000
16.035905 -11.340598 16.812517 0.000000 45.000000 14.812517 2.000000
17.483780 -15.774720 16.966491 0.000000 70.000000 14.966491 20.000000
16.179972 -13.505273 16.563130 0.000000 37.000000 14.563130 0.000000
17.590185 -14.328235 16.331897 0.000000 36.000000 14.331897 0.000000
19.513794 -14.273929 16.722420 0.000000 48.000000 14.722420 28.000000
16.803954 -14.672971 17.046471 0.000000 66.000000 15.046471 16.000000
20.225325 -12.377159 16.670786 0.000000 41.000000 14.670786 0.000000
17.271929 -15.407456 16.544662 0.000000 63.000000 14.544662 0.000000
18.388634 -11.930054 17.003449 0.000000 64.000000 15.003449 8.000000
17.833748 -14.035841 16.921826 0.000000 81.000000 14.921826 15.000000
16.432024 -13.718195 16.877884 0.000000 70.000000 14.877884 18.000000
20.618681 -15.633904 16.338101 0.000000 50.000000 14.338101 0.000000
21.867250 -16.258668 16.678758 0.000000 38.000000 14.678758 0.000000
18.977398 -11.513871 16.648784 0.000000 34.000000 14.648784 0.000000
16.206039 -16.571140 16.695726 0.000000 45.000000 14.695726 1.000000
16.442760 -13.405751 16.921422 0.000000 57.000000 14.921422 17.000000
21.348696 -14.211610 16.870323 0.000000 62.000000 14.870323 25.000000
21.802984 -14.952500 16.604342 0.000000 38.000000 14.604342 0.000000
17.695261 -16.597100 17.031425 0.000000 69.000000 15.031425 6.000000
17.530098 -11.141790 16.567294 0.000000 55.000000 14.567294 0.000000
18.874969 -14.465264 17.108331 0.000000 76.000000 15.108331 28.000000
20.522684 -10.991008 16.602178 0.000000 48.000000 14.602178 0.000000
20.152706 -13.532137 16.741612 0.000000 57.000000 14.741612 24.000000
16.938000 -15.618340 16.314255 0.000000 31.000000 14.314255 0.000000
20.249262 -15.449333 16.910619 0.000000 41.000000 14.910619 29.000000
18.583460 -11.169660 16.659398 0.000000 33.000000 14.659398 0.000000
19.749012 -11.926192 16.558504 0.000000 43.000000 14.558504 4.000000
15.817915 -13.994551 16.989258 0.000000 77.000000 14.989258 18.000000
18.431709 -16.409700 16.681731 0.000000 33.000000 14.681731 0.000000
20.173241 -12.082397 16.464877 0.000000 51.000000 14.464877 0.000000
16.421907 -14.005510 16.740026 0.000000 53.000000 14.740026 18.000000
18.998842 -12.928757 16.554799 0.000000 44.000000 14.554799 0.000000
18.134489 -16.089674 17.043890 0.000000 71.000000 15.043890 20.000000
17.389999 -13.703664 17.014752 0.000000 61.000000 15.014752 15.000000
21.151089 -14.119606 16.923768 0.000000 76.000000 14.923768 23.000000
17.724903 -13.325061 16.758323 0.000000 36.000000 14.758323 3.000000
21.571550 -11.922629 16.663244 0.000000 38.000000 14.663244 0.000000
20.435673 -11.746894 16.718225 0.000000 50.000000 14.718225 11.000000
17.941198 -15.165177 16.633332 0.000000 51.000000 14.633332 0.000000
17.435205 -11.417056 16.664425 0.000000 34.000000 14.664425 0.000000
16.739290 -15.537025 16.905153 0.000000 77.000000 14.905153 19.000000
19.627991 -13.921051 16.381578 0.000000 29.000000 14.381578 0.000000
17.863962 -13.069192 16.840600 0.000000 71.000000 14.840600 3.000000
19.849815 -14.521520 17.096397 0.000000 69.000000 15.096397 26.000000
19.478388 -13.639725 17.107630 0.000000 75.000000 15.107630 24.000000
17.294205 -15.816466 16.840466 0.000000 61.000000 14.840466 20.000000
19.027271 -15.851209 16.909922 0.000000 75.000000 14.909922 27.000000
21.487648 -14.758847 16.769447 0.000000 60.000000 14.769447 25.000000
18.070299 -15.504002 16.858826 0.000000 64.000000 14.858826 21.000000
16.105890 -14.013065 16.766397 0.000000 70.000000 14.766397 18.000000
17.432280 -16.435982 16.574432 0.000000 40.000000 14.574432 0.000000
19.121952 -14.651390 16.991795 0.000000 53.000000 14.991795 28.000000
15.848740 -11.375949 16.752563 0.000000 42.000000 14.752563 2.000000
17.925095 -14.757502 16.784156 0.000000 73.000000 14.784156 16.000000
17.567411 -14.143582 16.558742 0.000000 37.000000 14.558742 15.000000
20.653524 -12.904242 16.388705 0.000000 24.000000 14.388705 0.000000
16.718298 -13.845892 16.749313 0.000000 44.000000 14.749313 18.000000
20.407127 -11.723266 16.652078 0.000000 67.000000 14.652078 11.000000
19.076162 -13.008672 16.555638 0.000000 48.000000 14.555638 0.000000
16.125858 -13.416237 16.603156 0.000000 47.000000 14.603156 0.000000
15.918115 -13.440721 16.543833 0.000000 44.000000 14.543833 0.000000
21.115789 -15.596908 16.666039 0.000000 35.000000 14.666039 0.000000
20.093252 -13.616368 16.995114 0.000000 52.000000 14.995114 24.000000
16.905418 -14.172054 16.649405 0.000000 66.000000 14.649405 0.000000
21.354109 -11.320504 16.299934 0.000000 30.000000 14.299934 0.000000
18.489017 -14.279465 17.041610 0.000000 63.000000 15.041610 15.000000
16.046147 -14.326989 17.227080 0.000000 27.000000 15.227080 19.000000
17.307625 -14.251488 16.570333 0.000000 53.000000 14.570333 0.000000
16.774885 -14.282196 16.558278 0.000000 46.000000 14.558278 0.000000
21.583498 -17.207415 16.656847 0.000000 36.000000 14.656847 0.000000
21.224243 -17.185052 16.668977 0.000000 52.000000 14.668977 0.000000
20.780952 -13.265515 16.646708 0.000000 52.000000 14.646708 0.000000
17.086493 -15.489758 16.472742 0.000000 58.000000 14.472742 0.000000
16.225520 -14.274613 16.308671 0.000000 40.000000 14.308671 0.000000
22.062675 -15.371486 16.713245 0.000000 58.000000 14.713245 14.000000
21.873726 -12.090304 16.614376 0.000000 33.000000 14.614376 0.000000
20.436016 -14.808573 16.935658 0.000000 69.000000 14.935658 26.000000
15.871949 -16.189436 17.264330 0.000000 50.000000 15.264330 12.000000
19.384352 -14.476409 17.019810 0.000000 50.000000 15.019810 28.000000
18.920786 -16.434553 16.556083 0.000000 50.000000 14.556083 27.000000
18.912214 -15.829509 16.671725 0.000000 30.000000 14.671725 29.000000
16.711000 -12.240686 16.675332 0.000000 47.000000 14.675332 0.000000
20.306450 -14.502899 17.179038 0.000000 72.000000 15.179038 26.000000
15.856193 -16.602128 16.759451 0.000000 44.000000 14.759451 1.000000
21.588108 -12.076853 16.560840 0.000000 33.000000 14.560840 0.000000
17.385429 -14.521180 17.048079 0.000000 65.000000 15.048079 16.000000
16.328809 -16.045087 17.039038 0.000000 51.000000 15.039038 12.000000
21.107424 -15.920959 16.569664 0.000000 36.000000 14.569664 0.000000
20.473825 -11.078549 16.665711 0.000000 68.000000 14.665711 0.000000
18.748365 -15.322241 17.082846 0.000000 75.000000 15.082846 29.000000
19.067110 -12.464699 16.668487 0.000000 57.000000 14.668487 0.000000
21.063471 -15.320410 16.824509 0.000000 70.000000 14.824509 14.000000
16.304757 -13.253496 16.845605 0.000000 56.000000 14.845605 17.000000
17.990664 -16.636483 16.789759 0.000000 61.000000 14.789759 6.000000
20.554235 -11.558331 16.900580 0.000000 65.000000 14.900580 11.000000
16.898353 -17.041185 16.655489 0.000000 52.000000 14.655489 0.000000
17.272192 -13.358837 16.468914 0.000000 33.000000 14.468914 0.000000
18.313437 -16.009393 17.160943 0.000000 70.000000 15.160943 20.000000
21.263012 -15.436225 16.780079 0.000000 74.000000 14.780079 14.000000
19.412857 -11.114885 16.619757 0.000000 49.000000 14.619757 0.000000
16.400028 -14.724440 17.150373 0.000000 64.000000 15.150373 19.000000
21.999023 -16.382961 16.429324 0.000000 35.000000 14.429324 0.000000
17.210461 -15.813137 16.771157 0.000000 62.000000 14.771157 20.000000
17.141233 -16.905325 16.568055 0.000000 69.000000 14.568055 6.000000
18.294373 -12.177123 16.720170 0.000000 56.000000 14.720170 8.000000
17.624220 -16.154206 16.815875 0.000000 57.000000 14.815875 20.000000
16.574584 -16.828639 16.670462 0.000000 41.000000 14.670462 0.000000
21.856649 -16.404089 16.580567 0.000000 33.000000 14.580567 0.000000
17.917051 -16.108859 16.884571 0.000000 66.000000 14.884571 20.000000
18.701118 -16.131539 16.793406 0.000000 54.000000 14.793406 27.000000
18.737528 -16.005608 16.867407 0.000000 79.000000 14.867407 27.000000
20.106922 -15.142697 16.829553 0.000000 72.000000 14.829553 29.000000
20.812710 -14.574928 17.019128 0.000000 70.000000 15.019128 25.000000
16.418998 -15.633230 16.881104 0.000000 71.000000 14.881104 19.000000
19.504242 -12.122439 16.581688 0.000000 50.000000 14.581688 0.000000
20.934572 -13.985208 17.044042 0.000000 65.000000 15.044042 23.000000
18.683231 -13.544104 16.462245 0.000000 46.000000 14.462245 0.000000
17.204535 -13.317256 16.566461 0.000000 45.000000 14.566461 0.000000
20.324209 -12.456437 16.426481 0.000000 36.000000 14.426481 0.000000
17.543329 -16.208799 16.665004 0.000000 74.000000 14.665004 0.000000
16.149635 -13.135788 17.050376 0.000000 71.000000 15.050376 17.000000
16.505069 -16.494930 16.577827 0.000000 40.000000 14.577827 0.000000
16.028074 -11.972990 16.689429 0.000000 47.000000 14.689429 0.000000
17.101357 -15.187458 16.471433 0.000000 34.000000 14.471433 0.000000
18.632666 -11.463231 16.613450 0.000000 33.000000 14.613450 0.000000
19.170002 -13.833889 16.817111 0.000000 54.000000 14.817111 24.000000
21.022940 -11.472649 16.776045 0.000000 41.000000 14.776045 11.000000
16.089678 -13.090173 17.029920 0.000000 64.000000 15.029920 17.000000
17.684303 -13.173919 17.011315 0.000000 45.000000 15.011315 3.000000
20.807480 -11.251471 16.668354 0.000000 53.000000 14.668354 0.000000
18.945858 -12.031519 16.666773 0.000000 44.000000 14.666773 0.000000
16.182943 -12.365591 16.670230 0.000000 45.000000 14.670230 0.000000
21.606398 -14.255825 17.118930 0.000000 57.000000 15.118930 25.000000
20.785282 -13.425589 16.712706 0.000000 42.000000 14.712706 23.000000
19.377842 -13.786810 17.161102 0.000000 80.000000 15.161102 24.000000
18.550716 -12.766915 16.630291 0.000000 37.000000 14.630291 0.000000
20.939915 -12.585920 16.660617 0.000000 61.000000 14.660617 22.000000
17.417574 -10.989016 16.603163 0.000000 55.000000 14.603163 0.000000
20.984667 -12.883821 16.735833 0.000000 67.000000 14.735833 22.000000
16.256546 -13.879411 16.795650 0.000000 49.000000 14.795650 18.000000
20.474400 -13.023865 16.672917 0.000000 53.000000 14.672917 0.000000
17.870064 -14.508228 16.888493 0.000000 77.000000 14.888493 16.000000
16.224136 -17.017683 16.985513 0.000000 45.000000 14.985513 1.000000
19.078678 -16.874550 17.029744 0.000000 72.000000 15.029744 5.000000
18.368031 -15.174516 16.574508 0.000000 54.000000 14.574508 0.000000
17.700798 -15.479525 16.682246 0.000000 73.000000 14.682246 21.000000
16.637966 -16.661776 16.451798 0.000000 47.000000 14.451798 0.000000
16.455608 -16.263484 16.553329 0.000000 49.000000 14.553329 12.000000
17.774389 -11.929748 16.672109 0.000000 69.000000 14.672109 0.000000
21.150768 -13.893744 17.107809 0.000000 42.000000 15.107809 23.000000
16.135530 -11.989076 16.600858 0.000000 45.000000 14.600858 0.000000
19.034872 -11.191549 16.371478 0.000000 34.000000 14.371478 0.000000
18.544374 -12.713185 16.615484 0.000000 43.000000 14.615484 0.000000
16.722722 -13.844734 16.770432 0.000000 54.000000 14.770432 18.000000
18.429914 -14.145167 16.843869 0.000000 80.000000 14.843869 15.000000
19.964750 -15.464513 17.060794 0.000000 39.000000 15.060794 29.000000
17.474064 -13.609985 16.854944 0.000000 70.000000 14.854944 15.000000
16.736199 -14.819684 16.979660 0.000000 66.000000 14.979660 19.000000
17.485462 -13.298884 16.871325 0.000000 64.000000 14.871325 3.000000
18.019075 -14.480287 16.383002 0.000000 28.000000 14.383002 0.000000
19.654533 -16.497986 16.680467 0.000000 45.000000 14.680467 0.000000
19.788387 -15.583109 16.936818 0.000000 54.000000 14.936818 29.000000
18.884117 -16.778875 16.935492 0.000000 81.000000 14.935492 5.000000
17.492363 -11.115700 16.554021 0.000000 64.000000 14.554021 0.000000
20.488415 -12.354345 16.465655 0.000000 46.000000 14.465655 0.000000
21.031218 -13.952666 17.060772 0.000000 75.000000 15.060772 23.000000
17.257051 -12.265527 16.622639 0.000000 34.000000 14.622639 7.000000
19.484751 -16.352268 17.058981 0.000000 84.000000 15.058981 27.000000
18.388506 -11.209211 16.626260 0.000000 41.000000 14.626260 0.000000
17.528446 -14.197955 16.617100 0.000000 62.000000 14.617100 0.000000
20.213591 -14.266171 16.628096 0.000000 50.000000 14.628096 26.000000
20.817703 -13.674132 17.126122 0.000000 42.000000 15.126122 23.000000
16.575759 -16.166345 16.499157 0.000000 63.000000 14.499157 0.000000
20.161386 -11.124706 16.366672 0.000000 30.000000 14.366672 0.000000
17.281906 -13.948404 16.803375 0.000000 61.000000 14.803375 15.000000
18.827618 -17.079947 17.015001 0.000000 67.000000 15.015001 5.000000
19.347466 -16.343172 17.141120 0.000000 71.000000 15.141120 27.000000
21.449261 -13.824186 16.980391 0.000000 54.000000 14.980391 23.000000
16.959975 -14.849573 17.004156 0.000000 74.000000 15.004156 16.000000
18.389643 -11.429167 16.540942 0.000000 50.000000 14.540942 0.000000
18.167591 -17.072989 16.905408 0.000000 71.000000 14.905408 6.000000
17.135885 -13.934696 16.841469 0.000000 58.000000 14.841469 15.000000
19.804001 -15.199140 17.022705 0.000000 76.000000 15.022705 29.000000
20.647770 -14.272993 17.062139 0.000000 74.000000 15.062139 25.000000
18.283117 -15.070444 16.591239 0.000000 63.000000 14.591239 0.000000
20.436172 -15.978786 16.616026 0.000000 64.000000 14.616026 0.000000
19.641273 -11.887604 16.983999 0.000000 40.000000 14.983999 4.000000
16.793575 -15.877318 16.597363 0.000000 50.000000 14.597363 0.000000
19.452858 -12.640664 16.336746 0.000000 33.000000 14.336746 0.000000
16.117199 -12.262549 16.614030 0.000000 57.000000 14.614030 0.000000
17.517241 -11.399105 16.636426 0.000000 35.000000 14.636426 0.000000
19.470901 -16.654670 16.759921 0.000000 62.000000 14.759921 5.000000
19.407227 -16.793603 17.036994 0.000000 73.000000 15.036994 5.000000
18.473970 -11.162214 16.653253 0.000000 50.000000 14.653253 0.000000
21.306231 -15.333052 16.903062 0.000000 46.000000 14.903062 14.000000
18.713968 -12.951312 16.624509 0.000000 42.000000 14.624509 0.000000
19.575890 -13.981590 16.752565 0.000000 41.000000 14.752565 24.000000
20.786064 -13.200548 16.619990 0.000000 57.000000 14.619990 0.000000
17.871473 -11.964588 16.607097 0.000000 72.000000 14.607097 0.000000
19.095640 -12.180938 16.658284 0.000000 63.000000 14.658284 0.000000
18.860329 -12.275444 16.656256 0.000000 56.000000 14.656256 0.000000
16.130385 -16.132967 16.741312 0.000000 67.000000 14.741312 12.000000
17.097740 -12.857335 16.378723 0.000000 29.000000 14.378723 0.000000
21.058920 -14.187176 17.005481 0.000000 77.000000 15.005481 25.000000
21.304607 -15.977330 16.676168 0.000000 67.000000 14.676168 0.000000
16.786242 -15.020301 17.057034 0.000000 75.000000 15.057034 19.000000
16.531500 -16.030054 16.701871 0.000000 74.000000 14.701871 12.000000
15.883550 -15.580062 17.043257 0.000000 75.000000 15.043257 19.000000
20.818525 -14.127129 16.863287 0.000000 47.000000 14.863287 23.000000
18.659475 -14.402515 16.698191 0.000000 61.000000 14.698191 28.000000
22.038343 -12.142869 16.429691 0.000000 30.000000 14.429691 0.000000
19.670591 -12.193179 16.587609 0.000000 52.000000 14.587609 0.000000
18.302464 -14.147869 17.038602 0.000000 68.000000 15.038602 15.000000
20.445389 -12.341405 16.455732 0.000000 34.000000 14.455732 0.000000
19.475283 -15.164317 17.129539 0.000000 53.000000 15.129539 29.000000
21.573549 -11.757278 16.433335 0.000000 44.000000 14.433335 0.000000
16.012615 -16.089929 17.289164 0.000000 43.000000 15.289164 12.000000
16.629816 -16.346209 16.510843 0.000000 36.000000 14.510843 0.000000
17.283775 -14.609857 17.154191 0.000000 40.000000 15.154191 16.000000
16.972517 -13.778920 16.628437 0.000000 61.000000 14.628437 0.000000
21.261194 -11.954402 16.596114 0.000000 47.000000 14.596114 0.000000
21.403280 -11.494161 16.679225 0.000000 46.000000 14.679225 11.000000
16.235763 -15.769705 16.708342 0.000000 61.000000 14.708342 12.000000
18.550339 -13.320067 16.560180 0.000000 47.000000 14.560180 0.000000
16.664967 -13.812020 16.859286 0.000000 53.000000 14.859286 18.000000
21.119349 -16.307039 16.653259 0.000000 41.000000 14.653259 0.000000
19.654913 -16.540185 16.620626 0.000000 49.000000 14.620626 0.000000
16.810515 -15.869428 16.576593 0.000000 48.000000 14.576593 0.000000
20.514479 -13.570082 16.988871 0.000000 75.000000 14.988871 23.000000
21.440418 -13.702442 17.098392 0.000000 77.000000 15.098392 23.000000
17.158907 -13.835600 16.913952 0.000000 83.000000 14.913952 15.000000
20.326124 -16.423973 16.462643 0.000000 46.000000 14.462643 0.000000
16.554901 -16.528180 16.558249 0.000000 44.000000 14.558249 0.000000
16.148844 -11.834176 16.451250 0.000000 27.000000 14.451250 0.000000
16.860594 -14.948433 17.026319 0.000000 39.000000 15.026319 19.000000
16.558090 -14.657493 16.917388 0.000000 63.000000 14.917388 19.000000
19.937757 -14.818523 17.088553 0.000000 73.000000 15.088553 26.000000
20.680908 -15.012696 16.685101 0.000000 44.000000 14.685101 0.000000
17.987749 -17.099440 16.521528 0.000000 51.000000 14.521528 0.000000
21.399691 -12.905445 16.967872 0.000000 78.000000 14.967872 23.000000
17.679300 -13.235093 16.818538 0.000000 56.000000 14.818538 3.000000
20.357765 -14.565902 17.127717 0.000000 61.000000 15.127717 26.000000
17.380236 -13.386022 16.607537 0.000000 39.000000 14.607537 3.000000
18.049900 -15.224825 16.611159 0.000000 60.000000 14.611159 0.000000
21.052296 -11.494435 16.705705 0.000000 49.000000 14.705705 11.000000
18.056349 -14.870862 16.471060 0.000000 33.000000 14.471060 0.000000
17.985758 -17.032474 17.002847 0.000000 68.000000 15.002847 6.000000
17.447136 -11.704086 16.782559 0.000000 60.000000 14.782559 7.000000
15.825408 -14.197853 16.896384 0.000000 57.000000 14.896384 18.000000
20.765209 -15.345631 16.899623 0.000000 53.000000 14.899623 14.000000
17.992401 -12.533532 16.602434 0.000000 66.000000 14.602434 0.000000
16.941727 -14.896946 17.010188 0.000000 73.000000 15.010188 19.000000
20.313337 -16.890617 16.404470 0.000000 33.000000 14.404470 0.000000
16.036473 -11.433625 16.386994 0.000000 36.000000 14.386994 0.000000
20.998713 -12.671843 16.882920 0.000000 81.000000 14.882920 22.000000
19.506231 -15.873279 16.839645 0.000000 61.000000 14.839645 27.000000
20.161287 -14.762310 17.093493 0.000000 60.000000 15.093493 26.000000
20.108355 -16.789112 16.599765 0.000000 39.000000 14.599765 0.000000
17.675636 -13.925134 16.971437 0.000000 79.000000 14.971437 15.000000
21.998844 -14.957281 16.549900 0.000000 42.000000 14.549900 0.000000
18.407362 -14.700404 16.658416 0.000000 36.000000 14.658416 0.000000
17.473110 -13.179648 16.883628 0.000000 52.000000 14.883628 3.000000
18.297848 -16.611539 16.641609 0.000000 49.000000 14.641609 0.000000
21.929483 -14.094987 16.575223 0.000000 40.000000 14.575223 25.000000
19.870228 -11.698756 17.014067 0.000000 69.000000 15.014067 4.000000
18.685179 -14.046418 16.626008 0.000000 53.000000 14.626008 15.000000
17.499020 -11.071989 16.549814 0.000000 61.000000 14.549814 0.000000
21.864050 -11.973642 16.443027 0.000000 32.000000 14.443027 0.000000
20.010817 -16.579396 16.601510 0.000000 52.000000 14.601510 0.000000
16.703135 -11.334633 16.622333 0.000000 35.000000 14.622333 0.000000
16.655192 -12.208433 16.617066 0.000000 48.000000 14.617066 0.000000
19.626558 -11.063834 16.479151 0.000000 29.000000 14.479151 0.000000
17.069689 -12.651706 16.334958 0.000000 34.000000 14.334958 0.000000
21.165834 -12.512156 16.862014 0.000000 58.000000 14.862014 22.000000
18.693083 -11.428994 16.553364 0.000000 40.000000 14.553364 0.000000
17.123857 -13.440580 16.463284 0.000000 41.000000 14.463284 0.000000
16.002559 -13.430900 16.558066 0.000000 59.000000 14.558066 0.000000
16.120661 -13.408127 16.668582 0.000000 64.000000 14.668582 0.000000
21.990681 -15.029871 16.454182 0.000000 43.000000 14.454182 0.000000
19.368675 -13.981582 16.431349 0.000000 40.000000 14.431349 0.000000
21.403473 -11.128902 16.576951 0.000000 37.000000 14.576951 0.000000
19.069172 -12.192364 16.667535 0.000000 66.000000 14.667535 0.000000
20.154547 -12.358164 16.757138 0.000000 68.000000 14.757138 10.000000
17.421940 -12.019547 16.717124 0.000000 49.000000 14.717124 7.000000
18.218473 -12.853967 16.665524 0.000000 54.000000 14.665524 3.000000
19.091671 -15.736792 16.911781 0.000000 51.000000 14.911781 29.000000
21.266596 -16.097203 16.674211 0.000000 55.000000 14.674211 0.000000
15.984953 -12.765118 16.391691 0.000000 36.000000 14.391691 0.000000
21.492603 -13.965136 17.020844 0.000000 71.000000 15.020844 23.000000
18.297253 -16.741913 16.650919 0.000000 49.000000 14.650919 0.000000
17.602980 -14.431346 16.599592 0.000000 67.000000 14.599592 16.000000
19.495174 -15.185350 17.137789 0.000000 46.000000 15.137789 29.000000
21.385479 -15.976126 16.553329 0.000000 54.000000 14.553329 0.000000
21.418587 -16.077838 16.921563 0.000000 54.000000 14.921563 30.000000
18.134521 -13.222354 16.812501 0.000000 60.000000 14.812501 3.000000
18.238642 -14.086939 16.961769 0.000000 61.000000 14.961769 15.000000
18.092457 -11.300764 16.565066 0.000000 54.000000 14.565066 0.000000
19.113577 -12.657469 16.635759 0.000000 66.000000 14.635759 0.000000
18.985964 -12.608059 16.688411 0.000000 70.000000 14.688411 0.000000
16.799109 -12.482367 16.422039 0.000000 33.000000 14.422039 0.000000
16.591948 -16.280399 16.497889 0.000000 62.000000 14.497889 0.000000
19.984127 -16.965236 16.388944 0.000000 39.000000 14.388944 0.000000
18.895016 -16.061889 16.660127 0.000000 53.000000 14.660127 27.000000
18.773703 -12.372278 16.667952 0.000000 68.000000 14.667952 0.000000
21.487339 -14.231034 17.119954 0.000000 58.000000 15.119954 25.000000
19.880619 -14.023474 16.646517 0.000000 40.000000 14.646517 0.000000
18.484446 -13.377264 16.642180 0.000000 48.000000 14.642180 0.000000
15.846491 -15.245574 17.020031 0.000000 61.000000 15.020031 19.000000
20.563334 -15.988296 16.658722 0.000000 73.000000 14.658722 0.000000
19.869171 -16.580857 16.593465 0.000000 49.000000 14.593465 0.000000
19.308586 -13.171733 16.875767 0.000000 82.000000 14.875767 9.000000
22.041977 -15.088959 16.606193 0.000000 58.000000 14.606193 0.000000
15.931537 -12.584148 16.682423 0.000000 63.000000 14.682423 0.000000
22.059002 -16.283770 16.495521 0.000000 61.000000 14.495521 0.000000
19.350328 -11.753700 17.258278 0.000000 65.000000 15.258278 4.000000
21.670338 -14.418993 17.136630 0.000000 58.000000 15.136630 25.000000
21.537655 -12.117066 16.431477 0.000000 34.000000 14.431477 0.000000
19.299736 -13.851583 16.781391 0.000000 43.000000 14.781391 24.000000
17.325134 -13.329048 16.614058 0.000000 39.000000 14.614058 3.000000
20.789711 -13.721462 17.165411 0.000000 46.000000 15.165411 23.000000
21.170835 -12.626807 16.848495 0.000000 68.000000 14.848495 22.000000
19.046919 -12.640650 16.645000 0.000000 59.000000 14.645000 0.000000
17.268764 -11.759257 16.995090 0.000000 71.000000 14.995090 7.000000
18.139833 -15.957439 17.138893 0.000000 74.000000 15.138893 20.000000
17.444286 -12.097907 16.834452 0.000000 54.000000 14.834452 7.000000
16.916265 -14.455074 16.465601 0.000000 20.000000 14.465601 0.000000
16.586572 -14.688862 16.909914 0.000000 41.000000 14.909914 19.000000
21.156515 -14.819015 16.800666 0.000000 74.000000 14.800666 25.000000
20.740683 -11.648064 17.167400 0.000000 8.000000 15.167400 11.000000
19.478354 -13.243725 16.910645 0.000000 51.000000 14.910645 9.000000
17.052786 -14.395363 16.660362 0.000000 46.000000 14.660362 16.000000
20.535847 -16.009475 16.615859 0.000000 69.000000 14.615859 0.000000
16.367659 -16.401552 16.457182 0.000000 49.000000 14.457182 0.000000
18.546810 -15.422081 16.920698 0.000000 52.000000 14.920698 29.000000
17.395470 -13.695539 17.082923 0.000000 72.000000 15.082923 15.000000
16.126286 -12.541734 16.644650 0.000000 55.000000 14.644650 0.000000
18.737888 -16.877234 16.566107 0.000000 30.000000 14.566107 5.000000
20.128202 -15.190222 17.022062 0.000000 43.000000 15.022062 29.000000
18.288456 -14.012264 17.157643 0.000000 61.000000 15.157643 15.000000
18.417116 -15.476723 16.819166 0.000000 77.000000 14.819166 29.000000
19.942223 -16.148151 16.842565 0.000000 66.000000 14.842565 13.000000
18.802881 -15.132329 17.029123 0.000000 61.000000 15.029123 29.000000
16.312059 -15.745858 16.971865 0.000000 55.000000 14.971865 12.000000
19.963760 -13.463031 16.837331 0.000000 66.000000 14.837331 24.000000
18.626949 -12.951670 16.612279 0.000000 50.000000 14.612279 0.000000
18.385378 -12.861917 16.565550 0.000000 41.000000 14.565550 0.000000
16.988050 -12.567216 16.363518 0.000000 25.000000 14.363518 0.000000
18.466412 -12.936183 16.463708 0.000000 29.000000 14.463708 0.000000
19.298763 -15.037550 17.036250 0.000000 51.000000 15.036250 29.000000
21.434816 -14.201199 17.082025 0.000000 80.000000 15.082025 25.000000
20.408369 -13.356029 16.638474 0.000000 48.000000 14.638474 0.000000
16.242638 -16.678404 16.734554 0.000000 50.000000 14.734554 1.000000
18.220272 -14.669536 16.687593 0.000000 42.000000 14.687593 0.000000
16.845675 -15.130239 16.473799 0.000000 33.000000 14.473799 0.000000
19.340706 -13.687342 17.117519 0.000000 65.000000 15.117519 24.000000
21.220047 -17.205083 16.585655 0.000000 53.000000 14.585655 0.000000
16.816762 -14.253337 16.646916 0.000000 63.000000 14.646916 0.000000
16.830386 -16.540297 16.446875 0.000000 40.000000 14.446875 0.000000
15.828319 -13.440544 16.573846 0.000000 54.000000 14.573846 0.000000
16.322343 -15.464183 17.308191 0.000000 39.000000 15.308191 19.000000
16.485435 -13.461194 16.839479 0.000000 61.000000 14.839479 17.000000
21.619492 -13.968418 16.655078 0.000000 39.000000 14.655078 23.000000
17.245554 -12.275362 16.874783 0.000000 55.000000 14.874783 7.000000
21.032639 -13.289220 16.755313 0.000000 74.000000 14.755313 23.000000
19.098423 -16.516290 16.592792 0.000000 45.000000 14.592792 0.000000
19.641777 -15.562751 17.101575 0.000000 70.000000 15.101575 29.000000
18.682413 -11.133377 16.596786 0.000000 49.000000 14.596786 0.000000
18.906868 -14.418363 17.013223 0.000000 73.000000 15.013223 28.000000
17.297712 -16.212664 16.633724 0.000000 77.000000 14.633724 0.000000
17.763037 -16.309907 16.865173 0.000000 72.000000 14.865173 20.000000
21.852184 -10.997694 16.409487 0.000000 23.000000 14.409487 0.000000
18.847736 -12.309753 16.684747 0.000000 62.000000 14.684747 0.000000
19.560097 -12.173621 16.652159 0.000000 65.000000 14.652159 0.000000
17.889366 -16.560553 16.811060 0.000000 50.000000 14.811060 6.000000
19.595943 -14.033072 16.703178 0.000000 37.000000 14.703178 24.000000
18.230375 -16.781749 16.660161 0.000000 84.000000 14.660161 6.000000
19.439695 -16.259916 16.636496 0.000000 48.000000 14.636496 27.000000
16.778067 -15.115955 17.132435 0.000000 59.000000 15.132435 19.000000
20.932892 -11.326555 16.604627 0.000000 49.000000 14.604627 0.000000
16.205082 -15.532298 17.146861 0.000000 50.000000 15.146861 19.000000
15.903162 -15.884366 17.004137 0.000000 49.000000 15.004137 12.000000
19.436701 -14.790976 17.090248 0.000000 59.000000 15.090248 28.000000
21.851978 -12.112044 16.657249 0.000000 34.000000 14.657249 0.000000
20.982105 -12.191408 16.972442 0.000000 49.000000 14.972442 22.000000
21.228148 -13.978929 17.032272 0.000000 81.000000 15.032272 23.000000
20.505213 -13.466408 16.742715 0.000000 69.000000 14.742715 23.000000
18.430187 -17.043547 16.339709 0.000000 37.000000 14.339709 0.000000
17.470682 -13.217931 16.895425 0.000000 79.000000 14.895425 3.000000
16.735881 -14.223801 16.659822 0.000000 65.000000 14.659822 0.000000
20.948095 -15.218909 16.915584 0.000000 72.000000 14.915584 14.000000
21.300827 -12.440545 16.388389 0.000000 26.000000 14.388389 0.000000
16.401327 -13.833690 16.790232 0.000000 68.000000 14.790232 18.000000
17.269239 -13.787193 17.019117 0.000000 69.000000 15.019117 15.000000
20.379509 -16.034873 16.645945 0.000000 62.000000 14.645945 0.000000
21.940409 -16.192998 16.676008 0.000000 70.000000 14.676008 0.000000
17.491819 -14.952093 17.164617 0.000000 74.000000 15.164617 16.000000
16.366611 -15.837839 16.611599 0.000000 35.000000 14.611599 12.000000
21.022619 -15.935565 16.587890 0.000000 50.000000 14.587890 0.000000
18.903658 -12.333302 16.611290 0.000000 64.000000 14.611290 0.000000
19.988844 -11.452243 16.661522 0.000000 33.000000 14.661522 0.000000
17.045368 -15.838625 16.558804 0.000000 63.000000 14.558804 20.000000
19.129543 -14.377813 17.250176 0.000000 73.000000 15.250176 28.000000
19.092190 -12.139665 16.618189 0.000000 64.000000 14.618189 0.000000
16.521070 -14.615938 16.920807 0.000000 73.000000 14.920807 19.000000
16.013406 -16.535655 16.956777 0.000000 12.000000 14.956777 1.000000
15.824757 -14.907863 17.454426 0.000000 47.000000 15.454426 19.000000
17.474678 -13.538993 16.586021 0.000000 58.000000 14.586021 0.000000
17.626465 -15.498619 16.921629 0.000000 53.000000 14.921629 21.000000
20.094519 -13.457141 17.001206 0.000000 47.000000 15.001206 24.000000
18.411356 -13.160182 16.629930 0.000000 58.000000 14.629930 0.000000
21.159279 -16.543220 16.441436 0.000000 45.000000 14.441436 0.000000
16.624755 -12.194917 16.462994 0.000000 45.000000 14.462994 0.000000
17.172400 -11.813833 17.089656 0.000000 67.000000 15.089656 7.000000
18.109121 -16.384219 16.453753 0.000000 57.000000 14.453753 0.000000
19.721647 -13.951210 16.344830 0.000000 20.000000 14.344830 0.000000
21.726622 -12.336320 16.410180 0.000000 28.000000 14.410180 0.000000
17.071133 -11.613806 16.798223 0.000000 63.000000 14.798223 7.000000
20.955500 -14.018662 16.765032 0.000000 59.000000 14.765032 23.000000
18.667324 -11.972212 16.477545 0.000000 39.000000 14.477545 0.000000
20.716244 -17.005905 16.390706 0.000000 30.000000 14.390706 0.000000
17.244780 -12.777172 16.365857 0.000000 51.000000 14.365857 0.000000
20.233070 -15.356631 17.086547 0.000000 74.000000 15.086547 29.000000
20.219065 -12.765638 16.316517 0.000000 23.000000 14.316517 0.000000
15.889123 -16.901529 16.943696 0.000000 50.000000 14.943696 1.000000
19.253199 -15.528866 17.138038 0.000000 51.000000 15.138038 29.000000
19.862894 -13.629767 16.828678 0.000000 54.000000 14.828678 24.000000
17.245554 -13.317394 16.569479 0.000000 41.000000 14.569479 3.000000
17.749573 -11.918465 16.619778 0.000000 58.000000 14.619778 0.000000
19.897278 -11.450535 16.560940 0.000000 37.000000 14.560940 0.000000
17.345270 -13.022827 16.888193 0.000000 70.000000 14.888193 3.000000
19.688026 -15.702155 17.021766 0.000000 78.000000 15.021766 29.000000
17.322378 -12.068141 16.925858 0.000000 69.000000 14.925858 7.000000
20.496128 -13.599807 17.116568 0.000000 71.000000 15.116568 23.000000
18.318481 -15.549584 16.523003 0.000000 34.000000 14.523003 0.000000
19.508131 -16.040775 17.069924 0.000000 62.000000 15.069924 27.000000
16.257207 -11.239295 16.882153 0.000000 69.000000 14.882153 2.000000
16.791199 -13.286112 16.665614 0.000000 55.000000 14.665614 0.000000
18.673395 -16.227959 17.001684 0.000000 69.000000 15.001684 27.000000
15.926166 -14.511497 17.336157 0.000000 74.000000 15.336157 19.000000
19.624012 -12.539858 16.669200 0.000000 41.000000 14.669200 0.000000
21.828819 -12.205774 16.622136 0.000000 37.000000 14.622136 0.000000
18.194691 -15.456973 16.917484 0.000000 54.000000 14.917484 21.000000
16.349730 -14.183235 16.845637 0.000000 57.000000 14.845637 18.000000
17.487417 -11.949181 16.677812 0.000000 51.000000 14.677812 7.000000
16.635158 -11.220629 16.654853 0.000000 40.000000 14.654853 0.000000
18.073200 -16.835962 17.001597 0.000000 85.000000 15.001597 6.000000
17.480345 -14.355800 16.631041 0.000000 45.000000 14.631041 0.000000
17.459171 -13.398214 16.477536 0.000000 37.000000 14.477536 0.000000
21.531319 -15.824461 16.680737 0.000000 63.000000 14.680737 0.000000
16.847733 -12.623269 16.364256 0.000000 32.000000 14.364256 0.000000
20.865719 -16.014701 16.841610 0.000000 66.000000 14.841610 13.000000
17.526461 -15.707333 16.834092 0.000000 46.000000 14.834092 20.000000
21.538513 -15.953250 16.695196 0.000000 67.000000 14.695196 30.000000
16.167360 -12.436342 16.665616 0.000000 53.000000 14.665616 0.000000
17.171659 -14.007740 16.908330 0.000000 59.000000 14.908330 15.000000
16.669605 -13.364202 16.849250 0.000000 65.000000 14.849250 17.000000
18.177452 -12.326091 16.585788 0.000000 56.000000 14.585788 8.000000
18.662848 -14.869823 16.591743 0.000000 64.000000 14.591743 0.000000
20.196255 -15.351779 17.080514 0.000000 48.000000 15.080514 29.000000
20.290852 -15.869883 16.572154 0.000000 47.000000 14.572154 0.000000
20.453293 -15.991865 16.590319 0.000000 65.000000 14.590319 0.000000
17.905378 -14.694558 17.169950 0.000000 61.000000 15.169950 16.000000
19.407036 -11.530945 16.556970 0.000000 47.000000 14.556970 0.000000
17.839592 -16.523119 16.893985 0.000000 47.000000 14.893985 6.000000
21.830198 -13.668885 17.047084 0.000000 76.000000 15.047084 23.000000
20.146709 -12.449737 17.011958 0.000000 67.000000 15.011958 10.000000
16.333849 -15.711412 16.607713 0.000000 61.000000 14.607713 12.000000
19.894400 -15.499340 17.072266 0.000000 73.000000 15.072266 29.000000
19.452368 -11.095811 16.581654 0.000000 58.000000 14.581654 0.000000
19.086432 -11.569121 16.626550 0.000000 58.000000 14.626550 0.000000
18.163345 -12.724670 16.611925 0.000000 54.000000 14.611925 0.000000
18.153450 -15.476194 16.872818 0.000000 85.000000 14.872818 21.000000
19.598068 -11.971109 16.656664 0.000000 51.000000 14.656664 4.000000
17.467648 -17.013796 16.926832 0.000000 63.000000 14.926832 6.000000
17.692741 -14.969151 16.876841 0.000000 56.000000 14.876841 16.000000
17.846327 -15.595345 16.747389 0.000000 61.000000 14.747389 21.000000
16.206973 -16.087845 17.268394 0.000000 49.000000 15.268394 12.000000
17.843578 -15.137645 16.675274 0.000000 71.000000 14.675274 0.000000
21.320755 -16.448306 16.421916 0.000000 42.000000 14.421916 0.000000
