48.033378 -9.273513 26.645950 0.000000 22.000000 14.144875 0.000000
45.989992 -10.308359 26.200789 0.000000 51.000000 14.481211 28.000000
42.353125 -12.513219 25.189282 0.000000 72.000000 14.875947 21.000000
45.331491 -8.451219 25.882456 0.000000 60.000000 14.426942 8.000000
47.173897 -10.873283 27.058433 0.000000 36.000000 14.844166 14.000000
43.746375 -13.046982 25.785182 0.000000 35.000000 14.918567 20.000000
48.330352 -9.012647 26.683891 0.000000 24.000000 14.071107 0.000000
47.279968 -8.964486 26.240917 0.000000 12.000000 14.044817 0.000000
47.344848 -8.931170 26.325207 0.000000 24.000000 14.099392 0.000000
47.429156 -8.884209 26.381886 0.000000 22.000000 14.121150 0.000000
44.417214 -8.481899 25.601161 0.000000 29.000000 14.501051 4.000000
47.550150 -8.853283 26.581739 0.000000 26.000000 14.262606 0.000000
42.462079 -12.320477 25.134800 0.000000 41.000000 14.785260 21.000000
46.366888 -11.378192 26.675702 0.000000 62.000000 14.784534 30.000000
47.873205 -8.715110 26.699433 0.000000 33.000000 14.253442 0.000000
48.007023 -8.656050 26.710552 0.000000 34.000000 14.214642 0.000000
42.466609 -12.501743 24.843398 0.000000 74.000000 14.512555 21.000000
45.662815 -11.465324 26.375969 0.000000 61.000000 14.764301 12.000000
42.795509 -8.930607 25.074056 0.000000 62.000000 14.606315 22.000000
48.259558 -11.388159 26.789476 0.000000 28.000000 14.195313 0.000000
47.473946 -8.033840 26.904886 0.000000 42.000000 14.591160 7.000000
45.153677 -11.033302 26.062499 0.000000 54.000000 14.659704 11.000000
45.751148 -11.185212 26.062029 0.000000 34.000000 14.439857 30.000000
46.339475 -11.598521 26.449736 0.000000 58.000000 14.584423 15.000000
46.085612 -9.964242 26.187706 0.000000 47.000000 14.433928 28.000000
48.100274 -10.043177 26.743230 0.000000 26.000000 14.210792 0.000000
43.613443 -11.526495 25.867065 0.000000 36.000000 15.043546 10.000000
48.089637 -9.781565 26.763088 0.000000 26.000000 14.233169 0.000000
47.246975 -11.321229 26.846966 0.000000 31.000000 14.620637 16.000000
48.052717 -9.555316 26.843385 0.000000 27.000000 14.321413 0.000000
43.399473 -12.654811 25.365562 0.000000 35.000000 14.655659 27.000000
47.030974 -11.687327 26.727558 0.000000 58.000000 14.588894 16.000000
46.445524 -11.100163 26.517436 0.000000 57.000000 14.608449 30.000000
48.238604 -8.801876 26.755843 0.000000 28.000000 14.171725 0.000000
48.255299 -8.679483 26.786822 0.000000 25.000000 14.194408 0.000000
48.295351 -8.539414 26.789059 0.000000 25.000000 14.181781 0.000000
44.244922 -12.975255 25.272406 0.000000 30.000000 14.258537 0.000000
47.218466 -12.951809 26.377982 0.000000 33.000000 14.194891 0.000000
43.981164 -12.804813 25.676306 0.000000 58.000000 14.731077 20.000000
45.089573 -11.823115 26.121452 0.000000 42.000000 14.738079 12.000000
46.166085 -9.572493 26.453761 0.000000 38.000000 14.651841 9.000000
44.046692 -12.873458 25.668719 0.000000 56.000000 14.699956 20.000000
46.560930 -12.257223 26.389061 0.000000 49.000000 14.446663 0.000000
47.755482 -12.616009 26.603990 0.000000 39.000000 14.207899 0.000000
47.356031 -10.738688 26.856867 0.000000 53.000000 14.589798 14.000000
43.197720 -10.720537 25.208595 0.000000 62.000000 14.583749 5.000000
47.171402 -9.549802 26.621445 0.000000 34.000000 14.438626 0.000000
45.422099 -11.287798 26.129573 0.000000 35.000000 14.623519 12.000000
45.357692 -11.931841 25.714878 0.000000 24.000000 14.261451 0.000000
44.892978 -12.085396 25.838536 0.000000 37.000000 14.547126 24.000000
43.361483 -10.777718 25.393913 0.000000 54.000000 14.695980 5.000000
45.723369 -11.180892 25.855472 0.000000 33.000000 14.257933 0.000000
46.875818 -11.192826 26.312217 0.000000 32.000000 14.259551 0.000000
43.223029 -11.681451 25.059636 0.000000 61.000000 14.435904 10.000000
45.519433 -8.226921 26.148587 0.000000 59.000000 14.605460 8.000000
48.182469 -9.534435 26.990444 0.000000 51.000000 14.410548 0.000000
46.749293 -12.741835 26.629349 0.000000 57.000000 14.600989 18.000000
47.835783 -10.292452 26.586108 0.000000 32.000000 14.161777 0.000000
45.932265 -11.272753 25.961566 0.000000 35.000000 14.279902 0.000000
48.010582 -10.197027 26.681530 0.000000 30.000000 14.186340 0.000000
44.296152 -11.548528 25.463680 0.000000 50.000000 14.417634 12.000000
48.190289 -8.304354 27.016937 0.000000 36.000000 14.432319 6.000000
44.275393 -8.988774 25.497988 0.000000 52.000000 14.457168 22.000000
44.572906 -12.546401 25.985956 0.000000 74.000000 14.801786 24.000000
47.320302 -10.023654 26.396582 0.000000 25.000000 14.174794 0.000000
47.429854 -9.989321 26.440098 0.000000 26.000000 14.175038 0.000000
47.542838 -9.959055 26.487314 0.000000 24.000000 14.177464 0.000000
45.493935 -8.245780 26.165769 0.000000 55.000000 14.630805 8.000000
47.766415 -9.911599 26.585255 0.000000 32.000000 14.186458 0.000000
46.753129 -10.059817 26.516764 0.000000 33.000000 14.494862 13.000000
47.999121 -9.875041 26.678710 0.000000 32.000000 14.187926 0.000000
45.864660 -12.838280 26.062648 0.000000 35.000000 14.398748 19.000000
47.619724 -12.785913 26.529684 0.000000 32.000000 14.188639 0.000000
47.569182 -12.668707 26.517829 0.000000 37.000000 14.196173 0.000000
47.047523 -11.815743 26.550487 0.000000 46.000000 14.418118 16.000000
47.227911 -10.396791 26.334903 0.000000 24.000000 14.151353 0.000000
47.221741 -10.282207 26.358239 0.000000 23.000000 14.175324 0.000000
43.107049 -12.522168 25.729211 0.000000 56.000000 15.101287 27.000000
47.227945 -10.047936 26.400935 0.000000 28.000000 14.212759 0.000000
43.976161 -11.438029 25.663851 0.000000 69.000000 14.721329 10.000000
43.237617 -8.520782 25.180580 0.000000 52.000000 14.543040 26.000000
46.917490 -11.011668 26.644431 0.000000 71.000000 14.553250 14.000000
47.514556 -9.118990 26.339142 0.000000 17.000000 14.050031 0.000000
47.538732 -9.018780 26.383688 0.000000 23.000000 14.082587 0.000000
46.140646 -6.976974 26.543765 0.000000 59.000000 14.744899 1.000000
47.558065 -8.865678 26.538205 0.000000 28.000000 14.219208 0.000000
47.597344 -8.767406 26.580686 0.000000 28.000000 14.244296 0.000000
47.664948 -8.649314 26.583286 0.000000 32.000000 14.221888 0.000000
43.763492 -12.379168 25.715090 0.000000 55.000000 14.847087 27.000000
47.797897 -8.430699 26.617455 0.000000 31.000000 14.204847 0.000000
47.870629 -8.322877 26.634263 0.000000 28.000000 14.193771 0.000000
46.637979 -12.222360 26.158892 0.000000 32.000000 14.204281 0.000000
46.702827 -12.154910 26.192302 0.000000 27.000000 14.211542 0.000000
44.410209 -12.676781 26.002585 0.000000 51.000000 14.877000 24.000000
45.773507 -11.933045 25.691823 0.000000 22.000000 14.087306 0.000000
45.813869 -11.900176 25.805919 0.000000 22.000000 14.178609 0.000000
46.832650 -7.873415 26.908750 0.000000 48.000000 14.830257 7.000000
44.444995 -12.726378 25.803453 0.000000 44.000000 14.679007 24.000000
47.453313 -11.601349 26.474220 0.000000 36.000000 14.198161 0.000000
47.552302 -11.550872 26.507731 0.000000 33.000000 14.192979 0.000000
44.807279 -11.008927 25.926620 0.000000 46.000000 14.660527 11.000000
44.737947 -11.036418 25.905650 0.000000 35.000000 14.666483 11.000000
47.844046 -11.425903 26.631963 0.000000 41.000000 14.201394 0.000000
43.120785 -12.488207 25.717501 0.000000 48.000000 15.085351 27.000000
44.490280 -12.366850 26.165988 0.000000 70.000000 14.999582 24.000000
43.331470 -9.568233 25.061412 0.000000 50.000000 14.397733 25.000000
48.269796 -11.289528 26.794700 0.000000 29.000000 14.196412 0.000000
47.556642 -11.201303 26.493080 0.000000 27.000000 14.177758 0.000000
47.670285 -11.187199 26.546271 0.000000 25.000000 14.185499 0.000000
42.724567 -8.760817 24.970581 0.000000 56.000000 14.536122 22.000000
47.758180 -8.230782 27.147262 0.000000 46.000000 14.712222 6.000000
48.030425 -11.160614 26.692801 0.000000 28.000000 14.189537 0.000000
48.151274 -11.157392 26.740280 0.000000 29.000000 14.189319 0.000000
45.003884 -11.183054 26.014878 0.000000 51.000000 14.670419 11.000000
47.584826 -12.631490 26.539232 0.000000 39.000000 14.210336 0.000000
47.535813 -12.532077 26.568398 0.000000 39.000000 14.255463 0.000000
47.534949 -12.403273 26.526970 0.000000 35.000000 14.217247 0.000000
44.007952 -10.730594 25.467561 0.000000 48.000000 14.527079 5.000000
45.400046 -11.914200 26.111190 0.000000 50.000000 14.614519 12.000000
47.573057 -12.001272 26.373690 0.000000 29.000000 14.060682 0.000000
43.507794 -13.030502 25.879968 0.000000 50.000000 15.094345 20.000000
47.544453 -11.899789 26.399913 0.000000 28.000000 14.095577 0.000000
46.359770 -11.877215 26.015408 0.000000 24.000000 14.172989 0.000000
43.642347 -11.667197 25.537852 0.000000 61.000000 14.726720 10.000000
46.336140 -11.771739 26.042214 0.000000 24.000000 14.206600 0.000000
47.440726 -11.733596 26.542885 0.000000 41.000000 14.266651 0.000000
43.485307 -12.355026 25.774150 0.000000 69.000000 15.004178 27.000000
47.469320 -11.597632 26.494292 0.000000 35.000000 14.210953 0.000000
47.493711 -11.146938 26.512675 0.000000 39.000000 14.219094 0.000000
42.316708 -12.215994 25.340721 0.000000 69.000000 15.030178 21.000000
44.017310 -12.388502 25.723537 0.000000 44.000000 14.761734 24.000000
47.650083 -10.471261 26.537379 0.000000 28.000000 14.184648 0.000000
47.688298 -10.362407 26.546728 0.000000 30.000000 14.179310 0.000000
45.443665 -8.213035 26.244512 0.000000 66.000000 14.722507 8.000000
47.742819 -10.174683 26.615539 0.000000 31.000000 14.223291 0.000000
45.076954 -9.467871 25.620835 0.000000 34.000000 14.277074 0.000000
47.842615 -9.966070 26.639835 0.000000 33.000000 14.209241 0.000000
47.907577 -9.855045 26.641255 0.000000 33.000000 14.186706 0.000000
46.802095 -9.783303 26.199321 0.000000 24.000000 14.181617 0.000000
42.392560 -8.482975 25.019452 0.000000 56.000000 14.703501 3.000000
46.860430 -9.687739 26.224307 0.000000 24.000000 14.183434 0.000000
43.448082 -12.608910 25.428957 0.000000 55.000000 14.696774 27.000000
45.061364 -11.830236 25.885487 0.000000 51.000000 14.528960 12.000000
44.697009 -11.268283 25.935348 0.000000 61.000000 14.709139 11.000000
47.060871 -9.412978 26.296574 0.000000 21.000000 14.177044 0.000000
44.323822 -11.498212 25.773355 0.000000 56.000000 14.695511 12.000000
47.271062 -9.183906 26.248711 0.000000 13.000000 14.055337 0.000000
47.357189 -9.097201 26.267274 0.000000 10.000000 14.040974 0.000000
47.440772 -9.018750 26.298884 0.000000 19.000000 14.039682 0.000000
47.503231 -8.968045 26.368458 0.000000 22.000000 14.081457 0.000000
43.335828 -11.673826 25.376360 0.000000 63.000000 14.689075 10.000000
44.509401 -9.849168 25.380685 0.000000 31.000000 14.262126 0.000000
47.691577 -8.849441 26.605195 0.000000 27.000000 14.232487 0.000000
43.547522 -11.590063 25.507518 0.000000 76.000000 14.733329 10.000000
47.880468 -8.737905 26.691892 0.000000 31.000000 14.243760 0.000000
46.350065 -11.643779 26.353762 0.000000 37.000000 14.491266 15.000000
48.116003 -8.605372 26.728593 0.000000 26.000000 14.191401 0.000000
48.227229 -8.554920 26.762862 0.000000 24.000000 14.182431 0.000000
47.189204 -12.976994 26.370656 0.000000 31.000000 14.198822 0.000000
47.270500 -12.937034 26.428660 0.000000 33.000000 14.222919 0.000000
47.380655 -12.884252 26.443755 0.000000 30.000000 14.196507 0.000000
43.197887 -9.564105 25.425640 0.000000 64.000000 14.785568 25.000000
43.233244 -10.681077 25.196125 0.000000 69.000000 14.559105 5.000000
47.616983 -12.800222 26.662557 0.000000 38.000000 14.313235 0.000000
47.769353 -12.735482 26.627850 0.000000 39.000000 14.224998 0.000000
46.669490 -7.388520 26.513882 0.000000 51.000000 14.522896 7.000000
47.613319 -12.516701 26.592081 0.000000 36.000000 14.249028 0.000000
43.146650 -11.321953 25.257494 0.000000 66.000000 14.647986 10.000000
47.884643 -12.480488 26.641586 0.000000 30.000000 14.195436 0.000000
45.620668 -12.977870 25.854387 0.000000 23.000000 14.294639 0.000000
43.948581 -8.714846 25.543716 0.000000 37.000000 14.619716 22.000000
47.642320 -12.915499 27.080677 0.000000 42.000000 14.692836 17.000000
43.137857 -12.746216 25.361360 0.000000 43.000000 14.747824 20.000000
45.977581 -11.303662 25.909561 0.000000 27.000000 14.214889 0.000000
47.206574 -11.157000 26.461214 0.000000 28.000000 14.276674 0.000000
47.767199 -10.502890 26.619283 0.000000 25.000000 14.217820 0.000000
42.979810 -12.415347 25.342602 0.000000 62.000000 14.788416 27.000000
47.959189 -10.344224 26.638122 0.000000 28.000000 14.164838 0.000000
46.685290 -11.599636 26.830235 0.000000 66.000000 14.811343 16.000000
47.812544 -7.773312 27.035693 0.000000 35.000000 14.588484 6.000000
48.106455 -10.241249 26.746149 0.000000 29.000000 14.211237 0.000000
44.492183 -11.756008 25.879245 0.000000 61.000000 14.732175 12.000000
47.051279 -12.412731 26.821901 0.000000 40.000000 14.669189 18.000000
47.184422 -10.115889 26.355179 0.000000 25.000000 14.186183 0.000000
43.363411 -8.913708 25.563188 0.000000 55.000000 14.852720 22.000000
48.136004 -10.234834 27.032178 0.000000 55.000000 14.466430 0.000000
46.177380 -9.881410 26.216243 0.000000 35.000000 14.426771 0.000000
47.288722 -7.290330 26.880214 0.000000 46.000000 14.636231 2.000000
44.492296 -12.199435 26.052166 0.000000 42.000000 14.892972 24.000000
47.232017 -6.959242 26.907911 0.000000 36.000000 14.682817 2.000000
44.465845 -12.674675 25.879289 0.000000 43.000000 14.741888 24.000000
48.034659 -9.812308 26.697212 0.000000 29.000000 14.192085 0.000000
46.604000 -12.720294 26.652052 0.000000 54.000000 14.675462 19.000000
47.904510 -12.532095 26.663160 0.000000 30.000000 14.208207 0.000000
47.872824 -12.404536 26.634541 0.000000 27.000000 14.193224 0.000000
47.880812 -12.251884 26.548378 0.000000 27.000000 14.110147 0.000000
47.874525 -12.108769 26.490578 0.000000 23.000000 14.058695 0.000000
47.840382 -11.984570 26.480949 0.000000 25.000000 14.062277 0.000000
43.597463 -12.506933 25.486661 0.000000 71.000000 14.695589 27.000000
43.317818 -9.408474 25.544687 0.000000 59.000000 14.852255 25.000000
47.679053 -11.658207 26.570020 0.000000 26.000000 14.204369 0.000000
43.211910 -11.173285 25.174805 0.000000 46.000000 14.547109 10.000000
47.641106 -11.404772 26.548803 0.000000 26.000000 14.198570 0.000000
47.632968 -11.270364 26.528248 0.000000 26.000000 14.182440 0.000000
47.612621 -11.148449 26.533599 0.000000 24.000000 14.194889 0.000000
44.826073 -8.353241 25.760235 0.000000 48.000000 14.498865 4.000000
46.112191 -10.527478 26.297964 0.000000 56.000000 14.526721 30.000000
43.154001 -11.690851 25.260179 0.000000 44.000000 14.647784 10.000000
47.606968 -10.250113 26.521574 0.000000 24.000000 14.185780 0.000000
47.614102 -10.126329 26.533672 0.000000 25.000000 14.194413 0.000000
46.962504 -10.889075 26.779633 0.000000 59.000000 14.662475 14.000000
44.457770 -12.833190 26.225582 0.000000 54.000000 15.066951 23.000000
47.671575 -9.749609 26.550485 0.000000 35.000000 14.188945 0.000000
47.690065 -9.630960 26.569624 0.000000 37.000000 14.199957 0.000000
47.720166 -9.505093 26.577180 0.000000 29.000000 14.195931 0.000000
47.749938 -9.386357 26.591804 0.000000 22.000000 14.198600 0.000000
47.795417 -9.256316 26.590091 0.000000 19.000000 14.180306 0.000000
43.745642 -8.666312 25.383153 0.000000 58.000000 14.544897 22.000000
47.912837 -8.983817 26.564971 0.000000 23.000000 14.113821 0.000000
47.295666 -6.836199 27.049076 0.000000 50.000000 14.790745 2.000000
43.212972 -12.078606 25.394445 0.000000 48.000000 14.751013 27.000000
48.009375 -8.693365 26.700358 0.000000 32.000000 14.204296 0.000000
48.072253 -8.576608 26.713564 0.000000 27.000000 14.193489 0.000000
48.133436 -8.467980 26.733489 0.000000 24.000000 14.189553 0.000000
48.130869 -8.429289 26.855170 0.000000 42.000000 14.303675 0.000000
45.934578 -12.075717 25.816574 0.000000 22.000000 14.144191 0.000000
45.757798 -11.373277 26.095783 0.000000 47.000000 14.468811 12.000000
46.109951 -11.909949 25.821228 0.000000 23.000000 14.084117 0.000000
46.159252 -11.866685 25.915000 0.000000 24.000000 14.153233 0.000000
43.741096 -11.549618 25.797516 0.000000 68.000000 14.931978 10.000000
46.566039 -12.676105 26.428155 0.000000 46.000000 14.481149 19.000000
46.146909 -10.900103 26.630096 0.000000 45.000000 14.822898 30.000000
43.341888 -9.452534 25.546860 0.000000 70.000000 14.845437 25.000000
47.605987 -11.668883 26.518990 0.000000 34.000000 14.183737 0.000000
44.411129 -8.211211 25.662343 0.000000 54.000000 14.560193 4.000000
42.820290 -11.510277 24.898959 0.000000 48.000000 14.434351 10.000000
46.276830 -9.376729 26.735093 0.000000 2.000000 14.872848 9.000000
47.962809 -11.466036 26.675384 0.000000 39.000000 14.198168 0.000000
43.603487 -12.731945 25.474661 0.000000 41.000000 14.682215 20.000000
48.165268 -11.374442 26.742936 0.000000 39.000000 14.186651 0.000000
46.260677 -12.452231 26.236352 0.000000 39.000000 14.414886 19.000000
45.785680 -12.388238 26.239162 0.000000 33.000000 14.591932 24.000000
43.658628 -11.670999 25.597975 0.000000 50.000000 14.776664 10.000000
45.732676 -11.848787 26.247990 0.000000 49.000000 14.619608 12.000000
47.849388 -11.144113 26.627769 0.000000 27.000000 14.195531 0.000000
47.968115 -11.125985 26.669735 0.000000 28.000000 14.190965 0.000000
48.081385 -11.114039 26.721899 0.000000 38.000000 14.197888 0.000000
48.208670 -11.097826 26.758665 0.000000 30.000000 14.185342 0.000000
45.518267 -11.795022 26.253319 0.000000 48.000000 14.703303 12.000000
48.052805 -12.363351 26.648757 0.000000 25.000000 14.140352 0.000000
43.551727 -10.971086 25.388939 0.000000 75.000000 14.621490 5.000000
43.310581 -12.520044 25.526122 0.000000 70.000000 14.837645 27.000000
47.880015 -13.014447 27.495836 0.000000 66.000000 14.991699 17.000000
46.797533 -12.018489 26.295588 0.000000 25.000000 14.272833 0.000000
48.014417 -11.885255 26.594492 0.000000 29.000000 14.103975 0.000000
46.827681 -11.866127 26.218285 0.000000 22.000000 14.189860 0.000000
43.974490 -11.631607 25.505598 0.000000 53.000000 14.574747 10.000000
47.950309 -11.688540 26.673183 0.000000 32.000000 14.200711 0.000000
47.624500 -7.199426 26.968145 0.000000 35.000000 14.594711 2.000000
46.757637 -11.556758 26.317878 0.000000 31.000000 14.308217 0.000000
45.878202 -10.772254 26.211380 0.000000 24.000000 14.532115 30.000000
42.336881 -12.492600 25.145300 0.000000 55.000000 14.841003 21.000000
47.959089 -11.230715 26.687010 0.000000 28.000000 14.210347 0.000000
47.972972 -11.114706 26.686646 0.000000 31.000000 14.204911 0.000000
46.898576 -10.532748 26.373527 0.000000 25.000000 14.308220 0.000000
48.156762 -10.408479 26.667156 0.000000 30.000000 14.119289 0.000000
47.030059 -10.332023 26.211339 0.000000 22.000000 14.109080 0.000000
48.181365 -10.310001 26.693886 0.000000 26.000000 14.135116 0.000000
47.014052 -10.275942 26.319082 0.000000 28.000000 14.215173 0.000000
46.592901 -8.205726 26.780581 0.000000 57.000000 14.799086 7.000000
46.844255 -12.746454 26.611809 0.000000 55.000000 14.549802 18.000000
48.172021 -10.171919 26.856416 0.000000 33.000000 14.289722 0.000000
42.726411 -12.865992 25.459579 0.000000 67.000000 14.990276 20.000000
47.156334 -9.951752 26.352549 0.000000 25.000000 14.194051 0.000000
47.234762 -9.778442 26.440471 0.000000 31.000000 14.247029 0.000000
47.479599 -9.415744 26.549427 0.000000 26.000000 14.258461 0.000000
47.598152 -9.282024 26.500151 0.000000 22.000000 14.169091 0.000000
47.677950 -9.194516 26.521354 0.000000 23.000000 14.159509 0.000000
45.905962 -12.970724 26.392619 0.000000 52.000000 14.690496 19.000000
42.519098 -9.256163 24.807150 0.000000 48.000000 14.459564 0.000000
47.942521 -8.939940 26.580120 0.000000 23.000000 14.117010 0.000000
46.612732 -10.084311 26.428848 0.000000 41.000000 14.464647 13.000000
47.397076 -9.749062 26.726167 0.000000 46.000000 14.453157 0.000000
46.588779 -13.009763 26.687614 0.000000 69.000000 14.714129 19.000000
45.217254 -12.987107 26.172289 0.000000 42.000000 14.738475 23.000000
47.286882 -13.029764 26.415693 0.000000 35.000000 14.204842 0.000000
47.374564 -12.975606 26.448898 0.000000 31.000000 14.203528 0.000000
44.826313 -12.735982 26.006690 0.000000 60.000000 14.728012 23.000000
47.520800 -12.480843 26.537273 0.000000 34.000000 14.232026 0.000000
43.670391 -12.465618 25.465605 0.000000 51.000000 14.649223 27.000000
42.254849 -8.557380 25.313515 0.000000 50.000000 15.027590 3.000000
46.879993 -12.652368 26.623674 0.000000 68.000000 14.547714 18.000000
44.441373 -8.491195 25.947886 0.000000 55.000000 14.814679 4.000000
43.714102 -11.606884 25.670452 0.000000 57.000000 14.823705 10.000000
46.058205 -13.025067 26.574228 0.000000 47.000000 14.803508 19.000000
47.077049 -10.911435 27.002517 0.000000 68.000000 14.827722 14.000000
43.688772 -10.887067 25.531092 0.000000 59.000000 14.703384 5.000000
46.180425 -9.505799 26.258817 0.000000 60.000000 14.465252 9.000000
43.397300 -8.817414 25.655829 0.000000 51.000000 14.926443 22.000000
46.123991 -12.247261 26.011789 0.000000 22.000000 14.256208 0.000000
46.210576 -12.080135 25.871131 0.000000 20.000000 14.093581 0.000000
46.244620 -11.959803 25.845731 0.000000 22.000000 14.057454 0.000000
46.875498 -6.871837 26.628775 0.000000 33.000000 14.554109 2.000000
45.060566 -11.385562 26.070415 0.000000 36.000000 14.701260 12.000000
47.352225 -11.823279 26.509800 0.000000 28.000000 14.268378 0.000000
46.258682 -11.701428 25.998966 0.000000 23.000000 14.194818 0.000000
46.297845 -10.715524 26.708718 0.000000 67.000000 14.840598 30.000000
43.541502 -12.116107 25.566405 0.000000 41.000000 14.790312 27.000000
47.459174 -11.522952 26.531353 0.000000 36.000000 14.249150 0.000000
47.559176 -11.318233 26.530737 0.000000 31.000000 14.211853 0.000000
44.454190 -10.883276 25.877842 0.000000 56.000000 14.744822 11.000000
47.661129 -11.128929 26.554370 0.000000 28.000000 14.196395 0.000000
47.704652 -11.045664 26.590393 0.000000 32.000000 14.213918 0.000000
47.068841 -10.421709 26.230212 0.000000 22.000000 14.112392 0.000000
47.115967 -10.380398 26.321766 0.000000 24.000000 14.180243 0.000000
42.774590 -9.024905 25.456872 0.000000 55.000000 14.970065 22.000000
44.517431 -12.461313 26.127862 0.000000 48.000000 14.954149 24.000000
45.185380 -12.714866 25.902619 0.000000 58.000000 14.499352 24.000000
47.363030 -10.194127 26.439822 0.000000 30.000000 14.199321 0.000000
47.452644 -10.136074 26.480152 0.000000 27.000000 14.203925 0.000000
46.761974 -7.074041 26.743177 0.000000 53.000000 14.702207 2.000000
46.805546 -13.015786 26.781905 0.000000 63.000000 14.722228 19.000000
47.252136 -12.662820 26.787638 0.000000 54.000000 14.563559 18.000000
47.840833 -9.933901 26.638086 0.000000 28.000000 14.208269 0.000000
47.943612 -9.890929 26.680671 0.000000 31.000000 14.210135 0.000000
43.062790 -12.938881 25.400495 0.000000 52.000000 14.811792 20.000000
43.999564 -10.625533 25.350887 0.000000 34.000000 14.421638 5.000000
48.219949 -11.662111 26.802096 0.000000 31.000000 14.221597 0.000000
48.210400 -11.527606 26.774220 0.000000 36.000000 14.199175 0.000000
47.117345 -6.833855 26.812656 0.000000 36.000000 14.636328 2.000000
48.179247 -11.267220 26.758326 0.000000 28.000000 14.195832 0.000000
47.761255 -8.272177 27.147035 0.000000 53.000000 14.710881 6.000000
48.092805 -11.058403 26.847472 0.000000 40.000000 14.310493 0.000000
48.189861 -10.335041 26.689100 0.000000 25.000000 14.127545 0.000000
48.139824 -10.256430 26.782928 0.000000 25.000000 14.233192 0.000000
44.497170 -8.354091 25.626608 0.000000 38.000000 14.495358 4.000000
48.175280 -9.993491 26.780526 0.000000 23.000000 14.217937 0.000000
44.554608 -11.668312 26.037752 0.000000 67.000000 14.856682 12.000000
46.010530 -12.543125 25.915400 0.000000 24.000000 14.208220 0.000000
43.306945 -12.433129 25.571292 0.000000 49.000000 14.880994 27.000000
46.855680 -11.483880 26.955316 0.000000 61.000000 14.865112 16.000000
46.189018 -12.283564 25.951212 0.000000 24.000000 14.175984 0.000000
44.479515 -12.831645 26.510914 0.000000 3.000000 15.324361 23.000000
46.345707 -12.101244 25.942756 0.000000 22.000000 14.110578 0.000000
46.431226 -12.012582 25.935891 0.000000 21.000000 14.072787 0.000000
43.991806 -8.646080 25.574625 0.000000 49.000000 14.632592 22.000000
44.974971 -12.409345 26.213063 0.000000 46.000000 14.865374 24.000000
43.444678 -9.117663 25.518615 0.000000 56.000000 14.781417 22.000000
43.711641 -12.802441 25.555222 0.000000 38.000000 14.717430 20.000000
44.287230 -12.552065 25.888639 0.000000 68.000000 14.816177 24.000000
46.598632 -11.847392 26.140362 0.000000 23.000000 14.201495 0.000000
47.251297 -10.727638 27.047729 0.000000 55.000000 14.805786 14.000000
43.196241 -10.622046 25.217869 0.000000 34.000000 14.592918 5.000000
44.371044 -10.793072 25.667234 0.000000 30.000000 14.579463 11.000000
46.941160 -8.384107 26.548952 0.000000 42.000000 14.455750 7.000000
47.977293 -11.687755 26.669313 0.000000 30.000000 14.187202 0.000000
48.051665 -11.636883 26.721118 0.000000 40.000000 14.208076 0.000000
47.323010 -8.043833 27.078096 0.000000 54.000000 14.807696 7.000000
46.348038 -11.325494 26.623231 0.000000 64.000000 14.742652 30.000000
44.509544 -10.964392 25.813147 0.000000 58.000000 14.664319 11.000000
47.451134 -12.935121 26.896620 0.000000 65.000000 14.591849 17.000000
44.079555 -11.613060 25.441944 0.000000 49.000000 14.476957 10.000000
47.131456 -7.324724 26.761929 0.000000 45.000000 14.583964 2.000000
47.960769 -11.172917 26.667567 0.000000 24.000000 14.191646 0.000000
48.072046 -11.147105 26.710671 0.000000 26.000000 14.190874 0.000000
48.188783 -11.121255 26.749296 0.000000 30.000000 14.183931 0.000000
47.492398 -12.708292 26.477546 0.000000 28.000000 14.186902 0.000000
47.238697 -10.531175 26.776053 0.000000 30.000000 14.557719 14.000000
46.212569 -9.563290 26.225706 0.000000 29.000000 14.422650 9.000000
47.601047 -10.147370 26.520232 0.000000 24.000000 14.186706 0.000000
47.645114 -10.039841 26.537582 0.000000 26.000000 14.186661 0.000000
47.700819 -9.928211 26.543290 0.000000 23.000000 14.171514 0.000000
46.186728 -11.393883 26.531704 0.000000 65.000000 14.716758 30.000000
47.800202 -9.732474 26.596556 0.000000 29.000000 14.184562 0.000000
44.123832 -9.066276 25.626942 0.000000 31.000000 14.632770 22.000000
46.547486 -11.376395 26.398735 0.000000 42.000000 14.460598 30.000000
46.564787 -7.894212 26.758049 0.000000 60.000000 14.788453 7.000000
48.052222 -9.357194 26.696355 0.000000 22.000000 14.184838 0.000000
46.451800 -6.853919 26.646375 0.000000 36.000000 14.726074 1.000000
48.284446 -9.101315 26.617837 0.000000 12.000000 14.026526 0.000000
46.638471 -11.601427 26.828489 0.000000 70.000000 14.826912 16.000000
43.165121 -8.818931 25.328735 0.000000 50.000000 14.707466 22.000000
47.536399 -12.551927 26.541463 0.000000 32.000000 14.230195 0.000000
43.483712 -10.575776 25.283597 0.000000 35.000000 14.548486 5.000000
46.558359 -10.914393 26.546061 0.000000 63.000000 14.593637 30.000000
46.330004 -12.796916 26.301735 0.000000 44.000000 14.450241 19.000000
48.015406 -12.411583 26.658105 0.000000 24.000000 14.162781 0.000000
45.240240 -12.570702 26.213409 0.000000 52.000000 14.768281 24.000000
42.470530 -12.083581 25.285424 0.000000 62.000000 14.922256 21.000000
47.877612 -12.448136 26.689922 0.000000 35.000000 14.242977 0.000000
47.964192 -12.287076 26.560321 0.000000 28.000000 14.090636 0.000000
47.985364 -12.174081 26.547184 0.000000 26.000000 14.070642 0.000000
45.248429 -12.414880 26.267270 0.000000 42.000000 14.815372 24.000000
48.012057 -12.059066 26.529624 0.000000 27.000000 14.044507 0.000000
46.777240 -12.045724 26.250527 0.000000 23.000000 14.238372 0.000000
48.026656 -11.955360 26.542446 0.000000 28.000000 14.051071 0.000000
46.847247 -11.897023 26.157446 0.000000 21.000000 14.126086 0.000000
48.019129 -11.871033 26.596154 0.000000 28.000000 14.103791 0.000000
46.830019 -11.824044 26.243599 0.000000 23.000000 14.212547 0.000000
47.579093 -8.245193 27.022759 0.000000 52.000000 14.662184 6.000000
44.382027 -8.103849 25.674942 0.000000 50.000000 14.582599 4.000000
48.048158 -11.602842 26.715000 0.000000 40.000000 14.203673 0.000000
48.083130 -11.503228 26.724864 0.000000 35.000000 14.200005 0.000000
48.121885 -11.403666 26.737131 0.000000 37.000000 14.197183 0.000000
47.481432 -10.674253 26.873742 0.000000 46.000000 14.559443 14.000000
48.211199 -11.205650 26.763896 0.000000 28.000000 14.189279 0.000000
47.086323 -11.125302 26.351275 0.000000 22.000000 14.218577 0.000000
44.140033 -11.441222 25.987829 0.000000 59.000000 14.962492 12.000000
47.614677 -10.420890 26.502443 0.000000 23.000000 14.165155 0.000000
45.982366 -10.864432 26.528258 0.000000 78.000000 14.788600 30.000000
47.762400 -10.285917 26.581796 0.000000 26.000000 14.184715 0.000000
44.388282 -10.801116 25.317311 0.000000 28.000000 14.247659 0.000000
47.937054 -10.148898 26.643866 0.000000 27.000000 14.178310 0.000000
44.365291 -10.651771 25.611553 0.000000 56.000000 14.529785 11.000000
48.115359 -10.030078 26.719773 0.000000 25.000000 14.183434 0.000000
48.183290 -9.998595 26.802039 0.000000 24.000000 14.235006 0.000000
47.605168 -12.746482 26.574698 0.000000 34.000000 14.235853 0.000000
43.532469 -10.769417 25.563854 0.000000 46.000000 14.791256 5.000000
47.699206 -12.502342 26.675220 0.000000 32.000000 14.294818 0.000000
44.591117 -12.978842 25.973402 0.000000 63.000000 14.783421 23.000000
47.276582 -7.417634 26.644922 0.000000 42.000000 14.421837 0.000000
47.970492 -12.166751 26.534036 0.000000 27.000000 14.063874 0.000000
46.787243 -12.124850 26.268249 0.000000 20.000000 14.251183 0.000000
45.495148 -12.363056 26.284274 0.000000 43.000000 14.740585 24.000000
48.101645 -11.997060 26.562254 0.000000 29.000000 14.041957 0.000000
44.355180 -11.557051 25.919178 0.000000 60.000000 14.819629 12.000000
48.206456 -11.862988 26.661518 0.000000 30.000000 14.095796 0.000000
46.895393 -11.954842 26.549673 0.000000 49.000000 14.473228 18.000000
44.290682 -11.580108 25.663030 0.000000 49.000000 14.605064 12.000000
47.683647 -11.355765 26.545254 0.000000 24.000000 14.179647 0.000000
45.310863 -11.312243 26.063419 0.000000 36.000000 14.602836 12.000000
44.689901 -12.342430 26.403200 0.000000 33.000000 15.146913 24.000000
47.973802 -11.210299 26.662304 0.000000 24.000000 14.181965 0.000000
48.075596 -11.167568 26.705951 0.000000 24.000000 14.185180 0.000000
44.511538 -10.937527 25.816708 0.000000 71.000000 14.666899 11.000000
48.282221 -11.094121 26.792440 0.000000 28.000000 14.189747 0.000000
47.586202 -10.591902 26.753692 0.000000 54.000000 14.409306 0.000000
43.892814 -8.663761 25.522064 0.000000 49.000000 14.620056 22.000000
48.130522 -11.983797 26.577472 0.000000 24.000000 14.045507 0.000000
48.100015 -11.876890 26.604287 0.000000 23.000000 14.081652 0.000000
48.036514 -11.795420 26.691057 0.000000 24.000000 14.185679 0.000000
48.024312 -11.680414 26.697779 0.000000 24.000000 14.196412 0.000000
48.015374 -11.563449 26.706084 0.000000 31.000000 14.207419 0.000000
48.016799 -11.441424 26.702474 0.000000 31.000000 14.203538 0.000000
48.021493 -11.319438 26.700432 0.000000 26.000000 14.199915 0.000000
46.234545 -10.717124 26.619376 0.000000 65.000000 14.780744 30.000000
46.875916 -12.323238 26.987038 0.000000 64.000000 14.887186 18.000000
48.208518 -10.344591 26.687003 0.000000 21.000000 14.118743 0.000000
48.183707 -10.285625 26.795800 0.000000 27.000000 14.229050 0.000000
48.189729 -10.204428 26.864488 0.000000 28.000000 14.290727 0.000000
46.886837 -6.851955 26.656400 0.000000 46.000000 14.575640 2.000000
47.266019 -12.811880 26.397565 0.000000 23.000000 14.195642 0.000000
47.340290 -12.770139 26.465819 0.000000 28.000000 14.231853 0.000000
47.450603 -12.706078 26.471207 0.000000 27.000000 14.196354 0.000000
47.529444 -12.670393 26.541317 0.000000 29.000000 14.232613 0.000000
44.721477 -8.573565 25.813292 0.000000 59.000000 14.586626 4.000000
47.735263 -12.573672 26.605728 0.000000 31.000000 14.216940 0.000000
47.361280 -7.159485 27.110671 0.000000 54.000000 14.823941 2.000000
46.186940 -10.328587 26.382999 0.000000 57.000000 14.578365 28.000000
47.386561 -13.015657 26.460894 0.000000 25.000000 14.210280 0.000000
47.380240 -12.898438 26.445542 0.000000 24.000000 14.198322 0.000000
47.369479 -12.787318 26.444336 0.000000 23.000000 14.201152 0.000000
46.428516 -10.273914 26.528322 0.000000 56.000000 14.624820 13.000000
47.449184 -11.877507 26.398535 0.000000 23.000000 14.129281 0.000000
47.455007 -11.781923 26.437239 0.000000 21.000000 14.163142 0.000000
45.619815 -12.289538 26.248943 0.000000 64.000000 14.661941 24.000000
43.363222 -8.903953 25.386777 0.000000 51.000000 14.688704 22.000000
47.520734 -11.487149 26.505207 0.000000 27.000000 14.202224 0.000000
42.842775 -11.602779 24.952345 0.000000 72.000000 14.475750 10.000000
44.464082 -11.589731 25.752274 0.000000 53.000000 14.624395 12.000000
47.643532 -11.179590 26.541921 0.000000 23.000000 14.191278 0.000000
47.685286 -11.086220 26.568661 0.000000 24.000000 14.200816 0.000000
43.765858 -12.383566 25.676917 0.000000 70.000000 14.810712 27.000000
45.756695 -13.052879 26.407333 0.000000 48.000000 14.758998 19.000000
46.509713 -10.293878 26.585310 0.000000 69.000000 14.648008 13.000000
44.104531 -11.365347 25.429480 0.000000 44.000000 14.456192 10.000000
47.559943 -11.935200 26.371773 0.000000 21.000000 14.063715 0.000000
47.609651 -11.873028 26.433787 0.000000 26.000000 14.103141 0.000000
47.662576 -11.812899 26.497374 0.000000 24.000000 14.142850 0.000000
47.727523 -11.747819 26.545823 0.000000 23.000000 14.164063 0.000000
47.114171 -12.132678 26.859951 0.000000 41.000000 14.681485 18.000000
47.875564 -11.619767 26.626249 0.000000 27.000000 14.184505 0.000000
44.408693 -8.215488 25.518346 0.000000 52.000000 14.427152 4.000000
48.036780 -11.498838 26.703514 0.000000 30.000000 14.197168 0.000000
48.129150 -11.435951 26.733522 0.000000 29.000000 14.191158 0.000000
47.214847 -7.303365 26.787531 0.000000 37.000000 14.577153 2.000000
47.954583 -12.453336 26.712468 0.000000 24.000000 14.235681 0.000000
45.087030 -11.830493 25.995365 0.000000 51.000000 14.621735 12.000000
42.888092 -9.119598 25.187852 0.000000 41.000000 14.678161 22.000000
48.080866 -12.045729 26.543695 0.000000 21.000000 14.032326 0.000000
48.084959 -11.947823 26.574533 0.000000 22.000000 14.059506 0.000000
47.101130 -11.066536 26.570838 0.000000 46.000000 14.417361 14.000000
47.199141 -8.272083 26.806000 0.000000 48.000000 14.600100 7.000000
43.548781 -11.745297 25.433923 0.000000 69.000000 14.664413 10.000000
48.115989 -11.578408 26.741258 0.000000 28.000000 14.203187 0.000000
48.151477 -11.474853 26.750360 0.000000 27.000000 14.198620 0.000000
48.190468 -11.372345 26.765503 0.000000 27.000000 14.198387 0.000000
48.236443 -11.268910 26.770780 0.000000 23.000000 14.186412 0.000000
48.280634 -11.171470 26.790964 0.000000 24.000000 14.188957 0.000000
47.686068 -12.618448 26.563908 0.000000 30.000000 14.196108 0.000000
47.123164 -8.161332 26.792725 0.000000 34.000000 14.615653 7.000000
43.438473 -11.558804 25.646291 0.000000 50.000000 14.902452 10.000000
47.869859 -12.309834 26.528750 0.000000 19.000000 14.095913 0.000000
47.935842 -12.213678 26.524664 0.000000 21.000000 14.067881 0.000000
48.007536 -12.115596 26.518429 0.000000 20.000000 14.035754 0.000000
44.679253 -10.803615 25.961332 0.000000 57.000000 14.739828 11.000000
48.122323 -11.957967 26.581221 0.000000 22.000000 14.052005 0.000000
43.034031 -9.039491 25.453258 0.000000 37.000000 14.871429 22.000000
42.373267 -12.343421 25.261591 0.000000 57.000000 14.935807 21.000000
48.271077 -11.776587 26.775904 0.000000 32.000000 14.178459 0.000000
48.123531 -9.844210 26.961073 0.000000 53.000000 14.404873 0.000000
46.733639 -12.508627 26.436780 0.000000 66.000000 14.427624 18.000000
43.817481 -11.676636 25.775070 0.000000 69.000000 14.883049 10.000000
47.330663 -8.980864 26.324706 0.000000 18.000000 14.104135 0.000000
44.511548 -12.435437 25.965552 0.000000 57.000000 14.805340 24.000000
46.216107 -11.213749 26.544459 0.000000 58.000000 14.717833 30.000000
42.778854 -11.374139 25.214819 0.000000 49.000000 14.743359 10.000000
45.221647 -10.785790 26.056004 0.000000 41.000000 14.628702 11.000000
47.718754 -9.161656 26.592891 0.000000 20.000000 14.211063 0.000000
47.624375 -8.992701 26.559881 0.000000 29.000000 14.215018 0.000000
45.975787 -7.360851 25.960447 0.000000 36.000000 14.262878 0.000000
47.592533 -8.860569 26.628493 0.000000 31.000000 14.290530 0.000000
45.833911 -7.150205 25.870220 0.000000 36.000000 14.231057 0.000000
47.506660 -8.684000 26.589333 0.000000 30.000000 14.285641 0.000000
46.472371 -10.173409 26.497376 0.000000 39.000000 14.579931 13.000000
47.406686 -8.487596 26.521454 0.000000 30.000000 14.259218 0.000000
47.744502 -7.228652 26.725844 0.000000 33.000000 14.325271 0.000000
43.436597 -11.829413 25.365370 0.000000 70.000000 14.641848 10.000000
48.072060 -11.239114 26.818347 0.000000 30.000000 14.291021 0.000000
47.965300 -11.089837 26.785225 0.000000 30.000000 14.299419 0.000000
47.584318 -10.453436 26.655127 0.000000 32.000000 14.318319 0.000000
47.481352 -10.272331 26.588520 0.000000 32.000000 14.294178 0.000000
47.384864 -10.088466 26.522956 0.000000 28.000000 14.268629 0.000000
43.682846 -10.762013 25.482112 0.000000 60.000000 14.660003 5.000000
42.659997 -10.082169 24.803007 0.000000 48.000000 14.403968 0.000000
46.954075 -8.930491 26.209502 0.000000 19.000000 14.135275 0.000000
43.332545 -10.755464 25.519210 0.000000 52.000000 14.823150 5.000000
47.009278 -8.629088 26.368300 0.000000 33.000000 14.262705 0.000000
43.434788 -11.746184 25.448213 0.000000 57.000000 14.719567 10.000000
47.124745 -7.363619 26.480684 0.000000 34.000000 14.324834 0.000000
45.877991 -11.746629 26.453121 0.000000 54.000000 14.757043 12.000000
42.736548 -12.110708 25.399570 0.000000 38.000000 14.930737 21.000000
44.560092 -11.082073 25.926487 0.000000 37.000000 14.751177 11.000000
47.276238 -10.871017 26.873171 0.000000 54.000000 14.634265 14.000000
44.595318 -12.309069 26.235201 0.000000 46.000000 15.025385 24.000000
47.333126 -10.137282 26.509715 0.000000 30.000000 14.275313 0.000000
44.842542 -12.802048 26.106703 0.000000 69.000000 14.815078 23.000000
46.893844 -9.853476 26.290619 0.000000 23.000000 14.232843 0.000000
46.698347 -9.716320 26.214327 0.000000 24.000000 14.233674 0.000000
46.593653 -7.734109 26.634442 0.000000 25.000000 14.662882 7.000000
43.906049 -7.422641 25.073488 0.000000 34.000000 14.197962 0.000000
45.804046 -8.975098 25.900159 0.000000 36.000000 14.269871 0.000000
43.750163 -7.277640 25.072795 0.000000 33.000000 14.254564 0.000000
45.606478 -8.795101 25.787218 0.000000 29.000000 14.237374 0.000000
45.892160 -10.298906 26.197710 0.000000 42.000000 14.514274 28.000000
46.833455 -12.536054 26.970702 0.000000 64.000000 14.887585 18.000000
45.052329 -8.139962 25.652262 0.000000 37.000000 14.315348 0.000000
44.711528 -7.724358 25.440608 0.000000 31.000000 14.243635 0.000000
44.526041 -12.194880 26.099053 0.000000 62.000000 14.924191 24.000000
44.458682 -7.336547 25.328866 0.000000 33.000000 14.232553 0.000000
42.635587 -12.494210 25.298553 0.000000 55.000000 14.873854 21.000000
44.233940 -6.936123 25.225970 0.000000 32.000000 14.219379 0.000000
47.386288 -12.230830 26.481811 0.000000 28.000000 14.229836 0.000000
45.745455 -11.212456 26.085620 0.000000 33.000000 14.463890 30.000000
44.292624 -9.753014 25.280849 0.000000 32.000000 14.248873 0.000000
46.211065 -6.923661 26.525878 0.000000 53.000000 14.702401 1.000000
44.330481 -9.890677 25.325459 0.000000 28.000000 14.276464 0.000000
44.194573 -9.710992 25.268536 0.000000 31.000000 14.273427 0.000000
44.085128 -9.538562 25.244258 0.000000 38.000000 14.291037 0.000000
46.319845 -11.700540 26.302223 0.000000 70.000000 14.454426 15.000000
43.287639 -8.958067 25.528529 0.000000 43.000000 14.848308 22.000000
44.294416 -8.766243 25.435180 0.000000 27.000000 14.391762 0.000000
43.227765 -7.165221 24.905826 0.000000 37.000000 14.291101 0.000000
45.460317 -8.695136 25.793215 0.000000 32.000000 14.296627 0.000000
46.853673 -12.332150 26.888514 0.000000 59.000000 14.803715 18.000000
43.712655 -10.316566 25.112680 0.000000 34.000000 14.305436 0.000000
45.621299 -7.371162 25.777093 0.000000 26.000000 14.222514 0.000000
45.724933 -7.223459 25.867601 0.000000 36.000000 14.268641 0.000000
45.801533 -7.053263 25.901951 0.000000 37.000000 14.272461 0.000000
46.317169 -12.448413 26.412484 0.000000 49.000000 14.557966 19.000000
44.668309 -8.524034 25.692760 0.000000 43.000000 14.494040 4.000000
44.467517 -12.393071 26.274355 0.000000 66.000000 15.108736 24.000000
46.553459 -10.306390 26.669330 0.000000 49.000000 14.710093 13.000000
42.869221 -12.980134 25.665006 0.000000 38.000000 15.128906 20.000000
48.209634 -10.295907 26.854599 0.000000 30.000000 14.274219 0.000000
46.486747 -8.849416 26.131403 0.000000 28.000000 14.234249 0.000000
47.984101 -10.233219 26.801236 0.000000 30.000000 14.307407 0.000000
47.086218 -7.002999 26.825077 0.000000 37.000000 14.659313 2.000000
47.731324 -10.149162 26.698588 0.000000 28.000000 14.304759 0.000000
42.985123 -12.845791 25.493003 0.000000 63.000000 14.926358 20.000000
47.452739 -10.045641 26.555087 0.000000 26.000000 14.273589 0.000000
43.100423 -12.517401 25.473915 0.000000 55.000000 14.866262 27.000000
45.579214 -13.006682 25.794974 0.000000 23.000000 14.254601 0.000000
43.485239 -11.594573 25.641898 0.000000 54.000000 14.881192 10.000000
43.630919 -12.415850 25.738165 0.000000 42.000000 14.917234 27.000000
43.502110 -7.639113 24.917295 0.000000 37.000000 14.201021 0.000000
43.172640 -7.467551 24.760916 0.000000 34.000000 14.176560 0.000000
45.132112 -8.988848 25.585371 0.000000 26.000000 14.223832 0.000000
44.740359 -12.931550 26.275049 0.000000 68.000000 15.009186 23.000000
43.724836 -8.551899 25.433982 0.000000 41.000000 14.599815 22.000000
45.130727 -11.055435 26.049212 0.000000 61.000000 14.655773 11.000000
44.682564 -8.727732 25.465167 0.000000 33.000000 14.277114 0.000000
43.358077 -9.383789 25.482712 0.000000 52.000000 14.779826 25.000000
42.930217 -12.166120 25.631332 0.000000 54.000000 15.075185 27.000000
47.096701 -12.713480 26.677831 0.000000 45.000000 14.518505 18.000000
42.899549 -7.474391 24.616822 0.000000 22.000000 14.142821 0.000000
42.727770 -12.321644 25.312173 0.000000 47.000000 14.852670 21.000000
42.640228 -7.199838 24.691465 0.000000 37.000000 14.307479 0.000000
46.521365 -11.048601 26.405860 0.000000 45.000000 14.476818 30.000000
44.634324 -10.854146 26.055828 0.000000 58.000000 14.844221 11.000000
43.381282 -9.166686 25.489269 0.000000 62.000000 14.777403 22.000000
47.690246 -13.054006 27.343303 0.000000 60.000000 14.919512 17.000000
44.906489 -12.442469 26.188692 0.000000 54.000000 14.867855 24.000000
45.341448 -12.485727 26.363435 0.000000 54.000000 14.870658 24.000000
47.450916 -11.794777 26.541786 0.000000 29.000000 14.261887 0.000000
46.057046 -11.268596 26.436979 0.000000 34.000000 14.676274 30.000000
44.473653 -11.806011 25.666206 0.000000 61.000000 14.540825 12.000000
47.480160 -11.265388 26.560690 0.000000 26.000000 14.268731 0.000000
45.073692 -11.130032 26.128187 0.000000 61.000000 14.750175 11.000000
43.224550 -12.262981 25.657814 0.000000 62.000000 14.991729 27.000000
46.326290 -12.710898 26.572061 0.000000 38.000000 14.703044 19.000000
43.354261 -12.221492 25.639147 0.000000 43.000000 14.926732 27.000000
47.736298 -10.024875 26.623311 0.000000 22.000000 14.232915 0.000000
45.864511 -8.556973 25.906161 0.000000 35.000000 14.253249 0.000000
43.605578 -8.991931 25.501382 0.000000 55.000000 14.706301 22.000000
47.061406 -11.474432 26.844313 0.000000 53.000000 14.686316 16.000000
47.121372 -10.830362 27.040256 0.000000 30.000000 14.846547 14.000000
43.209795 -10.181660 24.873412 0.000000 32.000000 14.267551 0.000000
44.088314 -9.904317 25.189764 0.000000 28.000000 14.239181 0.000000
44.506204 -11.791044 26.001532 0.000000 66.000000 14.840768 12.000000
42.836136 -9.643792 24.742958 0.000000 35.000000 14.283431 0.000000
45.637035 -8.187728 26.147377 0.000000 50.000000 14.561148 8.000000
43.283019 -8.932742 25.400829 0.000000 59.000000 14.731228 22.000000
45.453477 -8.552059 25.943396 0.000000 51.000000 14.438827 8.000000
47.716317 -8.535929 26.681522 0.000000 32.000000 14.294396 0.000000
45.247048 -11.679596 26.362231 0.000000 61.000000 14.904205 12.000000
47.119478 -8.401941 26.429546 0.000000 33.000000 14.279203 0.000000
46.812785 -8.327059 26.297936 0.000000 33.000000 14.269416 0.000000
47.729930 -9.492990 26.629382 0.000000 27.000000 14.240900 0.000000
43.477430 -9.520054 25.473481 0.000000 62.000000 14.727410 25.000000
46.509604 -9.093137 26.006206 0.000000 17.000000 14.109406 0.000000
44.579338 -7.669631 25.385591 0.000000 38.000000 14.241006 0.000000
44.540678 -12.823092 26.175479 0.000000 62.000000 14.989902 23.000000
43.873333 -7.411318 25.068721 0.000000 37.000000 14.205542 0.000000
45.760908 -8.861145 25.849777 0.000000 35.000000 14.238851 0.000000
46.935443 -12.006378 26.784287 0.000000 53.000000 14.676742 18.000000
45.514732 -8.776490 25.807288 0.000000 36.000000 14.289734 0.000000
47.166166 -11.824962 26.672800 0.000000 59.000000 14.488316 16.000000
46.524326 -11.437769 26.458879 0.000000 36.000000 14.525045 30.000000
44.551541 -13.040202 25.994653 0.000000 47.000000 14.817721 23.000000
43.814038 -12.512702 25.542088 0.000000 67.000000 14.667610 27.000000
42.528446 -6.885393 24.574294 0.000000 37.000000 14.239545 0.000000
42.975926 -8.611603 25.095903 0.000000 42.000000 14.560380 22.000000
42.487171 -7.296318 24.517934 0.000000 27.000000 14.202280 0.000000
47.909513 -11.943333 26.609082 0.000000 29.000000 14.156070 0.000000
46.609293 -11.676528 26.865814 0.000000 64.000000 14.872345 16.000000
48.067572 -11.642283 26.822650 0.000000 30.000000 14.296672 0.000000
44.383096 -8.269972 25.591637 0.000000 53.000000 14.504722 4.000000
45.647667 -11.874308 26.342183 0.000000 51.000000 14.738438 12.000000
45.865625 -10.954086 26.435743 0.000000 43.000000 14.745420 30.000000
46.043524 -11.385231 26.193854 0.000000 47.000000 14.455102 30.000000
44.378554 -9.951439 25.284454 0.000000 30.000000 14.220670 0.000000
44.418642 -9.765041 25.296425 0.000000 26.000000 14.217083 0.000000
44.488831 -9.591993 25.342742 0.000000 30.000000 14.234388 0.000000
45.126979 -11.123232 26.005797 0.000000 50.000000 14.616768 11.000000
44.665222 -9.253224 25.463563 0.000000 37.000000 14.281991 0.000000
42.273413 -13.007633 25.296953 0.000000 71.000000 15.005367 20.000000
44.750389 -8.861195 25.412048 0.000000 36.000000 14.202800 0.000000
44.892334 -8.719603 25.530143 0.000000 37.000000 14.260517 0.000000
44.961831 -8.532188 25.523504 0.000000 32.000000 14.228820 0.000000
42.438620 -6.804123 24.513209 0.000000 42.000000 14.215715 0.000000
44.519496 -12.391031 26.302477 0.000000 65.000000 15.115805 24.000000
47.299531 -10.945225 26.792451 0.000000 42.000000 14.550631 14.000000
48.081077 -11.678400 26.824315 0.000000 30.000000 14.293261 0.000000
47.803641 -11.656312 26.697083 0.000000 39.000000 14.276802 0.000000
45.292451 -10.869209 26.073531 0.000000 49.000000 14.619003 11.000000
45.792439 -11.868831 25.895785 0.000000 24.000000 14.270065 0.000000
46.264583 -10.001392 26.318567 0.000000 38.000000 14.489922 28.000000
47.864986 -8.211351 26.917267 0.000000 33.000000 14.459074 6.000000
47.874650 -8.890404 26.741167 0.000000 38.000000 14.291729 0.000000
44.435449 -8.567823 26.016315 0.000000 39.000000 14.880502 4.000000
45.538707 -7.351787 25.729072 0.000000 35.000000 14.208179 0.000000
43.216800 -9.452079 25.552459 0.000000 78.000000 14.896581 25.000000
43.198833 -12.484310 25.679759 0.000000 60.000000 15.021584 27.000000
44.205626 -12.583960 25.965782 0.000000 64.000000 14.917898 24.000000
47.184097 -12.190146 26.844349 0.000000 37.000000 14.641294 18.000000
47.086816 -12.764525 26.881787 0.000000 65.000000 14.711840 18.000000
44.542222 -7.075460 25.374922 0.000000 35.000000 14.244713 0.000000
43.172273 -13.007318 25.579580 0.000000 46.000000 14.938158 20.000000
44.192604 -6.966844 25.238205 0.000000 37.000000 14.245939 0.000000
44.686043 -11.763410 26.031246 0.000000 44.000000 14.802364 12.000000
43.832570 -6.849215 25.096396 0.000000 40.000000 14.246253 0.000000
44.815648 -10.886961 26.004502 0.000000 45.000000 14.729894 11.000000
43.771076 -7.492097 24.998916 0.000000 36.000000 14.178167 0.000000
43.466816 -7.367598 24.909916 0.000000 32.000000 14.207119 0.000000
