14.354751 16.267470 -60.168071 0.000000 68.000000 14.716812 8.000000
12.432317 16.678967 -55.105321 0.000000 36.000000 14.190256 0.000000
15.120562 15.980705 -59.910886 0.000000 44.000000 14.070868 0.000000
15.428682 16.018053 -60.304629 0.000000 43.000000 14.104769 0.000000
16.201420 17.594238 -59.303964 0.000000 72.000000 14.789304 16.000000
12.221218 16.772532 -55.877760 0.000000 44.000000 14.612489 29.000000
13.886757 16.712610 -56.724267 0.000000 42.000000 14.150152 0.000000
14.116375 16.786669 -56.961691 0.000000 48.000000 14.196088 0.000000
16.750171 18.310521 -57.836034 0.000000 62.000000 14.683498 12.000000
15.490426 17.980900 -57.195221 0.000000 66.000000 14.715197 25.000000
14.674228 17.309551 -56.628894 0.000000 41.000000 14.297750 30.000000
12.396383 16.547511 -55.763327 0.000000 58.000000 14.311226 29.000000
12.331079 15.159816 -58.996200 0.000000 48.000000 14.230597 0.000000
14.548498 17.456889 -56.442754 0.000000 47.000000 14.413303 30.000000
14.291177 17.666798 -55.985119 0.000000 66.000000 14.546781 30.000000
14.142601 17.968092 -54.479679 0.000000 29.000000 14.366267 0.000000
13.260989 16.482408 -56.529083 0.000000 31.000000 14.150258 0.000000
11.047783 15.734999 -57.204505 0.000000 32.000000 14.658624 3.000000
13.184473 16.845227 -55.810511 0.000000 53.000000 14.252054 0.000000
11.881750 16.153976 -57.510581 0.000000 48.000000 14.768761 5.000000
16.014410 17.266437 -58.113407 0.000000 61.000000 14.195579 0.000000
17.282376 18.362252 -57.974908 0.000000 68.000000 14.552340 26.000000
13.372000 15.329380 -59.462515 0.000000 31.000000 14.096384 0.000000
13.526553 17.770747 -55.229733 0.000000 60.000000 14.702604 17.000000
14.260107 17.647444 -56.463689 0.000000 50.000000 14.701447 30.000000
11.270635 16.046100 -56.246332 0.000000 62.000000 14.513130 3.000000
13.864343 17.606987 -54.334189 0.000000 39.000000 14.127597 0.000000
14.143460 17.625091 -54.702912 0.000000 40.000000 14.148956 0.000000
14.351972 17.704260 -55.003084 0.000000 52.000000 14.228724 0.000000
13.591518 15.416168 -61.052026 0.000000 64.000000 14.604187 13.000000
15.485162 17.788020 -57.337662 0.000000 47.000000 14.600971 24.000000
13.210303 15.432560 -59.140839 0.000000 35.000000 14.144641 0.000000
13.159113 15.658353 -58.690051 0.000000 57.000000 14.208285 0.000000
13.192012 15.805281 -58.335236 0.000000 41.000000 14.201897 0.000000
13.892151 16.812206 -56.681006 0.000000 30.000000 14.218034 0.000000
13.270560 16.481043 -56.547896 0.000000 30.000000 14.151346 0.000000
15.244135 18.293472 -55.182386 0.000000 61.000000 14.417100 22.000000
17.129207 18.167119 -57.275247 0.000000 49.000000 14.219269 0.000000
13.587641 16.295560 -57.550564 0.000000 49.000000 14.193909 0.000000
13.990017 16.204594 -58.092585 0.000000 31.000000 14.128932 0.000000
15.338642 18.617842 -56.049863 0.000000 65.000000 14.939531 22.000000
14.630683 17.529066 -56.441075 0.000000 53.000000 14.439815 30.000000
13.401238 17.597107 -54.322934 0.000000 34.000000 14.307727 0.000000
15.457598 16.053217 -60.050253 0.000000 30.000000 14.038497 0.000000
13.268864 16.824712 -55.889412 0.000000 52.000000 14.225714 0.000000
16.107278 18.417249 -56.440431 0.000000 43.000000 14.579547 20.000000
17.052331 18.344272 -58.407257 0.000000 64.000000 14.775483 23.000000
10.689027 15.976462 -56.852584 0.000000 65.000000 14.895891 3.000000
14.928660 17.745754 -57.377613 0.000000 41.000000 14.809340 19.000000
14.859809 16.800742 -57.651301 0.000000 43.000000 14.127360 0.000000
15.606483 16.756266 -58.409644 0.000000 28.000000 14.030376 0.000000
15.536348 17.318910 -59.137939 0.000000 58.000000 14.777112 10.000000
13.306753 15.033164 -60.463001 0.000000 55.000000 14.203062 0.000000
15.997047 18.431923 -56.681633 0.000000 65.000000 14.717460 20.000000
11.339386 15.627691 -56.893650 0.000000 29.000000 14.343887 3.000000
13.901171 15.629457 -59.550756 0.000000 43.000000 14.160255 0.000000
14.010161 15.741665 -59.346217 0.000000 38.000000 14.142523 0.000000
14.093686 15.860852 -59.113045 0.000000 40.000000 14.131813 0.000000
14.173327 15.985237 -58.870772 0.000000 40.000000 14.124113 0.000000
14.261559 16.095269 -58.634311 0.000000 36.000000 14.102602 0.000000
17.215584 18.625577 -58.082377 0.000000 71.000000 14.838785 26.000000
14.420736 17.610213 -56.099733 0.000000 49.000000 14.482923 30.000000
14.253790 16.601292 -57.641412 0.000000 51.000000 14.206578 0.000000
12.993462 15.391252 -58.893798 0.000000 25.000000 14.117982 0.000000
14.329151 17.673485 -54.828534 0.000000 42.000000 14.154419 0.000000
16.718087 18.133366 -56.776263 0.000000 45.000000 14.196384 0.000000
10.661906 15.208820 -56.675206 0.000000 44.000000 14.197849 0.000000
13.918459 17.723730 -54.675117 0.000000 43.000000 14.316771 0.000000
14.428918 17.500920 -55.975386 0.000000 33.000000 14.345788 30.000000
14.197013 15.539280 -60.173009 0.000000 36.000000 14.166685 0.000000
11.631870 15.835968 -56.329378 0.000000 41.000000 14.212524 0.000000
14.327046 16.903389 -57.306739 0.000000 42.000000 14.321622 0.000000
13.191183 16.923056 -55.732865 0.000000 37.000000 14.289576 0.000000
14.245647 15.636389 -60.135259 0.000000 53.000000 14.216333 0.000000
11.969812 16.046344 -55.707825 0.000000 19.000000 14.045140 0.000000
17.057034 17.989823 -59.285532 0.000000 53.000000 14.763374 27.000000
14.338247 15.900289 -59.451217 0.000000 44.000000 14.175500 0.000000
14.389009 16.014720 -59.118916 0.000000 35.000000 14.141594 0.000000
11.958822 16.157757 -57.425760 0.000000 41.000000 14.711940 5.000000
14.398979 16.302776 -58.359404 0.000000 34.000000 14.130589 0.000000
14.297610 16.520100 -57.871863 0.000000 51.000000 14.195736 0.000000
14.203939 16.842639 -57.036076 0.000000 50.000000 14.231770 0.000000
15.014621 18.338856 -55.535935 0.000000 39.000000 14.667688 22.000000
14.034799 17.473415 -55.104051 0.000000 37.000000 14.198076 0.000000
16.657005 17.375608 -59.462864 0.000000 64.000000 14.467403 16.000000
14.928942 18.207336 -54.670844 0.000000 44.000000 14.305846 22.000000
11.831109 15.720784 -57.010930 0.000000 44.000000 14.257454 5.000000
13.506447 16.495505 -56.818054 0.000000 36.000000 14.154984 0.000000
14.735238 18.107094 -55.734510 0.000000 61.000000 14.652838 11.000000
14.065055 16.480800 -57.663590 0.000000 34.000000 14.190115 0.000000
14.441953 16.412000 -58.179174 0.000000 44.000000 14.145764 0.000000
11.848292 15.844669 -57.781464 0.000000 36.000000 14.610003 5.000000
11.010256 15.875069 -56.612822 0.000000 36.000000 14.597368 3.000000
10.890353 15.699494 -57.970312 0.000000 22.000000 14.946985 6.000000
15.740988 16.171365 -60.270751 0.000000 26.000000 14.093891 0.000000
11.691552 15.875798 -56.342312 0.000000 40.000000 14.225787 0.000000
11.719322 16.016148 -56.006818 0.000000 41.000000 14.222339 0.000000
16.735259 18.767924 -57.778328 0.000000 52.000000 15.058322 12.000000
15.499079 15.999317 -60.542753 0.000000 45.000000 14.138371 0.000000
14.933352 18.350898 -54.839156 0.000000 51.000000 14.481332 22.000000
15.665017 18.200567 -56.074624 0.000000 39.000000 14.458550 21.000000
13.721520 17.632924 -54.218273 0.000000 31.000000 14.170553 0.000000
15.663436 16.992164 -58.350278 0.000000 51.000000 14.187068 0.000000
12.804779 17.064653 -55.494668 0.000000 42.000000 14.491257 4.000000
15.388033 17.384934 -57.325742 0.000000 51.000000 14.295681 19.000000
14.080210 18.786931 -53.687955 0.000000 68.000000 14.824557 7.000000
13.200574 14.989939 -60.383694 0.000000 49.000000 14.184283 0.000000
12.939371 15.504209 -58.630251 0.000000 48.000000 14.149073 0.000000
13.181236 15.530694 -58.947592 0.000000 49.000000 14.176015 0.000000
15.813152 17.133131 -59.130716 0.000000 51.000000 14.502358 10.000000
13.304454 17.531172 -55.301398 0.000000 48.000000 14.615408 17.000000
17.168719 18.181693 -57.320879 0.000000 48.000000 14.230303 0.000000
14.254366 15.618932 -60.244758 0.000000 51.000000 14.234108 0.000000
12.694185 15.084768 -59.446426 0.000000 43.000000 14.165073 0.000000
12.950947 15.659028 -58.355443 0.000000 44.000000 14.184669 0.000000
13.001474 15.799022 -58.061472 0.000000 51.000000 14.185197 0.000000
13.218913 16.120295 -57.271023 0.000000 14.000000 14.106008 0.000000
13.180962 16.466258 -56.553986 0.000000 39.000000 14.178017 0.000000
15.870209 16.342582 -60.193603 0.000000 43.000000 14.159884 0.000000
13.151659 16.895283 -55.537336 0.000000 48.000000 14.217815 0.000000
12.168562 16.955862 -55.230737 0.000000 45.000000 14.575890 4.000000
13.869218 17.604068 -55.694155 0.000000 53.000000 14.572588 18.000000
15.819979 16.860441 -58.584604 0.000000 42.000000 14.087887 0.000000
13.595520 17.507108 -54.597022 0.000000 24.000000 14.241390 0.000000
13.409620 16.787466 -56.133898 0.000000 51.000000 14.216525 0.000000
13.720452 16.727407 -56.606132 0.000000 34.000000 14.192678 0.000000
16.665011 18.103694 -58.124020 0.000000 58.000000 14.638718 23.000000
11.703704 15.828121 -57.422685 0.000000 31.000000 14.537410 5.000000
15.314774 16.563171 -58.957376 0.000000 42.000000 14.168819 0.000000
13.398242 16.025627 -58.228823 0.000000 42.000000 14.267896 0.000000
14.055762 18.450341 -54.029826 0.000000 47.000000 14.662396 7.000000
12.967873 15.608378 -58.533265 0.000000 54.000000 14.193484 0.000000
13.572049 15.526151 -60.206501 0.000000 38.000000 14.426035 15.000000
11.751047 15.602876 -57.173163 0.000000 51.000000 14.244364 0.000000
17.334561 18.099436 -58.461334 0.000000 44.000000 14.468680 23.000000
16.816888 18.386605 -58.518595 0.000000 66.000000 14.945892 23.000000
11.624909 15.812077 -56.333464 0.000000 37.000000 14.196513 0.000000
11.945185 16.929447 -55.758828 0.000000 39.000000 14.820760 29.000000
12.305845 15.019831 -59.289254 0.000000 27.000000 14.219275 0.000000
12.314167 15.782994 -57.420969 0.000000 53.000000 14.245202 0.000000
12.334696 15.297863 -58.632135 0.000000 29.000000 14.225779 0.000000
12.918261 15.668159 -58.280942 0.000000 41.000000 14.181352 0.000000
13.187040 15.652958 -58.661169 0.000000 52.000000 14.182574 0.000000
13.495019 15.612540 -59.080620 0.000000 50.000000 14.159114 0.000000
13.489893 15.789405 -59.830872 0.000000 49.000000 14.559126 15.000000
14.038722 15.618329 -59.813092 0.000000 46.000000 14.180434 0.000000
14.242651 18.104844 -55.443355 0.000000 44.000000 14.759162 11.000000
16.907337 18.689000 -57.471196 0.000000 40.000000 14.818486 12.000000
15.401621 18.105788 -55.223180 0.000000 40.000000 14.206128 0.000000
13.281696 15.333883 -60.829509 0.000000 37.000000 14.589495 14.000000
14.337429 15.402963 -60.454695 0.000000 32.000000 14.085957 0.000000
14.248863 15.667978 -59.992821 0.000000 54.000000 14.194696 0.000000
15.215008 18.690095 -55.787076 0.000000 29.000000 14.965237 22.000000
16.536694 18.260289 -56.801398 0.000000 54.000000 14.387567 20.000000
16.129978 17.405137 -58.938873 0.000000 40.000000 14.538003 16.000000
12.880887 16.563136 -56.354570 0.000000 65.000000 14.318778 1.000000
14.480693 16.302924 -58.487001 0.000000 41.000000 14.138971 0.000000
13.919816 18.412524 -53.837957 0.000000 56.000000 14.623354 7.000000
14.431320 16.886512 -57.057046 0.000000 53.000000 14.181508 0.000000
14.275253 17.611552 -54.957354 0.000000 40.000000 14.166872 0.000000
16.746453 17.970297 -57.541036 0.000000 55.000000 14.299157 12.000000
16.181468 17.976809 -57.953516 0.000000 63.000000 14.675520 23.000000
17.254185 17.915499 -58.727343 0.000000 45.000000 14.434052 23.000000
14.248988 16.830001 -56.794487 0.000000 43.000000 14.122509 0.000000
15.202413 17.546309 -57.666915 0.000000 42.000000 14.622276 19.000000
13.593878 15.772040 -60.010734 0.000000 46.000000 14.560692 15.000000
10.574872 15.567096 -56.670129 0.000000 52.000000 14.535981 3.000000
11.012956 16.091425 -56.566097 0.000000 60.000000 14.764193 3.000000
11.838579 15.711552 -56.792267 0.000000 44.000000 14.174257 0.000000
16.637817 17.869094 -57.617197 0.000000 48.000000 14.283639 24.000000
11.906794 15.989854 -56.184633 0.000000 41.000000 14.181007 0.000000
14.218004 15.571812 -60.212977 0.000000 58.000000 14.198757 0.000000
11.932559 16.128847 -55.872976 0.000000 49.000000 14.185119 0.000000
14.277221 15.688238 -59.879077 0.000000 59.000000 14.162504 0.000000
13.611926 18.446861 -54.101343 0.000000 2.000000 14.867310 7.000000
13.426871 16.825417 -55.739408 0.000000 22.000000 14.111148 0.000000
16.024429 17.007094 -59.215465 0.000000 43.000000 14.335840 10.000000
14.896364 18.541356 -54.936998 0.000000 59.000000 14.690461 22.000000
14.340870 16.225560 -58.381809 0.000000 39.000000 14.096664 0.000000
14.232323 16.443054 -57.890472 0.000000 43.000000 14.163679 0.000000
13.911628 15.203352 -61.351706 0.000000 39.000000 14.389977 13.000000
14.114424 16.778671 -57.031693 0.000000 52.000000 14.213256 0.000000
16.753543 18.279344 -58.376157 0.000000 53.000000 14.834190 23.000000
13.794320 15.799268 -59.197803 0.000000 40.000000 14.231887 0.000000
15.548665 18.052828 -57.372943 0.000000 58.000000 14.810731 24.000000
13.379408 17.107933 -55.684323 0.000000 38.000000 14.352111 0.000000
15.283136 18.224824 -56.766427 0.000000 44.000000 14.866272 25.000000
11.974021 15.914785 -56.598069 0.000000 40.000000 14.226118 0.000000
13.648971 15.503774 -59.897572 0.000000 37.000000 14.273033 15.000000
12.690676 15.739300 -57.968243 0.000000 52.000000 14.232767 0.000000
17.145562 18.668635 -57.561957 0.000000 58.000000 14.732340 12.000000
10.968927 15.446309 -57.857975 0.000000 46.000000 14.662635 6.000000
16.123155 18.084757 -57.502340 0.000000 64.000000 14.642104 24.000000
12.908672 17.507773 -55.071652 0.000000 51.000000 14.683921 17.000000
15.423217 18.506955 -55.888614 0.000000 75.000000 14.757139 22.000000
12.271882 16.013970 -56.686541 0.000000 39.000000 14.215796 0.000000
16.169919 18.080850 -57.214499 0.000000 46.000000 14.524246 24.000000
13.278350 15.914825 -58.251180 0.000000 47.000000 14.231131 0.000000
14.899587 17.697559 -56.889246 0.000000 51.000000 14.619144 19.000000
16.604039 18.754457 -57.606819 0.000000 57.000000 15.044687 12.000000
14.161577 15.812356 -59.506150 0.000000 41.000000 14.192454 0.000000
13.473586 17.722074 -55.314197 0.000000 66.000000 14.711249 17.000000
16.330135 18.280292 -55.992165 0.000000 43.000000 14.222797 0.000000
11.627937 15.869052 -56.279422 0.000000 46.000000 14.225689 0.000000
16.416088 17.581004 -58.966299 0.000000 44.000000 14.577379 16.000000
11.778769 16.055786 -55.718378 0.000000 40.000000 14.135929 0.000000
15.649626 16.054951 -60.364907 0.000000 34.000000 14.064258 0.000000
12.759754 16.122434 -57.411825 0.000000 42.000000 14.344945 2.000000
15.879903 18.058813 -57.662754 0.000000 51.000000 14.774101 24.000000
14.167005 18.136711 -55.522145 0.000000 58.000000 14.843613 11.000000
15.724607 16.818340 -58.314712 0.000000 26.000000 14.002585 0.000000
15.463493 17.584779 -56.069756 0.000000 29.000000 14.018631 0.000000
13.111805 16.083180 -57.218954 0.000000 19.000000 14.101797 0.000000
13.568801 17.603562 -55.560042 0.000000 52.000000 14.652529 17.000000
13.250229 17.291105 -54.596523 0.000000 46.000000 14.201458 0.000000
15.228448 16.990325 -57.713015 0.000000 35.000000 14.155439 0.000000
15.714440 16.824861 -58.353508 0.000000 39.000000 14.025155 0.000000
14.291043 17.914320 -55.093435 0.000000 62.000000 14.461929 11.000000
15.833833 16.951745 -58.626290 0.000000 46.000000 14.173306 0.000000
16.046847 18.333908 -56.764921 0.000000 56.000000 14.641237 20.000000
16.104277 16.972428 -59.047347 0.000000 58.000000 14.217748 0.000000
14.154204 17.410609 -55.470555 0.000000 48.000000 14.216413 0.000000
14.324546 16.851387 -56.730973 0.000000 28.000000 14.088282 0.000000
12.635059 15.672707 -57.919479 0.000000 52.000000 14.183289 0.000000
14.720471 16.106858 -60.075647 0.000000 35.000000 14.398323 8.000000
16.205641 17.960229 -57.205306 0.000000 64.000000 14.404138 24.000000
11.015259 16.003073 -56.513924 0.000000 41.000000 14.671103 3.000000
15.272901 16.030184 -60.072400 0.000000 47.000000 14.102957 0.000000
15.344347 17.813222 -56.392865 0.000000 65.000000 14.368512 25.000000
15.160766 16.388619 -59.170855 0.000000 49.000000 14.155348 0.000000
13.239032 16.024030 -57.869600 0.000000 36.000000 14.213898 0.000000
14.777348 17.610155 -55.212635 0.000000 27.000000 14.041653 0.000000
15.067199 17.760982 -56.230968 0.000000 43.000000 14.385761 11.000000
16.184951 18.167425 -57.619928 0.000000 45.000000 14.725390 24.000000
12.589292 16.013566 -57.030278 0.000000 45.000000 14.197314 0.000000
14.176592 16.887455 -56.994704 0.000000 41.000000 14.267434 0.000000
12.721013 17.025699 -55.340350 0.000000 59.000000 14.442004 4.000000
11.942284 16.299567 -55.543830 0.000000 46.000000 14.217002 0.000000
16.286283 17.515255 -58.759213 0.000000 45.000000 14.507083 16.000000
11.005350 15.550603 -57.874444 0.000000 58.000000 14.741362 6.000000
14.707171 18.017519 -54.839574 0.000000 50.000000 14.292773 22.000000
12.831132 16.015091 -56.901734 0.000000 26.000000 14.055738 0.000000
12.880476 16.163315 -57.083711 0.000000 49.000000 14.221041 0.000000
13.490291 16.020126 -57.977841 0.000000 37.000000 14.142073 0.000000
13.743517 16.006116 -58.362474 0.000000 41.000000 14.152215 0.000000
14.000327 15.996311 -58.748278 0.000000 44.000000 14.164822 0.000000
14.323664 15.939657 -59.199518 0.000000 45.000000 14.131732 0.000000
14.525486 18.122745 -55.803647 0.000000 41.000000 14.776018 11.000000
15.535121 18.359594 -55.013338 0.000000 47.000000 14.296492 0.000000
17.517998 18.269835 -57.777946 0.000000 49.000000 14.311104 26.000000
12.535025 15.696757 -57.789071 0.000000 49.000000 14.202095 0.000000
13.767636 16.003865 -59.767150 0.000000 78.000000 14.604562 15.000000
13.964983 17.105530 -56.357564 0.000000 31.000000 14.329530 0.000000
12.761271 15.977771 -56.921395 0.000000 31.000000 14.059601 0.000000
16.484870 17.015377 -59.428996 0.000000 59.000000 14.222317 0.000000
14.908782 17.989462 -56.058328 0.000000 57.000000 14.588122 11.000000
10.679681 15.033713 -57.260074 0.000000 44.000000 14.235353 0.000000
10.424293 15.482766 -56.807293 0.000000 52.000000 14.572338 3.000000
14.398337 16.105195 -60.348303 0.000000 54.000000 14.620741 8.000000
14.913771 18.294456 -56.260942 0.000000 55.000000 14.911539 11.000000
13.765036 17.427683 -54.839240 0.000000 38.000000 14.183761 0.000000
14.014602 17.392336 -55.251603 0.000000 41.000000 14.186502 0.000000
16.938002 17.977246 -58.863306 0.000000 36.000000 14.662569 23.000000
14.545701 17.393169 -56.162681 0.000000 39.000000 14.267886 30.000000
12.544668 16.234300 -57.126005 0.000000 30.000000 14.434575 2.000000
13.688123 15.895795 -60.706222 0.000000 71.000000 14.856340 14.000000
12.673149 17.110357 -55.173257 0.000000 62.000000 14.478403 4.000000
12.813035 16.752522 -56.588353 0.000000 24.000000 14.584739 1.000000
16.124277 18.508832 -56.797881 0.000000 61.000000 14.768261 20.000000
13.023342 16.214217 -57.635589 0.000000 40.000000 14.387291 0.000000
14.654511 17.944465 -54.589258 0.000000 29.000000 14.169975 0.000000
13.980826 16.039923 -58.279850 0.000000 22.000000 14.055061 0.000000
13.842520 16.311158 -57.784203 0.000000 41.000000 14.178556 0.000000
17.417573 18.420383 -58.191384 0.000000 64.000000 14.617044 26.000000
10.970785 15.503965 -57.890342 0.000000 49.000000 14.721433 6.000000
13.862762 16.702391 -56.784940 0.000000 40.000000 14.171502 0.000000
14.169513 18.015817 -55.191923 0.000000 65.000000 14.630956 11.000000
16.387538 16.772791 -59.292837 0.000000 35.000000 14.012093 0.000000
13.516615 17.480226 -55.000141 0.000000 52.000000 14.384592 17.000000
10.954215 15.998119 -56.640109 0.000000 36.000000 14.733949 3.000000
13.700441 15.523049 -60.711871 0.000000 55.000000 14.537144 14.000000
16.778011 18.651342 -57.833424 0.000000 9.000000 14.959968 12.000000
13.696389 17.570155 -54.379376 0.000000 42.000000 14.181026 0.000000
16.922083 18.196026 -56.884122 0.000000 32.000000 14.200471 0.000000
15.644801 17.802982 -56.414194 0.000000 51.000000 14.242171 0.000000
16.264709 18.212223 -56.791295 0.000000 40.000000 14.456381 20.000000
12.202399 16.567189 -55.233749 0.000000 44.000000 14.233391 0.000000
14.078553 18.125034 -55.358362 0.000000 61.000000 14.816298 11.000000
16.182803 17.759135 -58.785299 0.000000 46.000000 14.765376 16.000000
17.480277 17.994543 -58.282244 0.000000 41.000000 14.260094 23.000000
15.023226 16.776238 -58.198494 0.000000 36.000000 14.219614 0.000000
14.477393 15.949347 -59.434455 0.000000 42.000000 14.153786 0.000000
15.013394 17.442102 -57.416002 0.000000 54.000000 14.529474 19.000000
12.903353 16.509899 -56.320311 0.000000 47.000000 14.253004 0.000000
13.744807 16.326710 -57.609893 0.000000 51.000000 14.174685 0.000000
13.389425 17.524313 -55.515052 0.000000 61.000000 14.644941 17.000000
10.550981 15.936877 -56.775342 0.000000 46.000000 14.894108 3.000000
14.545893 17.449099 -56.521777 0.000000 57.000000 14.433900 30.000000
14.406758 15.777745 -60.686939 0.000000 43.000000 14.451615 8.000000
13.555740 17.640211 -55.782148 0.000000 68.000000 14.762424 18.000000
14.025403 17.679632 -55.963865 0.000000 67.000000 14.660952 18.000000
13.320398 15.119138 -60.223403 0.000000 52.000000 14.191081 0.000000
11.742600 15.245145 -58.257113 0.000000 38.000000 14.302909 6.000000
13.460393 15.732704 -58.804255 0.000000 49.000000 14.183998 0.000000
16.328907 18.037880 -57.974436 0.000000 72.000000 14.673001 23.000000
16.164371 18.106366 -57.485768 0.000000 67.000000 14.637835 24.000000
15.645297 17.232452 -58.961067 0.000000 49.000000 14.600147 10.000000
16.753629 18.295866 -57.878035 0.000000 64.000000 14.683523 12.000000
15.085334 16.567459 -58.964520 0.000000 45.000000 14.270051 0.000000
13.514641 16.581296 -56.636104 0.000000 40.000000 14.164165 0.000000
13.472661 16.744184 -56.237358 0.000000 47.000000 14.187866 0.000000
13.442216 16.888564 -55.863005 0.000000 47.000000 14.199155 0.000000
13.962115 17.501438 -55.625172 0.000000 57.000000 14.424237 18.000000
17.491282 18.064220 -58.297824 0.000000 50.000000 14.319736 23.000000
14.270945 17.654547 -54.784973 0.000000 45.000000 14.148129 0.000000
16.237009 17.415486 -58.323037 0.000000 38.000000 14.298807 0.000000
12.661728 16.836695 -55.399318 0.000000 36.000000 14.325897 4.000000
15.393250 17.619397 -55.912686 0.000000 30.000000 14.025216 0.000000
14.078472 17.832718 -56.380606 0.000000 51.000000 14.906423 30.000000
15.689148 18.112105 -57.259414 0.000000 45.000000 14.765141 24.000000
15.277399 17.574657 -57.473005 0.000000 55.000000 14.551089 19.000000
13.296037 17.365271 -54.729709 0.000000 54.000000 14.289329 17.000000
15.485029 17.433213 -57.403944 0.000000 60.000000 14.322189 0.000000
15.144273 16.119635 -59.475659 0.000000 27.000000 14.034938 0.000000
16.814595 18.137434 -58.226457 0.000000 54.000000 14.639084 23.000000
13.057724 15.312879 -59.111001 0.000000 25.000000 14.096666 0.000000
15.108659 16.808167 -57.697712 0.000000 27.000000 14.045701 0.000000
15.467823 18.584408 -55.630292 0.000000 58.000000 14.718896 22.000000
14.785495 15.986340 -60.098645 0.000000 43.000000 14.276780 8.000000
14.672147 18.251209 -56.107423 0.000000 70.000000 14.924434 11.000000
16.472599 18.271816 -56.240748 0.000000 39.000000 14.238639 0.000000
15.983785 18.141685 -57.491725 0.000000 63.000000 14.744699 24.000000
14.245919 18.534273 -54.128189 0.000000 55.000000 14.687119 7.000000
13.762850 17.515594 -54.706437 0.000000 30.000000 14.215290 0.000000
14.958717 18.514746 -55.050574 0.000000 45.000000 14.679563 22.000000
13.059639 17.531120 -54.725214 0.000000 68.000000 14.526545 17.000000
14.653915 16.190382 -58.779580 0.000000 29.000000 14.068377 0.000000
14.974769 16.094303 -59.318993 0.000000 35.000000 14.032043 0.000000
13.155159 16.682837 -55.900141 0.000000 43.000000 14.156199 0.000000
17.384158 18.372281 -57.841014 0.000000 40.000000 14.474339 26.000000
16.210549 18.081401 -58.105683 0.000000 41.000000 14.802398 23.000000
16.655062 18.100677 -58.499456 0.000000 77.000000 14.764377 23.000000
13.625419 16.606938 -56.682809 0.000000 40.000000 14.155354 0.000000
13.887882 16.555833 -57.099064 0.000000 36.000000 14.140672 0.000000
14.066497 16.588724 -57.426355 0.000000 49.000000 14.202587 0.000000
13.134132 16.567189 -56.709740 0.000000 44.000000 14.334485 1.000000
15.573678 18.049343 -57.313689 0.000000 60.000000 14.777810 25.000000
14.939974 16.437705 -58.730854 0.000000 38.000000 14.143173 0.000000
15.233690 16.403939 -59.160376 0.000000 47.000000 14.134601 0.000000
16.883994 17.796206 -59.429473 0.000000 42.000000 14.718659 16.000000
16.255773 17.661987 -59.206685 0.000000 45.000000 14.792017 16.000000
16.243051 18.085862 -58.012680 0.000000 48.000000 14.761949 23.000000
14.795344 17.575903 -57.101549 0.000000 48.000000 14.629464 19.000000
12.550533 15.972680 -57.036770 0.000000 42.000000 14.180891 0.000000
12.734459 15.963835 -56.890534 0.000000 27.000000 14.048717 0.000000
14.851392 15.951379 -59.819785 0.000000 51.000000 14.127627 0.000000
15.661364 18.240156 -56.972910 0.000000 48.000000 14.790519 25.000000
14.922170 16.180446 -59.119669 0.000000 31.000000 14.061013 0.000000
15.867196 17.309809 -58.056521 0.000000 44.000000 14.274645 0.000000
14.771546 16.803093 -57.487554 0.000000 50.000000 14.111868 0.000000
12.786421 16.227281 -57.127318 0.000000 52.000000 14.328713 2.000000
14.578205 16.962847 -57.995374 0.000000 44.000000 14.495373 9.000000
10.765339 15.702245 -56.621533 0.000000 54.000000 14.555416 3.000000
13.844112 17.628196 -54.984911 0.000000 33.000000 14.369045 0.000000
17.109629 18.430712 -57.629506 0.000000 65.000000 14.567911 12.000000
13.150420 15.203348 -59.824959 0.000000 39.000000 14.201322 0.000000
13.377030 15.174716 -60.233602 0.000000 43.000000 14.218054 0.000000
15.056168 17.749049 -55.424289 0.000000 40.000000 14.113606 0.000000
12.644141 16.879895 -55.516900 0.000000 36.000000 14.408677 4.000000
16.690529 17.967760 -57.490738 0.000000 72.000000 14.303595 12.000000
12.422844 15.903481 -57.013518 0.000000 34.000000 14.167552 0.000000
12.498674 16.004361 -56.732308 0.000000 40.000000 14.128641 0.000000
16.241030 18.055403 -57.716244 0.000000 62.000000 14.638994 24.000000
16.023579 17.088525 -58.562619 0.000000 51.000000 14.189441 0.000000
14.148753 16.016125 -59.026423 0.000000 29.000000 14.211939 0.000000
16.015670 18.288870 -55.877450 0.000000 51.000000 14.322680 21.000000
13.996949 18.593547 -53.820566 0.000000 66.000000 14.739029 7.000000
13.753162 16.758080 -56.422371 0.000000 40.000000 14.144364 0.000000
13.951032 16.723371 -56.835582 0.000000 47.000000 14.169385 0.000000
14.123555 16.719793 -57.217857 0.000000 48.000000 14.221089 0.000000
14.404442 16.627831 -57.714155 0.000000 50.000000 14.190583 0.000000
14.692139 16.539672 -58.217161 0.000000 50.000000 14.162691 0.000000
14.982209 16.456449 -58.722424 0.000000 40.000000 14.138744 0.000000
13.382835 16.853613 -55.658408 0.000000 44.000000 14.126554 0.000000
15.581625 17.331053 -58.866818 0.000000 77.000000 14.679001 10.000000
14.733589 18.096801 -54.745292 0.000000 48.000000 14.317847 22.000000
15.532643 16.345431 -59.698170 0.000000 55.000000 14.138668 0.000000
13.799887 16.809315 -56.398711 0.000000 42.000000 14.160578 0.000000
16.759844 18.677510 -57.504515 0.000000 60.000000 14.880980 12.000000
11.610426 16.172525 -57.465092 0.000000 54.000000 14.882070 5.000000
15.311845 16.629706 -58.817554 0.000000 43.000000 14.180219 0.000000
13.156310 15.042276 -60.090647 0.000000 40.000000 14.150162 0.000000
14.908237 15.971085 -60.657066 0.000000 55.000000 14.397468 28.000000
13.233785 15.365056 -59.445523 0.000000 47.000000 14.178378 0.000000
13.337816 15.455734 -59.201583 0.000000 44.000000 14.131432 0.000000
13.311224 15.665523 -58.810210 0.000000 47.000000 14.190939 0.000000
15.046935 16.413105 -59.305768 0.000000 30.000000 14.267942 0.000000
13.351304 15.973989 -58.145364 0.000000 49.000000 14.216025 0.000000
14.904840 17.653675 -56.748874 0.000000 63.000000 14.533372 19.000000
10.796054 15.807896 -56.863863 0.000000 48.000000 14.712313 3.000000
13.407352 16.387264 -57.166423 0.000000 48.000000 14.219509 0.000000
13.488115 16.456180 -56.911205 0.000000 35.000000 14.160048 0.000000
14.636092 17.309625 -56.590524 0.000000 41.000000 14.300960 30.000000
13.469429 16.737937 -56.227108 0.000000 41.000000 14.180525 0.000000
16.046102 17.580095 -58.867263 0.000000 50.000000 14.697449 16.000000
13.493507 16.839185 -55.929117 0.000000 43.000000 14.157861 0.000000
15.957656 16.892748 -59.163804 0.000000 34.000000 14.249559 10.000000
10.864399 15.500509 -57.449430 0.000000 41.000000 14.616934 6.000000
13.390800 17.353492 -54.582833 0.000000 42.000000 14.191466 0.000000
17.135807 18.508240 -57.628338 0.000000 69.000000 14.622374 12.000000
14.916579 18.104358 -54.597548 0.000000 39.000000 14.199466 0.000000
12.826775 16.085166 -57.691642 0.000000 29.000000 14.378020 0.000000
11.862714 15.927701 -56.291966 0.000000 42.000000 14.182096 0.000000
11.085456 15.272663 -57.455272 0.000000 39.000000 14.333981 0.000000
13.505235 15.732805 -60.133383 0.000000 54.000000 14.604767 15.000000
15.255395 18.126709 -55.111033 0.000000 36.000000 14.247490 0.000000
11.530248 16.153408 -57.283319 0.000000 51.000000 14.839067 5.000000
11.378366 16.079260 -58.183724 0.000000 2.000000 15.136857 6.000000
14.672883 17.881278 -55.298885 0.000000 56.000000 14.343332 11.000000
11.974552 15.796918 -56.790203 0.000000 45.000000 14.189494 0.000000
17.530105 17.704068 -58.811118 0.000000 26.000000 14.167998 0.000000
13.162406 15.398944 -58.974533 0.000000 46.000000 14.081061 0.000000
13.557014 15.612011 -61.001372 0.000000 53.000000 14.767769 13.000000
15.260413 18.143252 -54.894668 0.000000 37.000000 14.187918 0.000000
15.510748 18.143804 -55.243886 0.000000 37.000000 14.199899 0.000000
16.990003 18.222859 -58.373795 0.000000 55.000000 14.687382 23.000000
12.832203 16.749604 -56.545530 0.000000 58.000000 14.560156 1.000000
13.063947 15.201186 -59.449671 0.000000 34.000000 14.111345 0.000000
13.112667 15.350455 -59.113025 0.000000 37.000000 14.106380 0.000000
13.035324 15.612870 -58.641259 0.000000 49.000000 14.204988 0.000000
10.744607 16.062499 -56.933511 0.000000 48.000000 14.972496 3.000000
11.769096 15.953260 -57.184226 0.000000 32.000000 14.537524 5.000000
13.173894 16.456285 -56.593168 0.000000 45.000000 14.185447 0.000000
14.228181 18.144432 -55.502397 0.000000 58.000000 14.818238 11.000000
14.098600 16.874504 -56.586393 0.000000 27.000000 14.153876 0.000000
15.725728 18.135838 -57.544608 0.000000 66.000000 14.864335 24.000000
13.098914 17.256507 -54.514844 0.000000 41.000000 14.207943 0.000000
15.649274 18.202765 -56.326818 0.000000 40.000000 14.550301 21.000000
14.416118 16.870272 -57.106601 0.000000 47.000000 14.190431 0.000000
14.632600 16.840139 -57.521297 0.000000 49.000000 14.212095 0.000000
11.666449 16.199117 -57.621152 0.000000 40.000000 14.932936 5.000000
15.549663 16.868558 -58.575758 0.000000 42.000000 14.204046 0.000000
14.416647 15.997672 -60.319105 0.000000 48.000000 14.512352 8.000000
16.131996 18.130712 -57.834946 0.000000 66.000000 14.787318 24.000000
14.306717 15.619518 -60.113304 0.000000 48.000000 14.169428 0.000000
15.864450 18.540479 -56.341492 0.000000 55.000000 14.752092 21.000000
15.573419 17.102588 -57.992733 0.000000 29.000000 14.199857 0.000000
17.047456 18.559828 -57.929558 0.000000 71.000000 14.802331 26.000000
14.510722 16.078146 -58.896545 0.000000 43.000000 14.071338 0.000000
14.475006 16.254250 -58.506884 0.000000 39.000000 14.106645 0.000000
14.429235 16.434351 -58.112318 0.000000 44.000000 14.147892 0.000000
14.379574 16.607837 -57.719508 0.000000 48.000000 14.185727 0.000000
14.421938 16.812071 -57.093354 0.000000 47.000000 14.134304 0.000000
16.029585 17.914734 -56.787800 0.000000 38.000000 14.300661 25.000000
15.607555 18.285916 -55.347304 0.000000 36.000000 14.314355 0.000000
14.231423 17.627639 -54.710462 0.000000 39.000000 14.117099 0.000000
17.390912 18.434952 -58.239951 0.000000 84.000000 14.656512 26.000000
12.791841 16.009521 -56.966730 0.000000 34.000000 14.088808 0.000000
12.020238 16.596440 -55.831726 0.000000 32.000000 14.531436 29.000000
13.449438 15.797325 -58.660866 0.000000 50.000000 14.195927 0.000000
13.657872 15.721138 -59.131038 0.000000 45.000000 14.200231 0.000000
13.893545 15.626357 -59.630266 0.000000 52.000000 14.187072 0.000000
15.462998 18.204935 -56.613681 0.000000 67.000000 14.724272 25.000000
14.101412 18.394113 -54.166259 0.000000 43.000000 14.640880 7.000000
14.782350 18.081367 -54.904262 0.000000 46.000000 14.337067 22.000000
16.828879 18.483713 -58.517414 0.000000 80.000000 15.022836 23.000000
15.514979 18.221893 -55.470022 0.000000 41.000000 14.339074 22.000000
15.769380 17.101210 -59.496458 0.000000 52.000000 14.614353 10.000000
13.902469 15.651612 -59.570612 0.000000 49.000000 14.185058 0.000000
16.514316 17.821141 -59.594330 0.000000 51.000000 14.947727 16.000000
13.338258 15.263021 -60.662772 0.000000 39.000000 14.450844 14.000000
16.886507 18.328990 -57.637657 0.000000 56.000000 14.576996 12.000000
12.290185 15.835280 -57.117337 0.000000 31.000000 14.199121 0.000000
12.350546 15.952292 -56.837130 0.000000 28.000000 14.180636 0.000000
12.465556 16.004982 -56.624237 0.000000 29.000000 14.107195 0.000000
10.482694 15.649041 -57.562867 0.000000 50.000000 14.938764 6.000000
16.095164 18.324752 -56.198473 0.000000 42.000000 14.426202 21.000000
14.583436 17.459735 -56.336362 0.000000 55.000000 14.366050 30.000000
14.962847 16.835839 -58.121669 0.000000 34.000000 14.269804 9.000000
15.679944 17.355024 -57.741325 0.000000 52.000000 14.286518 0.000000
14.392674 16.452407 -58.123529 0.000000 48.000000 14.182078 0.000000
14.672824 17.124272 -57.727325 0.000000 61.000000 14.504333 9.000000
14.082092 17.664970 -54.777889 0.000000 42.000000 14.233011 0.000000
14.198586 17.642074 -54.567459 0.000000 41.000000 14.095700 0.000000
10.484051 15.150872 -56.606675 0.000000 36.000000 14.199904 0.000000
15.207640 17.954414 -56.961582 0.000000 77.000000 14.732904 25.000000
13.512197 17.486077 -54.399974 0.000000 38.000000 14.193022 0.000000
13.720866 17.418637 -54.799784 0.000000 33.000000 14.181386 0.000000
13.930095 17.357374 -55.206421 0.000000 42.000000 14.177012 0.000000
14.084282 17.348128 -55.557586 0.000000 43.000000 14.221240 0.000000
13.559819 17.410186 -54.577121 0.000000 32.000000 14.167477 0.000000
15.122079 16.823360 -58.554499 0.000000 39.000000 14.336189 0.000000
15.621094 16.934376 -58.258707 0.000000 50.000000 14.125395 0.000000
13.975520 17.345623 -55.300854 0.000000 41.000000 14.179408 0.000000
15.842072 16.922804 -58.674646 0.000000 49.000000 14.161337 0.000000
15.172412 17.744895 -56.872416 0.000000 45.000000 14.540461 19.000000
16.039252 16.936817 -59.065224 0.000000 53.000000 14.220462 0.000000
16.565066 17.458512 -59.609149 0.000000 59.000000 14.624186 16.000000
15.919418 18.026342 -57.214159 0.000000 57.000000 14.581909 24.000000
16.054797 17.790036 -58.755732 0.000000 70.000000 14.834929 16.000000
11.865461 15.789968 -56.676077 0.000000 42.000000 14.191164 0.000000
15.705438 18.234410 -56.992663 0.000000 69.000000 14.773883 25.000000
13.416026 17.539729 -54.221273 0.000000 38.000000 14.219354 0.000000
12.057669 16.143768 -55.836962 0.000000 32.000000 14.133933 0.000000
15.190433 15.942142 -60.383794 0.000000 42.000000 14.165482 0.000000
12.693596 15.282322 -59.058554 0.000000 32.000000 14.204572 0.000000
15.365744 16.091511 -59.845588 0.000000 31.000000 14.041438 0.000000
10.612597 15.729494 -56.785995 0.000000 33.000000 14.696271 3.000000
15.217332 16.494933 -58.981713 0.000000 39.000000 14.159469 0.000000
14.765687 15.920582 -60.705915 0.000000 35.000000 14.429975 28.000000
15.741454 18.238743 -55.648607 0.000000 43.000000 14.318377 22.000000
16.603033 18.162177 -56.496150 0.000000 39.000000 14.175980 0.000000
13.434878 16.103569 -57.594895 0.000000 25.000000 14.109233 0.000000
11.057749 15.542847 -58.142702 0.000000 49.000000 14.801702 6.000000
13.629463 15.300123 -60.384779 0.000000 42.000000 14.269539 14.000000
14.861210 17.609995 -56.690945 0.000000 56.000000 14.495311 19.000000
14.160453 15.926000 -59.285548 0.000000 36.000000 14.216335 0.000000
15.622116 17.116657 -59.355802 0.000000 47.000000 14.642083 10.000000
17.016795 18.245284 -57.186835 0.000000 41.000000 14.302962 12.000000
15.729871 18.722834 -56.107276 0.000000 57.000000 14.885110 21.000000
14.623535 17.149250 -57.709685 0.000000 54.000000 14.540133 9.000000
15.941355 18.083136 -57.840823 0.000000 70.000000 14.828065 24.000000
13.945987 16.045931 -58.736770 0.000000 38.000000 14.225633 0.000000
13.570205 15.703482 -61.289514 0.000000 59.000000 14.935062 13.000000
12.901817 16.579906 -56.008235 0.000000 35.000000 14.209836 0.000000
13.732262 15.461504 -60.722901 0.000000 27.000000 14.475415 14.000000
12.430885 15.831483 -57.110249 0.000000 29.000000 14.135158 0.000000
15.733884 17.128558 -58.616859 0.000000 36.000000 14.361547 10.000000
12.482068 15.953026 -56.830544 0.000000 39.000000 14.124490 0.000000
17.126108 18.210707 -58.039322 0.000000 68.000000 14.510039 26.000000
13.520645 16.770888 -56.271275 0.000000 23.000000 14.201794 0.000000
13.759950 17.523599 -55.236589 0.000000 42.000000 14.398503 17.000000
14.626687 18.433337 -55.034483 0.000000 66.000000 14.743058 22.000000
14.624904 18.138112 -55.894053 0.000000 67.000000 14.777658 11.000000
14.501824 16.313964 -58.472852 0.000000 48.000000 14.134880 0.000000
13.029704 17.380120 -54.762333 0.000000 63.000000 14.423247 17.000000
14.333846 16.848992 -57.237142 0.000000 46.000000 14.249688 0.000000
14.450165 16.859420 -57.012543 0.000000 46.000000 14.136012 0.000000
14.126711 17.963099 -54.994399 0.000000 74.000000 14.538752 11.000000
17.975427 18.061342 -58.324967 0.000000 39.000000 14.125310 0.000000
14.356533 15.567870 -60.610914 0.000000 29.000000 14.269439 0.000000
14.721247 18.113493 -54.807622 0.000000 52.000000 14.357720 22.000000
15.009705 17.555062 -57.145904 0.000000 53.000000 14.537482 19.000000
10.578371 15.676616 -56.738206 0.000000 52.000000 14.649861 3.000000
14.087638 17.602064 -54.813640 0.000000 38.000000 14.189204 0.000000
15.102125 17.554987 -56.562065 0.000000 39.000000 14.306090 0.000000
12.920528 17.540283 -54.994041 0.000000 69.000000 14.680905 17.000000
12.579105 15.749147 -57.836137 0.000000 45.000000 14.243762 0.000000
14.158043 17.635084 -56.455152 0.000000 55.000000 14.730514 30.000000
16.102148 17.035312 -59.126711 0.000000 39.000000 14.298164 10.000000
16.865431 18.709868 -57.860644 0.000000 42.000000 14.982287 12.000000
17.077878 18.442992 -58.137531 0.000000 41.000000 14.759409 26.000000
16.689889 18.470647 -58.394171 0.000000 69.000000 15.028719 23.000000
12.587814 15.218821 -59.046170 0.000000 29.000000 14.190562 0.000000
13.423965 17.150197 -55.558003 0.000000 30.000000 14.327689 0.000000
13.243820 16.744147 -55.969654 0.000000 42.000000 14.194342 0.000000
11.581247 15.839481 -57.164646 0.000000 35.000000 14.512583 5.000000
14.874576 17.814212 -56.079427 0.000000 58.000000 14.460747 11.000000
13.053276 16.291790 -57.168959 0.000000 44.000000 14.286390 0.000000
16.122444 18.253806 -57.501969 0.000000 58.000000 14.785567 24.000000
14.371582 17.639622 -56.310894 0.000000 44.000000 14.598045 30.000000
11.743761 15.912611 -57.089954 0.000000 39.000000 14.482427 5.000000
14.868959 18.188913 -54.733442 0.000000 56.000000 14.335818 22.000000
12.684624 16.146537 -57.055118 0.000000 28.000000 14.278663 2.000000
12.810156 16.173220 -57.127719 0.000000 24.000000 14.273170 2.000000
14.527868 16.016711 -60.294725 0.000000 54.000000 14.474266 8.000000
15.048443 17.525866 -57.273910 0.000000 45.000000 14.538963 19.000000
13.547463 16.476212 -57.008302 0.000000 35.000000 14.184486 0.000000
11.762499 15.078922 -58.478842 0.000000 26.000000 14.227040 0.000000
14.167879 17.474109 -55.831353 0.000000 41.000000 14.383809 18.000000
12.500297 15.304004 -58.702156 0.000000 30.000000 14.185390 0.000000
14.961077 18.030919 -56.067759 0.000000 43.000000 14.604673 11.000000
14.452536 16.214200 -58.703266 0.000000 46.000000 14.146931 0.000000
14.814842 16.040920 -59.270322 0.000000 35.000000 14.037090 0.000000
15.001967 16.037851 -59.646461 0.000000 43.000000 14.081136 0.000000
15.399516 17.449146 -57.852247 0.000000 81.000000 14.519359 19.000000
13.119581 17.067272 -55.492684 0.000000 59.000000 14.362154 0.000000
11.453404 15.752920 -56.225836 0.000000 41.000000 14.181985 0.000000
15.783952 18.444453 -56.005341 0.000000 63.000000 14.593008 21.000000
11.620476 15.994016 -55.719495 0.000000 33.000000 14.149644 0.000000
16.573996 17.990366 -59.274174 0.000000 66.000000 14.960578 16.000000
11.545276 15.398874 -57.960432 0.000000 43.000000 14.417062 6.000000
14.675526 15.926624 -59.773199 0.000000 38.000000 14.164244 0.000000
14.762875 16.004405 -59.506657 0.000000 37.000000 14.105821 0.000000
13.894047 16.775512 -56.998232 0.000000 43.000000 14.290992 0.000000
14.716851 16.345195 -58.746465 0.000000 36.000000 14.162532 0.000000
14.712280 16.492372 -58.386263 0.000000 36.000000 14.170129 0.000000
14.733340 16.851652 -57.392162 0.000000 46.000000 14.137358 0.000000
16.568905 18.189176 -58.311361 0.000000 53.000000 14.812984 23.000000
12.252406 16.099095 -56.307208 0.000000 42.000000 14.170659 0.000000
12.402120 15.968878 -56.751679 0.000000 35.000000 14.145045 0.000000
16.357823 18.403889 -56.787155 0.000000 59.000000 14.578824 20.000000
12.966169 17.487495 -55.122317 0.000000 57.000000 14.659613 17.000000
16.000539 18.283624 -55.923246 0.000000 36.000000 14.339651 21.000000
12.905897 15.603943 -58.443522 0.000000 46.000000 14.185788 0.000000
11.608706 15.973969 -55.870631 0.000000 39.000000 14.187490 0.000000
13.148721 15.405081 -59.005881 0.000000 46.000000 14.102304 0.000000
11.740331 15.883390 -56.258394 0.000000 31.000000 14.184239 0.000000
14.534297 15.991954 -60.557539 0.000000 55.000000 14.537477 8.000000
16.735131 18.234371 -58.511048 0.000000 65.000000 14.848296 23.000000
12.295969 17.180507 -55.168103 0.000000 63.000000 14.692720 4.000000
13.004398 16.403358 -57.552903 0.000000 43.000000 14.528145 2.000000
12.904588 16.282129 -57.270965 0.000000 45.000000 14.373633 2.000000
17.469229 18.238641 -58.082208 0.000000 58.000000 14.405469 26.000000
15.749484 17.826368 -56.436937 0.000000 46.000000 14.226058 0.000000
15.681950 17.334395 -57.971309 0.000000 50.000000 14.344213 0.000000
14.695835 16.950761 -57.178664 0.000000 42.000000 14.166369 0.000000
12.280675 17.075561 -55.618023 0.000000 48.000000 14.758818 29.000000
14.804152 16.067843 -60.860157 0.000000 60.000000 14.589811 28.000000
16.486859 18.139675 -58.098941 0.000000 60.000000 14.734874 23.000000
13.522060 15.609987 -59.242340 0.000000 49.000000 14.199176 0.000000
12.705760 15.805911 -57.862752 0.000000 32.000000 14.248101 0.000000
13.840406 16.061318 -58.550699 0.000000 28.000000 14.221001 0.000000
15.788674 17.875569 -56.596731 0.000000 44.000000 14.304309 25.000000
13.834252 16.039242 -58.145027 0.000000 24.000000 14.070762 0.000000
13.748760 16.289714 -57.707076 0.000000 46.000000 14.173806 0.000000
14.936512 17.540616 -57.315381 0.000000 40.000000 14.611633 19.000000
16.942262 18.631347 -57.448219 0.000000 31.000000 14.747527 12.000000
15.595084 17.850260 -56.080679 0.000000 24.000000 14.192650 0.000000
12.864266 16.096499 -56.771275 0.000000 15.000000 14.067870 0.000000
13.851840 16.797228 -56.458698 0.000000 40.000000 14.148595 0.000000
14.421887 18.168721 -55.644279 0.000000 65.000000 14.805317 11.000000
10.868915 15.368053 -57.502541 0.000000 51.000000 14.520340 6.000000
15.737963 16.946819 -58.465721 0.000000 50.000000 14.155854 0.000000
13.389707 16.574844 -57.034270 0.000000 30.000000 14.342152 0.000000
13.792806 17.463384 -54.828206 0.000000 36.000000 14.198849 0.000000
13.600483 15.638948 -61.401289 0.000000 36.000000 14.904737 13.000000
11.015645 15.899067 -56.734798 0.000000 34.000000 14.655787 3.000000
15.304545 18.125814 -55.068472 0.000000 41.000000 14.212263 0.000000
10.571358 15.194791 -56.562626 0.000000 36.000000 14.186333 0.000000
10.625637 15.130209 -56.911973 0.000000 41.000000 14.224525 0.000000
13.952794 17.610236 -54.294434 0.000000 34.000000 14.080497 0.000000
14.792458 18.078657 -56.284507 0.000000 63.000000 14.786765 11.000000
14.057946 17.577056 -54.915138 0.000000 40.000000 14.213878 0.000000
14.654781 16.010633 -60.625661 0.000000 55.000000 14.525815 8.000000
11.086398 15.607018 -58.063193 0.000000 40.000000 14.817924 6.000000
16.968477 17.763369 -59.100792 0.000000 69.000000 14.547124 27.000000
13.655470 17.595337 -55.606852 0.000000 68.000000 14.625054 18.000000
16.283120 18.579613 -56.732143 0.000000 61.000000 14.740597 20.000000
14.938436 18.441299 -55.368124 0.000000 45.000000 14.730680 22.000000
12.029602 15.827880 -56.893609 0.000000 42.000000 14.227065 0.000000
13.300357 17.606903 -55.088464 0.000000 49.000000 14.610923 17.000000
16.606106 17.996844 -58.514291 0.000000 57.000000 14.701589 23.000000
16.276744 17.790505 -58.274662 0.000000 58.000000 14.584201 23.000000
13.937275 15.695129 -59.518321 0.000000 49.000000 14.190214 0.000000
15.757823 18.289169 -56.926091 0.000000 68.000000 14.776552 25.000000
14.100751 15.941134 -58.937252 0.000000 39.000000 14.138827 0.000000
15.031521 18.250050 -54.785783 0.000000 52.000000 14.337463 22.000000
14.202807 16.216551 -58.307083 0.000000 43.000000 14.121637 0.000000
16.737271 17.606591 -59.509810 0.000000 71.000000 14.645390 16.000000
15.113487 17.136309 -57.632703 0.000000 38.000000 14.300352 0.000000
14.215416 16.873857 -56.897418 0.000000 45.000000 14.207639 0.000000
15.757104 18.139376 -57.426985 0.000000 48.000000 14.815434 24.000000
12.579779 17.074927 -55.208774 0.000000 77.000000 14.498866 4.000000
10.674120 16.030709 -56.978716 0.000000 44.000000 14.989748 3.000000
13.234197 16.866215 -55.793508 0.000000 42.000000 14.243585 0.000000
13.408568 16.695063 -56.257921 0.000000 42.000000 14.179630 0.000000
13.528737 16.580836 -56.674532 0.000000 41.000000 14.170625 0.000000
12.051315 16.549521 -55.760231 0.000000 32.000000 14.455137 29.000000
16.863128 18.263011 -56.782261 0.000000 32.000000 14.248053 0.000000
12.429625 16.688354 -55.102774 0.000000 30.000000 14.198488 0.000000
13.914915 16.247032 -57.967301 0.000000 45.000000 14.154668 0.000000
15.898597 18.326975 -56.470870 0.000000 50.000000 14.599708 20.000000
14.612494 15.747088 -60.907693 0.000000 42.000000 14.413195 28.000000
15.058645 18.387721 -55.355926 0.000000 49.000000 14.631338 22.000000
15.297556 18.589330 -55.929243 0.000000 55.000000 14.892550 22.000000
14.404763 18.175608 -55.614935 0.000000 70.000000 14.808564 11.000000
16.362835 17.982907 -58.104526 0.000000 62.000000 14.655319 23.000000
16.509919 18.209251 -58.159498 0.000000 42.000000 14.804291 23.000000
13.459701 15.943763 -58.306715 0.000000 46.000000 14.198740 0.000000
14.881759 17.513312 -57.076353 0.000000 60.000000 14.532214 19.000000
13.812490 15.726574 -59.229207 0.000000 46.000000 14.173107 0.000000
16.721649 18.271407 -58.478492 0.000000 46.000000 14.874524 23.000000
16.234259 18.422857 -56.568068 0.000000 72.000000 14.573779 20.000000
11.605771 16.313671 -57.565023 0.000000 47.000000 15.036669 5.000000
16.634725 18.167811 -56.704203 0.000000 45.000000 14.236365 0.000000
15.938291 18.177839 -55.803518 0.000000 41.000000 14.236251 0.000000
11.916452 15.161880 -58.387092 0.000000 45.000000 14.203130 0.000000
12.292015 15.771315 -57.371939 0.000000 43.000000 14.228292 0.000000
12.464203 17.032051 -55.171840 0.000000 57.000000 14.498289 4.000000
12.515898 16.005998 -56.912183 0.000000 41.000000 14.182331 0.000000
12.727134 16.006636 -56.795700 0.000000 25.000000 14.056693 0.000000
12.954058 16.045223 -57.800329 0.000000 48.000000 14.327254 0.000000
11.999860 16.986996 -55.762139 0.000000 49.000000 14.847941 29.000000
16.534705 18.262660 -58.300485 0.000000 50.000000 14.885872 23.000000
16.777509 18.672096 -57.551802 0.000000 69.000000 14.884688 12.000000
14.965018 16.444371 -58.837701 0.000000 37.000000 14.173743 0.000000
14.721718 18.087275 -54.984565 0.000000 57.000000 14.393783 22.000000
15.010778 17.620861 -55.578614 0.000000 31.000000 14.074798 0.000000
15.215884 18.265270 -56.770385 0.000000 59.000000 14.929778 25.000000
11.581792 16.029156 -55.733806 0.000000 39.000000 14.200216 0.000000
13.543923 15.969459 -59.914087 0.000000 90.000000 14.716822 15.000000
