-26.672811 3.527537 -7.560518 0.000000 33.000000 14.414568 0.000000
-26.285892 3.491988 -8.734300 0.000000 26.000000 14.456303 0.000000
-26.369832 3.561722 -8.797275 0.000000 28.000000 14.485206 0.000000
-26.841018 3.667113 -7.685096 0.000000 39.000000 14.472192 0.000000
-26.445597 3.666158 -8.846622 0.000000 28.000000 14.481977 0.000000
-26.929285 3.736718 -7.744717 0.000000 39.000000 14.503407 0.000000
-26.534542 3.735338 -8.905639 0.000000 28.000000 14.513802 0.000000
-27.010675 3.828238 -7.792864 0.000000 33.000000 14.512404 0.000000
-25.763698 1.855227 -6.942163 0.000000 48.000000 14.724119 25.000000
-25.328054 2.325680 -9.907000 0.000000 48.000000 14.842040 24.000000
-26.700007 3.917832 -9.000337 0.000000 29.000000 14.533661 0.000000
-25.174576 2.414697 -10.527439 0.000000 50.000000 14.828878 24.000000
-27.499063 4.475343 -10.757002 0.000000 46.000000 15.166928 17.000000
-27.641812 4.476339 -10.277251 0.000000 55.000000 15.147935 17.000000
-26.870393 4.102389 -9.082523 0.000000 39.000000 14.552523 0.000000
-25.209482 1.878162 -10.376969 0.000000 43.000000 15.171132 23.000000
-27.411020 4.360800 -7.953693 0.000000 39.000000 14.483249 0.000000
-26.400712 4.059044 -11.120088 0.000000 51.000000 14.755694 19.000000
-27.505959 4.427785 -7.992795 0.000000 33.000000 14.515814 0.000000
-27.062778 4.598254 -9.104783 0.000000 23.000000 14.366076 0.000000
-24.790800 1.414026 -9.542808 0.000000 60.000000 14.974586 28.000000
-25.914390 2.633042 -10.700671 0.000000 57.000000 15.250838 29.000000
-23.679260 0.579541 -11.385378 0.000000 50.000000 15.198650 11.000000
-27.762456 4.749883 -8.046415 0.000000 38.000000 14.497487 0.000000
-25.800557 2.997142 -12.128133 0.000000 50.000000 15.284427 15.000000
-25.361766 2.362302 -11.340163 0.000000 53.000000 15.198084 14.000000
-23.080086 0.683866 -10.582562 0.000000 36.000000 14.506114 0.000000
-23.514992 0.248834 -11.287751 0.000000 11.000000 15.276972 30.000000
-23.212786 0.810534 -10.546975 0.000000 42.000000 14.507329 0.000000
-23.826300 0.878149 -9.397700 0.000000 47.000000 14.610765 10.000000
-23.346891 0.931392 -10.498854 0.000000 37.000000 14.510264 0.000000
-24.596382 1.486884 -10.531301 0.000000 60.000000 15.034690 28.000000
-23.456247 1.092675 -10.421272 0.000000 29.000000 14.461618 0.000000
-23.505013 1.182315 -10.374542 0.000000 25.000000 14.425186 0.000000
-25.601475 2.365831 -10.166236 0.000000 45.000000 15.073364 24.000000
-23.612624 1.342131 -10.274562 0.000000 27.000000 14.370706 0.000000
-25.251339 1.238538 -8.508040 0.000000 66.000000 15.159128 26.000000
-23.756761 1.437021 -10.181462 0.000000 29.000000 14.386733 0.000000
-25.248151 1.230804 -8.496126 0.000000 67.000000 15.159027 26.000000
-24.874624 1.604713 -10.936450 0.000000 47.000000 15.254318 13.000000
-23.727840 1.580013 -11.142556 0.000000 28.000000 14.510691 0.000000
-23.793310 1.633304 -11.070517 0.000000 25.000000 14.503830 0.000000
-23.857453 1.685788 -10.995908 0.000000 30.000000 14.495924 0.000000
-24.857507 1.394971 -8.602202 0.000000 47.000000 14.800453 26.000000
-24.001420 1.760032 -10.842748 0.000000 27.000000 14.510553 0.000000
-27.338807 4.611495 -10.236703 0.000000 47.000000 14.834085 17.000000
-25.889944 2.183182 -6.579985 0.000000 45.000000 14.506369 0.000000
-25.910004 2.207076 -6.428457 0.000000 45.000000 14.467066 0.000000
-26.004637 2.117326 -6.198297 0.000000 47.000000 14.536148 0.000000
-25.240212 1.285584 -8.656932 0.000000 65.000000 15.157159 26.000000
-24.937982 1.391231 -8.691742 0.000000 52.000000 14.882123 26.000000
-23.760745 1.482206 -11.545123 0.000000 42.000000 14.698797 11.000000
-25.767984 2.071781 -6.503512 0.000000 44.000000 14.474782 0.000000
-25.792030 2.041095 -6.366623 0.000000 39.000000 14.478050 0.000000
-24.466170 1.221568 -10.335030 0.000000 69.000000 15.069305 28.000000
-26.633825 4.336054 -10.904625 0.000000 38.000000 14.683735 19.000000
-25.005514 1.352276 -7.125159 0.000000 53.000000 14.566060 21.000000
-24.195648 0.198956 -8.126452 0.000000 65.000000 15.005248 20.000000
-27.136265 4.996240 -11.767149 0.000000 61.000000 14.816874 16.000000
-26.263476 2.250828 -7.457638 0.000000 52.000000 14.944119 25.000000
-23.622535 0.758413 -9.204630 0.000000 37.000000 14.497826 0.000000
-26.285132 2.484820 -7.216205 0.000000 38.000000 14.744580 25.000000
-26.316674 3.621353 -11.660835 0.000000 60.000000 15.120316 15.000000
-23.290519 0.828245 -10.435196 0.000000 42.000000 14.522800 0.000000
-23.733053 0.873852 -9.353831 0.000000 44.000000 14.536735 0.000000
-24.291435 1.326451 -10.391576 0.000000 47.000000 14.890368 28.000000
-23.368729 1.011092 -10.565593 0.000000 28.000000 14.489579 0.000000
-23.516080 1.260044 -10.751235 0.000000 22.000000 14.475271 0.000000
-23.899276 1.391769 -9.599583 0.000000 32.000000 14.372773 0.000000
-23.963906 1.451471 -9.657610 0.000000 34.000000 14.393424 0.000000
-24.776290 1.703618 -10.700178 0.000000 67.000000 15.060559 13.000000
-24.045189 1.484441 -9.723177 0.000000 30.000000 14.445415 0.000000
-26.949731 4.623560 -10.690020 0.000000 69.000000 14.663613 17.000000
-23.756165 1.559076 -10.970120 0.000000 28.000000 14.501696 0.000000
-23.818386 1.633993 -11.016450 0.000000 24.000000 14.507666 0.000000
-24.832663 1.496475 -10.767988 0.000000 48.000000 15.254351 13.000000
-25.455442 2.330448 -9.737940 0.000000 66.000000 14.886953 23.000000
-25.088959 1.564499 -10.012034 0.000000 53.000000 15.202641 23.000000
-25.128541 1.671688 -10.314288 0.000000 64.000000 15.234894 23.000000
-27.367326 4.322152 -10.479191 0.000000 49.000000 15.106001 17.000000
-26.001580 3.627311 -9.688197 0.000000 30.000000 14.402884 0.000000
-27.590372 4.672833 -10.019927 0.000000 50.000000 14.917546 17.000000
-25.744724 2.483554 -11.501212 0.000000 60.000000 15.428816 14.000000
-25.824336 1.794946 -7.309884 0.000000 43.000000 14.898349 25.000000
-25.520426 2.643822 -11.995194 0.000000 45.000000 15.286966 14.000000
-26.039540 1.846346 -8.215317 0.000000 44.000000 15.241757 27.000000
-26.469974 3.836658 -9.344789 0.000000 36.000000 14.510309 0.000000
-26.535404 3.890084 -9.267645 0.000000 37.000000 14.502060 0.000000
-25.341560 2.975936 -11.036075 0.000000 49.000000 14.702171 14.000000
-26.292505 3.975081 -10.259562 0.000000 26.000000 14.520688 0.000000
-26.674928 3.967540 -9.112228 0.000000 43.000000 14.510859 0.000000
-26.360148 4.016362 -10.170269 0.000000 32.000000 14.519019 0.000000
-26.739113 4.015051 -9.026281 0.000000 47.000000 14.503454 0.000000
-26.803502 4.053194 -8.938873 0.000000 45.000000 14.502028 0.000000
-25.002522 2.013827 -12.143284 0.000000 49.000000 15.374253 14.000000
-23.497266 0.480721 -11.282635 0.000000 48.000000 15.109738 11.000000
-26.933553 4.116341 -8.758171 0.000000 40.000000 14.507305 0.000000
-25.702260 1.228730 -7.687310 0.000000 56.000000 15.280480 26.000000
-24.291673 0.453867 -7.979715 0.000000 45.000000 14.868028 20.000000
-25.747674 2.637781 -11.972435 0.000000 45.000000 15.446057 14.000000
-24.981807 1.900357 -11.661857 0.000000 61.000000 15.314943 14.000000
-24.797668 1.635319 -9.803587 0.000000 78.000000 14.897888 23.000000
-27.058595 4.300974 -8.894199 0.000000 42.000000 14.507432 0.000000
-24.999458 0.902439 -6.478211 0.000000 50.000000 14.698501 21.000000
-25.625722 1.212755 -7.895196 0.000000 68.000000 15.288608 26.000000
-25.397765 1.381813 -7.308763 0.000000 56.000000 14.869655 26.000000
-27.566925 4.431028 -7.405095 0.000000 39.000000 14.410635 0.000000
-27.326513 4.307283 -8.146258 0.000000 45.000000 14.506769 0.000000
-24.566541 1.593492 -11.931448 0.000000 49.000000 15.291262 13.000000
-27.394382 4.314530 -7.877729 0.000000 31.000000 14.483201 0.000000
-27.525228 4.237838 -7.348003 0.000000 33.000000 14.494758 0.000000
-24.843535 1.718473 -11.483497 0.000000 53.000000 15.293110 13.000000
-25.984532 1.739585 -7.668753 0.000000 47.000000 15.137550 27.000000
-27.654204 4.067422 -6.680239 0.000000 47.000000 14.532673 0.000000
-27.672872 4.024716 -6.549110 0.000000 43.000000 14.541522 0.000000
-24.935280 1.946821 -11.871867 0.000000 44.000000 15.303518 14.000000
-24.230474 0.602309 -7.038448 0.000000 36.000000 14.492431 0.000000
-26.294099 3.390597 -11.455280 0.000000 41.000000 15.205898 15.000000
-24.285597 0.758258 -7.246356 0.000000 38.000000 14.479952 0.000000
-24.320505 0.828894 -7.352899 0.000000 39.000000 14.484409 0.000000
-24.355389 0.900184 -7.457308 0.000000 36.000000 14.487885 0.000000
-25.602489 1.345193 -7.358293 0.000000 67.000000 15.051022 26.000000
-24.490417 1.391674 -7.901657 0.000000 28.000000 14.368731 0.000000
-23.942392 1.103287 -11.484726 0.000000 60.000000 15.062974 11.000000
-23.884440 0.797145 -11.264198 0.000000 49.000000 15.169684 11.000000
-25.401436 2.665854 -9.226368 0.000000 29.000000 14.499610 0.000000
-24.710398 0.323727 -6.263076 0.000000 64.000000 14.823408 21.000000
-25.537825 2.838687 -9.349190 0.000000 31.000000 14.512287 0.000000
-25.060563 1.778815 -9.834436 0.000000 51.000000 14.996589 23.000000
-24.366641 1.640059 -11.901467 0.000000 60.000000 15.111588 13.000000
-26.054378 3.017074 -8.291935 0.000000 32.000000 14.496729 0.000000
-23.798931 0.415081 -8.938752 0.000000 47.000000 14.783639 12.000000
-25.983859 2.579108 -8.589475 0.000000 48.000000 14.810610 22.000000
-25.696991 1.868273 -8.635592 0.000000 42.000000 15.089455 27.000000
-25.448724 1.652312 -8.708387 0.000000 45.000000 15.074821 27.000000
-26.263813 2.739290 -8.141783 0.000000 57.000000 14.791327 22.000000
-25.409632 2.073404 -10.093725 0.000000 63.000000 15.113097 23.000000
-25.852016 3.385154 -9.570719 0.000000 21.000000 14.428083 0.000000
-25.908024 3.524934 -9.597541 0.000000 23.000000 14.381892 0.000000
-25.993724 3.593749 -9.644518 0.000000 24.000000 14.408669 0.000000
-25.095434 2.264690 -10.443960 0.000000 43.000000 14.851380 24.000000
-25.225536 1.749979 -8.861394 0.000000 75.000000 14.890374 27.000000
-26.647686 3.716395 -8.610738 0.000000 32.000000 14.533032 0.000000
-26.266796 3.769722 -9.775063 0.000000 26.000000 14.517877 0.000000
-26.343452 3.865620 -9.799522 0.000000 28.000000 14.514737 0.000000
-26.425264 3.954392 -9.823164 0.000000 28.000000 14.519757 0.000000
-25.547789 2.467787 -10.495703 0.000000 48.000000 15.049868 24.000000
-26.520831 4.011101 -9.853255 0.000000 36.000000 14.557325 0.000000
-23.805986 0.878502 -10.178779 0.000000 68.000000 14.790415 10.000000
-25.509488 2.257019 -10.420050 0.000000 58.000000 15.143408 24.000000
-27.430582 4.743092 -8.668666 0.000000 29.000000 14.421968 0.000000
-27.534195 4.765348 -8.683982 0.000000 33.000000 14.484347 0.000000
-27.629654 4.820638 -8.681854 0.000000 35.000000 14.514764 0.000000
-27.890350 5.065794 -8.624141 0.000000 41.000000 14.522625 0.000000
-27.972791 5.160496 -8.593016 0.000000 45.000000 14.510545 0.000000
-25.982651 2.082575 -5.911684 0.000000 42.000000 14.472307 0.000000
-24.677374 1.503828 -10.180318 0.000000 61.000000 14.993482 28.000000
-26.114563 2.234866 -6.098967 0.000000 41.000000 14.511438 0.000000
-25.768057 2.523705 -8.439864 0.000000 32.000000 14.657401 22.000000
-23.546396 0.593620 -9.800224 0.000000 68.000000 14.701121 12.000000
-26.264324 2.618088 -6.287372 0.000000 33.000000 14.410687 0.000000
-26.356342 2.649743 -6.399265 0.000000 35.000000 14.482664 0.000000
-26.492907 4.519382 -11.466126 0.000000 49.000000 14.602402 18.000000
-26.495361 2.836602 -6.550236 0.000000 48.000000 14.494921 0.000000
-26.561109 2.947809 -6.616428 0.000000 43.000000 14.484316 0.000000
-26.630344 3.052129 -6.681429 0.000000 36.000000 14.480438 0.000000
-25.621647 1.748841 -8.546835 0.000000 58.000000 15.093102 27.000000
-26.782773 3.248830 -6.818885 0.000000 43.000000 14.492309 0.000000
-26.825123 3.445060 -6.835399 0.000000 26.000000 14.396544 0.000000
-25.495771 1.485243 -6.701927 0.000000 47.000000 14.719632 21.000000
-27.093335 3.185918 -8.559553 0.000000 14.000000 15.186526 9.000000
-25.427567 1.485305 -6.596046 0.000000 36.000000 14.645012 21.000000
-24.210077 1.422045 -10.501467 0.000000 47.000000 14.796899 28.000000
-27.266186 3.854158 -7.170174 0.000000 43.000000 14.521139 0.000000
-27.344888 3.978996 -7.211387 0.000000 45.000000 14.504467 0.000000
-25.461037 2.695822 -12.092244 0.000000 67.000000 15.234687 14.000000
-27.522741 4.166385 -7.312575 0.000000 34.000000 14.531464 0.000000
-25.028363 1.424251 -8.753046 0.000000 42.000000 14.939458 26.000000
-23.671432 0.416431 -9.115034 0.000000 40.000000 14.736396 12.000000
-23.821253 0.998403 -9.668163 0.000000 35.000000 14.594896 10.000000
-25.483598 2.341006 -10.236939 0.000000 57.000000 15.023986 24.000000
-25.930503 2.882353 -10.796094 0.000000 59.000000 15.121019 29.000000
-23.229416 0.777963 -10.438633 0.000000 29.000000 14.513698 0.000000
-23.580540 0.721072 -9.308766 0.000000 36.000000 14.518723 0.000000
-26.421796 3.600379 -10.646300 0.000000 40.000000 14.956241 15.000000
-23.633922 0.783726 -9.222950 0.000000 37.000000 14.493690 0.000000
-25.579719 2.750776 -10.460073 0.000000 59.000000 14.876363 29.000000
-25.537680 2.694417 -11.879492 0.000000 47.000000 15.236922 14.000000
-23.756723 0.794092 -10.298026 0.000000 53.000000 14.841071 10.000000
-25.543860 1.724794 -7.758692 0.000000 52.000000 14.857975 27.000000
-23.831821 0.896293 -8.976447 0.000000 39.000000 14.497900 0.000000
-24.624392 1.230207 -9.611959 0.000000 48.000000 14.995687 28.000000
-23.965753 0.956007 -8.805266 0.000000 41.000000 14.510562 0.000000
-25.872827 3.379646 -10.315609 0.000000 35.000000 14.631703 29.000000
-23.609251 0.481158 -11.629026 0.000000 49.000000 15.274814 11.000000
-25.105065 1.735785 -8.409790 0.000000 42.000000 14.702231 27.000000
-24.268838 1.109584 -8.323793 0.000000 30.000000 14.503610 0.000000
-24.487554 1.273373 -9.925733 0.000000 52.000000 14.948364 28.000000
-23.986122 1.333663 -9.134793 0.000000 23.000000 14.357059 0.000000
-24.332606 1.254330 -8.072014 0.000000 30.000000 14.390335 0.000000
-24.038817 1.364485 -9.019266 0.000000 25.000000 14.345211 0.000000
-24.957330 0.968416 -6.916219 0.000000 53.000000 14.733981 21.000000
-24.100312 1.375750 -8.910815 0.000000 27.000000 14.354287 0.000000
-24.454885 1.279963 -7.865403 0.000000 33.000000 14.408491 0.000000
-27.235206 4.887085 -11.470229 0.000000 53.000000 14.885239 16.000000
-26.073484 2.337943 -7.552241 0.000000 52.000000 14.775610 25.000000
-24.250245 1.344088 -8.707626 0.000000 33.000000 14.430764 0.000000
-24.592508 1.420308 -9.828644 0.000000 58.000000 14.901247 28.000000
-27.693272 4.878859 -10.015975 0.000000 58.000000 14.853042 17.000000
-24.474277 0.342440 -6.909028 0.000000 42.000000 14.804644 21.000000
-27.820457 4.602795 -10.310919 0.000000 41.000000 15.199014 17.000000
-23.759400 0.797239 -10.178523 0.000000 56.000000 14.811163 10.000000
-24.359372 1.472211 -8.309202 0.000000 26.000000 14.324103 0.000000
-23.422787 0.582350 -11.533275 0.000000 36.000000 15.052146 11.000000
-25.340757 1.670342 -9.617773 0.000000 27.000000 15.212681 23.000000
-25.676831 2.664880 -12.250209 0.000000 52.000000 15.447095 14.000000
-24.039149 1.246345 -10.019229 0.000000 29.000000 14.672300 28.000000
-24.801672 1.423020 -7.030211 0.000000 36.000000 14.351444 0.000000
-24.516268 1.482825 -7.941122 0.000000 27.000000 14.336526 0.000000
-24.569759 1.477950 -7.818516 0.000000 28.000000 14.347098 0.000000
-24.626240 1.459406 -7.700626 0.000000 32.000000 14.370002 0.000000
-24.166878 1.202795 -11.749086 0.000000 29.000000 15.221683 11.000000
-24.721211 1.449019 -7.447388 0.000000 32.000000 14.381077 0.000000
-25.118912 1.979193 -11.471169 0.000000 57.000000 15.312346 14.000000
-25.657565 2.647701 -11.099444 0.000000 63.000000 15.158638 14.000000
-25.114905 1.452090 -6.138409 0.000000 32.000000 14.331998 0.000000
-24.835119 1.454721 -7.044575 0.000000 30.000000 14.357703 0.000000
-23.897557 1.048764 -11.512570 0.000000 60.000000 15.074256 11.000000
-24.689064 0.400385 -6.299543 0.000000 72.000000 14.766666 21.000000
-24.289480 1.252540 -10.215453 0.000000 46.000000 14.894085 28.000000
-25.345938 1.274633 -5.699087 0.000000 36.000000 14.503580 0.000000
-25.085837 1.353768 -6.103279 0.000000 30.000000 14.367751 0.000000
-25.124380 1.316746 -5.976691 0.000000 33.000000 14.388028 0.000000
-24.692478 0.368976 -6.290843 0.000000 57.000000 14.787698 21.000000
-25.018990 0.733035 -6.792154 0.000000 51.000000 14.902477 21.000000
-24.714896 1.584729 -9.790396 0.000000 35.000000 14.869526 28.000000
-23.741858 1.346563 -10.051695 0.000000 27.000000 14.403766 0.000000
-23.795473 1.435051 -10.059243 0.000000 28.000000 14.385025 0.000000
-26.176266 3.368102 -11.434397 0.000000 48.000000 15.132233 15.000000
-24.505593 2.511938 -10.973305 0.000000 22.000000 14.402194 0.000000
-26.011235 2.746117 -11.580628 0.000000 63.000000 15.463378 14.000000
-24.658454 2.605333 -10.872874 0.000000 20.000000 14.423557 0.000000
-25.140612 1.467472 -8.600036 0.000000 54.000000 14.952212 26.000000
-25.088134 1.884134 -10.607143 0.000000 52.000000 15.138584 23.000000
-25.424297 2.731314 -9.417403 0.000000 39.000000 14.519982 0.000000
-25.485771 2.787216 -9.343961 0.000000 36.000000 14.508218 0.000000
-25.557058 2.822753 -9.272655 0.000000 40.000000 14.517400 0.000000
-25.613607 2.887977 -9.187121 0.000000 39.000000 14.492977 0.000000
-25.291246 0.878988 -6.457438 0.000000 46.000000 14.915260 21.000000
-24.705484 1.576963 -10.243473 0.000000 48.000000 14.980686 28.000000
-25.801528 3.015417 -8.934446 0.000000 33.000000 14.478753 0.000000
-25.871469 3.036186 -8.852127 0.000000 37.000000 14.494015 0.000000
-25.931616 3.074661 -8.757987 0.000000 32.000000 14.487694 0.000000
-25.990491 3.110519 -8.662598 0.000000 33.000000 14.481894 0.000000
-24.724754 1.569042 -11.027802 0.000000 51.000000 15.194621 13.000000
-26.049484 3.141119 -8.566080 0.000000 34.000000 14.479376 0.000000
-23.861393 0.881406 -9.515591 0.000000 54.000000 14.662754 10.000000
-26.106290 3.178548 -8.462306 0.000000 34.000000 14.468988 0.000000
-26.240273 3.413912 -11.701832 0.000000 48.000000 15.213714 15.000000
-26.031148 2.488739 -11.793597 0.000000 19.000000 15.700716 14.000000
-24.925068 0.874548 -6.697018 0.000000 44.000000 14.718749 21.000000
-25.923914 3.249042 -9.251392 0.000000 28.000000 14.489581 0.000000
-26.105313 3.381409 -8.759070 0.000000 28.000000 14.407884 0.000000
-23.876972 0.814261 -11.093984 0.000000 58.000000 15.110745 11.000000
-26.213918 3.368387 -8.524932 0.000000 26.000000 14.435096 0.000000
-26.707906 3.268073 -7.259802 0.000000 45.000000 14.536273 0.000000
-26.703495 3.402528 -7.077180 0.000000 37.000000 14.398776 0.000000
-26.744959 3.408914 -6.948272 0.000000 28.000000 14.391823 0.000000
-25.141438 1.768201 -9.276420 0.000000 57.000000 14.922045 23.000000
-25.683680 1.636835 -8.232389 0.000000 46.000000 15.132887 27.000000
-26.638482 3.226904 -7.273885 0.000000 29.000000 14.517904 0.000000
-26.653081 3.252350 -7.119711 0.000000 31.000000 14.473052 0.000000
-25.772903 1.944195 -7.042373 0.000000 32.000000 14.696690 25.000000
-24.170063 0.248771 -8.209859 0.000000 70.000000 14.974934 20.000000
-26.737489 3.182846 -6.712562 0.000000 41.000000 14.477489 0.000000
-25.687811 2.103133 -8.678830 0.000000 54.000000 14.938325 27.000000
-25.973348 1.762499 -7.175611 0.000000 60.000000 14.991834 25.000000
-24.888881 1.764493 -10.385417 0.000000 62.000000 15.021647 23.000000
-26.832856 3.041462 -6.175965 0.000000 44.000000 14.505042 0.000000
-25.502300 2.656055 -10.297793 0.000000 55.000000 14.843907 24.000000
-23.808670 0.495767 -8.240319 0.000000 36.000000 14.563445 0.000000
-24.207069 0.640024 -7.213004 0.000000 43.000000 14.494333 0.000000
-25.902646 1.829523 -8.316940 0.000000 71.000000 15.181323 27.000000
-24.246916 1.152336 -10.069546 0.000000 57.000000 14.893985 28.000000
-25.842373 2.615551 -10.297631 0.000000 71.000000 15.111231 29.000000
-24.272767 0.791058 -7.395496 0.000000 38.000000 14.486266 0.000000
-23.879180 0.764711 -8.510889 0.000000 42.000000 14.502675 0.000000
-26.102345 1.987604 -7.836442 0.000000 46.000000 15.098499 27.000000
-27.498878 4.485460 -10.585537 0.000000 42.000000 15.117460 17.000000
-25.227606 1.212443 -7.076463 0.000000 49.000000 14.803571 21.000000
-23.534955 0.798826 -10.894333 0.000000 56.000000 14.829363 11.000000
-24.002721 0.979437 -8.791045 0.000000 41.000000 14.517675 0.000000
-25.004591 1.538994 -9.526820 0.000000 53.000000 15.039162 28.000000
-26.169857 3.522678 -11.445607 0.000000 39.000000 15.028217 15.000000
-25.631919 1.083831 -7.722331 0.000000 51.000000 15.335300 26.000000
-25.695744 1.786512 -8.712967 0.000000 62.000000 15.161911 27.000000
-24.506126 1.413526 -7.947243 0.000000 32.000000 14.376723 0.000000
-26.366309 2.369495 -7.277538 0.000000 55.000000 14.893559 25.000000
-24.548259 1.502261 -8.021363 0.000000 32.000000 14.366253 0.000000
-26.192171 2.599709 -8.294192 0.000000 54.000000 14.870902 22.000000
-24.934127 1.543420 -11.509384 0.000000 56.000000 15.479451 13.000000
-24.102590 1.804023 -11.680460 0.000000 58.000000 14.761354 13.000000
-25.360638 2.628352 -8.872632 0.000000 29.000000 14.407588 0.000000
-25.455981 2.652284 -8.935810 0.000000 29.000000 14.474911 0.000000
-25.539766 2.697106 -8.986301 0.000000 38.000000 14.517082 0.000000
-25.630442 2.732782 -9.037678 0.000000 41.000000 14.570400 0.000000
-25.671902 2.880155 -9.045024 0.000000 36.000000 14.504049 0.000000
-25.740593 2.966140 -9.071265 0.000000 37.000000 14.502278 0.000000
-25.808114 3.058494 -9.093382 0.000000 32.000000 14.494439 0.000000
-25.896899 3.100760 -9.128077 0.000000 37.000000 14.537910 0.000000
-24.624293 2.221903 -11.264486 0.000000 40.000000 14.750471 14.000000
-26.230756 3.620043 -9.147725 0.000000 27.000000 14.435395 0.000000
-25.295700 2.692936 -12.118188 0.000000 48.000000 15.126090 14.000000
-27.197713 4.369347 -10.741911 0.000000 55.000000 15.020131 17.000000
-26.415092 3.706885 -9.170069 0.000000 35.000000 14.513893 0.000000
-25.720515 1.715429 -8.656975 0.000000 51.000000 15.212539 27.000000
-25.024205 1.741482 -9.659239 0.000000 50.000000 14.951999 23.000000
-26.375268 3.469871 -11.030168 0.000000 53.000000 15.105142 15.000000
-26.568388 3.870951 -9.149852 0.000000 40.000000 14.508756 0.000000
-24.944776 1.549889 -10.848285 0.000000 52.000000 15.318289 13.000000
-26.655342 3.927066 -9.142973 0.000000 38.000000 14.531429 0.000000
-26.308125 3.992366 -10.305358 0.000000 25.000000 14.531691 0.000000
-23.387902 0.612565 -11.138259 0.000000 50.000000 14.909237 11.000000
-26.986659 3.324595 -8.484461 0.000000 48.000000 15.000637 9.000000
-25.240482 0.837104 -6.537773 0.000000 51.000000 14.927040 21.000000
-27.888790 4.777175 -10.172426 0.000000 32.000000 15.097536 17.000000
-23.693770 0.435609 -11.562293 0.000000 67.000000 15.348142 11.000000
-25.622539 2.322151 -11.367174 0.000000 70.000000 15.415836 14.000000
-27.090119 4.482985 -8.941633 0.000000 33.000000 14.421106 0.000000
-26.288529 1.939158 -7.000323 0.000000 52.000000 15.054315 25.000000
-24.530716 1.243898 -9.800076 0.000000 61.000000 14.967147 28.000000
-25.701794 2.687872 -12.221457 0.000000 49.000000 15.442392 14.000000
-27.667165 4.608192 -10.215977 0.000000 40.000000 15.063394 17.000000
-27.501026 4.755044 -8.719317 0.000000 34.000000 14.476489 0.000000
-27.589831 4.783232 -8.671195 0.000000 32.000000 14.508691 0.000000
-27.668072 4.832500 -8.611380 0.000000 38.000000 14.516565 0.000000
-27.744522 4.886254 -8.546397 0.000000 36.000000 14.518919 0.000000
-27.401905 4.917237 -9.643623 0.000000 36.000000 14.528935 0.000000
-26.045067 2.708760 -10.699506 0.000000 38.000000 15.292892 29.000000
-27.477151 4.963919 -9.569026 0.000000 28.000000 14.532726 0.000000
-27.895472 4.989570 -8.403965 0.000000 43.000000 14.521922 0.000000
-27.084722 3.393167 -8.601951 0.000000 44.000000 15.053857 9.000000
-24.902116 0.747856 -5.487454 0.000000 41.000000 14.485517 0.000000
-24.934044 0.831096 -5.592308 0.000000 41.000000 14.479107 0.000000
-24.930405 1.611260 -9.566790 0.000000 65.000000 14.948811 23.000000
-27.270236 4.580114 -10.593279 0.000000 40.000000 14.895021 17.000000
-24.336582 1.344021 -9.658260 0.000000 58.000000 14.728305 28.000000
-23.718642 0.859381 -11.613992 0.000000 60.000000 15.098217 11.000000
-25.421668 1.700356 -6.705610 0.000000 41.000000 14.525805 0.000000
-25.461760 1.811696 -6.783383 0.000000 41.000000 14.499843 0.000000
-25.051612 1.166047 -8.637297 0.000000 55.000000 15.097950 26.000000
-25.576366 1.971427 -6.965190 0.000000 33.000000 14.520449 0.000000
-24.096441 1.317224 -11.682864 0.000000 68.000000 15.079678 11.000000
-27.284119 4.651002 -9.966829 0.000000 50.000000 14.702143 17.000000
-25.356249 2.291565 -11.541898 0.000000 55.000000 15.291155 14.000000
-26.162792 2.464189 -6.102466 0.000000 35.000000 14.394701 0.000000
-26.231226 2.538410 -6.188249 0.000000 37.000000 14.415338 0.000000
-26.300364 2.611061 -6.272599 0.000000 33.000000 14.437156 0.000000
-25.081213 1.876814 -12.142373 0.000000 57.000000 15.520342 14.000000
-25.570920 1.801369 -8.673682 0.000000 51.000000 15.054012 27.000000
-26.294891 3.521980 -11.346192 0.000000 40.000000 15.092402 15.000000
-26.044932 2.741045 -7.575911 0.000000 33.000000 14.494599 0.000000
-23.896514 1.156680 -11.706587 0.000000 62.000000 15.050371 11.000000
-26.115705 2.826202 -7.650037 0.000000 30.000000 14.506756 0.000000
-26.574466 2.962403 -6.559831 0.000000 40.000000 14.470033 0.000000
-25.929999 2.726167 -8.769079 0.000000 49.000000 14.719880 22.000000
-26.646087 3.052165 -6.625055 0.000000 41.000000 14.477530 0.000000
-24.899195 2.138664 -11.200791 0.000000 49.000000 14.984168 14.000000
-25.376946 2.253829 -10.437458 0.000000 67.000000 15.056089 24.000000
-26.000736 2.829319 -8.624517 0.000000 38.000000 14.665718 22.000000
-26.844332 3.388929 -6.776489 0.000000 29.000000 14.432618 0.000000
-26.905620 3.525207 -6.812528 0.000000 30.000000 14.394772 0.000000
-26.052928 2.634224 -7.966212 0.000000 55.000000 14.667998 22.000000
-25.584662 2.738676 -12.302523 0.000000 55.000000 15.346082 14.000000
-24.646923 1.561145 -11.434048 0.000000 61.000000 15.245822 13.000000
-24.697373 1.544021 -12.091963 0.000000 51.000000 15.456463 13.000000
-25.913897 2.021346 -6.820737 0.000000 70.000000 14.690262 25.000000
-25.310867 1.104660 -6.614769 0.000000 41.000000 14.818958 21.000000
-24.258542 1.270511 -9.961343 0.000000 61.000000 14.797112 28.000000
-25.016157 1.151112 -7.008284 0.000000 68.000000 14.677616 21.000000
-25.165237 2.200711 -10.865408 0.000000 51.000000 15.047902 24.000000
-28.100375 4.847872 -7.316720 0.000000 38.000000 14.490222 0.000000
-27.723124 4.797881 -8.505552 0.000000 33.000000 14.552094 0.000000
-25.921079 1.829346 -7.154864 0.000000 56.000000 14.905472 25.000000
-26.065039 1.836507 -7.101749 0.000000 50.000000 14.989360 25.000000
-28.296083 5.008876 -7.351625 0.000000 48.000000 14.530821 0.000000
-23.922267 0.839715 -9.229012 0.000000 50.000000 14.662127 10.000000
-25.070028 1.772629 -9.320831 0.000000 56.000000 14.879645 23.000000
-27.723743 4.913787 -10.096165 0.000000 45.000000 14.871431 17.000000
-25.128999 1.944001 -11.624811 0.000000 47.000000 15.380976 14.000000
-27.601629 4.812557 -10.357806 0.000000 59.000000 14.917095 17.000000
-26.424260 4.004628 -10.747213 0.000000 45.000000 14.715620 19.000000
-23.457006 0.851864 -9.925385 0.000000 39.000000 14.498155 0.000000
-23.726906 1.260888 -9.742949 0.000000 27.000000 14.373089 0.000000
-23.803990 1.302359 -9.709197 0.000000 25.000000 14.391786 0.000000
-23.857194 1.383970 -9.657051 0.000000 29.000000 14.362457 0.000000
-25.535597 2.664014 -12.117972 0.000000 53.000000 15.314874 14.000000
-23.938137 1.418182 -9.617783 0.000000 32.000000 14.387315 0.000000
-25.486111 2.007132 -7.595366 0.000000 26.000000 14.589704 27.000000
-25.331934 1.279555 -8.215941 0.000000 60.000000 15.116358 26.000000
-23.730027 1.523111 -10.703424 0.000000 20.000000 14.440674 0.000000
-24.147258 1.399605 -9.558589 0.000000 33.000000 14.532815 0.000000
-23.249455 0.193354 -11.363555 0.000000 61.000000 15.144691 30.000000
-23.899639 1.574642 -10.593968 0.000000 25.000000 14.499340 0.000000
-24.626627 1.697762 -9.113243 0.000000 39.000000 14.563892 0.000000
-24.560548 1.676522 -10.364068 0.000000 44.000000 14.842281 28.000000
-24.730806 1.826430 -8.937741 0.000000 38.000000 14.508811 0.000000
-24.796169 1.864347 -8.853515 0.000000 44.000000 14.509015 0.000000
-25.897622 2.644943 -10.504787 0.000000 50.000000 15.182387 29.000000
-25.682811 2.798421 -11.943054 0.000000 58.000000 15.286583 14.000000
-25.951955 2.292532 -6.448424 0.000000 31.000000 14.445168 0.000000
-24.650101 0.372682 -6.393652 0.000000 69.000000 14.780838 21.000000
-23.901443 0.839289 -9.233285 0.000000 59.000000 14.648741 10.000000
-26.085414 2.240370 -6.078885 0.000000 41.000000 14.482183 0.000000
-23.459667 0.633402 -10.943811 0.000000 38.000000 14.897858 11.000000
-24.858334 1.801037 -10.463395 0.000000 63.000000 14.995254 23.000000
-24.143967 1.678614 -11.334048 0.000000 55.000000 14.787444 13.000000
-25.950134 2.130853 -6.160266 0.000000 40.000000 14.479185 0.000000
-25.244121 1.342825 -8.527549 0.000000 59.000000 15.089875 26.000000
-24.619187 1.611654 -10.766417 0.000000 70.000000 15.026744 13.000000
-23.764071 0.557694 -8.349944 0.000000 36.000000 14.518188 0.000000
-24.695721 1.471876 -9.243025 0.000000 57.000000 14.794497 28.000000
-23.837453 0.724937 -8.489709 0.000000 48.000000 14.494205 0.000000
-25.793811 3.368560 -11.676648 0.000000 58.000000 14.921632 15.000000
-23.494845 0.806744 -9.713457 0.000000 31.000000 14.502068 0.000000
-23.411555 0.645803 -11.047105 0.000000 38.000000 14.881308 11.000000
-26.929164 3.976718 -8.695100 0.000000 54.000000 14.580892 9.000000
-24.035367 1.009660 -8.762006 0.000000 41.000000 14.513550 0.000000
-26.338752 3.612721 -10.795501 0.000000 43.000000 14.926436 15.000000
-27.101030 4.988422 -11.824808 0.000000 47.000000 14.811461 16.000000
-27.023597 4.536105 -10.553183 0.000000 49.000000 14.739696 17.000000
-26.948090 3.388072 -8.586718 0.000000 36.000000 14.956787 9.000000
-24.178651 1.430731 -8.947199 0.000000 31.000000 14.382376 0.000000
-25.393658 2.323340 -10.503097 0.000000 61.000000 15.038245 24.000000
-24.243220 1.495328 -9.002824 0.000000 30.000000 14.399146 0.000000
-24.327779 1.527500 -9.067114 0.000000 28.000000 14.453666 0.000000
-24.711888 2.378187 -10.588539 0.000000 22.000000 14.540927 0.000000
-25.426971 1.227712 -6.643492 0.000000 48.000000 14.826819 21.000000
-25.114004 0.686105 -6.705304 0.000000 75.000000 14.979140 21.000000
-25.475050 2.776350 -9.398963 0.000000 33.000000 14.521502 0.000000
-26.124414 2.090895 -7.807813 0.000000 57.000000 15.038651 27.000000
-25.796340 2.788234 -11.929840 0.000000 35.000000 15.370346 14.000000
-26.551337 4.045519 -11.299635 0.000000 49.000000 14.915847 19.000000
-26.023266 2.464606 -11.599133 0.000000 57.000000 15.662745 14.000000
-25.827424 3.149586 -9.290110 0.000000 32.000000 14.496756 0.000000
-25.909514 3.200955 -9.263506 0.000000 37.000000 14.514223 0.000000
-26.182807 3.503117 -9.085554 0.000000 28.000000 14.463375 0.000000
-27.801090 4.831574 -9.959278 0.000000 47.000000 14.946496 17.000000
-26.316966 3.646245 -8.975273 0.000000 36.000000 14.436155 0.000000
-25.568022 1.696164 -8.824877 0.000000 67.000000 15.159170 27.000000
-25.197729 2.275702 -12.186025 0.000000 49.000000 15.349708 14.000000
-26.083704 3.727213 -10.040504 0.000000 23.000000 14.482499 0.000000
-26.488652 3.684267 -8.882780 0.000000 34.000000 14.509445 0.000000
-26.167490 3.752651 -9.980802 0.000000 29.000000 14.510090 0.000000
-26.560636 3.736145 -8.819528 0.000000 32.000000 14.510312 0.000000
-25.762877 3.627431 -12.289530 0.000000 36.000000 14.880898 15.000000
-26.635245 3.778010 -8.754618 0.000000 28.000000 14.519248 0.000000
-25.514191 1.806276 -9.132188 0.000000 66.000000 15.124665 27.000000
-24.060803 1.617036 -11.649054 0.000000 58.000000 14.847698 13.000000
-25.974922 1.901236 -7.875046 0.000000 30.000000 15.075105 27.000000
-26.523725 3.972908 -9.594826 0.000000 24.000000 14.520370 0.000000
-26.854180 4.123079 -9.134215 0.000000 37.000000 14.540221 0.000000
-26.919483 4.138855 -9.037230 0.000000 39.000000 14.551859 0.000000
-27.301089 4.165483 -7.912490 0.000000 48.000000 14.524464 0.000000
-26.971099 4.187485 -8.925100 0.000000 29.000000 14.528310 0.000000
-27.309559 4.252850 -8.258789 0.000000 41.000000 14.558776 0.000000
-27.309965 3.880670 -8.434156 0.000000 46.000000 14.848919 9.000000
-27.375960 4.361632 -7.980040 0.000000 27.000000 14.464450 0.000000
-25.736165 2.010565 -8.635158 0.000000 52.000000 15.022915 27.000000
-27.475240 4.332832 -7.741548 0.000000 26.000000 14.494421 0.000000
-25.574863 1.840603 -9.048132 0.000000 66.000000 15.123968 27.000000
-27.789106 4.216920 -6.559782 0.000000 33.000000 14.499233 0.000000
-24.875752 0.735202 -5.480626 0.000000 41.000000 14.473541 0.000000
-24.911461 0.806831 -5.585363 0.000000 41.000000 14.477458 0.000000
-25.328118 2.843305 -11.888770 0.000000 55.000000 14.992478 14.000000
-24.949845 0.877938 -5.688512 0.000000 43.000000 14.483218 0.000000
-24.549200 0.847180 -6.790842 0.000000 45.000000 14.494304 0.000000
-24.583627 0.926969 -6.890110 0.000000 39.000000 14.490555 0.000000
-25.460378 2.460941 -11.236635 0.000000 63.000000 15.176833 14.000000
-24.555021 1.555061 -11.519592 0.000000 66.000000 15.206112 13.000000
-27.471804 4.502242 -10.033702 0.000000 49.000000 14.949964 17.000000
-24.675357 1.212517 -7.157640 0.000000 27.000000 14.433054 0.000000
-25.099878 1.357931 -6.113395 0.000000 33.000000 14.377445 0.000000
-23.184564 0.343598 -11.029118 0.000000 56.000000 14.916208 30.000000
-26.072533 2.821767 -11.144795 0.000000 45.000000 15.348297 14.000000
-24.753419 1.395477 -7.336977 0.000000 35.000000 14.411826 0.000000
-25.244795 1.617007 -10.149367 0.000000 70.000000 15.312293 23.000000
-24.810512 1.454938 -7.437783 0.000000 31.000000 14.437942 0.000000
-25.394730 1.642697 -6.613518 0.000000 41.000000 14.521995 0.000000
-25.438125 1.742434 -6.687404 0.000000 46.000000 14.505079 0.000000
-25.477928 1.849810 -6.755237 0.000000 43.000000 14.479063 0.000000
-25.533600 1.930930 -6.832695 0.000000 40.000000 14.484038 0.000000
-23.927379 0.536272 -8.254889 0.000000 29.000000 14.624244 20.000000
-25.237041 1.154502 -7.606843 0.000000 57.000000 14.980486 26.000000
-25.805549 2.769625 -12.049932 0.000000 49.000000 15.419040 14.000000
-24.115233 0.560070 -8.229034 0.000000 40.000000 14.734955 20.000000
-26.276402 2.992846 -7.583894 0.000000 35.000000 14.493727 0.000000
-25.891902 3.003296 -8.743777 0.000000 30.000000 14.503283 0.000000
-26.393563 4.042380 -10.869262 0.000000 50.000000 14.699282 19.000000
-25.920835 2.519302 -8.065467 0.000000 58.000000 14.675276 22.000000
-26.241963 3.518329 -8.941346 0.000000 24.000000 14.459293 0.000000
-25.438002 1.117662 -7.791497 0.000000 53.000000 15.192942 26.000000
-26.779064 3.675763 -7.839494 0.000000 32.000000 14.461041 0.000000
-24.122891 1.658438 -11.334949 0.000000 50.000000 14.786108 13.000000
-25.780557 2.687684 -10.091750 0.000000 55.000000 14.968575 29.000000
-26.494442 3.758723 -9.048012 0.000000 28.000000 14.505372 0.000000
-23.640519 0.501545 -11.610008 0.000000 60.000000 15.278714 11.000000
-26.580520 3.833933 -9.077535 0.000000 34.000000 14.523845 0.000000
-25.744493 3.192746 -11.509936 0.000000 49.000000 14.961606 14.000000
-24.883526 1.526273 -8.534747 0.000000 44.000000 14.715210 26.000000
-27.114006 3.997896 -7.945460 0.000000 32.000000 14.511201 0.000000
-26.743516 4.018986 -9.115387 0.000000 41.000000 14.526126 0.000000
-27.194620 4.096637 -7.957402 0.000000 36.000000 14.505868 0.000000
-25.903790 2.154270 -8.062966 0.000000 48.000000 14.904110 27.000000
-27.283928 4.163998 -7.976112 0.000000 43.000000 14.529129 0.000000
-27.389334 5.092751 -10.400360 0.000000 45.000000 14.592119 17.000000
-25.039818 1.167045 -8.650856 0.000000 57.000000 15.092319 26.000000
-26.984180 4.330171 -9.136106 0.000000 30.000000 14.495636 0.000000
-27.421336 4.445671 -7.950947 0.000000 31.000000 14.433711 0.000000
-24.980461 1.598691 -9.673065 0.000000 42.000000 15.018967 23.000000
-27.480340 4.622451 -7.918964 0.000000 29.000000 14.350535 0.000000
-27.106003 4.659767 -9.091495 0.000000 25.000000 14.352650 0.000000
-23.813161 0.365722 -8.819194 0.000000 50.000000 14.796629 12.000000
-25.743892 3.064066 -11.762517 0.000000 59.000000 15.109135 15.000000
-25.746631 3.100802 -11.927892 0.000000 51.000000 15.127896 15.000000
-24.656964 1.471789 -11.581429 0.000000 68.000000 15.348698 13.000000
-27.782245 4.739921 -7.952879 0.000000 34.000000 14.494814 0.000000
-27.403666 3.752605 -6.401648 0.000000 44.000000 14.494449 0.000000
-27.492256 3.849392 -6.452545 0.000000 46.000000 14.505738 0.000000
-27.674779 4.032945 -6.554053 0.000000 38.000000 14.538657 0.000000
-27.765123 4.136319 -6.595708 0.000000 43.000000 14.544530 0.000000
-27.856575 4.236434 -6.635892 0.000000 30.000000 14.552978 0.000000
-26.354539 1.885405 -6.987783 0.000000 43.000000 15.133455 25.000000
-23.184841 0.597976 -10.087182 0.000000 27.000000 14.513843 0.000000
-23.254119 0.641648 -10.013852 0.000000 28.000000 14.515719 0.000000
-24.084568 1.780995 -11.137150 0.000000 45.000000 14.628720 13.000000
-23.796233 0.732059 -8.648567 0.000000 39.000000 14.499842 0.000000
-23.523332 0.811112 -9.691998 0.000000 28.000000 14.513992 0.000000
-23.856398 0.777987 -8.566704 0.000000 47.000000 14.491657 0.000000
-26.129121 1.811260 -7.187146 0.000000 65.000000 15.072634 25.000000
-25.699146 1.742300 -8.471366 0.000000 69.000000 15.133483 27.000000
-25.507333 2.075573 -9.229422 0.000000 47.000000 14.965823 23.000000
-23.908756 1.023255 -9.126244 0.000000 27.000000 14.505577 0.000000
-24.237851 0.982335 -8.035091 0.000000 40.000000 14.494081 0.000000
-24.903718 1.551829 -9.395165 0.000000 58.000000 14.926571 28.000000
-25.852039 1.932448 -6.854785 0.000000 68.000000 14.713789 25.000000
-24.013917 1.106441 -8.911523 0.000000 27.000000 14.471529 0.000000
-24.068789 1.139971 -8.804044 0.000000 24.000000 14.461430 0.000000
-25.030412 0.954333 -6.934715 0.000000 57.000000 14.799596 21.000000
-24.558535 1.437718 -9.218124 0.000000 45.000000 14.713859 28.000000
-24.230502 1.227265 -8.465939 0.000000 26.000000 14.433983 0.000000
-25.212169 0.820669 -6.507888 0.000000 40.000000 14.910453 21.000000
-24.268728 1.277028 -8.338347 0.000000 24.000000 14.396367 0.000000
-24.621276 1.190394 -7.297099 0.000000 30.000000 14.444118 0.000000
-24.310557 1.319307 -8.211714 0.000000 24.000000 14.366491 0.000000
-25.463372 2.329313 -9.742394 0.000000 62.000000 14.894422 23.000000
-25.233729 1.192022 -7.364378 0.000000 52.000000 14.893018 26.000000
-23.843284 0.587328 -8.921912 0.000000 54.000000 14.696864 12.000000
-24.165949 1.297420 -10.121107 0.000000 66.000000 14.753542 28.000000
-23.844483 0.743291 -11.346290 0.000000 65.000000 15.197466 11.000000
-24.589909 1.344086 -7.627907 0.000000 30.000000 14.402515 0.000000
-25.494359 1.275884 -6.648008 0.000000 56.000000 14.843740 21.000000
-24.678075 1.368034 -7.373621 0.000000 33.000000 14.385798 0.000000
-25.176371 0.754691 -6.596589 0.000000 53.000000 14.950843 21.000000
-24.777778 1.358973 -7.123704 0.000000 34.000000 14.400168 0.000000
-25.095143 1.351252 -6.084284 0.000000 35.000000 14.371275 0.000000
-26.632313 4.048466 -10.849490 0.000000 36.000000 14.859228 19.000000
-25.496110 1.423034 -6.547976 0.000000 56.000000 14.722743 21.000000
-25.407645 1.123444 -6.743870 0.000000 50.000000 14.907098 21.000000
-25.218747 1.362301 -5.692897 0.000000 35.000000 14.354063 0.000000
-25.092972 1.306427 -6.070747 0.000000 31.000000 14.396029 0.000000
-25.124664 1.295636 -5.932940 0.000000 30.000000 14.391315 0.000000
-25.151511 1.289700 -5.792921 0.000000 29.000000 14.379411 0.000000
-25.195733 1.246987 -5.671487 0.000000 29.000000 14.408753 0.000000
-23.030366 0.552907 -10.364833 0.000000 25.000000 14.503439 0.000000
-26.336858 3.454515 -10.777579 0.000000 44.000000 15.025312 15.000000
-23.272363 0.363344 -11.522767 0.000000 55.000000 15.088024 30.000000
-26.991035 3.676057 -8.111629 0.000000 40.000000 14.678474 9.000000
-26.276946 2.249587 -7.146975 0.000000 52.000000 14.877207 25.000000
-25.684459 2.743319 -10.277174 0.000000 63.000000 14.909901 29.000000
-23.274276 0.834076 -10.530417 0.000000 39.000000 14.531132 0.000000
-23.688573 0.871120 -9.364520 0.000000 42.000000 14.509736 0.000000
-24.619163 1.640660 -10.922914 0.000000 70.000000 15.046457 13.000000
-25.394541 2.320133 -11.644092 0.000000 67.000000 15.324757 14.000000
-23.416010 1.127228 -10.595557 0.000000 21.000000 14.453638 0.000000
-23.456508 1.240881 -10.605819 0.000000 21.000000 14.409644 0.000000
-23.506286 1.338319 -10.616200 0.000000 23.000000 14.382971 0.000000
-23.917011 1.361599 -9.424259 0.000000 28.000000 14.361677 0.000000
-26.250284 3.593184 -11.599882 0.000000 41.000000 15.076830 15.000000
-23.990630 1.419428 -9.439177 0.000000 29.000000 14.379204 0.000000
-27.408150 4.825094 -11.500383 0.000000 57.000000 15.056093 16.000000
-24.070771 1.463356 -9.454482 0.000000 30.000000 14.410638 0.000000
-23.320171 0.086573 -10.991273 0.000000 45.000000 15.172777 30.000000
-25.742280 1.280507 -7.633740 0.000000 45.000000 15.261211 26.000000
-24.054877 1.519638 -11.682528 0.000000 53.000000 14.916271 13.000000
-26.249787 2.550149 -6.794541 0.000000 53.000000 14.571486 25.000000
-25.373322 1.114872 -8.042040 0.000000 69.000000 15.211344 26.000000
-24.127549 1.794002 -10.639110 0.000000 31.000000 14.526656 0.000000
-23.875974 0.857248 -9.290055 0.000000 45.000000 14.632961 10.000000
-24.547176 0.867167 -7.685189 0.000000 56.000000 14.702072 8.000000
-25.475843 2.641284 -8.858710 0.000000 28.000000 14.477065 0.000000
-25.562626 2.644729 -8.806604 0.000000 36.000000 14.523217 0.000000
-25.395983 2.807417 -9.723960 0.000000 28.000000 14.525843 0.000000
-23.861469 0.950880 -9.378492 0.000000 25.000000 14.582745 10.000000
-25.525332 2.885230 -9.553933 0.000000 27.000000 14.523574 0.000000
-25.595364 2.905806 -9.469387 0.000000 35.000000 14.538475 0.000000
-24.466753 1.255399 -9.476968 0.000000 77.000000 14.833934 28.000000
-25.660638 2.936738 -9.377269 0.000000 26.000000 14.541274 0.000000
-24.856731 0.508968 -6.345433 0.000000 55.000000 14.824845 21.000000
-24.992592 1.257040 -7.845820 0.000000 55.000000 14.799157 26.000000
-25.831356 3.056414 -9.073880 0.000000 30.000000 14.507406 0.000000
-26.195049 3.033028 -7.968955 0.000000 42.000000 14.505358 0.000000
-25.465754 1.579119 -7.272037 0.000000 48.000000 14.778074 26.000000
-26.252028 3.062188 -7.870350 0.000000 40.000000 14.501849 0.000000
-25.940178 3.125898 -8.858151 0.000000 31.000000 14.484762 0.000000
-25.365794 1.158179 -7.736094 0.000000 51.000000 15.101278 26.000000
-25.582667 2.095400 -11.463088 0.000000 57.000000 15.561508 14.000000
-24.888076 1.468367 -9.462315 0.000000 69.000000 14.987426 28.000000
-26.053095 3.165585 -8.639457 0.000000 27.000000 14.483992 0.000000
-25.524750 2.381964 -11.481384 0.000000 43.000000 15.335492 14.000000
-26.006252 3.176116 -11.455665 0.000000 50.000000 15.144278 15.000000
-27.182584 4.491480 -10.293368 0.000000 56.000000 14.817071 17.000000
-27.904192 4.889094 -9.595673 0.000000 42.000000 14.890945 17.000000
-24.169339 1.739493 -11.134581 0.000000 44.000000 14.715506 13.000000
-26.580419 3.192099 -7.226564 0.000000 36.000000 14.488089 0.000000
-26.628017 3.211864 -7.108912 0.000000 34.000000 14.479422 0.000000
-26.680949 3.214317 -6.997644 0.000000 34.000000 14.487571 0.000000
-24.540937 1.308509 -9.632870 0.000000 71.000000 14.890045 28.000000
-26.781787 3.210495 -6.768816 0.000000 51.000000 14.504522 0.000000
-26.500765 3.211031 -7.577771 0.000000 35.000000 14.506561 0.000000
-25.708226 2.959185 -10.084815 0.000000 55.000000 14.736053 29.000000
-26.652389 3.198199 -7.053867 0.000000 33.000000 14.492014 0.000000
-26.684844 3.193460 -6.921103 0.000000 32.000000 14.485090 0.000000
-23.768917 0.523363 -9.147930 0.000000 41.000000 14.742789 12.000000
-26.750046 3.158455 -6.658632 0.000000 41.000000 14.489097 0.000000
-25.520658 2.594903 -11.182988 0.000000 53.000000 15.117501 14.000000
-25.548420 2.334925 -10.370662 0.000000 61.000000 15.107121 24.000000
-25.750850 1.706852 -8.204402 0.000000 37.000000 15.127117 27.000000
-25.856129 2.426187 -7.756814 0.000000 30.000000 14.614348 27.000000
-25.681161 1.053385 -7.682116 0.000000 50.000000 15.380276 26.000000
-24.075528 0.773757 -7.980808 0.000000 36.000000 14.503754 0.000000
-26.587138 4.273063 -10.834297 0.000000 41.000000 14.674895 19.000000
-24.119509 0.848810 -8.071795 0.000000 41.000000 14.507838 0.000000
-25.725316 2.919940 -11.809624 0.000000 49.000000 15.203067 14.000000
-24.594019 1.025129 -7.122040 0.000000 39.000000 14.490643 0.000000
-23.662141 0.831389 -9.926268 0.000000 52.000000 14.657032 10.000000
-24.637367 1.106888 -7.201043 0.000000 34.000000 14.486861 0.000000
-25.930490 2.795770 -11.004314 0.000000 51.000000 15.230079 14.000000
-24.642835 1.258344 -7.245516 0.000000 31.000000 14.401583 0.000000
-26.023853 1.843718 -7.767890 0.000000 62.000000 15.121124 27.000000
-24.679669 1.352453 -7.315251 0.000000 36.000000 14.382717 0.000000
-25.167996 1.972421 -10.410571 0.000000 51.000000 15.087778 23.000000
-24.739026 1.417708 -7.398869 0.000000 36.000000 14.402328 0.000000
-26.023226 2.743253 -10.514495 0.000000 60.000000 15.208608 29.000000
-25.309836 2.346984 -12.070391 0.000000 64.000000 15.353093 14.000000
-24.400648 1.494935 -8.618381 0.000000 26.000000 14.415159 0.000000
-24.477012 1.535560 -8.708350 0.000000 25.000000 14.464675 0.000000
-24.550283 1.586333 -8.791138 0.000000 36.000000 14.503504 0.000000
-24.613831 1.654606 -8.865791 0.000000 38.000000 14.521852 0.000000
-24.669379 1.739015 -8.931868 0.000000 37.000000 14.521733 0.000000
-24.722904 1.831983 -8.993079 0.000000 30.000000 14.513309 0.000000
-23.435448 0.514207 -11.555898 0.000000 48.000000 15.111814 11.000000
-25.666362 2.581883 -8.269757 0.000000 34.000000 14.504665 0.000000
-25.364655 2.708042 -9.472161 0.000000 30.000000 14.506808 0.000000
-25.440674 2.786929 -9.505462 0.000000 26.000000 14.516672 0.000000
-23.836687 0.520815 -8.754547 0.000000 59.000000 14.694580 12.000000
-25.265225 1.337488 -8.466602 0.000000 57.000000 15.093178 26.000000
-23.816494 0.924151 -9.682157 0.000000 74.000000 14.644136 10.000000
-26.010090 3.016720 -8.400362 0.000000 32.000000 14.492600 0.000000
-25.311626 1.119880 -6.766483 0.000000 64.000000 14.847157 21.000000
-25.556739 1.293443 -7.458813 0.000000 53.000000 15.077897 26.000000
-25.728702 3.134260 -9.595207 0.000000 25.000000 14.512939 0.000000
-24.891613 0.840278 -6.693477 0.000000 64.000000 14.716876 21.000000
-25.798465 3.234854 -9.604768 0.000000 24.000000 14.498111 0.000000
-25.260013 1.252530 -8.204618 0.000000 64.000000 15.080545 26.000000
-25.838731 3.404499 -9.589758 0.000000 20.000000 14.410621 0.000000
-25.902856 3.520104 -9.587572 0.000000 22.000000 14.378953 0.000000
-24.269688 1.682048 -11.877660 0.000000 60.000000 15.009303 13.000000
-26.092020 3.605329 -9.611724 0.000000 24.000000 14.462386 0.000000
-25.017251 1.885504 -10.484354 0.000000 69.000000 15.056998 23.000000
-26.265053 3.725411 -9.610177 0.000000 25.000000 14.504954 0.000000
-24.712222 1.799521 -9.838151 0.000000 63.000000 14.737400 23.000000
-24.684110 1.441317 -10.268070 0.000000 65.000000 15.061431 28.000000
-26.512905 3.941035 -9.564285 0.000000 22.000000 14.526208 0.000000
-26.868122 3.593873 -8.681187 0.000000 34.000000 14.787550 9.000000
-26.947653 4.494279 -9.320942 0.000000 26.000000 14.407188 0.000000
-26.034460 3.279883 -11.586522 0.000000 60.000000 15.128122 15.000000
-27.085186 4.685686 -9.201720 0.000000 24.000000 14.348189 0.000000
-27.529110 4.645521 -8.044479 0.000000 30.000000 14.400986 0.000000
-24.501184 0.300673 -6.854983 0.000000 55.000000 14.837871 21.000000
-25.742660 1.801355 -7.531392 0.000000 57.000000 14.891421 27.000000
-25.459524 1.825344 -9.161342 0.000000 65.000000 15.080629 23.000000
-23.822147 0.198430 -9.288229 0.000000 73.000000 15.030319 12.000000
-26.255699 3.384342 -10.985694 0.000000 52.000000 15.066086 15.000000
-25.305979 2.247880 -11.736618 0.000000 36.000000 15.332924 14.000000
-27.454363 4.725787 -9.007345 0.000000 36.000000 14.534470 0.000000
-25.739403 2.170510 -8.719097 0.000000 47.000000 14.940258 27.000000
