6.210696 15.013643 -52.694088 0.000000 33.000000 14.119569 0.000000
5.641388 11.603307 -56.836525 0.000000 45.000000 14.278398 21.000000
6.210009 12.559575 -57.220193 0.000000 66.000000 14.243793 0.000000
6.670049 12.857171 -58.079036 0.000000 55.000000 14.160302 0.000000
6.579753 12.862855 -57.629748 0.000000 53.000000 14.134277 0.000000
6.011380 14.023028 -53.931363 0.000000 56.000000 14.204006 0.000000
6.124570 12.193579 -57.734297 0.000000 65.000000 14.299191 15.000000
5.333054 10.957723 -58.132579 0.000000 69.000000 14.609747 27.000000
5.488069 11.980124 -55.197517 0.000000 51.000000 14.167737 0.000000
6.805679 13.405517 -57.796564 0.000000 54.000000 14.188161 0.000000
7.921107 15.509462 -57.952750 0.000000 36.000000 14.066410 0.000000
6.444148 13.327595 -56.702508 0.000000 52.000000 14.214211 0.000000
5.581295 11.376750 -56.826194 0.000000 29.000000 14.239851 21.000000
6.624222 14.839026 -56.001873 0.000000 54.000000 14.481624 6.000000
5.790819 13.063082 -54.376750 0.000000 46.000000 14.128428 0.000000
5.095596 12.054645 -54.502212 0.000000 74.000000 14.377492 2.000000
5.664184 12.408281 -55.093259 0.000000 46.000000 14.155272 0.000000
5.341897 12.861857 -53.507072 0.000000 51.000000 14.237452 0.000000
7.545967 14.812810 -58.060136 0.000000 47.000000 14.150234 0.000000
6.465553 14.325620 -54.498315 0.000000 35.000000 14.057304 0.000000
4.853012 12.716121 -52.476952 0.000000 37.000000 14.365107 17.000000
6.369683 12.848896 -56.999688 0.000000 49.000000 14.163125 0.000000
5.244717 10.373598 -56.521494 0.000000 46.000000 14.069243 0.000000
5.892157 13.050345 -54.510956 0.000000 40.000000 14.065904 0.000000
4.340751 10.808604 -55.057033 0.000000 82.000000 14.689260 28.000000
7.342157 15.568139 -56.259949 0.000000 30.000000 14.194749 0.000000
6.553669 14.100083 -55.375514 0.000000 44.000000 14.101746 0.000000
5.946859 12.337188 -57.084739 0.000000 63.000000 14.356781 16.000000
5.154190 10.584361 -57.238063 0.000000 60.000000 14.405422 27.000000
4.699604 11.050890 -54.403858 0.000000 58.000000 14.309090 0.000000
5.964353 14.366690 -52.665166 0.000000 41.000000 14.075912 0.000000
6.807237 15.038436 -55.058340 0.000000 40.000000 14.170455 0.000000
6.179991 12.500976 -57.100864 0.000000 61.000000 14.218529 0.000000
6.320067 13.322177 -56.270639 0.000000 45.000000 14.217967 0.000000
7.195592 15.371181 -56.610115 0.000000 67.000000 14.331482 12.000000
7.120172 15.101595 -55.974042 0.000000 32.000000 14.138670 0.000000
7.307864 15.313802 -56.526304 0.000000 51.000000 14.189086 0.000000
5.836362 12.491748 -55.748151 0.000000 47.000000 14.193423 0.000000
7.040512 15.211461 -55.626884 0.000000 41.000000 14.168924 0.000000
5.620545 11.247450 -58.006949 0.000000 55.000000 14.438774 21.000000
6.043262 12.437991 -56.482162 0.000000 46.000000 14.165747 0.000000
5.626229 10.959053 -58.244431 0.000000 53.000000 14.377267 27.000000
4.571903 10.834718 -55.750301 0.000000 68.000000 14.661751 28.000000
5.487171 11.357402 -57.791864 0.000000 83.000000 14.548540 21.000000
5.869506 11.734430 -56.276052 0.000000 35.000000 13.992674 0.000000
6.670567 15.135899 -54.323203 0.000000 46.000000 14.152819 0.000000
6.074097 12.328105 -56.772039 0.000000 51.000000 14.164968 0.000000
4.262657 10.357676 -55.893324 0.000000 77.000000 14.782341 24.000000
5.540304 11.517105 -55.773723 0.000000 46.000000 14.077765 0.000000
5.626487 11.477125 -56.532973 0.000000 52.000000 14.168655 0.000000
4.019565 10.923375 -53.106104 0.000000 76.000000 14.548903 25.000000
5.841520 11.868717 -56.476121 0.000000 49.000000 14.118690 0.000000
5.159095 11.675215 -54.431778 0.000000 50.000000 14.154571 0.000000
5.969962 12.054011 -56.799775 0.000000 47.000000 14.155909 0.000000
5.074902 11.100997 -56.485836 0.000000 68.000000 14.498083 20.000000
5.123335 12.596956 -53.130734 0.000000 55.000000 14.236051 0.000000
5.285859 10.639347 -57.917289 0.000000 75.000000 14.474131 27.000000
5.288008 12.942373 -52.843867 0.000000 53.000000 14.157070 0.000000
6.384652 12.728649 -57.564585 0.000000 59.000000 14.238646 0.000000
4.534214 10.668060 -55.532116 0.000000 71.000000 14.576839 28.000000
6.571835 13.642524 -56.403645 0.000000 34.000000 14.153111 0.000000
7.404215 14.527480 -57.885683 0.000000 34.000000 14.121346 0.000000
5.645741 10.962445 -58.230104 0.000000 73.000000 14.357848 27.000000
5.578277 13.685005 -52.679657 0.000000 40.000000 14.152936 0.000000
5.481912 11.020307 -56.733163 0.000000 39.000000 14.164982 0.000000
6.117226 14.663793 -54.298642 0.000000 47.000000 14.451398 9.000000
4.697839 11.356760 -54.725131 0.000000 55.000000 14.508745 18.000000
7.171763 14.197926 -57.028026 0.000000 30.000000 13.990705 0.000000
7.115167 14.429293 -57.079853 0.000000 46.000000 14.144630 0.000000
7.435902 14.884923 -57.597541 0.000000 31.000000 14.164726 0.000000
4.636049 11.527210 -54.644015 0.000000 81.000000 14.611197 18.000000
4.480564 10.835805 -55.016306 0.000000 48.000000 14.566186 30.000000
5.045604 10.945705 -55.200871 0.000000 46.000000 14.152977 0.000000
3.858229 10.681391 -53.604746 0.000000 51.000000 14.716780 30.000000
7.315659 15.294060 -57.613683 0.000000 24.000000 14.436590 12.000000
5.469368 11.406407 -56.617866 0.000000 55.000000 14.300564 20.000000
5.008597 11.321767 -56.202216 0.000000 68.000000 14.575552 20.000000
6.331775 13.084053 -56.274112 0.000000 43.000000 14.114516 0.000000
5.797359 11.556205 -58.149130 0.000000 56.000000 14.438026 21.000000
4.922452 10.150464 -56.432236 0.000000 57.000000 14.245497 24.000000
3.706017 10.706837 -53.096066 0.000000 79.000000 14.739130 25.000000
6.263572 12.413616 -57.184213 0.000000 26.000000 14.130060 0.000000
3.963518 10.854926 -54.232875 0.000000 55.000000 14.843311 30.000000
6.060074 12.651854 -56.535705 0.000000 52.000000 14.248088 0.000000
5.898866 12.852888 -55.489720 0.000000 39.000000 14.218098 0.000000
5.574126 12.948784 -53.656282 0.000000 44.000000 14.101780 0.000000
4.383338 11.435924 -53.963362 0.000000 64.000000 14.635163 18.000000
5.296058 12.883719 -52.817327 0.000000 42.000000 14.120401 0.000000
6.367391 13.768816 -55.448776 0.000000 41.000000 14.153958 0.000000
5.147706 11.145539 -56.336179 0.000000 67.000000 14.415002 20.000000
5.822492 13.760216 -53.501833 0.000000 46.000000 14.164289 0.000000
3.878377 10.619427 -53.207080 0.000000 74.000000 14.578588 25.000000
4.180746 10.547101 -54.376317 0.000000 66.000000 14.563878 30.000000
6.068029 15.160017 -52.238367 0.000000 38.000000 14.193913 0.000000
6.187216 11.995539 -58.076333 0.000000 60.000000 14.248017 15.000000
5.827445 12.285481 -57.040234 0.000000 66.000000 14.431551 16.000000
5.185755 11.788204 -54.154025 0.000000 29.000000 14.108512 0.000000
5.543051 11.103403 -56.897690 0.000000 50.000000 14.183208 0.000000
6.316041 15.527163 -53.626809 0.000000 57.000000 14.453572 13.000000
5.786093 13.026877 -54.184359 0.000000 45.000000 14.071950 0.000000
5.742940 12.599227 -55.235324 0.000000 53.000000 14.194991 0.000000
4.656703 11.682810 -54.144306 0.000000 71.000000 14.533747 18.000000
6.277146 13.638085 -55.077911 0.000000 38.000000 14.093001 0.000000
6.439807 13.851484 -55.370750 0.000000 47.000000 14.103529 0.000000
7.042044 14.156990 -56.926664 0.000000 40.000000 14.065149 0.000000
6.087187 13.349459 -56.002919 0.000000 72.000000 14.370678 1.000000
6.869715 14.290526 -56.049176 0.000000 50.000000 14.059033 0.000000
5.215987 10.641489 -57.648372 0.000000 71.000000 14.472090 27.000000
6.281531 13.576210 -55.371763 0.000000 41.000000 14.135570 0.000000
5.686250 12.344701 -55.370383 0.000000 57.000000 14.177455 0.000000
7.417898 14.992231 -56.943649 0.000000 37.000000 14.065335 0.000000
6.224444 11.733712 -57.804609 0.000000 39.000000 14.046231 0.000000
5.404151 12.509806 -54.480678 0.000000 32.000000 14.278182 0.000000
6.163884 14.771446 -53.299101 0.000000 55.000000 14.211456 0.000000
6.003814 11.827300 -57.611582 0.000000 51.000000 14.232238 0.000000
6.124453 14.560809 -53.729414 0.000000 40.000000 14.267118 9.000000
6.684320 14.787954 -55.940441 0.000000 67.000000 14.393377 6.000000
6.972298 15.159838 -55.563770 0.000000 34.000000 14.193837 0.000000
6.074862 11.774983 -57.480370 0.000000 48.000000 14.116965 0.000000
6.018336 11.743483 -57.060235 0.000000 41.000000 14.053360 0.000000
5.928680 13.521912 -55.557700 0.000000 63.000000 14.471885 1.000000
7.027541 14.034542 -57.358291 0.000000 26.000000 14.133801 0.000000
5.356476 12.914717 -53.109422 0.000000 54.000000 14.149482 0.000000
5.525311 11.982030 -55.607748 0.000000 54.000000 14.234384 0.000000
3.888420 10.874991 -53.767331 0.000000 75.000000 14.805559 30.000000
4.124133 11.388832 -52.654339 0.000000 68.000000 14.530797 4.000000
5.797985 11.776634 -58.155672 0.000000 30.000000 14.525976 21.000000
4.759741 10.310425 -55.559350 0.000000 42.000000 14.242382 24.000000
5.209781 11.800366 -54.995142 0.000000 53.000000 14.294823 2.000000
5.477359 11.931457 -55.273967 0.000000 51.000000 14.176477 0.000000
6.078475 11.616333 -57.259071 0.000000 19.000000 13.997834 0.000000
5.855169 10.738615 -58.558198 0.000000 39.000000 14.162981 0.000000
6.400558 12.403085 -57.908949 0.000000 42.000000 14.179190 0.000000
6.129258 12.289571 -56.991081 0.000000 46.000000 14.153676 0.000000
6.150093 14.745237 -53.281970 0.000000 39.000000 14.209219 0.000000
4.225675 10.655722 -54.696016 0.000000 71.000000 14.643962 30.000000
7.025563 13.988972 -57.166141 0.000000 37.000000 14.071251 0.000000
6.022977 13.676582 -54.441187 0.000000 37.000000 14.180034 0.000000
5.355336 10.843640 -56.422198 0.000000 47.000000 14.132571 0.000000
4.664027 11.611596 -52.541047 0.000000 44.000000 14.112572 0.000000
5.970812 13.507963 -55.964347 0.000000 61.000000 14.527080 1.000000
5.948066 12.097019 -56.670789 0.000000 56.000000 14.161183 0.000000
4.750331 11.577461 -53.257179 0.000000 53.000000 14.195262 0.000000
4.671011 11.056799 -53.765271 0.000000 40.000000 14.182791 0.000000
5.286501 10.962929 -58.278787 0.000000 68.000000 14.688336 27.000000
4.783588 11.058322 -54.811736 0.000000 51.000000 14.335899 0.000000
5.610764 13.109613 -53.923183 0.000000 36.000000 14.197073 0.000000
3.782748 10.634657 -53.043425 0.000000 73.000000 14.629931 25.000000
4.829337 11.149364 -54.901238 0.000000 72.000000 14.352816 18.000000
4.637651 10.984515 -56.753717 0.000000 42.000000 14.904478 27.000000
6.011701 13.620128 -55.643621 0.000000 49.000000 14.457716 1.000000
5.833258 10.866926 -58.276805 0.000000 54.000000 14.165159 0.000000
6.854256 13.858503 -57.125481 0.000000 56.000000 14.161903 0.000000
5.416125 11.402618 -57.424261 0.000000 67.000000 14.540731 21.000000
5.423332 11.335805 -57.310058 0.000000 66.000000 14.480455 21.000000
6.088160 13.134550 -55.370041 0.000000 43.000000 14.132457 0.000000
5.043926 10.525301 -56.982747 0.000000 69.000000 14.418344 27.000000
7.524407 15.575880 -56.247396 0.000000 40.000000 14.033163 0.000000
6.615593 13.732012 -56.265730 0.000000 36.000000 14.116343 0.000000
6.723282 13.947045 -56.492558 0.000000 49.000000 14.160344 0.000000
7.115038 14.147011 -56.989015 0.000000 40.000000 14.011520 0.000000
3.960761 10.608284 -53.825475 0.000000 51.000000 14.650254 30.000000
4.943153 10.764116 -57.170994 0.000000 66.000000 14.647275 27.000000
4.943653 12.172648 -52.838340 0.000000 48.000000 14.157552 0.000000
5.730705 14.876485 -52.771305 0.000000 40.000000 14.509734 10.000000
4.859773 10.798728 -56.945840 0.000000 60.000000 14.680571 27.000000
6.633892 15.598413 -53.121519 0.000000 43.000000 14.077970 0.000000
4.996837 11.706289 -54.345713 0.000000 56.000000 14.289955 18.000000
5.413302 11.396892 -57.098532 0.000000 63.000000 14.462433 21.000000
6.820895 13.592328 -57.252117 0.000000 43.000000 14.117055 0.000000
5.510844 11.620462 -55.559175 0.000000 23.000000 14.092914 0.000000
6.424247 13.512873 -55.876119 0.000000 40.000000 14.105654 0.000000
5.771094 10.656057 -58.380324 0.000000 56.000000 14.162087 0.000000
5.565043 12.850975 -54.105663 0.000000 54.000000 14.179623 0.000000
5.762579 12.027485 -57.076607 0.000000 62.000000 14.396099 16.000000
7.169498 14.022169 -57.853223 0.000000 46.000000 14.122385 0.000000
5.284707 10.170393 -57.619023 0.000000 59.000000 14.218296 23.000000
6.024664 13.263109 -54.879867 0.000000 41.000000 14.121264 0.000000
7.016504 13.487577 -58.170121 0.000000 48.000000 14.123648 0.000000
5.979716 10.970321 -58.492018 0.000000 40.000000 14.127955 0.000000
5.400749 11.535592 -54.887301 0.000000 37.000000 13.995062 0.000000
6.660321 13.828981 -56.326164 0.000000 44.000000 14.129493 0.000000
4.264917 11.510305 -53.038335 0.000000 61.000000 14.546453 4.000000
5.515483 11.336771 -57.326090 0.000000 60.000000 14.402986 21.000000
5.983435 12.029228 -57.983113 0.000000 68.000000 14.419529 15.000000
5.702301 11.694814 -55.998135 0.000000 41.000000 14.058307 0.000000
4.442080 10.831706 -55.396484 0.000000 82.000000 14.690369 28.000000
4.576566 11.223484 -53.705784 0.000000 68.000000 14.317930 18.000000
5.223236 10.284884 -56.538112 0.000000 50.000000 14.057314 0.000000
5.088797 11.598049 -55.406336 0.000000 58.000000 14.421474 19.000000
5.775733 10.747808 -58.339064 0.000000 45.000000 14.184207 0.000000
5.464120 10.299155 -58.405093 0.000000 71.000000 14.299525 22.000000
6.309986 11.637565 -57.989295 0.000000 26.000000 13.976993 0.000000
5.931299 12.131501 -56.617336 0.000000 48.000000 14.176760 0.000000
5.443245 12.882186 -53.442751 0.000000 42.000000 14.140087 0.000000
5.637891 13.072093 -53.762865 0.000000 43.000000 14.119564 0.000000
5.577722 12.703513 -54.602479 0.000000 58.000000 14.230026 0.000000
5.377175 11.463812 -56.877536 0.000000 48.000000 14.467570 21.000000
3.955993 10.569302 -53.834394 0.000000 69.000000 14.641260 30.000000
6.266352 13.884379 -54.881991 0.000000 46.000000 14.152458 0.000000
5.114078 11.316619 -54.961370 0.000000 25.000000 14.180777 0.000000
6.679150 13.626098 -56.701651 0.000000 33.000000 14.123330 0.000000
5.784456 14.168782 -52.422725 0.000000 40.000000 14.098930 0.000000
3.619094 10.683762 -52.815253 0.000000 65.000000 14.739398 25.000000
7.217626 15.010347 -56.369045 0.000000 37.000000 14.111516 0.000000
4.716101 10.890674 -55.639264 0.000000 37.000000 14.529175 28.000000
6.005358 12.100430 -57.867765 0.000000 68.000000 14.400353 15.000000
6.347260 15.217984 -53.327750 0.000000 43.000000 14.231848 0.000000
5.135240 10.915173 -56.007569 0.000000 48.000000 14.255972 28.000000
5.382624 12.382399 -54.264550 0.000000 37.000000 14.194912 0.000000
5.625231 12.212681 -55.239067 0.000000 48.000000 14.147837 0.000000
5.052283 11.614921 -53.858087 0.000000 31.000000 14.087174 0.000000
5.986315 12.127971 -57.950672 0.000000 74.000000 14.448092 15.000000
5.916842 13.104271 -54.580576 0.000000 31.000000 14.082068 0.000000
5.215418 11.943402 -54.458331 0.000000 43.000000 14.216789 0.000000
5.115764 11.902702 -54.055892 0.000000 42.000000 14.192067 0.000000
6.646449 15.199183 -54.632649 0.000000 34.000000 14.273779 0.000000
4.952565 10.870510 -56.779335 0.000000 78.000000 14.586445 27.000000
5.747145 13.365529 -55.592109 0.000000 70.000000 14.579490 1.000000
4.268516 11.202363 -53.148245 0.000000 61.000000 14.448325 4.000000
5.836529 14.429478 -52.366684 0.000000 49.000000 14.142048 0.000000
6.498415 15.372594 -53.180990 0.000000 42.000000 14.123393 0.000000
6.893732 14.048970 -56.990754 0.000000 44.000000 14.169522 0.000000
6.368868 15.263047 -53.067351 0.000000 42.000000 14.167667 0.000000
4.706719 11.603579 -54.282900 0.000000 58.000000 14.491569 18.000000
4.552075 10.518155 -55.527414 0.000000 76.000000 14.500751 28.000000
5.852575 11.132174 -58.047002 0.000000 57.000000 14.197218 0.000000
5.108347 11.448152 -55.906699 0.000000 74.000000 14.465679 20.000000
7.026258 14.101254 -56.766539 0.000000 34.000000 14.018556 0.000000
6.013378 13.861626 -53.999428 0.000000 43.000000 14.154997 0.000000
7.460080 15.357354 -57.815004 0.000000 71.000000 14.382029 12.000000
6.705122 14.039713 -56.478997 0.000000 53.000000 14.209722 0.000000
4.826883 10.329389 -57.399288 0.000000 75.000000 14.633991 23.000000
4.558609 10.285465 -56.055361 0.000000 47.000000 14.530499 24.000000
5.709350 12.649365 -54.966546 0.000000 47.000000 14.179738 0.000000
3.984681 10.977063 -53.592162 0.000000 58.000000 14.718213 30.000000
4.620829 11.367029 -53.610747 0.000000 56.000000 14.312370 18.000000
5.830525 11.016846 -57.974613 0.000000 42.000000 14.153835 0.000000
7.284616 15.448384 -56.924524 0.000000 43.000000 14.358798 12.000000
6.543017 12.614678 -58.367178 0.000000 50.000000 14.246801 0.000000
4.424239 10.851053 -54.708155 0.000000 47.000000 14.547841 30.000000
5.770445 13.627248 -53.457926 0.000000 34.000000 14.147418 0.000000
4.687731 12.778938 -52.520422 0.000000 51.000000 14.546925 17.000000
5.056599 10.449935 -57.458498 0.000000 68.000000 14.492104 23.000000
6.419787 13.272870 -56.524644 0.000000 43.000000 14.171343 0.000000
5.077584 11.806461 -54.501512 0.000000 60.000000 14.295424 0.000000
6.056815 14.855826 -53.016318 0.000000 48.000000 14.271488 0.000000
5.902640 11.032220 -58.164452 0.000000 46.000000 14.141726 0.000000
4.560953 11.490241 -54.486870 0.000000 56.000000 14.625317 18.000000
6.112748 15.196896 -52.273258 0.000000 41.000000 14.177216 0.000000
6.605282 15.650113 -52.813923 0.000000 33.000000 14.049557 0.000000
6.017724 12.301119 -56.660838 0.000000 45.000000 14.177502 0.000000
5.014999 11.571558 -56.063401 0.000000 74.000000 14.634908 20.000000
5.496539 11.564095 -56.282606 0.000000 52.000000 14.257813 20.000000
6.852745 13.112379 -57.752615 0.000000 24.000000 14.020228 0.000000
5.810677 12.269926 -55.971253 0.000000 40.000000 14.182520 0.000000
5.323661 10.212252 -57.526327 0.000000 55.000000 14.177909 0.000000
5.779863 13.847815 -53.236103 0.000000 48.000000 14.172560 0.000000
5.900415 11.677937 -58.187883 0.000000 61.000000 14.403991 21.000000
6.344439 12.951094 -56.845992 0.000000 46.000000 14.188752 0.000000
5.496544 11.292535 -57.370838 0.000000 77.000000 14.413126 21.000000
6.235387 13.776206 -54.873650 0.000000 30.000000 14.135246 0.000000
5.934538 14.251699 -53.409521 0.000000 46.000000 14.236491 0.000000
5.797833 12.031084 -57.062356 0.000000 63.000000 14.362820 16.000000
5.183046 10.942470 -56.797607 0.000000 66.000000 14.414847 27.000000
6.438492 12.617986 -57.750767 0.000000 55.000000 14.192157 0.000000
5.841172 13.617086 -53.639461 0.000000 27.000000 14.124467 0.000000
6.040845 12.075829 -58.045482 0.000000 68.000000 14.402037 15.000000
4.010069 10.757258 -53.225176 0.000000 65.000000 14.520526 25.000000
6.865107 14.109465 -56.293773 0.000000 44.000000 14.050697 0.000000
5.551730 11.353164 -56.627839 0.000000 54.000000 14.208937 0.000000
3.901011 10.962727 -53.889592 0.000000 79.000000 14.858474 30.000000
5.880659 11.537729 -56.675872 0.000000 40.000000 14.001623 0.000000
5.287224 11.010742 -57.238814 0.000000 43.000000 14.455779 27.000000
5.289193 10.779195 -58.280458 0.000000 73.000000 14.613896 27.000000
5.953701 13.699846 -53.937667 0.000000 31.000000 14.129225 0.000000
4.226415 10.458764 -54.870575 0.000000 70.000000 14.607726 30.000000
6.926695 14.754148 -56.931255 0.000000 58.000000 14.404035 8.000000
5.454517 10.253374 -57.414078 0.000000 48.000000 14.051021 0.000000
6.761408 14.265007 -56.143409 0.000000 28.000000 14.167735 0.000000
5.087687 10.485517 -56.579462 0.000000 64.000000 14.266604 27.000000
6.016580 11.815669 -57.514261 0.000000 49.000000 14.192864 0.000000
7.063646 13.973764 -57.721428 0.000000 44.000000 14.165380 0.000000
5.466845 11.584410 -58.065933 0.000000 72.000000 14.722173 21.000000
5.406458 10.404279 -57.959519 0.000000 46.000000 14.284672 27.000000
5.688227 13.163341 -53.866136 0.000000 42.000000 14.135815 0.000000
7.328603 15.297665 -56.944651 0.000000 51.000000 14.265209 12.000000
4.328018 11.304785 -53.157906 0.000000 51.000000 14.438282 4.000000
6.172061 13.763222 -54.705188 0.000000 41.000000 14.145659 0.000000
6.020310 11.953487 -57.926334 0.000000 72.000000 14.343269 15.000000
5.517367 12.572537 -54.487225 0.000000 36.000000 14.204104 0.000000
4.936110 10.747106 -56.321824 0.000000 65.000000 14.442051 28.000000
6.600696 14.010107 -55.817279 0.000000 51.000000 14.131085 0.000000
5.260708 10.869297 -57.705633 0.000000 72.000000 14.536078 27.000000
5.699047 11.874853 -55.965421 0.000000 59.000000 14.124303 0.000000
5.012340 12.020118 -54.633585 0.000000 69.000000 14.469383 2.000000
4.720959 10.304540 -55.564611 0.000000 41.000000 14.275721 24.000000
7.445196 15.583954 -56.796962 0.000000 50.000000 14.239106 0.000000
6.045666 12.579740 -56.436267 0.000000 58.000000 14.208448 0.000000
6.998385 13.632600 -58.092402 0.000000 36.000000 14.178165 0.000000
5.874657 12.057748 -56.343836 0.000000 39.000000 14.131953 0.000000
5.308543 10.334616 -56.673609 0.000000 46.000000 14.033952 0.000000
7.005237 14.967994 -55.781476 0.000000 36.000000 14.141470 0.000000
5.755553 10.451768 -58.390884 0.000000 22.000000 14.097852 0.000000
6.817612 14.115984 -56.082497 0.000000 31.000000 14.044439 0.000000
6.229645 12.425460 -57.206756 0.000000 49.000000 14.170252 0.000000
4.918498 11.597969 -54.675006 0.000000 51.000000 14.396110 18.000000
6.103516 12.263011 -57.737998 0.000000 58.000000 14.346134 15.000000
5.559371 13.151404 -53.343266 0.000000 39.000000 14.119290 0.000000
4.936827 12.469120 -52.875419 0.000000 41.000000 14.289461 0.000000
5.369258 11.013244 -58.107269 0.000000 66.000000 14.593434 27.000000
5.420594 12.206115 -54.792965 0.000000 44.000000 14.219141 0.000000
6.642115 12.831132 -58.152999 0.000000 56.000000 14.192640 0.000000
5.239091 12.085646 -54.019024 0.000000 41.000000 14.145961 0.000000
4.593154 10.697830 -55.847401 0.000000 80.000000 14.612339 28.000000
6.693557 15.608645 -53.386351 0.000000 42.000000 14.092957 0.000000
6.565352 15.458552 -53.584102 0.000000 43.000000 14.195137 0.000000
5.744810 13.282980 -55.582149 0.000000 59.000000 14.546605 1.000000
4.335983 11.038446 -53.887224 0.000000 64.000000 14.502049 30.000000
6.530059 14.086133 -55.272581 0.000000 35.000000 14.092360 0.000000
5.440166 11.597457 -56.690513 0.000000 75.000000 14.419319 20.000000
5.397442 12.291954 -54.730875 0.000000 63.000000 14.258551 2.000000
5.678290 12.016207 -55.805796 0.000000 48.000000 14.159962 0.000000
4.805267 11.585208 -54.558579 0.000000 61.000000 14.463412 18.000000
7.201627 14.670563 -57.509950 0.000000 55.000000 14.266817 0.000000
5.023999 10.331165 -58.245036 0.000000 72.000000 14.663834 22.000000
5.495021 14.056825 -53.353853 0.000000 60.000000 14.535963 5.000000
5.238246 10.986010 -58.025897 0.000000 79.000000 14.679249 27.000000
6.631867 15.636871 -53.750157 0.000000 46.000000 14.246517 13.000000
4.772790 10.278708 -57.007136 0.000000 65.000000 14.567412 23.000000
5.255464 11.275795 -55.724805 0.000000 34.000000 14.223391 19.000000
5.568302 13.254811 -53.314034 0.000000 46.000000 14.145100 0.000000
6.171214 12.983261 -56.118725 0.000000 47.000000 14.179678 0.000000
7.418255 15.423205 -57.182233 0.000000 58.000000 14.292505 12.000000
6.772480 13.563898 -57.145231 0.000000 49.000000 14.123002 0.000000
6.996196 13.769207 -57.506806 0.000000 38.000000 14.092772 0.000000
4.717436 10.906631 -55.877039 0.000000 78.000000 14.591619 28.000000
6.021051 14.839462 -54.109181 0.000000 44.000000 14.560273 9.000000
3.852090 10.319667 -53.834211 0.000000 77.000000 14.634907 29.000000
4.714878 10.304825 -54.841038 0.000000 46.000000 14.106749 0.000000
6.308616 14.458324 -53.900526 0.000000 43.000000 14.104655 0.000000
5.010446 11.485657 -56.320293 0.000000 63.000000 14.667014 20.000000
6.966582 14.963496 -55.587795 0.000000 39.000000 14.127271 0.000000
7.676391 15.126211 -57.906161 0.000000 42.000000 14.121042 0.000000
6.660472 14.826079 -56.115246 0.000000 54.000000 14.471711 6.000000
6.428420 14.578818 -55.059523 0.000000 52.000000 14.325407 6.000000
5.630560 12.334885 -55.093728 0.000000 48.000000 14.156257 0.000000
7.462934 15.122100 -57.192466 0.000000 43.000000 14.136611 0.000000
6.960804 14.307914 -56.365442 0.000000 48.000000 14.061378 0.000000
6.234330 11.414014 -58.332348 0.000000 35.000000 14.038644 0.000000
4.522080 11.488606 -52.969813 0.000000 32.000000 14.293332 4.000000
4.097387 10.276905 -54.883400 0.000000 42.000000 14.653518 30.000000
5.941944 13.636635 -54.076577 0.000000 47.000000 14.148219 0.000000
7.372862 14.510715 -57.621515 0.000000 51.000000 14.078838 0.000000
6.019324 13.875757 -54.075033 0.000000 42.000000 14.173528 0.000000
3.870582 10.632031 -53.576236 0.000000 83.000000 14.679486 30.000000
7.006288 14.585588 -56.425648 0.000000 41.000000 14.145065 0.000000
5.693530 14.056566 -52.699831 0.000000 44.000000 14.202126 0.000000
7.129907 13.929847 -57.950810 0.000000 36.000000 14.144616 0.000000
4.907637 11.894186 -53.287926 0.000000 46.000000 14.188086 0.000000
5.639346 13.590792 -52.956771 0.000000 29.000000 14.128450 0.000000
7.602672 15.260725 -57.811540 0.000000 37.000000 14.216644 0.000000
5.303324 12.368534 -53.943105 0.000000 48.000000 14.182254 0.000000
6.081800 12.812315 -56.349575 0.000000 52.000000 14.247218 0.000000
7.172465 14.061757 -57.928643 0.000000 43.000000 14.153551 0.000000
5.409064 10.645101 -58.210630 0.000000 71.000000 14.437881 27.000000
5.927847 13.582299 -53.992764 0.000000 33.000000 14.119082 0.000000
5.661735 12.104069 -55.676027 0.000000 38.000000 14.178000 0.000000
4.226096 11.100928 -53.633838 0.000000 77.000000 14.563033 30.000000
5.096884 11.930340 -53.863195 0.000000 52.000000 14.173243 0.000000
4.978894 11.530729 -55.405334 0.000000 68.000000 14.492142 19.000000
5.009012 11.565047 -54.111340 0.000000 43.000000 14.166945 0.000000
5.216036 10.707477 -57.949866 0.000000 76.000000 14.570770 27.000000
5.793042 11.877572 -56.336065 0.000000 44.000000 14.131398 0.000000
5.857092 12.397117 -55.814858 0.000000 45.000000 14.153807 0.000000
6.521972 12.994871 -56.875430 0.000000 28.000000 14.055685 0.000000
6.581175 15.041391 -54.210184 0.000000 30.000000 14.167566 0.000000
6.483676 12.391566 -58.147584 0.000000 29.000000 14.158485 0.000000
6.305567 12.897879 -56.905085 0.000000 41.000000 14.216486 0.000000
5.597172 12.933215 -53.929800 0.000000 41.000000 14.141158 0.000000
5.621550 13.026767 -53.768300 0.000000 40.000000 14.117490 0.000000
7.145735 14.901899 -57.447554 0.000000 27.000000 14.392563 8.000000
4.133069 11.003978 -54.261762 0.000000 75.000000 14.758705 30.000000
7.036725 13.971107 -57.658018 0.000000 41.000000 14.172915 0.000000
4.058442 11.333612 -52.565034 0.000000 80.000000 14.545738 4.000000
6.212450 12.805242 -56.666944 0.000000 63.000000 14.205102 0.000000
6.094059 11.906888 -57.182478 0.000000 38.000000 14.080128 0.000000
5.419628 12.599841 -54.403679 0.000000 62.000000 14.281397 0.000000
6.873079 15.350073 -54.791426 0.000000 36.000000 14.170604 0.000000
7.018868 14.535429 -56.265086 0.000000 38.000000 14.075413 0.000000
6.044286 14.226479 -53.219327 0.000000 46.000000 14.083364 0.000000
7.443831 15.220472 -56.995260 0.000000 49.000000 14.144792 0.000000
5.122103 11.090097 -56.414770 0.000000 72.000000 14.434793 20.000000
5.882036 14.281234 -52.548187 0.000000 36.000000 14.086999 0.000000
6.042133 12.772715 -56.056430 0.000000 57.000000 14.196090 0.000000
6.259693 14.949538 -53.061127 0.000000 40.000000 14.139345 0.000000
4.988251 11.885828 -53.407952 0.000000 51.000000 14.142247 0.000000
4.882916 10.896484 -56.864700 0.000000 68.000000 14.679034 27.000000
6.522001 12.560658 -58.045835 0.000000 50.000000 14.166647 0.000000
4.851611 11.939902 -53.044046 0.000000 23.000000 14.196988 0.000000
6.087785 12.129626 -57.709519 0.000000 52.000000 14.300616 15.000000
5.819700 12.521224 -55.721099 0.000000 50.000000 14.213299 0.000000
5.708530 12.457108 -55.317298 0.000000 55.000000 14.189226 0.000000
4.893876 10.350684 -56.074239 0.000000 52.000000 14.263470 24.000000
6.643240 12.808411 -57.964819 0.000000 51.000000 14.137305 0.000000
6.428452 13.177634 -56.655528 0.000000 54.000000 14.157662 0.000000
4.546711 10.625397 -55.551639 0.000000 54.000000 14.553640 28.000000
6.256771 12.700130 -57.122783 0.000000 64.000000 14.234266 0.000000
6.195408 11.587429 -58.025291 0.000000 30.000000 14.067505 0.000000
5.366971 10.340269 -57.103466 0.000000 55.000000 14.088022 0.000000
5.373646 13.145014 -52.812875 0.000000 49.000000 14.153569 0.000000
4.777212 11.249949 -54.871787 0.000000 67.000000 14.431603 18.000000
5.544383 13.110064 -53.751921 0.000000 47.000000 14.214819 0.000000
7.403015 14.870476 -58.038082 0.000000 65.000000 14.294421 7.000000
4.531528 11.128352 -53.213660 0.000000 50.000000 14.201685 0.000000
5.537358 11.046504 -56.755613 0.000000 51.000000 14.131558 0.000000
5.891749 14.455564 -52.461098 0.000000 20.000000 14.126135 0.000000
5.075422 10.863108 -56.447198 0.000000 64.000000 14.394492 27.000000
4.997367 11.965764 -53.471160 0.000000 40.000000 14.180928 0.000000
7.523087 15.536164 -57.664971 0.000000 43.000000 14.360495 12.000000
6.000786 11.694119 -57.896934 0.000000 40.000000 14.251210 21.000000
5.401089 12.381415 -54.245674 0.000000 43.000000 14.173598 0.000000
5.251170 11.340017 -56.248968 0.000000 71.000000 14.378918 20.000000
5.838636 11.070181 -57.845058 0.000000 42.000000 14.136436 0.000000
4.860083 11.256611 -55.232327 0.000000 57.000000 14.447681 19.000000
6.466233 12.257852 -58.219919 0.000000 48.000000 14.138664 0.000000
6.049520 11.946253 -57.602450 0.000000 54.000000 14.236415 15.000000
5.394724 11.422214 -56.915170 0.000000 67.000000 14.444679 21.000000
5.903927 12.618340 -55.882577 0.000000 60.000000 14.215846 0.000000
4.874396 12.164464 -52.715102 0.000000 23.000000 14.186021 0.000000
4.840721 10.621734 -56.132412 0.000000 72.000000 14.431523 28.000000
4.657990 10.574667 -55.857372 0.000000 77.000000 14.508679 28.000000
4.545743 11.283174 -54.193838 0.000000 74.000000 14.486487 18.000000
6.012322 11.482756 -57.149118 0.000000 31.000000 13.977306 0.000000
5.133938 11.867062 -54.767606 0.000000 52.000000 14.333514 2.000000
5.539521 11.454208 -57.543324 0.000000 67.000000 14.480364 21.000000
6.712039 13.569464 -57.035499 0.000000 44.000000 14.152334 0.000000
6.314050 12.271224 -57.598157 0.000000 32.000000 14.128960 0.000000
6.031864 12.123441 -57.682781 0.000000 56.000000 14.341318 15.000000
4.554212 10.997217 -54.372062 0.000000 55.000000 14.409184 30.000000
4.670417 11.013960 -53.707739 0.000000 50.000000 14.152551 0.000000
5.710184 12.496056 -55.053840 0.000000 37.000000 14.139590 0.000000
5.930177 13.366474 -55.533055 0.000000 53.000000 14.403318 1.000000
4.750386 11.650388 -54.498344 0.000000 71.000000 14.523257 18.000000
6.917236 13.251309 -58.192221 0.000000 28.000000 14.123831 0.000000
5.015823 10.885638 -55.680616 0.000000 52.000000 14.271379 28.000000
3.927020 10.476841 -53.378595 0.000000 66.000000 14.520581 30.000000
6.777911 12.973083 -58.086423 0.000000 50.000000 14.112147 0.000000
6.174649 13.618145 -54.804473 0.000000 43.000000 14.110093 0.000000
7.219921 14.629373 -58.058505 0.000000 71.000000 14.366625 7.000000
5.274762 11.048101 -57.131512 0.000000 63.000000 14.455689 27.000000
5.083138 11.861717 -54.800601 0.000000 50.000000 14.384409 2.000000
4.873447 10.335373 -55.575755 0.000000 33.000000 14.155347 0.000000
3.924151 10.776063 -53.114379 0.000000 68.000000 14.577414 25.000000
6.645904 14.620215 -55.621952 0.000000 52.000000 14.284496 6.000000
6.066068 11.666223 -57.258637 0.000000 31.000000 14.028406 0.000000
5.136573 12.711163 -53.081866 0.000000 50.000000 14.257566 0.000000
5.795312 12.204348 -56.045427 0.000000 53.000000 14.188169 0.000000
5.115946 10.335541 -57.495954 0.000000 59.000000 14.403398 23.000000
5.470531 11.382948 -57.623719 0.000000 61.000000 14.532826 21.000000
5.879800 11.752261 -56.692365 0.000000 45.000000 14.090964 0.000000
5.648430 13.178149 -54.053022 0.000000 47.000000 14.222009 0.000000
4.069020 10.596157 -54.358350 0.000000 66.000000 14.677965 30.000000
5.091784 11.007049 -55.295853 0.000000 41.000000 14.159120 0.000000
4.800837 11.049083 -54.345989 0.000000 41.000000 14.204654 0.000000
7.650177 15.005287 -57.996117 0.000000 31.000000 14.118293 0.000000
6.639183 15.047578 -54.392676 0.000000 39.000000 14.162571 0.000000
5.284529 11.957294 -54.959785 0.000000 36.000000 14.281900 2.000000
6.828537 13.044920 -57.682339 0.000000 29.000000 13.998145 0.000000
4.677525 11.044097 -53.717602 0.000000 47.000000 14.160511 0.000000
5.250458 11.451401 -56.144405 0.000000 56.000000 14.398261 20.000000
5.682398 13.954986 -52.930116 0.000000 56.000000 14.227468 0.000000
6.367195 12.660976 -57.395240 0.000000 59.000000 14.186604 0.000000
6.964524 14.346601 -56.458957 0.000000 47.000000 14.095886 0.000000
7.102903 13.956606 -57.825681 0.000000 51.000000 14.148941 0.000000
5.985187 11.715736 -56.776015 0.000000 37.000000 14.003278 0.000000
5.617923 13.671791 -52.890493 0.000000 30.000000 14.163408 0.000000
4.195487 10.227000 -53.694181 0.000000 30.000000 14.260088 29.000000
4.909890 11.499993 -56.204238 0.000000 74.000000 14.733853 20.000000
5.619673 11.472398 -57.509682 0.000000 69.000000 14.408349 21.000000
4.231779 11.385948 -52.609317 0.000000 42.000000 14.423347 4.000000
5.473717 11.578721 -55.278559 0.000000 28.000000 14.041710 0.000000
6.953140 14.901940 -57.151517 0.000000 65.000000 14.491980 8.000000
4.927165 10.961635 -56.890579 0.000000 67.000000 14.671729 27.000000
6.403251 11.569207 -58.422317 0.000000 33.000000 13.971748 0.000000
6.061773 12.113321 -57.242700 0.000000 53.000000 14.204687 0.000000
5.795386 12.071876 -57.273984 0.000000 71.000000 14.432107 16.000000
6.556248 13.251670 -57.128010 0.000000 47.000000 14.187465 0.000000
5.435289 11.035470 -57.113438 0.000000 46.000000 14.304001 27.000000
5.228722 11.877675 -54.308622 0.000000 45.000000 14.142973 0.000000
5.485145 11.466592 -57.521698 0.000000 68.000000 14.528251 21.000000
5.705908 12.379473 -55.273414 0.000000 46.000000 14.150353 0.000000
4.810816 12.246330 -52.352344 0.000000 44.000000 14.187213 0.000000
4.461061 11.555600 -54.009250 0.000000 73.000000 14.624501 18.000000
5.692046 14.009828 -52.949105 0.000000 61.000000 14.245119 0.000000
5.828089 11.706058 -56.234160 0.000000 34.000000 14.008111 0.000000
5.340844 12.732554 -53.234590 0.000000 39.000000 14.121689 0.000000
7.541823 14.872900 -57.914638 0.000000 44.000000 14.142521 0.000000
5.689417 10.900936 -57.575750 0.000000 40.000000 14.137075 0.000000
6.370011 12.090296 -58.180318 0.000000 45.000000 14.148365 0.000000
6.622611 12.748285 -58.044797 0.000000 51.000000 14.151172 0.000000
4.986856 10.393602 -57.482993 0.000000 79.000000 14.537640 23.000000
5.324185 12.899553 -53.044096 0.000000 46.000000 14.156384 0.000000
4.933357 12.249203 -52.808976 0.000000 38.000000 14.189791 0.000000
5.461055 13.974361 -52.228299 0.000000 34.000000 14.262155 0.000000
6.096634 12.641517 -56.635252 0.000000 62.000000 14.235595 0.000000
7.014884 15.737744 -55.038280 0.000000 57.000000 14.257261 0.000000
5.526651 14.806527 -52.166443 0.000000 20.000000 14.517241 10.000000
6.515607 14.052641 -55.194512 0.000000 52.000000 14.073143 0.000000
5.608373 11.654472 -58.147396 0.000000 67.000000 14.643945 21.000000
7.054237 14.062127 -57.091594 0.000000 27.000000 14.056697 0.000000
5.750989 14.451750 -52.324717 0.000000 51.000000 14.216564 0.000000
4.667572 12.758757 -52.435209 0.000000 55.000000 14.536295 17.000000
7.349103 15.369293 -56.614711 0.000000 49.000000 14.195718 0.000000
5.919543 14.723036 -52.907029 0.000000 63.000000 14.314495 10.000000
6.132628 11.442984 -58.314391 0.000000 48.000000 14.135924 0.000000
4.171275 10.952187 -54.264814 0.000000 62.000000 14.705137 30.000000
6.650181 13.433904 -57.189035 0.000000 57.000000 14.190750 0.000000
6.793164 13.141559 -57.826241 0.000000 49.000000 14.102322 0.000000
6.549329 13.095736 -57.263209 0.000000 48.000000 14.164709 0.000000
5.470153 11.004656 -56.582335 0.000000 45.000000 14.132868 0.000000
4.959629 11.468183 -55.622106 0.000000 77.000000 14.536830 19.000000
4.511291 11.345068 -54.566471 0.000000 75.000000 14.631300 18.000000
3.877554 10.836703 -53.580536 0.000000 72.000000 14.755054 30.000000
5.742195 12.810233 -54.989518 0.000000 43.000000 14.219591 0.000000
6.558593 14.701862 -55.590373 0.000000 49.000000 14.386504 6.000000
5.010311 12.753120 -52.742687 0.000000 46.000000 14.304289 17.000000
4.267469 10.561826 -54.917765 0.000000 57.000000 14.623343 30.000000
6.051684 11.601244 -57.607958 0.000000 31.000000 14.099769 0.000000
4.351407 10.218812 -55.126899 0.000000 26.000000 14.464070 24.000000
4.287188 10.358393 -54.888932 0.000000 63.000000 14.518680 30.000000
4.715410 10.744706 -56.164396 0.000000 72.000000 14.598850 28.000000
6.528466 13.112552 -57.302493 0.000000 50.000000 14.199314 0.000000
5.370316 12.454883 -54.020501 0.000000 37.000000 14.175563 0.000000
5.858373 13.904612 -53.824154 0.000000 61.000000 14.267137 5.000000
4.949636 12.379164 -52.892936 0.000000 28.000000 14.246851 0.000000
3.902450 10.761786 -54.084165 0.000000 71.000000 14.824874 30.000000
6.506203 14.511482 -54.473235 0.000000 37.000000 14.088505 0.000000
6.937580 14.261059 -56.115032 0.000000 22.000000 14.003112 0.000000
5.772541 10.956984 -57.828472 0.000000 43.000000 14.146407 0.000000
6.281228 14.078973 -54.469034 0.000000 52.000000 14.116428 0.000000
6.072526 14.905668 -52.427804 0.000000 38.000000 14.135302 0.000000
4.408641 11.524314 -52.677892 0.000000 49.000000 14.337615 4.000000
6.075703 14.885056 -54.135995 0.000000 61.000000 14.536256 9.000000
6.595123 13.010885 -57.186841 0.000000 42.000000 14.072225 0.000000
5.781508 14.822094 -52.629236 0.000000 56.000000 14.408978 10.000000
5.156100 10.875714 -58.188779 0.000000 77.000000 14.747873 27.000000
7.262055 15.547209 -57.065385 0.000000 76.000000 14.451742 12.000000
6.176046 12.299621 -57.500856 0.000000 49.000000 14.239073 0.000000
6.841865 15.572008 -54.047739 0.000000 36.000000 14.106477 0.000000
5.762112 14.675624 -52.454306 0.000000 71.000000 14.326235 10.000000
4.261786 10.991570 -54.375825 0.000000 67.000000 14.667175 30.000000
5.836623 12.661958 -55.600771 0.000000 44.000000 14.224776 0.000000
6.360035 12.472317 -57.625754 0.000000 51.000000 14.174140 0.000000
7.153854 14.043186 -57.749437 0.000000 39.000000 14.119518 0.000000
6.647090 13.461161 -57.015412 0.000000 31.000000 14.162374 0.000000
6.603704 13.388948 -56.970675 0.000000 44.000000 14.161582 0.000000
6.846682 13.578736 -57.358886 0.000000 44.000000 14.114572 0.000000
6.450170 12.229434 -58.248070 0.000000 46.000000 14.148490 0.000000
4.766327 10.324344 -57.092108 0.000000 71.000000 14.611629 23.000000
5.603457 13.638130 -52.877413 0.000000 33.000000 14.159807 0.000000
6.999618 14.937568 -56.098380 0.000000 41.000000 14.210870 0.000000
3.700109 10.690223 -52.911674 0.000000 66.000000 14.693355 25.000000
6.245150 14.460680 -53.825523 0.000000 41.000000 14.143777 0.000000
4.978998 11.523584 -56.102728 0.000000 42.000000 14.657396 20.000000
7.423455 15.501633 -57.230170 0.000000 43.000000 14.330382 12.000000
6.963459 15.590620 -54.877192 0.000000 46.000000 14.206000 0.000000
5.398174 11.526233 -57.204035 0.000000 45.000000 14.552294 21.000000
6.051725 12.058969 -57.622834 0.000000 61.000000 14.283826 15.000000
6.662095 12.805243 -58.109512 0.000000 44.000000 14.154226 0.000000
5.518348 12.090730 -55.047178 0.000000 50.000000 14.148253 0.000000
5.959424 11.674305 -56.710843 0.000000 37.000000 13.994070 0.000000
7.361419 15.243688 -56.863866 0.000000 48.000000 14.195343 0.000000
4.173640 10.907511 -54.647954 0.000000 72.000000 14.777809 30.000000
4.894530 11.286848 -55.181341 0.000000 65.000000 14.416765 19.000000
6.970015 14.959323 -55.639661 0.000000 31.000000 14.135088 0.000000
5.793333 11.865119 -56.292042 0.000000 42.000000 14.115614 0.000000
6.643688 14.787675 -55.935733 0.000000 63.000000 14.428163 6.000000
4.055024 10.972430 -53.860931 0.000000 59.000000 14.718818 30.000000
4.546383 11.060813 -56.028233 0.000000 58.000000 14.840562 28.000000
5.923530 13.503173 -55.500062 0.000000 60.000000 14.455164 1.000000
5.251832 10.945065 -58.034426 0.000000 50.000000 14.653112 27.000000
4.895560 11.088851 -54.792938 0.000000 43.000000 14.244114 18.000000
4.777265 12.391937 -52.351201 0.000000 47.000000 14.274110 0.000000
6.594451 14.598508 -55.025289 0.000000 50.000000 14.177688 0.000000
5.113585 11.852715 -54.919595 0.000000 50.000000 14.382553 2.000000
6.573450 14.466178 -54.743846 0.000000 37.000000 14.076261 0.000000
5.233352 11.074118 -55.595741 0.000000 42.000000 14.132345 0.000000
4.906057 10.920212 -54.890100 0.000000 46.000000 14.191731 0.000000
4.810268 11.490281 -55.062076 0.000000 77.000000 14.542951 18.000000
5.969469 12.307371 -56.503532 0.000000 45.000000 14.184825 0.000000
5.748596 14.042683 -53.570999 0.000000 63.000000 14.357888 5.000000
5.187062 10.404702 -56.684221 0.000000 47.000000 14.171874 0.000000
5.484429 11.503844 -57.449916 0.000000 68.000000 14.526267 21.000000
5.583340 13.505936 -53.044443 0.000000 36.000000 14.165791 0.000000
5.245406 11.050099 -57.039032 0.000000 59.000000 14.460209 27.000000
6.410219 15.340861 -53.775284 0.000000 39.000000 14.332391 13.000000
4.864614 12.158037 -52.523121 0.000000 37.000000 14.145868 0.000000
5.406213 13.020403 -53.072972 0.000000 61.000000 14.138267 0.000000
6.401236 11.838118 -58.291729 0.000000 31.000000 14.048093 0.000000
7.558654 14.835143 -58.066269 0.000000 42.000000 14.149270 0.000000
4.675610 10.917390 -56.050573 0.000000 77.000000 14.674796 28.000000
5.204817 12.203212 -54.627779 0.000000 45.000000 14.369507 2.000000
7.433117 15.122552 -57.065682 0.000000 44.000000 14.132658 0.000000
3.963570 10.865332 -54.579242 0.000000 57.000000 14.930889 30.000000
6.478634 12.800292 -57.683186 0.000000 52.000000 14.212159 0.000000
6.990589 15.132206 -55.533536 0.000000 31.000000 14.159431 0.000000
7.268520 14.316634 -57.532945 0.000000 34.000000 14.073470 0.000000
5.029743 10.744287 -57.498991 0.000000 76.000000 14.641762 27.000000
6.153341 11.981445 -58.148756 0.000000 56.000000 14.289962 15.000000
7.471432 15.024900 -57.358420 0.000000 44.000000 14.130761 0.000000
3.923713 10.840236 -53.900995 0.000000 76.000000 14.792788 30.000000
6.702233 15.685931 -53.783995 0.000000 42.000000 14.211626 0.000000
3.621613 10.885263 -52.844932 0.000000 80.000000 14.823783 25.000000
6.331213 14.916584 -53.597510 0.000000 41.000000 14.192267 0.000000
5.522424 11.299348 -56.755184 0.000000 38.000000 14.244409 21.000000
5.590569 12.362706 -54.880344 0.000000 45.000000 14.151237 0.000000
3.795425 10.646433 -53.527939 0.000000 72.000000 14.740166 30.000000
7.107307 14.722689 -57.183959 0.000000 55.000000 14.292405 8.000000
5.786978 10.651778 -58.410264 0.000000 56.000000 14.153534 0.000000
5.646339 13.310567 -53.537526 0.000000 41.000000 14.151779 0.000000
5.588021 11.019413 -56.958426 0.000000 26.000000 14.124854 0.000000
5.909238 11.696619 -57.985356 0.000000 59.000000 14.354699 21.000000
5.199755 12.708711 -53.191445 0.000000 42.000000 14.226995 0.000000
5.220993 10.772010 -57.497693 0.000000 64.000000 14.482790 27.000000
5.598550 12.931660 -54.044947 0.000000 40.000000 14.167089 0.000000
6.071686 12.262669 -56.929867 0.000000 40.000000 14.179359 0.000000
6.678360 14.032180 -55.982609 0.000000 41.000000 14.110787 0.000000
5.836689 12.112767 -57.093697 0.000000 60.000000 14.368134 16.000000
6.827971 15.439619 -55.474728 0.000000 40.000000 14.410683 14.000000
4.661186 11.464264 -53.785806 0.000000 72.000000 14.357141 18.000000
6.645785 12.844865 -57.271587 0.000000 22.000000 13.982264 0.000000
5.152664 10.232860 -56.430281 0.000000 37.000000 14.073376 0.000000
5.821301 12.114815 -56.128024 0.000000 52.000000 14.149732 0.000000
4.673872 10.666295 -55.920415 0.000000 74.000000 14.545931 28.000000
5.943312 13.268288 -55.867598 0.000000 78.000000 14.433619 1.000000
6.196179 14.329764 -53.619357 0.000000 31.000000 14.085862 0.000000
5.189426 11.827817 -54.093551 0.000000 39.000000 14.106297 0.000000
4.568519 11.037761 -53.356310 0.000000 47.000000 14.167555 0.000000
3.916110 10.490987 -53.500818 0.000000 56.000000 14.565306 30.000000
6.463858 14.196858 -54.503258 0.000000 27.000000 14.009221 0.000000
6.220203 13.185790 -55.666509 0.000000 41.000000 14.107061 0.000000
5.835773 11.984583 -56.453509 0.000000 52.000000 14.164027 0.000000
3.808436 10.923649 -53.087131 0.000000 74.000000 14.731656 25.000000
6.168012 11.968174 -58.170288 0.000000 59.000000 14.276911 15.000000
6.102691 13.592792 -54.763808 0.000000 40.000000 14.154099 0.000000
4.748824 11.332225 -54.847906 0.000000 76.000000 14.483464 18.000000
6.333080 12.353070 -57.928563 0.000000 49.000000 14.224034 0.000000
6.595103 13.414185 -56.899605 0.000000 46.000000 14.162024 0.000000
5.798170 12.159054 -57.197321 0.000000 72.000000 14.445532 16.000000
4.165301 11.086442 -53.862152 0.000000 70.000000 14.666284 30.000000
5.806600 13.351280 -53.964863 0.000000 32.000000 14.128767 0.000000
6.393428 13.348245 -56.267353 0.000000 32.000000 14.162401 0.000000
5.989511 13.534109 -54.249215 0.000000 32.000000 14.107236 0.000000
7.227794 14.028384 -57.960688 0.000000 41.000000 14.099054 0.000000
7.016876 13.643451 -57.881190 0.000000 36.000000 14.115117 0.000000
5.992954 12.663847 -56.312661 0.000000 62.000000 14.258553 0.000000
7.785007 15.616701 -56.889962 0.000000 22.000000 13.973115 0.000000
5.383565 12.055987 -54.985334 0.000000 53.000000 14.239160 2.000000
5.069555 10.365275 -55.773406 0.000000 43.000000 14.040899 0.000000
5.898455 12.075021 -57.196669 0.000000 63.000000 14.323307 16.000000
7.272458 15.161522 -56.254024 0.000000 30.000000 14.094775 0.000000
4.721633 11.158697 -54.672668 0.000000 63.000000 14.396888 18.000000
6.141556 12.618645 -56.776343 0.000000 55.000000 14.220762 0.000000
5.446162 10.868720 -58.204749 0.000000 64.000000 14.491751 27.000000
5.197714 11.154595 -56.467221 0.000000 44.000000 14.405827 20.000000
5.579385 11.552708 -57.570669 0.000000 61.000000 14.490452 21.000000
6.720076 13.329745 -57.354968 0.000000 44.000000 14.127706 0.000000
5.809346 11.272276 -58.261311 0.000000 66.000000 14.342478 21.000000
4.427719 11.342929 -53.777980 0.000000 63.000000 14.514433 18.000000
5.511854 11.643239 -57.869229 0.000000 13.000000 14.658029 21.000000
7.367623 15.358771 -56.571001 0.000000 46.000000 14.164606 0.000000
6.822050 13.820131 -56.991594 0.000000 47.000000 14.143045 0.000000
6.382623 12.940467 -57.331727 0.000000 48.000000 14.267827 0.000000
6.021525 11.636438 -58.082654 0.000000 29.000000 14.254856 21.000000
4.735342 10.878388 -55.278859 0.000000 61.000000 14.420362 28.000000
6.660318 14.988888 -54.511906 0.000000 42.000000 14.149435 0.000000
5.581904 13.155461 -53.610207 0.000000 56.000000 14.165277 0.000000
5.094544 10.293968 -58.420162 0.000000 53.000000 14.628837 22.000000
6.645677 13.087740 -57.522140 0.000000 49.000000 14.138555 0.000000
5.628677 13.147525 -53.767690 0.000000 50.000000 14.158645 0.000000
6.032114 12.817153 -56.354396 0.000000 65.000000 14.294348 0.000000
5.571133 13.366582 -53.360411 0.000000 49.000000 14.197850 0.000000
6.029643 12.621908 -56.372237 0.000000 61.000000 14.223846 0.000000
7.083330 14.184799 -56.761974 0.000000 35.000000 13.999793 0.000000
5.390244 10.839639 -58.373521 0.000000 67.000000 14.570565 27.000000
5.916577 14.323744 -52.599880 0.000000 38.000000 14.085599 0.000000
5.099552 10.196642 -56.481647 0.000000 37.000000 14.118578 0.000000
4.309294 11.066286 -53.835610 0.000000 66.000000 14.524249 30.000000
4.954468 12.331279 -52.669633 0.000000 47.000000 14.169837 0.000000
6.595962 15.371334 -54.990695 0.000000 50.000000 14.472774 14.000000
4.671378 11.547445 -54.668066 0.000000 73.000000 14.593647 18.000000
5.853824 14.519525 -52.428977 0.000000 55.000000 14.177242 0.000000
5.578906 11.989506 -55.763067 0.000000 34.000000 14.227259 0.000000
4.550960 11.689804 -54.213786 0.000000 74.000000 14.647027 18.000000
6.068703 12.642209 -56.530154 0.000000 55.000000 14.235294 0.000000
5.906492 13.635396 -54.054007 0.000000 32.000000 14.173725 0.000000
5.338847 11.018232 -58.039053 0.000000 69.000000 14.605920 27.000000
5.837769 11.513553 -56.634028 0.000000 43.000000 14.020032 0.000000
6.407232 12.201871 -58.121794 0.000000 36.000000 14.145247 0.000000
5.719732 11.638091 -55.978155 0.000000 42.000000 14.015663 0.000000
6.332944 11.721827 -58.174237 0.000000 34.000000 14.034460 0.000000
