65.849502 2.258923 -40.559675 0.000000 34.000000 14.240515 0.000000
68.549416 2.618763 -39.254834 0.000000 69.000000 14.584018 9.000000
65.786266 2.178356 -41.948172 0.000000 39.000000 14.167460 0.000000
65.613159 2.188383 -41.003230 0.000000 33.000000 14.173135 0.000000
65.540008 2.160257 -41.153310 0.000000 22.000000 14.146054 0.000000
67.067653 2.378244 -42.957325 0.000000 41.000000 14.368140 27.000000
65.519041 2.226711 -41.463503 0.000000 31.000000 14.214208 0.000000
67.548641 2.195142 -39.406599 0.000000 36.000000 14.164716 0.000000
67.470843 2.108436 -42.377134 0.000000 17.000000 14.093877 0.000000
67.894575 2.221001 -40.396936 0.000000 31.000000 14.194558 0.000000
68.581033 2.219325 -42.362125 0.000000 36.000000 14.200786 0.000000
65.959992 2.243419 -43.497110 0.000000 40.000000 14.240041 0.000000
69.747732 2.180545 -40.372174 0.000000 24.000000 14.147465 0.000000
66.106992 2.566765 -38.391775 0.000000 78.000000 14.536068 13.000000
68.492179 2.185158 -41.052258 0.000000 26.000000 14.160057 0.000000
69.478417 2.164122 -40.172651 0.000000 27.000000 14.130941 0.000000
69.340353 2.155991 -40.075013 0.000000 24.000000 14.122782 0.000000
67.196053 2.134884 -40.550173 0.000000 28.000000 14.111700 0.000000
66.916577 2.408925 -39.683662 0.000000 51.000000 14.382169 4.000000
68.514882 2.187954 -39.550565 0.000000 25.000000 14.154891 0.000000
65.975059 2.164805 -39.797801 0.000000 21.000000 14.141959 0.000000
65.798074 2.162823 -39.744942 0.000000 26.000000 14.140321 0.000000
66.974833 2.225237 -39.736109 0.000000 37.000000 14.198555 0.000000
64.925414 2.588797 -40.650083 0.000000 51.000000 14.574102 14.000000
66.492023 2.466867 -42.659912 0.000000 32.000000 14.457222 16.000000
67.666587 2.230264 -38.295158 0.000000 42.000000 14.193590 0.000000
71.180261 2.334281 -40.334036 0.000000 36.000000 14.295967 2.000000
66.902142 2.598862 -39.516149 0.000000 73.000000 14.571274 4.000000
65.526350 2.783323 -42.834838 0.000000 59.000000 14.777981 21.000000
68.337702 2.206235 -45.118573 0.000000 42.000000 14.203018 0.000000
69.391986 2.230043 -44.206797 0.000000 36.000000 14.218338 0.000000
68.287255 2.223061 -42.501072 0.000000 34.000000 14.206283 0.000000
69.208117 2.137589 -44.104190 0.000000 34.000000 14.125993 0.000000
68.097571 2.210123 -44.878836 0.000000 45.000000 14.206491 0.000000
65.544825 2.554699 -42.534420 0.000000 41.000000 14.547720 28.000000
66.599062 2.608942 -44.366022 0.000000 63.000000 14.607873 23.000000
69.382689 2.161026 -39.830621 0.000000 30.000000 14.126386 0.000000
67.831948 2.191585 -44.650418 0.000000 54.000000 14.187687 0.000000
69.047618 2.623101 -42.166295 0.000000 51.000000 14.601888 12.000000
64.127793 2.673668 -41.319455 0.000000 52.000000 14.665286 8.000000
69.201072 2.117843 -43.978371 0.000000 29.000000 14.105612 0.000000
69.991158 2.534612 -40.666311 0.000000 65.000000 14.502214 6.000000
68.665405 2.236832 -43.516756 0.000000 40.000000 14.224057 0.000000
66.642066 2.295793 -43.097956 0.000000 37.000000 14.287924 16.000000
68.548353 2.258028 -43.403351 0.000000 46.000000 14.245068 0.000000
67.280691 2.180773 -44.201413 0.000000 44.000000 14.176455 0.000000
68.396476 2.233896 -43.297626 0.000000 35.000000 14.220915 0.000000
67.653672 2.181160 -44.950551 0.000000 29.000000 14.179464 0.000000
65.591270 2.298572 -42.446030 0.000000 48.000000 14.290971 28.000000
68.785179 2.081362 -39.820044 0.000000 44.000000 14.048766 0.000000
68.733169 2.372435 -39.026749 0.000000 56.000000 14.335853 9.000000
66.290820 2.157615 -41.237352 0.000000 45.000000 14.141216 0.000000
67.809778 2.208999 -42.878820 0.000000 33.000000 14.195881 0.000000
70.199941 2.219159 -41.604826 0.000000 32.000000 14.190960 0.000000
66.369301 2.174045 -43.570348 0.000000 42.000000 14.169615 0.000000
66.644443 2.202815 -40.773736 0.000000 34.000000 14.182740 0.000000
68.787297 2.205924 -42.788498 0.000000 36.000000 14.188899 0.000000
69.839024 2.075049 -40.682542 0.000000 26.000000 14.043280 0.000000
66.701199 2.207140 -42.202742 0.000000 38.000000 14.194366 0.000000
70.817566 2.211180 -40.810965 0.000000 33.000000 14.176646 0.000000
63.457734 2.232146 -42.111217 0.000000 35.000000 14.230281 0.000000
69.451615 2.236000 -42.361743 0.000000 47.000000 14.214401 0.000000
66.319487 3.117741 -42.991242 0.000000 2.000000 15.110428 16.000000
66.015801 2.224399 -41.856045 0.000000 38.000000 14.212212 0.000000
64.655152 2.242176 -42.640948 0.000000 39.000000 14.238887 0.000000
67.380081 2.343159 -40.262035 0.000000 43.000000 14.317812 18.000000
63.836339 2.734843 -42.892010 0.000000 43.000000 14.735737 24.000000
68.171334 2.186281 -44.025317 0.000000 37.000000 14.177911 0.000000
67.613085 2.297199 -40.507403 0.000000 30.000000 14.272323 1.000000
69.171940 2.068361 -40.124808 0.000000 26.000000 14.036007 0.000000
63.401509 2.226435 -42.191520 0.000000 38.000000 14.225189 0.000000
64.302836 2.268734 -41.218907 0.000000 33.000000 14.259217 0.000000
70.774507 2.218744 -40.778691 0.000000 27.000000 14.184191 0.000000
66.585730 2.505698 -43.208841 0.000000 51.000000 14.498604 16.000000
70.668403 2.160391 -41.329016 0.000000 25.000000 14.129100 0.000000
71.244621 2.271697 -40.764013 0.000000 37.000000 14.235415 0.000000
69.319317 2.004617 -43.667736 0.000000 25.000000 13.990342 0.000000
66.959518 2.543739 -37.984502 0.000000 48.000000 14.507911 29.000000
70.250328 2.299822 -41.627970 0.000000 44.000000 14.271566 0.000000
70.488683 2.269520 -39.877270 0.000000 44.000000 14.231239 0.000000
66.959358 2.845908 -43.993972 0.000000 3.000000 14.841616 23.000000
70.803437 2.301298 -41.702221 0.000000 42.000000 14.271489 0.000000
64.521547 2.557550 -41.837770 0.000000 44.000000 14.550508 30.000000
70.462677 2.229499 -41.352096 0.000000 34.000000 14.199051 0.000000
66.989116 2.233614 -41.096869 0.000000 31.000000 14.214024 0.000000
66.514432 2.222101 -39.151916 0.000000 48.000000 14.193970 0.000000
70.579841 2.207136 -42.133941 0.000000 29.000000 14.180380 0.000000
65.078838 2.821346 -42.959999 0.000000 46.000000 14.818232 21.000000
66.117113 2.058629 -37.982203 0.000000 39.000000 14.025757 0.000000
69.488721 2.190261 -43.171004 0.000000 45.000000 14.172780 0.000000
69.364155 2.064841 -41.665388 0.000000 26.000000 14.039898 0.000000
68.773753 2.194540 -38.734941 0.000000 53.000000 14.156287 0.000000
67.079553 3.100448 -44.962788 0.000000 25.000000 15.100814 15.000000
69.243328 2.092797 -43.791243 0.000000 33.000000 14.079436 0.000000
69.208855 2.097193 -43.946212 0.000000 32.000000 14.084766 0.000000
67.147997 3.162266 -45.069786 0.000000 73.000000 15.162952 15.000000
69.151671 2.110887 -44.254519 0.000000 30.000000 14.100279 0.000000
65.957031 2.146080 -41.884489 0.000000 30.000000 14.134250 0.000000
68.911206 2.382262 -42.057131 0.000000 46.000000 14.360959 12.000000
70.161200 2.022581 -40.362829 0.000000 31.000000 13.988003 0.000000
67.702932 2.174394 -39.063384 0.000000 29.000000 14.141626 0.000000
67.249097 2.222381 -43.143063 0.000000 36.000000 14.212618 0.000000
64.817201 2.203849 -39.986571 0.000000 32.000000 14.186059 0.000000
67.191327 2.223090 -41.602564 0.000000 34.000000 14.205444 0.000000
66.803927 2.161872 -40.071708 0.000000 28.000000 14.137553 0.000000
68.922871 2.118872 -43.115220 0.000000 37.000000 14.103087 0.000000
67.839706 2.277899 -39.768172 0.000000 33.000000 14.248347 0.000000
69.003512 2.278466 -42.611925 0.000000 37.000000 14.259753 0.000000
71.269992 2.214095 -40.527856 0.000000 42.000000 14.176486 0.000000
69.619914 2.121963 -40.009066 0.000000 25.000000 14.087427 0.000000
65.684152 2.587498 -44.032381 0.000000 58.000000 14.587891 17.000000
66.406057 2.230651 -40.886803 0.000000 37.000000 14.212006 0.000000
66.884664 2.390407 -44.653388 0.000000 34.000000 14.389848 15.000000
69.969798 2.227912 -43.028687 0.000000 41.000000 14.207994 0.000000
67.638475 2.206596 -38.850393 0.000000 41.000000 14.172935 10.000000
66.110464 2.105110 -41.325330 0.000000 28.000000 14.089807 0.000000
66.072902 2.125935 -41.477153 0.000000 15.000000 14.111561 0.000000
66.504171 2.226093 -38.769953 0.000000 46.000000 14.195993 0.000000
65.273253 2.617726 -43.780665 0.000000 45.000000 14.618240 17.000000
66.046862 2.205934 -41.784063 0.000000 36.000000 14.193260 0.000000
66.024445 2.229342 -41.940784 0.000000 40.000000 14.217569 0.000000
68.187428 2.639328 -38.799925 0.000000 55.000000 14.603466 10.000000
68.338262 2.744811 -38.621054 0.000000 83.000000 14.707479 10.000000
67.211944 2.258377 -41.537793 0.000000 32.000000 14.240318 0.000000
68.578759 2.232727 -38.810605 0.000000 37.000000 14.195555 0.000000
66.903828 2.209948 -39.920464 0.000000 39.000000 14.184484 0.000000
63.923150 2.530470 -42.884479 0.000000 39.000000 14.531024 25.000000
67.106563 2.139492 -43.579535 0.000000 24.000000 14.132522 0.000000
65.334573 2.435068 -42.470325 0.000000 50.000000 14.428493 28.000000
67.838621 2.331777 -38.359590 0.000000 28.000000 14.294835 10.000000
67.482761 2.321233 -44.041002 0.000000 39.000000 14.315361 7.000000
67.059710 2.229375 -43.306977 0.000000 40.000000 14.221137 0.000000
70.003499 2.469920 -41.099632 0.000000 52.000000 14.439754 6.000000
66.987517 2.191037 -40.469354 0.000000 34.000000 14.168160 0.000000
66.998628 2.115187 -43.809344 0.000000 38.000000 14.109803 0.000000
65.354943 2.742183 -43.428738 0.000000 59.000000 14.740561 17.000000
65.923617 2.801463 -42.771696 0.000000 45.000000 14.794394 28.000000
67.390644 2.478692 -37.939918 0.000000 68.000000 14.441118 29.000000
66.401301 2.178291 -38.038773 0.000000 30.000000 14.144716 0.000000
65.754170 2.551616 -43.179109 0.000000 31.000000 14.547286 17.000000
69.431870 2.191788 -43.919135 0.000000 40.000000 14.178434 0.000000
69.279204 2.097015 -43.797523 0.000000 34.000000 14.083560 0.000000
69.198651 2.104306 -43.665225 0.000000 33.000000 14.090440 0.000000
65.467043 2.883855 -43.642987 0.000000 33.000000 14.882961 17.000000
68.163257 2.199033 -41.643114 0.000000 37.000000 14.178188 0.000000
68.922283 2.105885 -43.270035 0.000000 32.000000 14.090915 0.000000
68.829769 2.114548 -43.140511 0.000000 30.000000 14.099223 0.000000
68.717496 2.097940 -43.013886 0.000000 31.000000 14.082345 0.000000
68.661177 2.161048 -42.881643 0.000000 39.000000 14.144955 0.000000
66.438052 2.555427 -42.537209 0.000000 72.000000 14.545326 16.000000
65.573610 2.829907 -43.335867 0.000000 49.000000 14.827028 17.000000
65.936608 2.495154 -38.266267 0.000000 77.000000 14.464398 13.000000
68.164839 2.721224 -39.847459 0.000000 63.000000 14.690938 5.000000
69.380960 2.120632 -41.683448 0.000000 29.000000 14.095724 0.000000
64.026168 2.626221 -41.193077 0.000000 60.000000 14.617533 8.000000
64.979531 2.615634 -42.702660 0.000000 73.000000 14.611522 21.000000
68.189285 2.271482 -42.255220 0.000000 48.000000 14.253757 0.000000
68.949727 2.217526 -39.005453 0.000000 46.000000 14.180074 0.000000
63.935696 2.525580 -42.590878 0.000000 50.000000 14.524549 25.000000
69.776787 2.057571 -41.972878 0.000000 26.000000 14.032793 0.000000
69.798663 2.629237 -41.241005 0.000000 52.000000 14.600529 6.000000
68.854827 2.203358 -41.085929 0.000000 31.000000 14.177159 0.000000
65.225560 2.607631 -43.611699 0.000000 76.000000 14.607426 17.000000
63.363524 2.850548 -42.539974 0.000000 41.000000 14.851252 24.000000
65.012831 2.927337 -43.196332 0.000000 45.000000 14.925693 21.000000
68.611803 2.215976 -40.859379 0.000000 30.000000 14.189442 0.000000
65.151797 2.334053 -40.562187 0.000000 47.000000 14.318107 14.000000
68.515414 2.261704 -40.748555 0.000000 38.000000 14.234926 0.000000
67.666431 2.055061 -44.090744 0.000000 18.000000 14.048810 0.000000
67.576189 2.202222 -41.471432 0.000000 43.000000 14.182537 0.000000
66.990849 2.270269 -41.226813 0.000000 48.000000 14.251354 0.000000
66.266207 2.169238 -39.888216 0.000000 42.000000 14.145844 0.000000
66.827631 2.252101 -41.120793 0.000000 48.000000 14.233203 0.000000
69.104656 2.215262 -41.231610 0.000000 43.000000 14.188951 0.000000
65.246479 2.145999 -41.037737 0.000000 32.000000 14.132220 0.000000
66.527310 2.258636 -40.913720 0.000000 41.000000 14.239706 0.000000
66.353971 2.242577 -40.811522 0.000000 36.000000 14.223720 0.000000
66.189601 2.238176 -40.712041 0.000000 31.000000 14.219374 0.000000
71.396760 2.150655 -41.205989 0.000000 42.000000 14.116161 0.000000
66.031099 2.246743 -40.614105 0.000000 35.000000 14.227983 0.000000
67.216820 2.275198 -39.826270 0.000000 35.000000 14.248139 0.000000
64.840206 2.590388 -40.536118 0.000000 48.000000 14.575394 14.000000
65.749543 2.309730 -40.429588 0.000000 48.000000 14.290989 0.000000
65.556894 2.287151 -40.338084 0.000000 42.000000 14.268607 0.000000
65.351602 2.258796 -40.249934 0.000000 37.000000 14.240511 0.000000
65.171105 2.259237 -40.163771 0.000000 37.000000 14.241134 0.000000
64.981952 2.253434 -40.080037 0.000000 41.000000 14.235555 0.000000
64.822428 2.282140 -40.002109 0.000000 42.000000 14.264412 0.000000
67.331040 2.376417 -45.059549 0.000000 35.000000 14.376422 26.000000
64.397502 2.913493 -41.946199 0.000000 49.000000 14.907448 30.000000
67.055303 2.557055 -42.389176 0.000000 62.000000 14.544009 27.000000
65.601005 2.348253 -38.816236 0.000000 81.000000 14.321565 13.000000
68.007025 2.209887 -39.522571 0.000000 33.000000 14.178460 0.000000
68.057496 2.126496 -44.534436 0.000000 47.000000 14.121199 0.000000
68.435769 2.630444 -40.010115 0.000000 65.000000 14.600062 5.000000
65.984830 2.890761 -43.590230 0.000000 76.000000 14.887772 17.000000
67.609431 2.073907 -44.200302 0.000000 36.000000 14.068431 0.000000
69.865953 2.551896 -40.902832 0.000000 45.000000 14.521179 6.000000
67.500680 2.070486 -42.191967 0.000000 17.000000 14.054851 0.000000
66.232129 2.303969 -39.099483 0.000000 33.000000 14.276553 0.000000
65.220887 2.847051 -43.122177 0.000000 53.000000 14.844289 21.000000
66.657459 2.397618 -43.253197 0.000000 39.000000 14.390507 16.000000
68.523420 2.196508 -39.845623 0.000000 44.000000 14.164964 0.000000
68.413759 2.325040 -40.314967 0.000000 37.000000 14.296341 0.000000
69.330413 2.190170 -39.776755 0.000000 25.000000 14.155430 0.000000
67.104970 2.447814 -44.565643 0.000000 45.000000 14.446019 15.000000
69.243269 2.168362 -39.908634 0.000000 23.000000 14.134621 0.000000
69.170314 2.163259 -40.046853 0.000000 26.000000 14.130500 0.000000
67.919951 2.162470 -40.992317 0.000000 32.000000 14.139064 0.000000
64.662895 2.403156 -43.309975 0.000000 45.000000 14.403348 21.000000
66.112928 2.845788 -42.896356 0.000000 33.000000 14.838708 28.000000
67.111821 2.612069 -44.303987 0.000000 67.000000 14.608874 23.000000
66.173041 2.279926 -43.941387 0.000000 32.000000 14.278131 17.000000
67.525180 2.102856 -42.157887 0.000000 25.000000 14.086955 0.000000
67.829515 2.281079 -41.426204 0.000000 49.000000 14.260266 0.000000
67.737725 2.232066 -41.652818 0.000000 34.000000 14.212765 0.000000
67.210338 2.621202 -44.945991 0.000000 30.000000 14.621030 15.000000
68.795199 2.203259 -41.056125 0.000000 29.000000 14.177113 0.000000
69.931462 2.183665 -42.315697 0.000000 31.000000 14.160141 0.000000
69.499630 2.808632 -40.731312 0.000000 22.000000 14.778296 6.000000
66.878493 2.123054 -42.002157 0.000000 34.000000 14.108606 0.000000
66.180914 2.150080 -41.153193 0.000000 30.000000 14.133626 0.000000
66.798073 2.220916 -37.835703 0.000000 40.000000 14.184881 0.000000
65.405226 2.214814 -40.162598 0.000000 63.000000 14.195883 0.000000
67.484977 2.164500 -42.186105 0.000000 30.000000 14.148887 0.000000
71.139522 2.174740 -41.497065 0.000000 37.000000 14.142677 0.000000
66.280698 2.540280 -38.568964 0.000000 60.000000 14.509904 19.000000
67.183048 2.083288 -44.260368 0.000000 34.000000 14.079624 0.000000
64.831112 2.091197 -40.931450 0.000000 33.000000 14.078320 0.000000
65.796886 2.588699 -43.444528 0.000000 51.000000 14.585611 17.000000
68.588467 2.278724 -42.123442 0.000000 33.000000 14.258905 0.000000
68.573636 2.291318 -42.278897 0.000000 42.000000 14.272367 0.000000
63.293824 2.408531 -42.512260 0.000000 59.000000 14.409343 24.000000
67.227787 2.051533 -40.201991 0.000000 36.000000 14.026412 0.000000
68.522618 2.280428 -42.594753 0.000000 42.000000 14.263314 0.000000
67.338449 2.258719 -43.293806 0.000000 59.000000 14.249433 0.000000
66.095723 2.658428 -39.157760 0.000000 45.000000 14.631789 4.000000
68.372479 2.060421 -44.731953 0.000000 37.000000 14.055056 0.000000
69.716629 2.205237 -39.585839 0.000000 39.000000 14.168139 0.000000
67.510239 2.219023 -41.736779 0.000000 43.000000 14.200962 0.000000
65.778159 2.529978 -38.640489 0.000000 60.000000 14.501742 13.000000
67.999203 2.366003 -43.695829 0.000000 69.000000 14.356504 7.000000
68.430973 2.236604 -43.559154 0.000000 32.000000 14.224874 0.000000
67.297612 2.206957 -39.092284 0.000000 47.000000 14.175763 0.000000
66.691654 2.210785 -37.896976 0.000000 36.000000 14.175445 0.000000
67.374195 2.215117 -39.161079 0.000000 54.000000 14.184015 0.000000
67.277785 2.649343 -44.787149 0.000000 46.000000 14.648100 15.000000
65.417467 2.882245 -43.829448 0.000000 46.000000 14.882504 17.000000
68.377934 2.127606 -44.380188 0.000000 26.000000 14.120374 0.000000
68.346439 2.068405 -44.550809 0.000000 24.000000 14.062180 0.000000
68.438775 2.666455 -39.208570 0.000000 47.000000 14.631855 9.000000
66.813441 2.727123 -42.754520 0.000000 47.000000 14.716841 27.000000
70.813648 2.172550 -41.557952 0.000000 31.000000 14.141951 0.000000
63.630379 2.568893 -42.634705 0.000000 50.000000 14.569163 24.000000
68.493935 2.107818 -45.346176 0.000000 37.000000 14.105249 0.000000
68.420855 2.017623 -44.722228 0.000000 23.000000 14.012038 0.000000
65.907604 2.310971 -38.296117 0.000000 35.000000 14.280478 0.000000
65.195075 2.197613 -39.384248 0.000000 30.000000 14.175335 0.000000
67.341053 2.194353 -45.062846 0.000000 31.000000 14.194344 0.000000
68.314884 2.244610 -42.544647 0.000000 40.000000 14.227963 0.000000
65.850167 2.885701 -42.841331 0.000000 49.000000 14.879254 28.000000
65.035265 2.249266 -40.002509 0.000000 34.000000 14.230793 0.000000
63.500869 2.495778 -42.529932 0.000000 46.000000 14.495954 24.000000
65.968077 2.912186 -43.538589 0.000000 85.000000 14.908984 17.000000
64.819487 2.224742 -40.969048 0.000000 31.000000 14.212101 0.000000
63.224447 2.208140 -42.312139 0.000000 49.000000 14.208150 0.000000
66.239623 2.344590 -38.895229 0.000000 44.000000 14.316074 0.000000
67.737654 2.153967 -42.950231 0.000000 28.000000 14.141478 0.000000
69.550996 2.300794 -40.981565 0.000000 44.000000 14.271601 0.000000
67.115588 2.719765 -42.410193 0.000000 76.000000 14.706614 27.000000
70.900077 2.617284 -40.331998 0.000000 56.000000 14.579938 2.000000
66.743760 2.912982 -42.915549 0.000000 48.000000 14.903786 16.000000
63.471825 2.805612 -42.596308 0.000000 41.000000 14.806233 24.000000
66.756257 2.403311 -44.115301 0.000000 53.000000 14.400378 23.000000
69.930272 2.223128 -41.248466 0.000000 50.000000 14.194006 0.000000
68.702604 2.122018 -45.269389 0.000000 58.000000 14.118313 0.000000
68.622844 2.116650 -45.129266 0.000000 42.000000 14.112490 0.000000
68.535766 2.106026 -44.987321 0.000000 39.000000 14.101427 0.000000
64.959316 2.203422 -39.712481 0.000000 41.000000 14.183695 0.000000
68.353227 2.084071 -44.708773 0.000000 31.000000 14.078651 0.000000
66.362458 2.187711 -41.481647 0.000000 31.000000 14.172342 0.000000
68.261619 2.075866 -44.570483 0.000000 37.000000 14.070042 0.000000
69.421312 2.112714 -43.762608 0.000000 34.000000 14.098577 0.000000
65.972207 2.925084 -43.577363 0.000000 50.000000 14.922071 17.000000
69.309528 2.077638 -43.630093 0.000000 35.000000 14.063199 0.000000
68.105326 2.109371 -44.287883 0.000000 39.000000 14.102612 0.000000
69.235401 2.098711 -43.492034 0.000000 31.000000 14.083807 0.000000
64.710574 2.412496 -41.716581 0.000000 49.000000 14.404157 20.000000
67.223074 2.237130 -39.956193 0.000000 29.000000 14.210732 0.000000
67.989322 2.205501 -44.000319 0.000000 40.000000 14.197638 0.000000
68.284830 2.546377 -38.864234 0.000000 53.000000 14.510512 10.000000
69.016501 2.186075 -43.080362 0.000000 44.000000 14.169777 0.000000
68.900705 2.165455 -42.952390 0.000000 32.000000 14.148892 0.000000
67.631840 2.159222 -39.334919 0.000000 45.000000 14.128129 0.000000
67.624372 2.271489 -43.457886 0.000000 44.000000 14.262060 0.000000
67.496157 2.252477 -43.327032 0.000000 46.000000 14.242812 0.000000
65.833603 2.662231 -38.593787 0.000000 65.000000 14.633553 13.000000
66.250936 2.615630 -42.669439 0.000000 49.000000 14.606879 28.000000
68.448421 2.284823 -42.292995 0.000000 37.000000 14.266385 0.000000
68.348339 2.305423 -42.165480 0.000000 43.000000 14.286667 0.000000
68.224394 2.300492 -42.041537 0.000000 55.000000 14.281521 0.000000
68.108052 2.305149 -41.917975 0.000000 53.000000 14.285938 0.000000
65.132390 3.010340 -43.190661 0.000000 48.000000 15.008245 21.000000
68.296814 2.478811 -40.744296 0.000000 45.000000 14.452773 1.000000
64.136640 2.530542 -42.148863 0.000000 50.000000 14.526485 30.000000
64.972652 2.302254 -40.443957 0.000000 31.000000 14.286317 14.000000
66.343118 2.248111 -42.191755 0.000000 41.000000 14.236536 0.000000
67.153599 2.211166 -39.582800 0.000000 41.000000 14.183052 0.000000
69.644417 2.219202 -39.326912 0.000000 35.000000 14.180998 0.000000
66.047649 2.240203 -41.953726 0.000000 42.000000 14.228417 0.000000
66.620904 2.531997 -42.495044 0.000000 57.000000 14.521033 27.000000
65.756331 2.255044 -41.718900 0.000000 38.000000 14.243048 0.000000
67.019258 2.295870 -40.972477 0.000000 41.000000 14.275520 0.000000
65.614182 2.272915 -41.601943 0.000000 46.000000 14.260804 0.000000
66.888625 2.237928 -41.480203 0.000000 34.000000 14.220703 0.000000
65.422222 2.241238 -41.487420 0.000000 45.000000 14.229200 0.000000
67.317409 2.415780 -42.783429 0.000000 59.000000 14.403886 27.000000
66.363781 2.258081 -40.528817 0.000000 31.000000 14.237705 0.000000
69.900263 2.039135 -42.202587 0.000000 29.000000 14.015129 0.000000
64.756609 2.260998 -41.044366 0.000000 36.000000 14.248972 0.000000
66.673251 2.149657 -38.532007 0.000000 32.000000 14.117716 0.000000
64.581135 2.265218 -40.938609 0.000000 42.000000 14.253253 0.000000
65.885564 2.281686 -40.214107 0.000000 37.000000 14.261337 0.000000
64.379165 2.246740 -40.833446 0.000000 41.000000 14.234933 0.000000
66.333586 2.343090 -38.554113 0.000000 42.000000 14.312454 19.000000
65.520891 2.266253 -40.012211 0.000000 33.000000 14.246126 0.000000
65.328810 2.253673 -39.913262 0.000000 31.000000 14.233701 0.000000
68.362567 2.029155 -44.716518 0.000000 16.000000 14.023744 0.000000
66.868162 2.257420 -37.909896 0.000000 31.000000 14.221527 0.000000
69.214981 2.024520 -43.785712 0.000000 27.000000 14.011230 0.000000
68.048476 2.202202 -45.587839 0.000000 54.000000 14.202464 0.000000
67.953816 2.245692 -45.457432 0.000000 52.000000 14.245601 0.000000
70.808753 2.499744 -40.708697 0.000000 67.000000 14.464698 2.000000
67.686927 2.242103 -45.224966 0.000000 59.000000 14.241729 0.000000
68.790435 2.103191 -43.021642 0.000000 32.000000 14.087380 0.000000
66.981901 2.245222 -44.659991 0.000000 52.000000 14.244359 0.000000
70.967102 2.505822 -40.357111 0.000000 58.000000 14.468374 2.000000
68.030135 2.040315 -44.365595 0.000000 41.000000 14.034230 0.000000
69.857223 2.147925 -40.150041 0.000000 27.000000 14.113295 0.000000
66.873319 2.735736 -44.888806 0.000000 50.000000 14.736445 15.000000
68.106653 2.786080 -38.687004 0.000000 61.000000 14.749906 10.000000
69.454906 2.283856 -40.923515 0.000000 42.000000 14.254696 0.000000
70.359316 2.162580 -40.436022 0.000000 24.000000 14.127688 0.000000
69.383651 2.288661 -41.057876 0.000000 47.000000 14.260456 0.000000
66.902710 2.519217 -37.857780 0.000000 48.000000 14.482924 29.000000
65.896073 2.886833 -44.082565 0.000000 64.000000 14.886739 22.000000
66.333006 2.961913 -42.993852 0.000000 42.000000 14.954569 16.000000
64.748590 2.419816 -41.300976 0.000000 49.000000 14.409162 3.000000
70.076298 2.306548 -41.282868 0.000000 34.000000 14.277092 0.000000
70.015454 2.297306 -41.426805 0.000000 42.000000 14.268819 0.000000
69.135948 2.487501 -39.494079 0.000000 68.000000 14.451955 9.000000
71.071454 2.502353 -40.433013 0.000000 72.000000 14.464937 2.000000
65.841486 2.192407 -41.651982 0.000000 26.000000 14.179762 0.000000
67.478966 2.610556 -43.726605 0.000000 43.000000 14.603041 7.000000
68.483122 2.150368 -43.130534 0.000000 49.000000 14.136207 0.000000
69.667077 2.294683 -42.623354 0.000000 53.000000 14.273700 0.000000
64.294868 2.594080 -42.331845 0.000000 41.000000 14.590426 25.000000
68.556971 2.180885 -44.025095 0.000000 27.000000 14.171160 0.000000
68.476508 2.238608 -43.437358 0.000000 46.000000 14.226079 0.000000
63.954698 2.563511 -42.443734 0.000000 48.000000 14.561640 25.000000
68.291718 2.087382 -41.009940 0.000000 27.000000 14.062764 0.000000
68.409644 2.232352 -43.754873 0.000000 42.000000 14.221725 0.000000
68.575532 2.624915 -38.647567 0.000000 51.000000 14.586891 10.000000
68.376611 2.223800 -43.916433 0.000000 47.000000 14.214137 0.000000
65.876981 2.503313 -44.157323 0.000000 40.000000 14.503686 22.000000
68.357787 2.230883 -44.078500 0.000000 54.000000 14.222136 0.000000
67.088691 2.220599 -39.229321 0.000000 34.000000 14.190858 0.000000
68.263043 2.138046 -44.258190 0.000000 34.000000 14.130577 0.000000
68.686013 2.660938 -39.070296 0.000000 51.000000 14.624744 9.000000
69.376813 2.683667 -40.743183 0.000000 36.000000 14.653827 6.000000
69.010817 2.550734 -39.439576 0.000000 56.000000 14.515340 9.000000
69.342640 2.514956 -40.462857 0.000000 63.000000 14.483768 6.000000
63.851426 2.701017 -41.595808 0.000000 51.000000 14.695055 8.000000
70.235884 2.206109 -41.747147 0.000000 42.000000 14.178531 0.000000
65.216490 2.354738 -40.633426 0.000000 43.000000 14.338938 14.000000
68.234995 2.179503 -44.907858 0.000000 60.000000 14.175542 0.000000
67.468687 2.346717 -42.712336 0.000000 59.000000 14.333920 27.000000
68.245396 2.211243 -45.230287 0.000000 47.000000 14.208937 0.000000
68.222921 2.186467 -45.402544 0.000000 150.000000 14.185144 0.000000
68.186773 2.140198 -45.578939 0.000000 50.000000 14.139929 0.000000
68.153587 2.095322 -45.759356 0.000000 38.000000 14.096117 0.000000
67.006209 2.202782 -41.162490 0.000000 39.000000 14.183477 0.000000
67.207945 2.167246 -38.730573 0.000000 24.000000 14.134469 0.000000
65.706483 2.126441 -39.577831 0.000000 27.000000 14.103385 0.000000
68.476436 2.685198 -39.094068 0.000000 59.000000 14.649864 9.000000
68.269286 2.115146 -39.649411 0.000000 37.000000 14.083466 0.000000
67.067734 2.301830 -39.327266 0.000000 38.000000 14.272675 0.000000
66.600661 2.139494 -42.213803 0.000000 28.000000 14.127133 0.000000
67.023633 2.317321 -39.479080 0.000000 34.000000 14.289117 0.000000
65.417797 2.229116 -41.677412 0.000000 37.000000 14.218091 0.000000
65.570246 2.247773 -40.190068 0.000000 39.000000 14.228406 0.000000
65.540672 2.273794 -40.345961 0.000000 45.000000 14.255349 0.000000
68.680970 2.138758 -39.856721 0.000000 31.000000 14.106720 0.000000
65.235343 2.136892 -40.978867 0.000000 34.000000 14.122844 0.000000
65.240909 2.180670 -41.144709 0.000000 33.000000 14.167472 0.000000
66.661212 2.270045 -40.721000 0.000000 41.000000 14.249633 0.000000
71.169047 2.225508 -40.354925 0.000000 34.000000 14.187345 0.000000
66.582959 2.233386 -41.042986 0.000000 32.000000 14.214940 0.000000
67.807372 2.571275 -40.509530 0.000000 58.000000 14.545722 1.000000
69.362132 2.690822 -40.524096 0.000000 45.000000 14.659883 6.000000
70.438137 2.226467 -41.599442 0.000000 35.000000 14.197403 0.000000
69.961532 2.232257 -42.808475 0.000000 33.000000 14.211212 0.000000
65.617268 2.546650 -40.546174 0.000000 85.000000 14.528981 14.000000
66.442287 2.131212 -41.701160 0.000000 29.000000 14.116716 0.000000
66.434256 2.127471 -41.866962 0.000000 28.000000 14.113874 0.000000
70.486478 2.471047 -40.448264 0.000000 23.000000 14.435766 2.000000
67.797132 2.327631 -38.355510 0.000000 35.000000 14.290813 11.000000
66.234883 2.180463 -41.098941 0.000000 33.000000 14.163534 0.000000
70.092486 2.187946 -42.826862 0.000000 37.000000 14.166539 0.000000
68.542841 2.590958 -39.053856 0.000000 46.000000 14.555182 9.000000
64.753434 2.227517 -41.049593 0.000000 33.000000 14.215530 0.000000
69.368581 2.017794 -40.076575 0.000000 28.000000 13.984497 0.000000
69.315812 2.117437 -43.771744 0.000000 39.000000 14.103718 0.000000
66.624091 2.599758 -38.576534 0.000000 62.000000 14.568214 19.000000
67.568658 2.195133 -44.958580 0.000000 32.000000 14.193777 0.000000
69.153580 2.097492 -43.329199 0.000000 34.000000 14.082021 0.000000
69.153733 2.173855 -43.172152 0.000000 46.000000 14.157557 0.000000
69.124118 2.213583 -43.021387 0.000000 43.000000 14.196597 0.000000
69.084279 2.239177 -42.872898 0.000000 38.000000 14.221551 0.000000
64.142789 2.522024 -42.218809 0.000000 39.000000 14.518313 25.000000
65.866940 2.875187 -43.553483 0.000000 54.000000 14.872419 17.000000
68.042739 2.519663 -40.413131 0.000000 65.000000 14.492779 1.000000
64.310517 2.706883 -41.146565 0.000000 83.000000 14.696951 8.000000
71.383863 2.232417 -40.675058 0.000000 39.000000 14.195180 0.000000
68.093718 2.190688 -44.056135 0.000000 36.000000 14.182752 0.000000
66.381624 2.086962 -41.494326 0.000000 40.000000 14.071595 0.000000
68.539970 2.282129 -41.731922 0.000000 57.000000 14.260425 0.000000
66.003772 2.682321 -39.169984 0.000000 67.000000 14.656069 4.000000
69.049438 2.476217 -42.323383 0.000000 30.000000 14.455825 12.000000
66.587313 2.226280 -38.723206 0.000000 31.000000 14.195643 0.000000
67.911193 2.204332 -43.401572 0.000000 30.000000 14.193601 0.000000
66.808226 2.216990 -40.977160 0.000000 31.000000 14.197407 0.000000
66.970017 2.207304 -43.194366 0.000000 41.000000 14.198791 0.000000
65.619082 2.109228 -41.074104 0.000000 34.000000 14.094332 0.000000
67.609802 2.250647 -45.204657 0.000000 63.000000 14.250437 0.000000
68.700239 2.109250 -44.474663 0.000000 46.000000 14.101382 0.000000
67.513487 2.242880 -45.064335 0.000000 55.000000 14.242272 0.000000
68.671081 2.187284 -44.321143 0.000000 40.000000 14.178712 0.000000
65.088019 2.288351 -41.900677 0.000000 50.000000 14.279655 20.000000
65.068891 2.609294 -41.862999 0.000000 47.000000 14.600461 20.000000
68.431299 2.239109 -43.898219 0.000000 44.000000 14.229158 0.000000
68.343655 2.252216 -43.761757 0.000000 54.000000 14.241856 0.000000
68.233148 2.238385 -43.628802 0.000000 41.000000 14.227716 0.000000
68.148357 2.263079 -43.490409 0.000000 46.000000 14.251980 0.000000
69.826690 2.252433 -42.690407 0.000000 33.000000 14.231242 0.000000
67.314604 2.191103 -39.795574 0.000000 44.000000 14.163541 0.000000
69.794186 2.194882 -39.803301 0.000000 35.000000 14.158653 0.000000
67.311740 2.484161 -44.792377 0.000000 51.000000 14.482830 26.000000
67.082088 2.268112 -37.931044 0.000000 41.000000 14.231579 0.000000
67.574512 2.246373 -42.830980 0.000000 41.000000 14.233829 0.000000
66.717890 2.226085 -37.612232 0.000000 43.000000 14.189158 0.000000
69.483013 2.044664 -40.370978 0.000000 28.000000 14.012510 0.000000
67.059718 2.230028 -42.320552 0.000000 41.000000 14.216613 0.000000
66.920513 2.222068 -42.195326 0.000000 38.000000 14.208485 0.000000
66.734789 2.165343 -42.072837 0.000000 32.000000 14.151770 0.000000
66.590813 2.159917 -41.948486 0.000000 31.000000 14.146197 0.000000
66.710831 2.588876 -39.349232 0.000000 70.000000 14.561084 4.000000
66.306078 2.163993 -41.702506 0.000000 33.000000 14.149982 0.000000
66.138001 2.144331 -41.581388 0.000000 32.000000 14.130275 0.000000
63.734153 2.337745 -42.726135 0.000000 36.000000 14.338135 24.000000
68.399838 2.205970 -42.267401 0.000000 40.000000 14.187570 0.000000
67.521890 2.026407 -42.554944 0.000000 27.000000 14.012603 0.000000
68.680468 2.087362 -39.800095 0.000000 32.000000 14.055029 0.000000
65.390227 2.199290 -40.991467 0.000000 43.000000 14.184763 0.000000
66.625577 2.840825 -43.123904 0.000000 65.000000 14.833139 16.000000
64.476611 2.172809 -40.433096 0.000000 29.000000 14.158560 0.000000
70.672455 2.134328 -40.689940 0.000000 30.000000 14.099669 0.000000
70.613838 2.185406 -40.811302 0.000000 32.000000 14.151589 0.000000
70.339116 2.295781 -41.319106 0.000000 52.000000 14.265592 0.000000
65.269633 2.449497 -43.029344 0.000000 39.000000 14.446084 21.000000
64.353934 2.993987 -42.014484 0.000000 41.000000 14.988452 30.000000
65.226270 2.195495 -39.731658 0.000000 42.000000 14.174931 0.000000
66.640002 2.539033 -38.668590 0.000000 45.000000 14.507918 19.000000
70.737871 2.293075 -41.968146 0.000000 43.000000 14.264892 0.000000
67.934475 2.171448 -45.100509 0.000000 31.000000 14.169553 0.000000
70.635018 2.225737 -42.115614 0.000000 34.000000 14.198691 0.000000
67.439768 2.595896 -40.120487 0.000000 48.000000 14.569592 18.000000
70.562075 2.203408 -42.260951 0.000000 49.000000 14.177381 0.000000
67.161542 2.527328 -38.200345 0.000000 70.000000 14.491924 29.000000
69.345290 2.178960 -43.168027 0.000000 44.000000 14.161968 0.000000
69.209289 2.067203 -43.333084 0.000000 34.000000 14.051557 0.000000
70.919356 2.634686 -40.238083 0.000000 58.000000 14.596779 2.000000
69.137471 2.111897 -43.636453 0.000000 35.000000 14.098094 0.000000
69.091229 2.115399 -43.792674 0.000000 35.000000 14.102579 0.000000
65.542795 2.896104 -43.873368 0.000000 43.000000 14.896153 17.000000
69.027395 2.150492 -44.099007 0.000000 56.000000 14.139503 0.000000
68.949718 2.101421 -44.266786 0.000000 43.000000 14.091586 0.000000
65.487091 2.881702 -44.012162 0.000000 50.000000 14.882675 17.000000
68.870342 2.098159 -44.588351 0.000000 42.000000 14.090291 0.000000
68.839935 2.105899 -44.749442 0.000000 44.000000 14.098983 0.000000
68.807666 2.104964 -44.911766 0.000000 56.000000 14.099013 0.000000
68.779233 2.107815 -45.073898 0.000000 62.000000 14.102815 0.000000
70.533496 2.503592 -40.294890 0.000000 36.000000 14.467341 2.000000
64.023732 2.339644 -42.282299 0.000000 44.000000 14.336688 25.000000
66.141663 2.607069 -44.029444 0.000000 40.000000 14.605840 22.000000
68.197218 2.601898 -39.938623 0.000000 76.000000 14.571979 5.000000
67.490877 2.285871 -39.616534 0.000000 39.000000 14.256748 0.000000
68.164143 2.384949 -39.685836 0.000000 63.000000 14.353824 5.000000
68.523732 2.208780 -39.381454 0.000000 38.000000 14.174798 0.000000
67.340334 2.271081 -39.902371 0.000000 43.000000 14.243988 0.000000
67.032533 2.254182 -40.653585 0.000000 35.000000 14.232113 0.000000
66.545722 2.450231 -44.109759 0.000000 48.000000 14.448007 23.000000
67.956211 2.536659 -38.428956 0.000000 50.000000 14.499664 10.000000
66.942831 2.264450 -40.965038 0.000000 51.000000 14.244330 0.000000
65.084725 2.752209 -41.907437 0.000000 48.000000 14.743551 20.000000
69.452735 2.287580 -41.222159 0.000000 48.000000 14.259995 0.000000
68.663345 2.132837 -43.721515 0.000000 41.000000 14.121146 0.000000
66.243895 2.685868 -39.604650 0.000000 51.000000 14.661054 4.000000
66.605047 2.090641 -41.766635 0.000000 32.000000 14.075918 0.000000
70.978901 2.538212 -40.575870 0.000000 51.000000 14.501871 2.000000
64.575969 2.346870 -42.521956 0.000000 77.000000 14.343232 25.000000
67.293052 2.248199 -38.009031 0.000000 34.000000 14.211335 0.000000
68.897053 2.123875 -41.293455 0.000000 33.000000 14.098619 0.000000
67.972984 2.283433 -41.684449 0.000000 47.000000 14.263471 0.000000
67.956556 2.284343 -41.844048 0.000000 50.000000 14.265276 0.000000
66.995467 2.636396 -44.917556 0.000000 46.000000 14.636829 15.000000
67.871482 2.212035 -42.170054 0.000000 33.000000 14.194980 0.000000
67.776788 2.105287 -42.340408 0.000000 29.000000 14.089461 0.000000
67.216659 2.080940 -38.749491 0.000000 26.000000 14.048234 0.000000
69.683038 2.062414 -40.170926 0.000000 23.000000 14.028507 0.000000
67.274001 2.177459 -42.905038 0.000000 35.000000 14.166360 0.000000
66.489787 2.133486 -43.435572 0.000000 45.000000 14.127927 0.000000
68.058091 2.523760 -40.364652 0.000000 62.000000 14.496567 1.000000
67.892692 2.250012 -43.139324 0.000000 41.000000 14.237969 0.000000
67.886402 2.232953 -43.301702 0.000000 34.000000 14.221785 0.000000
66.576991 2.224994 -44.639668 0.000000 28.000000 14.225446 0.000000
66.202513 2.785021 -43.134666 0.000000 34.000000 14.778878 16.000000
66.593488 2.162444 -44.613639 0.000000 46.000000 14.162703 0.000000
67.853578 2.086474 -44.133368 0.000000 32.000000 14.079789 0.000000
64.973683 2.543963 -42.746537 0.000000 34.000000 14.540103 21.000000
69.695427 2.029487 -40.206973 0.000000 31.000000 13.995727 0.000000
67.923158 2.106940 -44.450490 0.000000 31.000000 14.101675 0.000000
65.767205 2.994663 -43.566487 0.000000 54.000000 14.992311 17.000000
66.578063 2.284655 -44.045725 0.000000 34.000000 14.281985 23.000000
68.099858 2.206438 -44.904202 0.000000 40.000000 14.202931 0.000000
67.287776 2.719968 -42.529971 0.000000 83.000000 14.706841 27.000000
68.181369 2.209126 -45.221725 0.000000 44.000000 14.207000 0.000000
67.825485 2.171812 -40.410236 0.000000 34.000000 14.145682 0.000000
68.206368 2.127209 -45.553645 0.000000 42.000000 14.126739 0.000000
67.356331 2.061065 -42.117427 0.000000 36.000000 14.045546 0.000000
68.636599 2.707243 -39.051622 0.000000 52.000000 14.671123 9.000000
64.375822 2.236803 -40.719328 0.000000 37.000000 14.224409 0.000000
69.913317 2.527200 -40.916859 0.000000 64.000000 14.496391 6.000000
64.392809 2.227909 -41.062686 0.000000 34.000000 14.217257 0.000000
70.666898 2.205873 -42.137347 0.000000 36.000000 14.178829 0.000000
70.174581 2.193503 -42.118300 0.000000 40.000000 14.168089 0.000000
70.098945 2.316820 -41.379302 0.000000 46.000000 14.287790 0.000000
70.064656 2.322869 -41.234055 0.000000 43.000000 14.293197 0.000000
66.347188 2.667367 -39.542286 0.000000 55.000000 14.641863 4.000000
69.540245 2.162769 -40.078940 0.000000 30.000000 14.128879 0.000000
64.924169 2.651621 -41.714667 0.000000 71.000000 14.642517 20.000000
64.984563 2.808637 -41.106781 0.000000 14.000000 14.796127 3.000000
64.978870 2.191935 -39.802330 0.000000 40.000000 14.172611 0.000000
66.927933 2.267908 -39.607200 0.000000 41.000000 14.240714 0.000000
65.512782 2.248608 -42.196304 0.000000 34.000000 14.239973 0.000000
68.440569 2.126858 -44.991925 0.000000 37.000000 14.122617 0.000000
67.310071 2.192971 -41.928758 0.000000 28.000000 14.176621 0.000000
67.214890 2.298852 -42.963612 0.000000 42.000000 14.288266 27.000000
65.412006 2.408008 -38.998957 0.000000 32.000000 14.382942 13.000000
69.590473 2.206765 -43.816088 0.000000 46.000000 14.192313 0.000000
69.173910 2.204151 -39.443733 0.000000 40.000000 14.168213 0.000000
66.498691 2.246650 -37.572829 0.000000 33.000000 14.210286 0.000000
68.267863 2.176701 -44.203022 0.000000 43.000000 14.168925 0.000000
69.889762 2.174712 -42.861028 0.000000 32.000000 14.154196 0.000000
67.969574 2.102868 -41.316833 0.000000 33.000000 14.080992 0.000000
65.514168 2.198150 -41.813850 0.000000 30.000000 14.187504 0.000000
68.215689 2.242753 -43.885252 0.000000 56.000000 14.233491 0.000000
67.411700 2.022167 -42.431971 0.000000 26.000000 14.008105 0.000000
68.160375 2.244206 -43.730121 0.000000 57.000000 14.234324 0.000000
65.959135 2.933065 -42.980247 0.000000 41.000000 14.926963 28.000000
68.112302 2.256550 -43.578761 0.000000 48.000000 14.246042 0.000000
68.070028 2.194455 -43.817751 0.000000 32.000000 14.185351 0.000000
67.120061 2.225752 -41.376167 0.000000 32.000000 14.207168 0.000000
66.194835 2.382636 -43.403361 0.000000 28.000000 14.377938 17.000000
69.177171 2.306560 -42.463478 0.000000 53.000000 14.286458 0.000000
67.348479 2.241090 -39.573432 0.000000 49.000000 14.212242 0.000000
70.935109 2.140040 -41.035903 0.000000 41.000000 14.106275 0.000000
67.901850 2.340472 -40.026301 0.000000 36.000000 14.312056 0.000000
67.537964 2.141326 -42.543830 0.000000 38.000000 14.127405 0.000000
67.448646 2.131359 -42.395423 0.000000 39.000000 14.116973 0.000000
67.347654 2.110002 -42.249485 0.000000 30.000000 14.095205 0.000000
63.784756 2.326277 -42.518342 0.000000 31.000000 14.325399 25.000000
68.174167 2.473954 -38.370516 0.000000 34.000000 14.435888 10.000000
68.564388 2.185951 -41.455809 0.000000 33.000000 14.162714 0.000000
67.596774 2.188098 -42.049485 0.000000 34.000000 14.171375 0.000000
64.834402 2.431168 -42.819786 0.000000 39.000000 14.428184 21.000000
68.358660 2.097220 -40.944807 0.000000 32.000000 14.072025 0.000000
68.379021 2.170854 -41.170264 0.000000 31.000000 14.146770 0.000000
67.102029 2.250625 -41.660845 0.000000 47.000000 14.233598 0.000000
65.145007 2.903690 -43.182339 0.000000 54.000000 14.901509 21.000000
66.937952 2.294240 -41.372962 0.000000 50.000000 14.276278 0.000000
66.811381 2.269843 -41.230965 0.000000 50.000000 14.251580 0.000000
69.111775 2.504317 -39.115142 0.000000 53.000000 14.466866 9.000000
65.695279 2.110692 -39.811018 0.000000 33.000000 14.088899 0.000000
67.991961 2.194518 -43.688418 0.000000 26.000000 14.185009 0.000000
66.251183 2.702990 -44.390827 0.000000 66.000000 14.703271 22.000000
68.349396 2.689873 -38.580637 0.000000 53.000000 14.652290 10.000000
68.046064 2.159404 -44.106175 0.000000 33.000000 14.151899 0.000000
66.109622 2.257903 -40.395658 0.000000 38.000000 14.237721 0.000000
67.006565 2.655881 -42.373143 0.000000 53.000000 14.642920 27.000000
65.983687 2.258882 -40.258021 0.000000 33.000000 14.238420 0.000000
64.200606 2.363563 -41.727591 0.000000 46.000000 14.357073 30.000000
66.178112 2.289861 -44.238814 0.000000 30.000000 14.289609 22.000000
67.194528 2.306544 -39.526826 0.000000 44.000000 14.277991 0.000000
66.399483 2.654221 -43.669706 0.000000 76.000000 14.650197 17.000000
67.067772 2.306560 -39.394436 0.000000 35.000000 14.277757 0.000000
65.168548 2.403025 -41.964177 0.000000 39.000000 14.394377 20.000000
65.454755 2.281572 -39.716051 0.000000 44.000000 14.260122 0.000000
69.167975 2.057403 -41.463246 0.000000 32.000000 14.032088 0.000000
66.277263 2.456263 -38.742906 0.000000 57.000000 14.426813 19.000000
70.979796 2.310558 -41.786679 0.000000 50.000000 14.280573 0.000000
70.881333 2.301488 -41.912782 0.000000 52.000000 14.272511 0.000000
66.423527 2.139588 -37.846280 0.000000 47.000000 14.104925 0.000000
66.392232 2.693519 -43.812653 0.000000 79.000000 14.690270 17.000000
70.560775 2.226902 -42.306154 0.000000 53.000000 14.201117 0.000000
70.249858 2.271306 -42.844689 0.000000 51.000000 14.249438 0.000000
66.163341 2.610467 -39.143942 0.000000 53.000000 14.583519 4.000000
70.086070 2.265282 -43.125886 0.000000 51.000000 14.245465 0.000000
70.001405 2.254165 -43.270439 0.000000 56.000000 14.235405 0.000000
65.384706 2.535640 -40.616867 0.000000 80.000000 14.519159 14.000000
69.778258 2.147483 -43.574348 0.000000 41.000000 14.131104 0.000000
69.723146 2.170709 -43.717512 0.000000 47.000000 14.155274 0.000000
66.496882 2.594774 -43.087898 0.000000 51.000000 14.587356 16.000000
65.040814 2.941676 -42.842630 0.000000 49.000000 14.938077 21.000000
68.391147 2.115363 -45.363593 0.000000 46.000000 14.113246 0.000000
68.345225 2.171003 -45.208102 0.000000 47.000000 14.168230 0.000000
68.024256 2.026959 -44.580644 0.000000 20.000000 14.022023 0.000000
67.667229 2.580882 -43.744429 0.000000 43.000000 14.572800 7.000000
68.653367 2.122644 -44.208526 0.000000 44.000000 14.113544 0.000000
69.434725 2.218459 -39.396147 0.000000 40.000000 14.181355 0.000000
68.174778 2.083186 -42.970069 0.000000 29.000000 14.069267 0.000000
67.755643 2.150315 -44.379924 0.000000 58.000000 14.145267 0.000000
69.918668 2.641605 -40.918382 0.000000 53.000000 14.610782 6.000000
68.094115 2.641390 -38.789885 0.000000 58.000000 14.605803 10.000000
67.744665 2.653668 -38.556815 0.000000 48.000000 14.618085 10.000000
66.904220 2.231563 -43.302515 0.000000 57.000000 14.223848 0.000000
66.299488 2.632952 -42.800366 0.000000 47.000000 14.624717 16.000000
65.639738 2.675039 -44.064366 0.000000 62.000000 14.675754 17.000000
69.497579 2.265945 -42.533609 0.000000 39.000000 14.245086 0.000000
65.195033 2.273443 -41.800236 0.000000 50.000000 14.263844 0.000000
63.545173 2.214475 -42.301944 0.000000 45.000000 14.213305 0.000000
69.408011 2.217677 -41.106050 0.000000 45.000000 14.189641 0.000000
69.186009 2.018298 -43.608262 0.000000 22.000000 14.004179 0.000000
65.938296 2.884544 -43.611844 0.000000 33.000000 14.881832 17.000000
65.675075 2.697302 -44.003757 0.000000 56.000000 14.697575 17.000000
64.664222 2.702874 -41.776064 0.000000 53.000000 14.695004 20.000000
68.656101 2.300765 -40.098659 0.000000 53.000000 14.270081 0.000000
69.603721 2.189159 -39.890692 0.000000 30.000000 14.154058 0.000000
68.499776 2.289582 -40.381708 0.000000 47.000000 14.260932 0.000000
69.492772 2.125089 -40.028679 0.000000 25.000000 14.091103 0.000000
68.449248 2.313209 -40.523877 0.000000 54.000000 14.285483 0.000000
69.159388 2.221859 -39.089626 0.000000 35.000000 14.184113 0.000000
64.557890 2.698587 -42.244726 0.000000 51.000000 14.693550 30.000000
63.665111 2.480855 -42.794025 0.000000 34.000000 14.481841 24.000000
67.217342 2.238013 -38.037729 0.000000 44.000000 14.201565 0.000000
69.483021 2.235823 -39.503597 0.000000 28.000000 14.199113 0.000000
65.549450 2.123144 -41.193831 0.000000 28.000000 14.109121 0.000000
65.719331 2.177740 -40.810960 0.000000 33.000000 14.161110 0.000000
67.906912 2.281811 -41.882944 0.000000 57.000000 14.263123 0.000000
65.102724 2.698933 -42.500467 0.000000 65.000000 14.693325 21.000000
64.341655 2.257033 -42.936260 0.000000 30.000000 14.256394 25.000000
67.633410 2.100306 -42.368594 0.000000 36.000000 14.085131 0.000000
67.207147 2.221102 -39.596595 0.000000 34.000000 14.192872 0.000000
68.996426 2.685763 -39.239426 0.000000 65.000000 14.649366 9.000000
67.641591 2.235568 -42.838069 0.000000 52.000000 14.222826 0.000000
71.148808 2.588797 -40.480911 0.000000 57.000000 14.551359 2.000000
67.626176 2.253413 -43.000102 0.000000 57.000000 14.241575 0.000000
68.860410 2.286685 -42.604724 0.000000 47.000000 14.268437 0.000000
66.703347 2.252826 -39.424325 0.000000 44.000000 14.225461 0.000000
68.609164 2.652677 -39.122481 0.000000 60.000000 14.617027 9.000000
67.573530 2.249473 -43.326432 0.000000 45.000000 14.239533 0.000000
66.950351 2.530185 -42.365375 0.000000 63.000000 14.517383 27.000000
65.013853 2.188464 -39.952850 0.000000 30.000000 14.169807 0.000000
69.648569 2.634397 -40.692237 0.000000 59.000000 14.603336 6.000000
70.256940 2.203099 -41.655613 0.000000 37.000000 14.174967 0.000000
68.724565 2.211913 -43.406052 0.000000 40.000000 14.198349 0.000000
65.720418 2.429144 -38.720943 0.000000 73.000000 14.401535 13.000000
67.393275 2.122305 -44.170976 0.000000 46.000000 14.117433 0.000000
68.742129 2.253033 -43.716775 0.000000 47.000000 14.241038 0.000000
67.465624 2.220866 -44.319924 0.000000 60.000000 14.216520 0.000000
65.398583 2.110708 -41.399614 0.000000 36.000000 14.098295 0.000000
68.755637 2.185949 -40.815696 0.000000 49.000000 14.158681 0.000000
68.712796 2.218226 -44.203065 0.000000 62.000000 14.208887 0.000000
68.876183 2.337772 -39.012019 0.000000 48.000000 14.300611 9.000000
68.861044 2.077670 -43.703366 0.000000 21.000000 14.065190 0.000000
67.674982 2.803223 -40.048394 0.000000 5.000000 14.775710 18.000000
66.905181 2.518037 -37.930836 0.000000 54.000000 14.482119 29.000000
68.641396 2.093773 -44.709151 0.000000 40.000000 14.087343 0.000000
66.065623 2.353740 -44.146126 0.000000 35.000000 14.353395 22.000000
68.674701 2.545058 -39.199349 0.000000 47.000000 14.509583 9.000000
64.951283 2.225272 -41.810998 0.000000 38.000000 14.216587 0.000000
68.699580 2.113235 -45.188201 0.000000 69.000000 14.109115 0.000000
68.712235 2.103620 -45.351019 0.000000 57.000000 14.100310 0.000000
70.199428 2.322086 -41.040076 0.000000 46.000000 14.290923 6.000000
66.787202 2.072597 -43.562815 0.000000 32.000000 14.066662 0.000000
69.422520 2.230495 -42.345163 0.000000 48.000000 14.208912 0.000000
64.823400 2.282803 -39.873255 0.000000 46.000000 14.264395 0.000000
66.631349 2.215753 -40.754782 0.000000 37.000000 14.195624 0.000000
64.711315 2.222963 -40.208405 0.000000 36.000000 14.206709 0.000000
65.338271 2.898306 -43.437231 0.000000 53.000000 14.896784 17.000000
68.430709 2.542037 -38.554597 0.000000 55.000000 14.504035 10.000000
67.455114 2.619573 -42.485980 0.000000 71.000000 14.605630 27.000000
63.691421 2.802114 -42.633831 0.000000 77.000000 14.802160 24.000000
