-28.889921 23.653006 18.562685 0.000000 47.000000 14.544210 14.000000
-31.333656 23.629914 18.898196 0.000000 38.000000 14.747630 1.000000
-32.352142 22.480036 18.105350 0.000000 42.000000 14.324153 0.000000
-28.913891 22.948184 17.997340 0.000000 37.000000 14.228312 0.000000
-32.017595 21.207651 14.710222 0.000000 44.000000 14.874873 22.000000
-31.598482 21.629786 15.630487 0.000000 37.000000 14.710103 10.000000
-30.448713 22.740955 17.996282 0.000000 45.000000 14.297100 0.000000
-30.789850 22.180998 16.927451 0.000000 26.000000 14.405820 19.000000
-29.201406 20.953562 13.372850 0.000000 57.000000 14.874080 13.000000
-32.199945 23.174377 18.267406 0.000000 46.000000 14.811280 2.000000
-31.450644 21.403534 15.580752 0.000000 43.000000 14.518333 10.000000
-31.881528 20.723733 14.770453 0.000000 70.000000 14.410574 22.000000
-27.658693 21.293955 14.661266 0.000000 35.000000 14.277134 0.000000
-28.367719 23.150428 17.161406 0.000000 68.000000 14.729454 18.000000
-32.825523 21.013898 15.981765 0.000000 37.000000 14.206038 0.000000
-27.010576 23.396849 16.878310 0.000000 56.000000 14.863804 15.000000
-30.315340 21.530874 15.018019 0.000000 46.000000 14.725668 9.000000
-29.491213 21.944922 16.359703 0.000000 25.000000 14.279710 0.000000
-32.928108 20.999449 14.786184 0.000000 61.000000 14.804876 20.000000
-31.277986 21.976816 17.052424 0.000000 42.000000 14.247456 0.000000
-28.685660 23.725069 18.220478 0.000000 53.000000 14.743299 14.000000
-30.306864 22.674962 17.917054 0.000000 38.000000 14.257606 0.000000
-28.386979 23.027622 17.130045 0.000000 47.000000 14.643418 18.000000
-32.011248 21.490188 14.851223 0.000000 43.000000 15.044624 22.000000
-29.688432 20.978001 13.620265 0.000000 55.000000 14.849563 13.000000
-30.516174 23.129364 18.479862 0.000000 42.000000 14.398474 27.000000
-29.387340 23.520428 19.043961 0.000000 35.000000 14.271126 0.000000
-29.080233 21.630308 15.245643 0.000000 51.000000 14.500088 6.000000
-27.447759 21.834055 15.532961 0.000000 52.000000 14.270335 0.000000
-28.066214 21.864242 15.594554 0.000000 51.000000 14.364139 0.000000
-28.786336 21.773566 15.806256 0.000000 49.000000 14.296435 0.000000
-32.861760 21.158886 15.049127 0.000000 67.000000 14.799422 20.000000
-27.260154 22.115325 15.878890 0.000000 48.000000 14.308127 0.000000
-27.764062 22.061649 15.949093 0.000000 48.000000 14.307858 0.000000
-32.234260 21.023343 14.366118 0.000000 54.000000 14.923488 25.000000
-27.838663 21.556096 14.951403 0.000000 46.000000 14.385036 5.000000
-27.876889 20.593833 13.430802 0.000000 43.000000 14.327129 0.000000
-30.276771 20.910197 14.115720 0.000000 69.000000 14.639166 23.000000
-32.945333 21.415057 16.409427 0.000000 40.000000 14.354457 0.000000
-31.520249 21.533031 16.293501 0.000000 42.000000 14.285276 0.000000
-27.992033 21.738515 15.622673 0.000000 29.000000 14.231107 0.000000
-31.273660 23.625829 18.965137 0.000000 41.000000 14.701269 1.000000
-30.755168 21.015110 13.974782 0.000000 46.000000 14.875089 23.000000
-29.442718 21.642017 15.309668 0.000000 60.000000 14.536073 6.000000
-29.032482 21.250015 15.106400 0.000000 40.000000 14.237477 0.000000
-30.521743 21.092701 14.002927 0.000000 48.000000 14.889991 23.000000
-32.512462 21.048678 15.885201 0.000000 40.000000 14.233768 0.000000
-32.273009 21.166869 16.027218 0.000000 34.000000 14.225677 0.000000
-30.312505 22.397813 17.060554 0.000000 40.000000 14.448289 19.000000
-31.102637 21.861063 15.674447 0.000000 64.000000 14.806297 12.000000
-31.929974 21.444629 16.292706 0.000000 41.000000 14.275687 0.000000
-26.799084 22.794919 15.624795 0.000000 66.000000 14.940413 16.000000
-27.471061 22.141520 16.027802 0.000000 50.000000 14.290042 0.000000
-31.283080 21.810768 16.751980 0.000000 42.000000 14.256153 0.000000
-28.353388 23.109556 16.722331 0.000000 6.000000 14.910751 18.000000
-26.652997 22.565370 16.566125 0.000000 36.000000 14.253071 0.000000
-32.712010 20.976603 14.196591 0.000000 70.000000 15.044221 29.000000
-26.541450 22.743170 16.723513 0.000000 38.000000 14.308573 0.000000
-28.680475 22.612341 16.700424 0.000000 49.000000 14.549896 0.000000
-29.112223 20.770807 14.168388 0.000000 32.000000 14.308249 0.000000
-30.299342 22.589845 17.721452 0.000000 45.000000 14.281139 0.000000
-30.330614 20.934953 14.110375 0.000000 47.000000 14.671527 23.000000
-29.943863 22.824116 18.091726 0.000000 38.000000 14.239952 0.000000
-31.188158 23.669007 19.150307 0.000000 56.000000 14.632320 1.000000
-29.361593 20.741536 13.550587 0.000000 39.000000 14.630438 13.000000
-30.739166 21.280607 14.182754 0.000000 67.000000 14.995451 23.000000
-28.096919 21.722032 14.939301 0.000000 52.000000 14.573761 5.000000
-33.350954 20.811100 15.094191 0.000000 47.000000 14.558535 20.000000
-27.854502 23.308689 17.340701 0.000000 46.000000 14.693291 18.000000
-27.911039 20.657946 13.609111 0.000000 41.000000 14.298540 0.000000
-27.840223 20.966583 13.996684 0.000000 51.000000 14.357588 0.000000
-27.753610 21.156110 14.228951 0.000000 42.000000 14.389818 7.000000
-27.211533 23.266756 16.737879 0.000000 57.000000 14.854814 15.000000
-27.185951 23.306181 17.799735 0.000000 40.000000 14.356088 0.000000
-29.903207 21.247627 14.356000 0.000000 42.000000 14.747723 24.000000
-28.727129 23.033776 18.282374 0.000000 22.000000 14.129685 0.000000
-33.263088 21.120381 15.203437 0.000000 50.000000 14.753876 20.000000
-29.693658 22.989212 18.346879 0.000000 37.000000 14.213855 0.000000
-30.766432 20.626932 13.898885 0.000000 68.000000 14.583659 25.000000
-30.656468 22.936253 18.385501 0.000000 44.000000 14.303150 0.000000
-26.914239 23.549176 18.292831 0.000000 36.000000 14.274607 0.000000
-33.340614 21.021095 14.753252 0.000000 42.000000 14.905552 21.000000
-27.486770 23.493403 18.308811 0.000000 52.000000 14.310478 0.000000
-31.385787 22.815487 18.471545 0.000000 41.000000 14.273772 0.000000
-31.841923 22.780235 18.478144 0.000000 42.000000 14.313230 0.000000
-28.869485 23.797040 18.421412 0.000000 38.000000 14.734043 14.000000
-29.157641 23.121299 18.466635 0.000000 34.000000 14.181355 0.000000
-30.443254 23.386804 18.539437 0.000000 50.000000 14.576708 27.000000
-26.714081 22.467582 16.446227 0.000000 25.000000 14.239087 0.000000
-30.814704 22.942950 18.409597 0.000000 44.000000 14.322128 0.000000
-33.057233 21.167428 15.042048 0.000000 57.000000 14.841425 20.000000
-30.694304 21.148714 14.886348 0.000000 47.000000 14.525802 23.000000
-30.581598 21.613539 15.027041 0.000000 53.000000 14.834160 9.000000
-28.862063 21.231679 14.985492 0.000000 45.000000 14.254794 0.000000
-26.887536 23.020470 16.763141 0.000000 39.000000 14.580538 15.000000
-28.157372 21.812077 15.548574 0.000000 51.000000 14.357083 0.000000
-27.918299 21.930914 15.714281 0.000000 47.000000 14.337817 0.000000
-27.638282 22.038355 15.892892 0.000000 42.000000 14.295881 0.000000
-30.994514 21.141702 13.901081 0.000000 70.000000 15.057894 25.000000
-31.681240 21.088621 13.927892 0.000000 38.000000 15.108897 25.000000
-32.198534 22.486731 17.158255 0.000000 55.000000 14.776513 3.000000
-30.402154 21.358234 14.196185 0.000000 47.000000 15.001171 23.000000
-32.696370 21.735319 16.941104 0.000000 41.000000 14.323296 0.000000
-32.112788 22.665872 17.785124 0.000000 55.000000 14.603715 3.000000
-32.203476 21.978056 17.286650 0.000000 41.000000 14.279698 0.000000
-28.139384 21.630224 15.144326 0.000000 43.000000 14.400260 5.000000
-29.933667 21.221768 14.292336 0.000000 42.000000 14.762207 24.000000
-30.626009 21.287172 13.991099 0.000000 50.000000 15.078335 23.000000
-29.590890 20.940362 14.404907 0.000000 47.000000 14.411553 24.000000
-30.352283 21.788347 15.209300 0.000000 61.000000 14.855942 9.000000
-27.671983 22.115934 16.093403 0.000000 36.000000 14.267657 0.000000
-28.107211 22.088963 16.181056 0.000000 44.000000 14.270516 0.000000
-28.502042 22.049199 16.269018 0.000000 37.000000 14.255866 0.000000
-28.931515 22.019199 16.346588 0.000000 42.000000 14.260241 0.000000
-29.322152 21.973708 16.425573 0.000000 36.000000 14.244504 0.000000
-29.928876 21.988396 16.451631 0.000000 46.000000 14.340897 0.000000
-27.583616 22.648706 15.991322 0.000000 46.000000 14.758612 4.000000
-30.786482 21.917085 16.564906 0.000000 44.000000 14.360615 0.000000
-31.637445 23.604982 19.303444 0.000000 49.000000 14.573251 1.000000
-28.761359 21.739990 15.214588 0.000000 54.000000 14.558167 6.000000
-31.514100 21.804262 16.691841 0.000000 43.000000 14.317395 0.000000
-29.576916 20.875293 14.160265 0.000000 71.000000 14.475546 24.000000
-28.422211 23.313517 17.591730 0.000000 51.000000 14.663131 18.000000
-29.007711 22.153144 16.544487 0.000000 48.000000 14.288159 0.000000
-27.733050 22.446222 16.209996 0.000000 55.000000 14.501024 4.000000
-27.747849 23.392052 17.874781 0.000000 43.000000 14.481652 17.000000
-29.934694 22.009452 16.618036 0.000000 45.000000 14.276996 0.000000
-33.503333 21.009901 14.579864 0.000000 48.000000 15.008235 21.000000
-30.878724 21.872623 16.665524 0.000000 40.000000 14.287370 0.000000
-31.402705 21.822719 16.667337 0.000000 44.000000 14.327544 0.000000
-31.786051 21.730739 16.698190 0.000000 43.000000 14.294949 0.000000
-31.259904 23.460540 18.890244 0.000000 55.000000 14.595396 1.000000
-32.716597 21.607158 16.700632 0.000000 40.000000 14.336877 0.000000
-29.562502 21.525689 15.566083 0.000000 47.000000 14.328439 0.000000
-31.977805 23.484133 18.662689 0.000000 12.000000 14.843296 2.000000
-30.497788 21.705625 15.258927 0.000000 45.000000 14.783942 9.000000
-28.006451 23.165333 17.235088 0.000000 33.000000 14.647849 18.000000
-32.354162 21.687153 16.725628 0.000000 41.000000 14.334806 0.000000
-30.788842 22.320270 16.742942 0.000000 56.000000 14.616202 19.000000
-32.071967 21.783682 16.901422 0.000000 41.000000 14.284619 0.000000
-31.868462 21.906329 17.061622 0.000000 41.000000 14.277019 0.000000
-27.804865 22.538916 16.712115 0.000000 50.000000 14.341725 0.000000
-31.774063 22.060760 17.197038 0.000000 42.000000 14.326263 0.000000
-26.667450 23.253215 17.656174 0.000000 45.000000 14.299593 0.000000
-30.837632 22.815659 18.188524 0.000000 44.000000 14.327231 0.000000
-30.680590 22.934221 18.370602 0.000000 37.000000 14.312680 0.000000
-30.656997 22.275954 16.718080 0.000000 44.000000 14.569741 19.000000
-27.898255 20.955536 14.014584 0.000000 51.000000 14.348526 0.000000
-28.142536 21.159316 14.506774 0.000000 49.000000 14.316411 0.000000
-28.030753 20.884227 13.851618 0.000000 44.000000 14.389943 8.000000
-28.750163 20.780459 14.172133 0.000000 20.000000 14.256830 0.000000
-26.580720 23.561830 18.150231 0.000000 43.000000 14.303108 0.000000
-32.221522 23.618720 18.750337 0.000000 40.000000 14.953347 2.000000
-27.268211 23.493150 18.341570 0.000000 38.000000 14.259083 0.000000
-27.900658 21.061031 14.375739 0.000000 25.000000 14.259191 0.000000
-29.267791 23.318666 18.656260 0.000000 40.000000 14.272887 0.000000
-31.481040 21.491258 15.404673 0.000000 44.000000 14.685581 10.000000
-29.667251 23.358615 18.817681 0.000000 43.000000 14.290399 0.000000
-32.987923 20.928297 14.779968 0.000000 52.000000 14.756846 20.000000
-28.956559 21.849983 15.596957 0.000000 24.000000 14.492884 6.000000
-29.767358 21.045628 14.964581 0.000000 44.000000 14.251044 0.000000
-28.498411 21.866249 15.823566 0.000000 49.000000 14.320899 0.000000
-28.800845 23.736393 18.220069 0.000000 40.000000 14.771542 14.000000
-27.804357 22.236742 16.330488 0.000000 39.000000 14.273846 0.000000
-32.286514 23.270781 18.211762 0.000000 56.000000 14.934979 2.000000
-28.225313 22.796658 16.807798 0.000000 63.000000 14.580995 18.000000
-26.715172 23.267410 17.719211 0.000000 38.000000 14.287953 0.000000
-32.908258 20.777571 14.984933 0.000000 64.000000 14.513645 20.000000
-32.306477 22.104804 17.595349 0.000000 40.000000 14.250637 0.000000
-32.259434 22.281288 17.725377 0.000000 41.000000 14.328923 0.000000
-27.312351 20.993587 13.805646 0.000000 32.000000 14.391404 8.000000
-31.716384 22.682367 18.257142 0.000000 42.000000 14.319691 0.000000
-31.459554 22.791278 18.465274 0.000000 42.000000 14.268022 0.000000
-28.853176 22.319188 16.699558 0.000000 41.000000 14.327929 0.000000
-28.504027 23.165273 17.501789 0.000000 37.000000 14.594531 18.000000
-31.960348 20.851367 14.733544 0.000000 63.000000 14.550344 22.000000
-29.998782 20.820978 13.826267 0.000000 51.000000 14.662724 13.000000
-30.803509 22.081201 17.024749 0.000000 42.000000 14.274503 0.000000
-27.279293 22.635260 16.801921 0.000000 51.000000 14.295315 0.000000
-31.126752 22.010978 17.092235 0.000000 32.000000 14.232642 0.000000
-31.548169 21.963283 17.130568 0.000000 37.000000 14.240163 0.000000
-30.555995 21.883317 16.475953 0.000000 32.000000 14.339289 0.000000
-28.018161 21.311106 13.531737 0.000000 62.000000 14.911054 8.000000
-28.665231 22.395239 16.957036 0.000000 38.000000 14.234687 0.000000
-32.470895 21.902547 17.162178 0.000000 40.000000 14.319918 0.000000
-29.023349 22.292104 17.018674 0.000000 38.000000 14.173239 0.000000
-31.276372 22.821809 17.948648 0.000000 47.000000 14.521833 28.000000
-31.002222 22.037573 17.071374 0.000000 39.000000 14.245822 0.000000
-30.974483 21.335602 14.139245 0.000000 60.000000 15.101545 23.000000
-30.962595 21.217415 14.809009 0.000000 56.000000 14.665675 23.000000
-32.026281 23.426276 18.693852 0.000000 58.000000 14.786197 2.000000
-30.297844 21.878060 15.552055 0.000000 55.000000 14.753233 11.000000
-29.055599 22.109062 16.404372 0.000000 47.000000 14.327920 0.000000
-32.084772 20.931103 14.612442 0.000000 44.000000 14.698437 22.000000
-28.800285 22.246224 16.574550 0.000000 48.000000 14.319464 0.000000
-32.594664 21.843268 17.043130 0.000000 40.000000 14.348351 0.000000
-32.324551 21.941466 17.222813 0.000000 40.000000 14.299580 0.000000
-28.393444 22.554581 16.908881 0.000000 49.000000 14.351132 0.000000
-31.722367 22.424040 17.231991 0.000000 57.000000 14.610379 3.000000
-31.496319 22.569390 18.036750 0.000000 42.000000 14.297879 0.000000
-27.091238 23.215702 17.898819 0.000000 29.000000 14.214531 0.000000
-31.287352 22.675541 18.226510 0.000000 39.000000 14.260636 0.000000
-31.116086 22.791809 18.407822 0.000000 39.000000 14.242239 0.000000
-28.505577 20.791041 14.176628 0.000000 25.000000 14.224582 0.000000
-28.189729 21.204426 14.614893 0.000000 41.000000 14.308619 0.000000
-28.647712 21.187819 14.710264 0.000000 48.000000 14.320107 0.000000
-30.995461 23.673810 18.887903 0.000000 24.000000 14.736203 1.000000
-31.023080 21.454152 15.314325 0.000000 61.000000 14.625798 10.000000
-28.318084 23.301314 17.233352 0.000000 49.000000 14.814395 18.000000
-30.205599 21.034813 15.087786 0.000000 44.000000 14.250472 0.000000
-27.552719 22.352018 16.025769 0.000000 68.000000 14.483569 4.000000
-27.074564 21.481340 14.788730 0.000000 36.000000 14.280271 0.000000
-30.179103 21.879279 15.603632 0.000000 57.000000 14.709662 11.000000
-32.275589 20.956487 14.320364 0.000000 68.000000 14.895840 25.000000
-29.242938 22.139659 16.597374 0.000000 36.000000 14.287893 0.000000
-29.055847 21.262050 15.079486 0.000000 41.000000 14.264857 0.000000
-30.377946 22.596374 16.906832 0.000000 44.000000 14.704514 19.000000
-27.350222 23.339120 17.057694 0.000000 26.000000 14.779547 15.000000
-28.612769 22.690683 17.016126 0.000000 49.000000 14.448832 18.000000
-29.573313 23.544235 19.202641 0.000000 38.000000 14.242166 0.000000
-28.143429 21.547680 15.061113 0.000000 44.000000 14.371921 0.000000
-30.394097 21.135481 15.101765 0.000000 44.000000 14.359438 0.000000
-29.627768 21.501831 15.536331 0.000000 46.000000 14.333314 0.000000
-28.946008 21.887284 15.995528 0.000000 47.000000 14.324722 0.000000
-30.767010 21.023937 13.975159 0.000000 73.000000 14.884317 23.000000
-30.691366 20.686467 14.130938 0.000000 51.000000 14.506998 25.000000
-27.192154 23.309166 17.870098 0.000000 51.000000 14.324619 0.000000
-31.395836 23.398153 19.357362 0.000000 42.000000 14.331511 0.000000
-30.695870 22.663744 16.929433 0.000000 63.000000 14.801455 19.000000
-26.584616 22.674997 16.644733 0.000000 35.000000 14.296526 0.000000
-28.057960 21.085083 13.547702 0.000000 73.000000 14.716743 8.000000
-28.547420 22.462389 17.066439 0.000000 35.000000 14.218714 0.000000
-30.495949 21.144563 15.117790 0.000000 39.000000 14.375466 9.000000
-28.015912 20.482944 13.334864 0.000000 22.000000 14.302494 0.000000
-32.318150 22.039345 17.416206 0.000000 39.000000 14.285806 0.000000
-29.298883 22.540690 17.195498 0.000000 47.000000 14.341208 0.000000
-31.875124 22.027890 17.286138 0.000000 40.000000 14.270039 0.000000
-28.577523 23.647161 18.336181 0.000000 56.000000 14.602050 14.000000
-30.236159 22.518913 17.114834 0.000000 32.000000 14.512358 19.000000
-26.787334 23.237041 16.768059 0.000000 65.000000 14.746761 15.000000
-31.161975 23.280499 18.908330 0.000000 53.000000 14.417255 1.000000
-29.291346 21.994128 16.432372 0.000000 40.000000 14.253616 0.000000
-29.077009 22.147549 16.589072 0.000000 40.000000 14.272268 0.000000
-26.689186 23.340401 16.920660 0.000000 45.000000 14.743310 15.000000
-27.689674 21.151858 13.492047 0.000000 50.000000 14.742588 8.000000
-28.522132 22.409943 16.956503 0.000000 40.000000 14.224651 0.000000
-32.364227 21.996409 17.367158 0.000000 34.000000 14.280951 0.000000
-27.778730 22.644256 16.278227 0.000000 51.000000 14.643227 4.000000
-32.167491 22.113035 17.534518 0.000000 36.000000 14.265735 0.000000
-32.178627 22.295304 17.646199 0.000000 40.000000 14.367367 0.000000
-31.939818 22.396515 17.832800 0.000000 41.000000 14.322720 0.000000
-31.740206 22.508463 18.013530 0.000000 41.000000 14.296405 0.000000
-31.557306 22.649662 17.530927 0.000000 42.000000 14.627698 3.000000
-31.268410 22.021151 15.857453 0.000000 53.000000 14.878213 12.000000
-32.806636 21.136740 14.304733 0.000000 41.000000 15.142067 29.000000
-28.105880 21.002597 13.739882 0.000000 57.000000 14.558451 8.000000
-27.967253 21.381212 14.920000 0.000000 38.000000 14.272064 0.000000
-30.541780 23.167740 18.381415 0.000000 24.000000 14.484259 27.000000
-33.439982 21.016735 14.574897 0.000000 60.000000 15.006423 21.000000
-30.082943 21.033594 14.401126 0.000000 46.000000 14.571461 24.000000
-31.613250 21.032961 15.613735 0.000000 28.000000 14.211902 0.000000
-31.945755 20.965923 15.681346 0.000000 36.000000 14.174174 0.000000
-30.803678 22.027179 16.128674 0.000000 61.000000 14.674252 12.000000
-31.558700 21.011571 15.601028 0.000000 29.000000 14.191279 0.000000
-31.910109 20.918984 15.643469 0.000000 39.000000 14.147305 0.000000
-31.321589 23.419532 19.494440 0.000000 34.000000 14.269696 0.000000
-31.646207 23.339884 19.524724 0.000000 33.000000 14.238526 0.000000
-27.357862 23.223785 17.012611 0.000000 52.000000 14.704853 15.000000
-31.499120 23.303837 19.386060 0.000000 40.000000 14.253299 0.000000
-31.734741 23.162444 19.418673 0.000000 33.000000 14.154119 0.000000
-28.024694 23.193876 17.682632 0.000000 39.000000 14.452451 18.000000
-26.802286 22.992197 16.887350 0.000000 62.000000 14.481032 15.000000
-29.029759 21.928657 16.102444 0.000000 43.000000 14.320177 0.000000
-28.690810 22.019083 16.290984 0.000000 36.000000 14.249387 0.000000
-32.983603 21.090225 15.500356 0.000000 36.000000 14.535843 20.000000
-31.523869 23.297911 19.359364 0.000000 38.000000 14.265476 0.000000
-31.361981 23.416291 19.564016 0.000000 41.000000 14.238766 0.000000
-27.555087 20.451436 13.172436 0.000000 41.000000 14.282886 0.000000
-28.718697 22.715965 17.257150 0.000000 47.000000 14.367389 0.000000
-28.976407 22.626472 17.353271 0.000000 35.000000 14.284393 0.000000
-31.378474 21.753409 16.079452 0.000000 49.000000 14.557044 12.000000
-29.803118 22.529167 17.448488 0.000000 45.000000 14.285999 0.000000
-29.922356 22.395805 17.568679 0.000000 34.000000 14.131524 0.000000
-28.238056 22.859215 17.388088 0.000000 44.000000 14.347683 0.000000
-28.533274 22.732839 17.455579 0.000000 37.000000 14.253467 0.000000
-32.548033 21.028035 14.980524 0.000000 61.000000 14.671908 22.000000
-31.814756 22.664263 17.472444 0.000000 45.000000 14.710331 3.000000
-29.012890 23.885226 18.692060 0.000000 37.000000 14.697480 30.000000
-32.134799 21.172712 14.068487 0.000000 52.000000 15.183043 25.000000
-29.819087 22.461091 17.521489 0.000000 37.000000 14.194185 0.000000
-32.167815 22.093009 17.455087 0.000000 44.000000 14.288228 0.000000
-31.753449 22.641487 17.217175 0.000000 50.000000 14.808120 3.000000
-29.902600 20.827759 13.418201 0.000000 62.000000 14.856162 13.000000
-27.429739 20.651722 13.433896 0.000000 45.000000 14.303584 0.000000
-29.753045 21.979556 16.428936 0.000000 45.000000 14.316588 0.000000
-29.417478 22.092895 16.623254 0.000000 40.000000 14.263000 0.000000
-30.653843 21.354741 13.912844 0.000000 68.000000 15.179321 23.000000
-28.500798 22.975456 17.196705 0.000000 49.000000 14.583941 18.000000
-28.671270 22.497048 17.165461 0.000000 37.000000 14.218771 0.000000
-30.450261 21.973186 15.566399 0.000000 44.000000 14.851533 11.000000
-30.899669 23.570072 18.822269 0.000000 49.000000 14.665113 1.000000
-27.649010 21.303706 13.765892 0.000000 42.000000 14.729339 8.000000
-32.233878 22.360792 17.831599 0.000000 40.000000 14.339790 0.000000
-31.824578 22.404812 18.079558 0.000000 32.000000 14.188643 0.000000
-31.758721 22.554537 18.225989 0.000000 37.000000 14.232950 0.000000
-28.647628 23.677921 18.351786 0.000000 55.000000 14.631704 14.000000
-29.706125 21.114718 14.096476 0.000000 65.000000 14.732052 24.000000
-30.727342 20.645401 13.906296 0.000000 60.000000 14.589481 25.000000
-26.907526 21.724169 15.335248 0.000000 34.000000 14.188777 0.000000
-31.323583 21.199051 15.719150 0.000000 35.000000 14.254848 0.000000
-27.634642 21.317480 14.152675 0.000000 72.000000 14.546371 7.000000
-32.087716 21.092693 15.811276 0.000000 34.000000 14.240285 0.000000
-29.198232 21.560329 15.474928 0.000000 45.000000 14.345186 0.000000
-28.102195 21.094381 13.687282 0.000000 49.000000 14.662291 8.000000
-32.157401 22.235980 17.384652 0.000000 50.000000 14.443512 3.000000
-32.788335 20.964491 15.900430 0.000000 31.000000 14.198438 0.000000
-29.348745 21.722689 15.602865 0.000000 66.000000 14.444000 6.000000
-31.176787 21.174804 14.798832 0.000000 39.000000 14.668591 23.000000
-32.120662 21.017849 15.703588 0.000000 36.000000 14.235300 0.000000
-31.293461 21.605810 15.269483 0.000000 56.000000 14.820572 10.000000
-27.471592 21.300443 13.448481 0.000000 40.000000 14.856149 8.000000
-31.559019 23.423760 19.609455 0.000000 37.000000 14.253976 0.000000
-31.517522 23.384223 19.410781 0.000000 41.000000 14.312479 0.000000
-31.766864 23.242408 19.434803 0.000000 32.000000 14.219403 0.000000
-28.049421 20.748783 13.848162 0.000000 41.000000 14.279154 0.000000
-29.122143 21.839940 16.113617 0.000000 45.000000 14.253717 0.000000
-28.939661 21.976697 16.268638 0.000000 33.000000 14.264080 0.000000
-28.754681 22.290347 16.548466 0.000000 46.000000 14.362784 0.000000
-28.340244 22.532863 16.903839 0.000000 47.000000 14.326631 0.000000
-31.902386 23.566791 18.908986 0.000000 66.000000 14.779209 2.000000
-31.948437 23.150154 19.067817 0.000000 42.000000 14.352291 0.000000
-30.675175 22.669830 17.096525 0.000000 53.000000 14.720215 19.000000
-32.626567 21.240041 14.837227 0.000000 53.000000 14.936500 22.000000
-27.627676 22.132887 16.000138 0.000000 34.000000 14.321439 0.000000
-28.299557 22.829194 17.419940 0.000000 37.000000 14.316054 0.000000
-28.604386 22.749468 17.501251 0.000000 35.000000 14.256275 0.000000
-29.039459 22.703448 17.540440 0.000000 32.000000 14.266977 0.000000
-27.783292 21.687806 14.047742 0.000000 65.000000 14.938062 7.000000
-33.115790 20.814024 14.948607 0.000000 53.000000 14.595922 20.000000
-27.678964 20.975112 13.346331 0.000000 49.000000 14.662666 8.000000
-28.760874 22.787723 17.568532 0.000000 36.000000 14.280398 0.000000
-32.182271 22.211102 17.756132 0.000000 34.000000 14.241462 0.000000
-28.234022 21.081736 13.839511 0.000000 51.000000 14.596817 8.000000
-31.058901 21.019356 14.261425 0.000000 61.000000 14.784584 23.000000
-26.635008 22.770934 16.522735 0.000000 36.000000 14.447062 15.000000
-32.034401 20.898921 15.595416 0.000000 24.000000 14.173941 0.000000
-31.289694 21.745871 15.588719 0.000000 49.000000 14.780580 10.000000
-30.526448 21.309023 14.466074 0.000000 53.000000 14.844782 23.000000
-29.616928 20.897476 14.183684 0.000000 78.000000 14.489197 24.000000
-33.357179 20.856495 14.658548 0.000000 67.000000 14.814961 21.000000
-31.986536 22.658982 17.298886 0.000000 58.000000 14.819587 3.000000
-27.061383 23.124809 16.769980 0.000000 47.000000 14.693847 15.000000
-31.308186 21.356250 14.274939 0.000000 42.000000 15.104904 23.000000
-32.747394 21.864791 17.167952 0.000000 37.000000 14.328981 0.000000
-28.742172 22.347619 16.999549 0.000000 36.000000 14.185214 0.000000
-32.486233 21.955480 17.356303 0.000000 38.000000 14.270925 0.000000
-28.791774 22.562820 17.115703 0.000000 46.000000 14.318838 0.000000
-27.725082 20.971515 13.349907 0.000000 55.000000 14.665180 8.000000
-28.628384 22.713636 17.288188 0.000000 48.000000 14.335548 0.000000
-32.129423 22.191982 17.698296 0.000000 34.000000 14.245497 0.000000
-32.059940 22.343288 17.842666 0.000000 40.000000 14.291599 0.000000
-32.182204 20.975090 14.574038 0.000000 58.000000 14.770599 22.000000
-31.725886 22.574254 18.201311 0.000000 40.000000 14.256799 0.000000
-27.885953 23.275618 18.055843 0.000000 48.000000 14.314339 0.000000
-27.522405 22.724887 15.968223 0.000000 48.000000 14.825291 4.000000
-30.929087 23.533307 19.614819 0.000000 26.000000 14.244177 0.000000
-29.398271 21.535653 15.573252 0.000000 41.000000 14.307158 0.000000
-27.124747 21.827811 15.487297 0.000000 36.000000 14.236175 0.000000
-30.998728 21.899858 15.493178 0.000000 45.000000 14.912971 12.000000
-27.813891 21.814634 15.496895 0.000000 48.000000 14.330153 0.000000
-30.635298 22.662049 16.924468 0.000000 57.000000 14.792812 19.000000
-30.054354 21.823354 15.848390 0.000000 57.000000 14.520303 11.000000
-32.169074 21.171936 15.916097 0.000000 32.000000 14.268690 0.000000
-29.224625 21.599266 15.621947 0.000000 45.000000 14.309459 0.000000
-27.959502 21.754793 13.524770 0.000000 1.000000 15.283474 8.000000
-28.270457 22.867464 16.923191 0.000000 49.000000 14.591167 18.000000
-33.127744 20.943921 16.037605 0.000000 26.000000 14.166826 0.000000
-31.379703 21.215718 15.751304 0.000000 40.000000 14.262019 0.000000
-28.088290 22.815868 16.992574 0.000000 37.000000 14.483582 18.000000
-32.158994 21.051541 15.782782 0.000000 35.000000 14.230748 0.000000
-31.126053 23.514461 19.689001 0.000000 37.000000 14.222639 0.000000
-31.533464 23.456863 19.675277 0.000000 36.000000 14.245378 0.000000
-31.916293 23.394692 19.664535 0.000000 39.000000 14.258811 0.000000
-27.877895 21.365319 14.527489 0.000000 42.000000 14.439520 7.000000
-30.573478 23.436248 18.695489 0.000000 49.000000 14.562017 27.000000
-30.794907 20.588353 13.947202 0.000000 55.000000 14.531272 25.000000
-31.109027 21.188207 13.699581 0.000000 66.000000 15.216067 25.000000
-28.170089 20.716849 13.869347 0.000000 37.000000 14.260645 0.000000
-28.020323 20.906543 13.972952 0.000000 48.000000 14.346945 0.000000
-30.581912 22.594812 16.952703 0.000000 50.000000 14.712915 19.000000
-31.531378 21.431554 15.680747 0.000000 34.000000 14.505363 10.000000
-31.958753 23.248126 18.337771 0.000000 69.000000 14.800663 2.000000
-29.040623 22.121586 16.412076 0.000000 44.000000 14.332376 0.000000
-30.751617 21.577743 15.100742 0.000000 52.000000 14.794108 9.000000
-30.604895 21.563154 14.999469 0.000000 41.000000 14.808634 9.000000
-26.817079 23.427521 16.952431 0.000000 57.000000 14.822201 15.000000
-27.693754 21.111848 13.348956 0.000000 72.000000 14.780310 8.000000
-27.580076 23.378328 18.184230 0.000000 45.000000 14.289227 0.000000
-27.447167 23.485604 18.378423 0.000000 40.000000 14.262876 0.000000
-30.861420 21.227565 14.093401 0.000000 40.000000 15.014188 23.000000
-30.700360 22.204599 16.752685 0.000000 41.000000 14.498605 19.000000
-31.698431 23.408209 19.623141 0.000000 41.000000 14.256158 0.000000
-31.597975 23.527323 19.822418 0.000000 34.000000 14.242552 0.000000
-30.836456 22.406893 16.950724 0.000000 35.000000 14.594293 19.000000
-27.576526 20.670072 13.487141 0.000000 48.000000 14.316169 0.000000
-29.852695 21.317476 14.176147 0.000000 40.000000 14.888693 24.000000
-29.320757 22.774191 17.658902 0.000000 45.000000 14.313259 0.000000
-31.046242 22.538623 17.598962 0.000000 47.000000 14.417606 28.000000
-27.368436 21.463643 14.764525 0.000000 27.000000 14.324125 0.000000
-30.062590 22.640057 17.736118 0.000000 38.000000 14.278871 0.000000
-30.472154 22.582731 17.758502 0.000000 41.000000 14.284222 0.000000
-31.993959 22.315819 17.818610 0.000000 39.000000 14.269614 0.000000
-29.006754 22.800571 17.665373 0.000000 44.000000 14.282418 0.000000
-30.742140 22.528595 17.094110 0.000000 44.000000 14.611678 19.000000
-27.617813 22.314500 16.068447 0.000000 48.000000 14.440736 4.000000
-30.237127 22.506723 17.680389 0.000000 33.000000 14.220762 0.000000
-32.179095 22.230627 17.531364 0.000000 47.000000 14.369423 0.000000
-29.986749 21.163474 14.465491 0.000000 45.000000 14.634832 24.000000
-31.319491 20.910863 15.480882 0.000000 30.000000 14.127002 0.000000
-31.360356 21.138662 15.561711 0.000000 40.000000 14.287549 0.000000
-29.946168 21.922970 16.525765 0.000000 43.000000 14.250990 0.000000
-30.031103 22.239262 17.017004 0.000000 32.000000 14.289852 0.000000
-29.486589 22.185673 16.880786 0.000000 38.000000 14.225020 0.000000
-31.428384 21.736849 16.238029 0.000000 43.000000 14.471999 12.000000
-28.739001 23.013861 17.471325 0.000000 44.000000 14.518085 18.000000
-32.651200 22.037347 17.579661 0.000000 37.000000 14.255941 0.000000
-29.018130 22.630540 17.393209 0.000000 38.000000 14.274652 0.000000
-28.735786 23.424395 18.227679 0.000000 49.000000 14.491343 14.000000
-28.815091 22.763125 17.584437 0.000000 38.000000 14.260164 0.000000
-30.163136 22.391321 17.043550 0.000000 45.000000 14.427373 19.000000
-32.069578 21.337299 14.900789 0.000000 43.000000 14.898912 22.000000
-29.954181 21.220431 13.895025 0.000000 42.000000 14.961998 24.000000
-28.332623 23.006926 17.248013 0.000000 51.000000 14.558409 18.000000
-31.343199 23.461541 19.669738 0.000000 31.000000 14.221756 0.000000
-27.283829 21.743713 15.440356 0.000000 42.000000 14.213210 0.000000
-28.123377 21.831168 15.118133 0.000000 39.000000 14.582074 5.000000
-27.540441 21.886282 15.588737 0.000000 48.000000 14.301911 0.000000
-31.180650 21.841008 15.726693 0.000000 51.000000 14.775656 12.000000
-31.461370 21.282783 15.964053 0.000000 35.000000 14.226398 0.000000
-31.248730 21.306450 14.364390 0.000000 45.000000 15.008451 23.000000
-32.234820 21.168717 16.020404 0.000000 33.000000 14.224547 0.000000
-28.176296 23.377567 17.031329 0.000000 51.000000 14.957288 18.000000
-29.038528 24.030068 18.651080 0.000000 32.000000 14.845460 30.000000
-31.097023 21.264497 15.807470 0.000000 40.000000 14.230554 0.000000
-30.384774 21.431805 14.092633 0.000000 69.000000 15.112645 23.000000
-32.508278 21.242031 14.900996 0.000000 52.000000 14.887594 22.000000
-32.799232 20.737034 15.095675 0.000000 68.000000 14.406588 20.000000
-33.000706 21.205354 15.310306 0.000000 63.000000 14.731286 20.000000
-27.562433 22.086083 14.671966 0.000000 52.000000 14.931866 5.000000
-31.156794 23.483156 19.580178 0.000000 31.000000 14.254991 0.000000
-31.524215 23.374139 19.550133 0.000000 34.000000 14.235624 0.000000
-31.910293 23.274432 19.507048 0.000000 32.000000 14.233660 0.000000
-28.859441 21.792582 15.184140 0.000000 42.000000 14.633811 6.000000
-27.996406 20.792081 14.020143 0.000000 47.000000 14.222053 0.000000
-31.818300 21.796356 16.637055 0.000000 46.000000 14.386459 26.000000
-31.220781 21.600004 15.239338 0.000000 69.000000 14.819019 10.000000
-27.058709 22.703361 16.743750 0.000000 27.000000 14.347116 0.000000
-29.481087 20.726371 13.343878 0.000000 30.000000 14.739413 13.000000
-29.089445 22.045166 16.440794 0.000000 39.000000 14.260721 0.000000
-27.857507 22.532227 16.331388 0.000000 30.000000 14.533830 4.000000
-28.812264 22.320351 16.756439 0.000000 41.000000 14.294094 0.000000
-32.026166 22.603639 17.705979 0.000000 39.000000 14.576200 3.000000
-28.552339 22.589978 17.084397 0.000000 39.000000 14.319356 0.000000
-28.323555 22.857115 17.423929 0.000000 37.000000 14.341707 0.000000
-32.324413 22.668383 17.531322 0.000000 70.000000 14.765895 3.000000
-31.874306 23.135497 19.416085 0.000000 31.000000 14.154704 0.000000
-29.347701 21.796270 15.286997 0.000000 65.000000 14.663713 6.000000
-28.630667 23.056217 17.449891 0.000000 50.000000 14.547573 18.000000
-27.316236 23.280742 17.067563 0.000000 65.000000 14.719437 15.000000
-30.486476 21.141106 14.154366 0.000000 58.000000 14.850296 23.000000
-27.249614 23.291641 17.477528 0.000000 33.000000 14.514145 15.000000
-29.121517 22.805738 17.767566 0.000000 34.000000 14.254300 0.000000
-29.520338 22.746467 17.797626 0.000000 37.000000 14.252460 0.000000
-31.434404 20.901575 14.463879 0.000000 44.000000 14.643369 23.000000
-29.925127 22.688183 17.821728 0.000000 32.000000 14.255377 0.000000
-32.057613 21.099962 14.730735 0.000000 50.000000 14.779233 22.000000
-27.599142 21.898452 14.787710 0.000000 54.000000 14.720157 5.000000
-27.650428 23.172012 17.454469 0.000000 48.000000 14.487583 18.000000
-28.902356 22.852002 17.729023 0.000000 40.000000 14.277944 0.000000
-29.309031 22.754128 17.738409 0.000000 36.000000 14.254726 0.000000
-29.694905 22.649348 17.745987 0.000000 68.000000 14.223201 0.000000
-30.215498 22.584149 17.710660 0.000000 42.000000 14.268269 0.000000
-30.233193 22.416380 16.993072 0.000000 43.000000 14.485033 19.000000
-32.613375 22.034488 17.578856 0.000000 37.000000 14.247867 0.000000
-31.353663 21.115805 13.766986 0.000000 40.000000 15.159843 25.000000
-29.997133 21.951195 16.478119 0.000000 42.000000 14.306895 0.000000
-33.323381 20.856942 15.201753 0.000000 37.000000 14.539711 20.000000
-29.498844 22.193702 16.849605 0.000000 36.000000 14.249334 0.000000
-29.187017 22.292277 17.060961 0.000000 39.000000 14.178471 0.000000
-32.658097 22.064779 17.535457 0.000000 37.000000 14.302423 0.000000
-31.397435 21.182068 14.447947 0.000000 42.000000 14.884560 23.000000
-32.443411 22.162681 17.725276 0.000000 31.000000 14.257204 0.000000
-29.615134 21.160901 14.394049 0.000000 41.000000 14.608869 24.000000
-32.091584 22.374701 18.092680 0.000000 36.000000 14.199055 0.000000
-32.158091 22.553583 18.200009 0.000000 39.000000 14.308801 0.000000
-28.465504 21.293344 14.869448 0.000000 36.000000 14.301812 0.000000
-31.983625 22.805470 18.531246 0.000000 39.000000 14.330945 0.000000
-31.563460 23.385883 19.412282 0.000000 36.000000 14.320480 0.000000
-31.404738 23.469290 19.625720 0.000000 34.000000 14.260083 0.000000
-27.129300 21.921483 15.530385 0.000000 40.000000 14.295337 0.000000
-27.614670 21.898149 15.589564 0.000000 48.000000 14.323465 0.000000
-28.259746 22.805402 16.790503 0.000000 61.000000 14.602550 18.000000
-28.803088 21.744268 15.795126 0.000000 45.000000 14.279665 0.000000
-27.836784 21.980224 15.708665 0.000000 47.000000 14.369646 0.000000
-31.252067 21.441158 16.036416 0.000000 35.000000 14.292034 0.000000
-28.205379 21.875550 15.763270 0.000000 46.000000 14.312057 0.000000
-30.541762 21.236691 14.093128 0.000000 62.000000 14.971087 23.000000
-28.756982 21.826002 15.772718 0.000000 45.000000 14.353145 0.000000
-31.207721 21.926329 15.713930 0.000000 51.000000 14.859076 12.000000
-32.306163 21.237781 16.129131 0.000000 35.000000 14.240732 0.000000
-30.821290 21.130571 13.858735 0.000000 46.000000 15.041823 25.000000
-30.922414 21.118021 13.858837 0.000000 43.000000 15.047211 25.000000
-29.387946 20.902759 13.451844 0.000000 71.000000 14.821236 13.000000
-30.514776 21.568476 15.714420 0.000000 43.000000 14.443110 11.000000
-32.011359 21.159033 15.896825 0.000000 35.000000 14.242105 0.000000
-28.646743 22.606425 16.440834 0.000000 45.000000 14.668611 0.000000
-31.684653 21.287402 14.643657 0.000000 49.000000 14.922852 23.000000
-33.057152 20.877379 15.902699 0.000000 36.000000 14.165935 0.000000
-31.993043 22.820534 17.797828 0.000000 44.000000 14.710158 3.000000
-31.009882 21.600020 15.297932 0.000000 69.000000 14.756223 10.000000
-31.844178 23.385804 19.575621 0.000000 39.000000 14.283956 0.000000
-28.118273 23.198669 17.004510 0.000000 34.000000 14.808830 18.000000
-31.367017 21.437803 15.118376 0.000000 56.000000 14.764232 10.000000
-27.910356 21.137100 14.405091 0.000000 46.000000 14.310998 0.000000
-27.479081 21.454515 14.677817 0.000000 47.000000 14.377137 0.000000
-31.048869 21.066197 15.311809 0.000000 40.000000 14.300370 0.000000
-27.917591 23.158547 17.172866 0.000000 50.000000 14.658836 18.000000
-28.587018 23.482169 18.457270 0.000000 51.000000 14.402643 14.000000
-29.374890 22.037004 16.565482 0.000000 38.000000 14.237288 0.000000
-29.200198 22.163612 16.734730 0.000000 33.000000 14.233162 0.000000
-28.993553 22.276712 16.916057 0.000000 30.000000 14.206410 0.000000
-28.786511 22.387302 17.102628 0.000000 30.000000 14.174846 0.000000
-28.812811 22.561676 17.229539 0.000000 37.000000 14.264589 0.000000
-28.826756 22.728361 17.361935 0.000000 45.000000 14.343076 0.000000
-30.323636 21.656458 15.194945 0.000000 45.000000 14.746055 9.000000
-28.225468 23.322716 18.269689 0.000000 42.000000 14.302299 0.000000
-30.689614 21.549988 15.833998 0.000000 42.000000 14.395762 12.000000
-29.656906 21.258237 14.213566 0.000000 62.000000 14.788319 24.000000
-28.779686 23.016102 17.531032 0.000000 37.000000 14.496786 18.000000
-28.269813 20.738033 13.938286 0.000000 43.000000 14.260327 0.000000
-28.727740 20.675476 13.998320 0.000000 39.000000 14.250206 0.000000
-26.198110 23.334074 17.667494 0.000000 38.000000 14.288000 0.000000
-29.058920 22.981780 17.982116 0.000000 36.000000 14.287678 0.000000
-29.443677 22.918582 18.010735 0.000000 41.000000 14.280962 0.000000
-29.868176 22.866020 18.019543 0.000000 40.000000 14.299512 0.000000
-30.270319 22.806121 18.034902 0.000000 42.000000 14.304980 0.000000
-27.341261 23.236745 17.962906 0.000000 32.000000 14.240495 0.000000
-31.481611 22.627566 18.034468 0.000000 40.000000 14.346272 0.000000
-31.772638 22.536862 18.058967 0.000000 38.000000 14.303191 0.000000
-28.520526 23.750888 18.485272 0.000000 44.000000 14.607227 14.000000
-29.063367 21.969629 15.339252 0.000000 53.000000 14.740154 6.000000
-29.245439 22.907060 17.919932 0.000000 40.000000 14.284672 0.000000
-29.288064 21.034183 14.852554 0.000000 27.000000 14.220521 0.000000
-30.096760 22.726921 17.891225 0.000000 40.000000 14.281226 0.000000
-30.544401 22.641688 17.862428 0.000000 40.000000 14.294322 0.000000
-28.164105 22.596531 16.797288 0.000000 29.000000 14.405814 18.000000
-26.497159 23.595330 16.854680 0.000000 57.000000 14.962856 15.000000
-28.087967 20.633043 13.705385 0.000000 39.000000 14.257648 0.000000
-29.305920 21.849675 15.250611 0.000000 50.000000 14.720682 6.000000
-31.299551 21.786939 15.997487 0.000000 56.000000 14.613814 12.000000
-32.655407 20.694765 14.723341 0.000000 38.000000 14.532823 29.000000
-31.336257 21.222935 15.765400 0.000000 38.000000 14.254227 0.000000
-31.141538 21.359842 15.913656 0.000000 32.000000 14.266130 0.000000
-30.689995 21.810918 16.352437 0.000000 40.000000 14.360391 0.000000
-27.316682 23.314911 17.436927 0.000000 29.000000 14.564889 15.000000
-28.425116 22.710933 16.817061 0.000000 47.000000 14.535181 18.000000
-29.307337 22.709442 17.612907 0.000000 38.000000 14.278790 0.000000
-26.851740 22.795946 15.725611 0.000000 43.000000 14.899539 16.000000
-28.923577 22.956823 18.014204 0.000000 37.000000 14.228835 0.000000
-26.868701 23.520501 17.069929 0.000000 53.000000 14.851267 15.000000
-30.453559 23.333689 18.451160 0.000000 38.000000 14.576980 27.000000
-32.202505 21.250828 14.694413 0.000000 47.000000 14.949066 22.000000
-31.863035 23.061776 19.170623 0.000000 33.000000 14.212160 0.000000
-31.743219 23.161024 19.365313 0.000000 31.000000 14.180806 0.000000
-31.767774 23.298600 19.505809 0.000000 30.000000 14.232137 0.000000
-32.234754 21.371521 14.471785 0.000000 56.000000 15.167877 22.000000
-31.892585 20.766508 14.859315 0.000000 47.000000 14.404604 22.000000
-27.399469 22.139676 15.916755 0.000000 47.000000 14.332287 0.000000
-30.813986 20.771252 13.908151 0.000000 76.000000 14.709695 25.000000
-29.043559 21.938121 16.137313 0.000000 44.000000 14.313102 0.000000
-29.360191 21.858759 16.202969 0.000000 42.000000 14.263305 0.000000
-27.015600 22.234263 15.999241 0.000000 46.000000 14.310637 0.000000
-32.018318 22.500781 17.683215 0.000000 42.000000 14.498569 3.000000
-28.025423 21.283391 14.379648 0.000000 60.000000 14.466757 7.000000
-31.457919 21.613527 16.314614 0.000000 38.000000 14.333461 0.000000
-31.725636 21.515401 16.363056 0.000000 38.000000 14.268421 0.000000
-28.954469 21.945286 16.075288 0.000000 44.000000 14.335849 0.000000
-27.785197 21.527690 14.486611 0.000000 52.000000 14.583509 7.000000
-32.493916 21.395083 16.380064 0.000000 36.000000 14.279987 0.000000
-29.687591 21.288489 15.239569 0.000000 27.000000 14.308588 0.000000
-31.387183 21.420871 16.126655 0.000000 38.000000 14.251408 0.000000
-27.204431 23.279957 16.972369 0.000000 62.000000 14.748281 15.000000
-32.177619 21.260017 16.105935 0.000000 37.000000 14.250715 0.000000
-27.873055 23.332925 17.080693 0.000000 67.000000 14.846268 18.000000
-32.359829 21.201394 14.651653 0.000000 60.000000 14.953297 22.000000
-31.660903 23.500428 19.790668 0.000000 33.000000 14.245458 0.000000
-28.028931 20.973516 14.392489 0.000000 43.000000 14.196710 0.000000
-29.728833 21.051577 13.940638 0.000000 61.000000 14.759365 24.000000
-27.606238 21.289477 14.659200 0.000000 40.000000 14.265971 0.000000
-31.976181 22.765290 17.768927 0.000000 59.000000 14.674740 3.000000
-31.971745 20.978272 14.300099 0.000000 49.000000 14.876004 25.000000
-31.272880 23.383389 18.799084 0.000000 68.000000 14.577034 1.000000
-31.329019 21.083293 14.292482 0.000000 69.000000 14.866761 23.000000
-32.433676 20.943804 14.695219 0.000000 39.000000 14.723772 22.000000
-30.667475 21.604630 15.096986 0.000000 75.000000 14.805473 9.000000
-28.913456 22.306719 17.038587 0.000000 33.000000 14.158255 0.000000
-28.897473 23.854846 18.643741 0.000000 63.000000 14.677193 30.000000
-29.760258 21.209610 15.102470 0.000000 30.000000 14.321134 0.000000
-30.712258 20.845927 13.776413 0.000000 41.000000 14.822670 25.000000
-28.720834 22.917467 17.637421 0.000000 31.000000 14.350363 0.000000
-28.288901 23.252723 18.209367 0.000000 40.000000 14.282752 0.000000
-31.611590 22.360442 17.535535 0.000000 59.000000 14.387462 3.000000
-28.208946 20.964721 14.468700 0.000000 28.000000 14.180027 0.000000
-28.064667 23.388645 17.725268 0.000000 30.000000 14.603693 18.000000
-28.575255 23.210262 18.218025 0.000000 43.000000 14.287941 0.000000
-28.020297 21.494361 13.612566 0.000000 48.000000 15.027439 8.000000
-29.077248 23.007963 18.351317 0.000000 30.000000 14.129256 0.000000
-29.608151 22.982170 18.322349 0.000000 28.000000 14.206407 0.000000
-30.135883 22.953657 18.287675 0.000000 37.000000 14.283571 0.000000
-30.580101 22.904515 18.274205 0.000000 41.000000 14.319268 0.000000
-30.526489 22.236466 16.943838 0.000000 45.000000 14.402931 19.000000
-27.951831 23.327787 18.134854 0.000000 46.000000 14.330029 0.000000
-29.417808 20.696850 14.163429 0.000000 29.000000 14.296427 0.000000
-30.204942 20.866905 14.118995 0.000000 77.000000 14.589159 23.000000
-31.695504 22.689659 18.269602 0.000000 39.000000 14.316377 0.000000
-29.640817 21.589154 15.855614 0.000000 26.000000 14.251015 0.000000
-29.068785 22.993234 18.168464 0.000000 42.000000 14.206313 0.000000
-29.641111 22.939157 18.107337 0.000000 42.000000 14.281958 0.000000
-30.053202 22.846544 18.086851 0.000000 41.000000 14.278951 0.000000
-30.541024 22.772964 18.036939 0.000000 41.000000 14.318900 0.000000
-33.217494 20.960000 14.468852 0.000000 41.000000 14.975294 21.000000
-28.135579 20.681873 13.809812 0.000000 33.000000 14.254932 0.000000
-27.496385 23.433171 17.873918 0.000000 37.000000 14.477008 17.000000
-28.824319 23.471924 17.459078 0.000000 2.000000 14.928368 18.000000
-31.459647 21.145358 15.587015 0.000000 45.000000 14.296517 0.000000
-31.129994 21.238554 15.767798 0.000000 38.000000 14.233432 0.000000
-27.372103 21.588931 14.857604 0.000000 45.000000 14.385233 5.000000
-30.527267 21.845635 16.341195 0.000000 40.000000 14.369615 0.000000
-30.156042 21.922976 16.552308 0.000000 41.000000 14.271287 0.000000
-29.419566 22.464098 17.248518 0.000000 42.000000 14.268785 0.000000
-32.605923 22.052578 17.629431 0.000000 35.000000 14.236942 0.000000
-29.210457 22.586630 17.440348 0.000000 34.000000 14.244456 0.000000
-29.077852 22.733803 17.615598 0.000000 38.000000 14.261597 0.000000
-28.953543 21.977585 15.106500 0.000000 39.000000 14.845200 6.000000
-30.735882 21.154021 13.938021 0.000000 69.000000 15.008743 23.000000
-28.616206 23.137640 18.184295 0.000000 40.000000 14.249336 0.000000
-31.549234 23.248603 19.347533 0.000000 31.000000 14.233367 0.000000
-30.860330 21.524877 14.249824 0.000000 60.000000 15.189702 23.000000
-31.432024 23.479980 19.695988 0.000000 29.000000 14.238596 0.000000
-30.196797 21.433232 15.086850 0.000000 66.000000 14.589251 9.000000
-27.816469 22.230778 16.283368 0.000000 38.000000 14.294135 0.000000
-28.172350 22.161478 16.343125 0.000000 31.000000 14.262116 0.000000
-32.029002 21.013878 14.602572 0.000000 71.000000 14.765026 22.000000
-29.014156 22.054266 16.417516 0.000000 36.000000 14.268044 0.000000
-30.040250 21.499335 13.847222 0.000000 6.000000 15.237327 24.000000
-29.228439 20.899175 13.160089 0.000000 65.000000 14.937867 13.000000
-30.389114 21.929249 16.455058 0.000000 41.000000 14.362215 0.000000
-28.314080 21.418921 15.006569 0.000000 32.000000 14.316504 0.000000
-27.676632 22.254741 16.239153 0.000000 40.000000 14.314246 0.000000
-31.109551 21.062542 13.957806 0.000000 64.000000 14.980537 25.000000
-28.089313 22.157221 16.267605 0.000000 40.000000 14.282804 0.000000
-28.553096 22.077275 16.275753 0.000000 44.000000 14.284603 0.000000
-27.803009 23.618949 17.796404 0.000000 38.000000 14.722914 17.000000
-32.300305 21.615303 16.511643 0.000000 36.000000 14.371401 0.000000
-31.114811 21.482955 15.171950 0.000000 43.000000 14.735827 10.000000
-29.046047 24.075458 18.650883 0.000000 39.000000 14.885461 30.000000
-29.682564 20.917131 14.002280 0.000000 84.000000 14.606677 24.000000
-31.258996 21.632472 16.217917 0.000000 39.000000 14.365972 0.000000
-31.522848 21.501805 16.242269 0.000000 37.000000 14.284553 0.000000
-31.890240 21.412268 16.231332 0.000000 36.000000 14.272285 0.000000
-32.238260 21.316583 16.220959 0.000000 34.000000 14.251403 0.000000
-31.220803 21.137039 14.266999 0.000000 68.000000 14.907995 23.000000
-32.992984 21.153183 16.171909 0.000000 34.000000 14.256934 0.000000
-31.815058 23.558351 19.902941 0.000000 38.000000 14.263596 0.000000
-28.082992 21.048640 14.451454 0.000000 44.000000 14.240060 0.000000
-27.613569 21.355678 14.722986 0.000000 36.000000 14.291855 0.000000
-29.779426 21.117161 15.047981 0.000000 31.000000 14.272473 0.000000
-27.364920 21.502021 14.870405 0.000000 46.000000 14.303613 0.000000
-29.807733 21.972899 16.349640 0.000000 41.000000 14.359088 0.000000
-26.681426 23.296706 16.877926 0.000000 50.000000 14.726074 15.000000
-29.268348 22.172835 16.722504 0.000000 32.000000 14.257986 0.000000
-29.042797 22.285549 16.903183 0.000000 35.000000 14.228210 0.000000
-28.824136 22.396294 17.086595 0.000000 34.000000 14.196494 0.000000
-31.420134 22.375551 17.441550 0.000000 51.000000 14.416545 28.000000
-28.574861 22.838466 17.551237 0.000000 38.000000 14.302580 0.000000
-30.271391 21.290024 15.097720 0.000000 30.000000 14.473640 9.000000
-31.973959 23.137237 19.444614 0.000000 32.000000 14.157899 0.000000
-27.855203 21.065400 14.360993 0.000000 33.000000 14.262998 0.000000
-33.050472 21.130410 15.245904 0.000000 57.000000 14.707366 20.000000
-27.920989 21.154633 14.350354 0.000000 45.000000 14.354876 0.000000
-30.680118 22.633548 17.106470 0.000000 34.000000 14.685120 19.000000
-27.384046 23.558818 18.383566 0.000000 44.000000 14.312671 0.000000
