-38.014325 -15.125019 -29.888385 0.000000 71.000000 15.087218 14.000000
-35.916733 -14.368839 -29.086885 0.000000 41.000000 14.345860 0.000000
-36.080077 -14.275318 -29.268500 0.000000 39.000000 14.335449 0.000000
-35.805266 -17.408824 -28.428261 0.000000 36.000000 14.379339 0.000000
-36.240763 -14.176584 -29.396831 0.000000 46.000000 14.362638 0.000000
-38.481139 -17.366012 -30.253651 0.000000 54.000000 14.863754 26.000000
-36.434879 -17.832043 -28.522647 0.000000 56.000000 14.684301 17.000000
-35.981364 -18.440434 -28.417302 0.000000 41.000000 14.380557 0.000000
-38.752928 -16.785984 -30.425935 0.000000 58.000000 14.992632 25.000000
-35.503268 -15.333371 -27.858497 0.000000 45.000000 14.842693 6.000000
-35.677307 -14.221719 -28.425179 0.000000 67.000000 14.683432 3.000000
-37.168398 -15.446375 -30.055575 0.000000 37.000000 14.355200 0.000000
-38.446686 -15.901548 -29.987977 0.000000 43.000000 15.212148 23.000000
-39.409692 -19.393925 -30.729071 0.000000 73.000000 14.897932 1.000000
-38.724919 -14.797126 -31.518241 0.000000 46.000000 14.421447 0.000000
-39.037221 -14.523997 -31.421607 0.000000 58.000000 14.735909 19.000000
-39.790241 -15.582852 -31.760250 0.000000 56.000000 14.869097 21.000000
-34.962776 -16.712477 -27.953075 0.000000 32.000000 14.240896 0.000000
-38.102053 -16.646086 -30.247743 0.000000 70.000000 14.699759 23.000000
-37.798888 -14.425251 -30.366897 0.000000 53.000000 14.678906 19.000000
-35.881588 -14.737005 -29.011378 0.000000 47.000000 14.332201 0.000000
-38.792735 -17.163145 -30.701287 0.000000 74.000000 14.773271 29.000000
-38.442092 -14.517161 -30.523275 0.000000 62.000000 14.988312 19.000000
-39.224475 -14.007758 -31.866241 0.000000 51.000000 14.601819 10.000000
-39.632531 -17.092786 -31.514155 0.000000 35.000000 14.757664 28.000000
-34.773884 -13.775618 -28.169148 0.000000 42.000000 14.313938 0.000000
-39.344942 -15.692752 -31.485493 0.000000 74.000000 14.754861 21.000000
-35.004599 -13.510489 -28.528980 0.000000 39.000000 14.240292 0.000000
-39.500994 -13.879218 -32.049095 0.000000 65.000000 14.671200 10.000000
-35.685366 -18.798116 -28.082538 0.000000 53.000000 14.380608 0.000000
-39.217672 -17.938905 -31.027571 0.000000 37.000000 14.728383 29.000000
-37.992668 -18.686689 -29.468247 0.000000 65.000000 14.944316 18.000000
-36.682351 -19.520601 -28.906099 0.000000 45.000000 14.366786 0.000000
-35.536425 -19.368967 -27.835900 0.000000 67.000000 14.389894 0.000000
-35.297681 -14.694339 -28.094483 0.000000 54.000000 14.610049 4.000000
-37.748086 -19.386009 -29.902881 0.000000 34.000000 14.377799 0.000000
-37.158098 -17.973998 -29.000250 0.000000 62.000000 14.807981 17.000000
-39.783266 -17.213128 -31.467994 0.000000 45.000000 14.878373 28.000000
-35.482659 -19.465564 -27.833329 0.000000 64.000000 14.343688 0.000000
-35.635536 -14.643799 -28.715365 0.000000 38.000000 14.392720 0.000000
-35.743397 -15.284387 -27.987408 0.000000 80.000000 14.917047 6.000000
-38.164319 -18.174745 -29.658340 0.000000 50.000000 14.984322 15.000000
-37.180246 -16.196033 -29.973434 0.000000 32.000000 14.331626 0.000000
-35.671700 -17.370505 -28.300680 0.000000 43.000000 14.386615 0.000000
-38.342049 -15.697960 -30.724801 0.000000 67.000000 14.630312 22.000000
-39.372529 -18.487300 -31.621835 0.000000 49.000000 14.333874 0.000000
-39.277498 -15.147730 -31.450256 0.000000 79.000000 14.801344 20.000000
-37.178187 -16.796945 -28.792660 0.000000 49.000000 15.115943 24.000000
-35.506391 -13.870148 -28.595346 0.000000 45.000000 14.487061 3.000000
-39.502123 -17.353069 -31.062624 0.000000 71.000000 14.966342 29.000000
-39.296468 -15.679254 -31.676308 0.000000 64.000000 14.584969 21.000000
-38.527297 -16.286054 -30.364656 0.000000 64.000000 14.945741 23.000000
-35.763138 -19.434995 -27.760048 0.000000 37.000000 14.590125 8.000000
-37.603046 -19.475977 -29.871049 0.000000 45.000000 14.292048 0.000000
-36.762648 -18.648325 -28.444345 0.000000 63.000000 14.863159 8.000000
-38.942315 -13.499273 -31.390267 0.000000 59.000000 14.819452 11.000000
-37.941987 -18.111737 -29.182672 0.000000 62.000000 15.187865 30.000000
-35.280078 -17.907604 -27.997915 0.000000 21.000000 14.276958 0.000000
-38.235719 -16.226476 -30.021907 0.000000 48.000000 15.005417 23.000000
-38.250152 -16.662987 -30.486765 0.000000 59.000000 14.623842 25.000000
-37.635326 -14.877544 -30.236012 0.000000 46.000000 14.608560 19.000000
-38.221601 -18.056265 -30.281489 0.000000 61.000000 14.584151 15.000000
-37.205891 -14.449668 -29.440881 0.000000 66.000000 14.949077 5.000000
-38.478277 -15.866063 -30.161042 0.000000 61.000000 15.111914 23.000000
-37.260348 -16.658096 -29.258641 0.000000 65.000000 14.849380 24.000000
-36.908152 -15.536503 -29.234298 0.000000 68.000000 14.765885 6.000000
-39.509295 -19.312085 -31.714300 0.000000 39.000000 14.258494 0.000000
-36.268976 -13.582615 -29.135175 0.000000 41.000000 14.644382 2.000000
-36.484890 -15.446036 -28.733687 0.000000 60.000000 14.855230 6.000000
-38.248443 -15.089574 -30.824141 0.000000 60.000000 14.568954 13.000000
-36.345247 -16.323328 -28.807664 0.000000 77.000000 14.600243 12.000000
-35.481973 -15.792270 -27.538661 0.000000 79.000000 15.005061 9.000000
-36.992793 -14.835081 -29.552288 0.000000 56.000000 14.677182 5.000000
-36.535425 -18.014032 -28.465318 0.000000 63.000000 14.771731 17.000000
-38.891343 -17.114647 -31.041934 0.000000 59.000000 14.597978 29.000000
-37.987866 -18.367531 -29.905245 0.000000 74.000000 14.662075 15.000000
-39.193652 -15.901312 -31.243050 0.000000 66.000000 14.803644 21.000000
-36.926226 -13.812488 -30.084941 0.000000 28.000000 14.369345 0.000000
-36.086769 -15.030432 -29.045765 0.000000 51.000000 14.410000 0.000000
-36.277706 -14.982559 -29.479395 0.000000 37.000000 14.229342 0.000000
-37.156226 -14.338678 -29.523185 0.000000 48.000000 14.869191 5.000000
-35.723462 -14.657346 -28.851061 0.000000 50.000000 14.351739 0.000000
-36.102349 -17.788135 -28.317235 0.000000 38.000000 14.614512 7.000000
-38.968446 -14.038257 -31.191491 0.000000 13.000000 14.916030 11.000000
-36.211345 -14.424422 -29.278395 0.000000 54.000000 14.398733 0.000000
-36.373163 -14.342117 -29.428569 0.000000 59.000000 14.408796 0.000000
-38.107694 -15.767982 -30.768220 0.000000 22.000000 14.431939 23.000000
-38.300776 -14.110341 -31.327802 0.000000 38.000000 14.357218 0.000000
-38.299699 -16.368720 -29.901138 0.000000 63.000000 15.119143 23.000000
-37.744856 -17.729077 -29.561584 0.000000 52.000000 14.825733 26.000000
-37.037141 -17.795857 -28.500474 0.000000 44.000000 15.111545 17.000000
-36.312761 -16.053599 -27.968557 0.000000 50.000000 15.221542 9.000000
-35.345286 -14.687297 -27.856249 0.000000 71.000000 14.816349 4.000000
-36.701527 -17.796995 -28.352433 0.000000 58.000000 14.992454 17.000000
-35.583777 -14.217524 -28.306716 0.000000 67.000000 14.706955 3.000000
-37.742050 -15.731029 -30.555025 0.000000 46.000000 14.344602 0.000000
-37.194770 -16.615837 -28.895967 0.000000 61.000000 15.074058 24.000000
-38.301991 -16.470183 -29.937238 0.000000 76.000000 15.082071 23.000000
-37.336443 -15.652094 -30.193007 0.000000 42.000000 14.343650 0.000000
-36.670877 -14.528562 -28.934824 0.000000 69.000000 14.946285 5.000000
-37.587020 -18.750986 -28.986314 0.000000 67.000000 15.013115 18.000000
-38.245107 -15.217152 -29.779402 0.000000 52.000000 15.311117 14.000000
-39.449580 -16.497343 -31.429527 0.000000 61.000000 14.768216 27.000000
-36.106277 -13.488580 -29.561012 0.000000 45.000000 14.236208 0.000000
-38.028183 -14.680755 -30.398711 0.000000 47.000000 14.779480 19.000000
-36.665823 -17.704983 -28.562575 0.000000 62.000000 14.826692 17.000000
-38.017088 -13.453517 -31.346139 0.000000 41.000000 14.232320 0.000000
-39.218432 -19.449590 -31.003490 0.000000 70.000000 14.562377 1.000000
-37.174220 -13.579630 -30.322737 0.000000 50.000000 14.392207 0.000000
-39.148081 -13.857516 -31.127847 0.000000 78.000000 15.105651 11.000000
-39.618445 -15.207779 -31.642776 0.000000 62.000000 14.884228 20.000000
-36.631801 -16.065200 -28.652870 0.000000 61.000000 14.937798 12.000000
-37.451290 -13.631781 -30.536144 0.000000 56.000000 14.417723 0.000000
-37.306951 -17.119590 -29.309511 0.000000 62.000000 14.787627 24.000000
-35.873248 -13.866792 -29.104078 0.000000 42.000000 14.365149 0.000000
-38.186823 -16.281889 -29.882519 0.000000 78.000000 15.067040 23.000000
-39.238453 -19.318573 -30.636447 0.000000 48.000000 14.858850 1.000000
-37.894816 -16.582037 -29.733596 0.000000 74.000000 14.941612 24.000000
-35.699592 -15.470613 -27.854385 0.000000 62.000000 14.961541 6.000000
-36.817528 -15.657363 -29.400250 0.000000 49.000000 14.569248 12.000000
-36.521651 -16.889669 -28.246781 0.000000 57.000000 15.058369 24.000000
-39.729282 -15.321633 -31.740342 0.000000 76.000000 14.874235 20.000000
-36.449553 -13.745399 -28.929668 0.000000 74.000000 14.895984 2.000000
-38.794182 -15.752635 -30.841340 0.000000 44.000000 14.844204 22.000000
-37.109858 -18.581920 -29.490006 0.000000 42.000000 14.345091 0.000000
-38.766337 -15.876200 -30.470581 0.000000 67.000000 15.080043 22.000000
-36.185428 -16.371342 -28.554151 0.000000 39.000000 14.670877 9.000000
-37.006436 -18.913977 -29.236483 0.000000 27.000000 14.419215 18.000000
-38.149068 -15.803111 -29.956954 0.000000 61.000000 15.045725 23.000000
-37.201558 -14.670986 -29.614795 0.000000 80.000000 14.792683 5.000000
-35.509948 -19.407448 -27.896071 0.000000 52.000000 14.323556 0.000000
-35.682247 -14.299185 -28.713146 0.000000 46.000000 14.467860 3.000000
-37.062615 -16.755548 -28.695715 0.000000 68.000000 15.113460 24.000000
-36.667978 -19.372194 -29.111321 0.000000 34.000000 14.225878 0.000000
-36.970061 -16.905471 -29.003324 0.000000 41.000000 14.808935 24.000000
-39.460930 -15.394417 -31.309889 0.000000 69.000000 14.997268 20.000000
-38.762565 -15.914078 -30.659417 0.000000 63.000000 14.935519 22.000000
-38.072038 -18.430627 -29.918394 0.000000 81.000000 14.701665 15.000000
-37.327443 -17.091698 -29.229692 0.000000 71.000000 14.862925 24.000000
-39.275214 -19.429737 -30.667388 0.000000 52.000000 14.847625 1.000000
-38.568589 -15.359900 -30.840182 0.000000 62.000000 14.740548 13.000000
-37.976710 -19.355934 -29.763276 0.000000 51.000000 14.637402 1.000000
-37.202261 -14.173746 -30.307839 0.000000 46.000000 14.349603 0.000000
-35.937171 -15.632502 -28.583338 0.000000 59.000000 14.572007 6.000000
-37.858651 -15.463216 -30.031252 0.000000 71.000000 14.836969 14.000000
-35.426516 -14.323904 -28.351256 0.000000 36.000000 14.555398 3.000000
-36.356995 -14.624147 -29.052093 0.000000 70.000000 14.637374 5.000000
-36.758755 -15.024281 -29.926672 0.000000 25.000000 14.223756 0.000000
-38.308121 -13.720614 -31.389134 0.000000 28.000000 14.365041 0.000000
-40.032562 -17.403332 -31.722845 0.000000 77.000000 14.838169 28.000000
-39.547422 -15.765582 -31.727371 0.000000 46.000000 14.706778 21.000000
-36.549915 -18.513339 -28.347945 0.000000 69.000000 14.806069 8.000000
-38.645514 -15.493192 -30.918573 0.000000 57.000000 14.719234 13.000000
-38.444381 -14.986575 -31.141772 0.000000 54.000000 14.482769 13.000000
-35.359123 -16.651403 -28.351051 0.000000 41.000000 14.226495 0.000000
-39.282006 -17.199132 -30.739208 0.000000 74.000000 15.071707 29.000000
-37.466451 -14.948597 -30.584549 0.000000 42.000000 14.232333 0.000000
-36.557193 -13.677234 -29.312869 0.000000 33.000000 14.698231 2.000000
-37.648999 -14.875922 -30.697819 0.000000 49.000000 14.282067 0.000000
-39.356868 -16.124372 -31.471395 0.000000 49.000000 14.720588 21.000000
-38.764003 -14.093417 -31.295998 0.000000 41.000000 14.695229 11.000000
-36.181955 -15.843584 -29.034624 0.000000 47.000000 14.383322 0.000000
-35.999408 -15.810971 -28.830253 0.000000 40.000000 14.412683 0.000000
-35.647334 -14.665056 -28.781450 0.000000 51.000000 14.350027 0.000000
-38.679945 -18.690665 -30.916859 0.000000 32.000000 14.354208 0.000000
-37.326122 -17.289730 -29.577488 0.000000 37.000000 14.584916 24.000000
-38.058006 -16.099120 -30.097497 0.000000 64.000000 14.845938 23.000000
-36.277456 -14.312340 -29.432695 0.000000 44.000000 14.344791 0.000000
-37.794833 -14.622868 -30.247079 0.000000 36.000000 14.739250 19.000000
-35.765909 -15.070222 -28.424893 0.000000 65.000000 14.640106 6.000000
-35.236501 -14.192789 -28.398921 0.000000 71.000000 14.408382 0.000000
-38.910892 -14.234159 -31.217004 0.000000 50.000000 14.834740 19.000000
-37.102429 -15.552853 -29.492300 0.000000 56.000000 14.707414 6.000000
-38.015257 -15.146875 -29.936609 0.000000 70.000000 15.050106 14.000000
-37.081327 -13.805313 -30.306418 0.000000 42.000000 14.313853 0.000000
-39.546938 -16.629166 -31.815785 0.000000 55.000000 14.536933 27.000000
-37.239245 -13.691937 -30.391340 0.000000 60.000000 14.372533 0.000000
-37.099927 -17.716774 -28.476941 0.000000 44.000000 15.180697 17.000000
-38.498908 -14.969091 -31.078384 0.000000 66.000000 14.567830 13.000000
-38.580514 -15.199284 -30.614530 0.000000 60.000000 14.932310 13.000000
-36.235869 -13.460684 -29.654241 0.000000 44.000000 14.259303 0.000000
-38.137097 -16.462763 -29.953376 0.000000 67.000000 14.959884 23.000000
-39.111069 -13.986720 -31.382547 0.000000 75.000000 14.879644 11.000000
-39.233167 -15.247151 -31.388158 0.000000 68.000000 14.804466 20.000000
-36.087447 -15.996852 -28.755044 0.000000 37.000000 14.504200 9.000000
-38.293612 -16.363428 -30.044562 0.000000 44.000000 15.011349 23.000000
-37.521678 -18.214028 -29.541717 0.000000 57.000000 14.630395 30.000000
-36.737140 -13.698839 -29.603908 0.000000 63.000000 14.605411 2.000000
-38.109745 -14.955446 -30.567609 0.000000 49.000000 14.678236 14.000000
-37.419793 -15.253489 -29.469702 0.000000 46.000000 14.974637 6.000000
-36.730617 -13.944274 -29.727869 0.000000 55.000000 14.480936 2.000000
-35.312831 -13.666167 -28.614305 0.000000 46.000000 14.367409 0.000000
-37.142954 -18.425378 -29.125577 0.000000 37.000000 14.651602 30.000000
-35.313036 -17.939059 -27.985896 0.000000 41.000000 14.304125 0.000000
-38.457149 -14.342316 -30.574204 0.000000 71.000000 14.982733 19.000000
-37.149410 -14.386488 -30.215957 0.000000 31.000000 14.354832 0.000000
-36.656027 -16.589682 -28.659702 0.000000 55.000000 14.885294 24.000000
-37.175323 -13.735572 -30.321196 0.000000 26.000000 14.375075 0.000000
-37.310287 -15.291892 -29.177352 0.000000 62.000000 15.108669 6.000000
-37.728467 -17.277482 -29.909520 0.000000 43.000000 14.616587 26.000000
-38.932141 -15.854147 -30.950986 0.000000 73.000000 14.845243 22.000000
-35.636561 -15.645986 -28.030386 0.000000 68.000000 14.769587 9.000000
-37.841932 -17.797531 -29.589264 0.000000 64.000000 14.862814 26.000000
-37.913173 -17.100424 -29.624024 0.000000 58.000000 14.970562 24.000000
-37.588896 -19.612181 -29.847425 0.000000 46.000000 14.283084 0.000000
-35.763931 -19.252210 -27.685745 0.000000 84.000000 14.666977 8.000000
-36.568952 -19.541719 -28.900133 0.000000 39.000000 14.291974 0.000000
-35.079455 -13.461886 -28.655530 0.000000 37.000000 14.204708 0.000000
-34.930511 -13.547810 -28.484768 0.000000 38.000000 14.217873 0.000000
-36.016382 -13.467207 -29.532907 0.000000 42.000000 14.198549 0.000000
-38.093766 -16.478914 -30.117485 0.000000 62.000000 14.809279 23.000000
-36.992857 -15.858146 -29.067183 0.000000 64.000000 14.905466 12.000000
-38.017605 -17.969700 -29.996047 0.000000 49.000000 14.664572 15.000000
-38.778895 -16.105558 -30.977255 0.000000 50.000000 14.692020 22.000000
-37.266313 -16.203601 -30.060680 0.000000 27.000000 14.325362 0.000000
-37.868402 -14.410477 -30.389183 0.000000 47.000000 14.711437 19.000000
-35.750106 -18.739399 -28.158848 0.000000 51.000000 14.375971 0.000000
-35.647083 -18.588636 -28.108216 0.000000 44.000000 14.361596 0.000000
-39.276303 -15.359959 -31.420100 0.000000 72.000000 14.796618 20.000000
-37.301347 -15.403195 -29.683748 0.000000 34.000000 14.720713 6.000000
-38.641043 -13.535490 -31.623060 0.000000 42.000000 14.442254 11.000000
-35.681465 -15.395071 -27.958210 0.000000 77.000000 14.882980 6.000000
-37.967845 -15.898683 -30.087537 0.000000 51.000000 14.816715 23.000000
-36.311850 -17.284860 -28.878434 0.000000 43.000000 14.409074 0.000000
-37.826378 -14.205044 -30.881774 0.000000 32.000000 14.349767 0.000000
-37.578980 -18.562427 -29.915375 0.000000 32.000000 14.354844 0.000000
-38.277155 -18.013122 -29.782274 0.000000 50.000000 14.990058 15.000000
-39.404735 -15.498350 -31.611477 0.000000 66.000000 14.727279 20.000000
-36.748868 -16.085753 -28.567160 0.000000 49.000000 15.076696 12.000000
-39.205143 -14.688172 -31.497081 0.000000 61.000000 14.774406 19.000000
-38.785920 -19.354443 -30.442091 0.000000 62.000000 14.690262 1.000000
-35.410141 -16.182429 -27.490249 0.000000 47.000000 14.944238 9.000000
-38.396146 -15.863123 -30.056462 0.000000 73.000000 15.132882 23.000000
-38.696680 -18.034869 -31.041885 0.000000 39.000000 14.354454 0.000000
-36.779935 -17.665695 -29.132497 0.000000 41.000000 14.493969 17.000000
-39.166458 -18.162986 -31.589293 0.000000 53.000000 14.257895 0.000000
-39.718126 -16.800519 -31.754877 0.000000 45.000000 14.675967 28.000000
-38.871917 -13.884168 -31.260287 0.000000 64.000000 14.819572 11.000000
-38.615056 -18.085786 -30.922592 0.000000 42.000000 14.379906 0.000000
-37.353795 -18.827958 -28.992607 0.000000 51.000000 14.841663 18.000000
-37.645768 -17.115813 -29.620083 0.000000 49.000000 14.790976 24.000000
-39.283408 -18.186609 -31.579602 0.000000 51.000000 14.341043 0.000000
-37.208982 -17.974099 -29.166145 0.000000 49.000000 14.721657 30.000000
-39.748130 -18.245716 -32.045101 0.000000 45.000000 14.309057 0.000000
-36.157234 -15.940327 -28.296335 0.000000 73.000000 14.891885 9.000000
-35.608738 -16.750699 -28.066298 0.000000 82.000000 14.590096 24.000000
-38.356447 -16.262007 -29.818076 0.000000 61.000000 15.230886 23.000000
-37.681872 -17.041644 -29.507498 0.000000 53.000000 14.906288 24.000000
-36.494686 -14.665372 -29.197844 0.000000 54.000000 14.619313 5.000000
-36.098585 -16.533724 -28.771793 0.000000 59.000000 14.434134 24.000000
-37.367948 -16.642621 -28.916372 0.000000 38.000000 15.172899 24.000000
-38.813582 -15.618657 -30.547654 0.000000 77.000000 15.087257 22.000000
-38.784179 -16.644368 -30.343330 0.000000 52.000000 15.091075 25.000000
-36.291177 -15.990258 -28.272888 0.000000 47.000000 14.993308 9.000000
-36.319263 -17.585649 -28.910386 0.000000 40.000000 14.354195 0.000000
-37.175579 -14.320360 -29.914362 0.000000 60.000000 14.599944 5.000000
-36.011237 -17.351871 -28.656047 0.000000 41.000000 14.359675 0.000000
-38.419289 -13.817134 -30.999317 0.000000 45.000000 14.711913 11.000000
-39.599621 -15.721621 -31.686367 0.000000 75.000000 14.777210 21.000000
-37.061894 -14.055002 -30.221562 0.000000 44.000000 14.332038 0.000000
-36.774840 -15.278273 -29.008351 0.000000 59.000000 14.871675 6.000000
-36.560506 -13.944287 -29.064808 0.000000 50.000000 14.848378 2.000000
-38.293390 -14.884159 -30.769719 0.000000 56.000000 14.663918 19.000000
-35.918339 -16.703171 -28.115807 0.000000 49.000000 14.768945 24.000000
-39.497388 -18.611952 -31.734461 0.000000 27.000000 14.321081 0.000000
-36.329693 -16.256275 -28.153083 0.000000 56.000000 15.074059 9.000000
-39.118934 -14.288487 -31.248846 0.000000 55.000000 14.945449 19.000000
-38.042664 -14.779129 -30.545688 0.000000 42.000000 14.670362 19.000000
-38.739170 -18.111037 -31.140341 0.000000 36.000000 14.302251 0.000000
-35.430575 -15.774564 -28.158494 0.000000 47.000000 14.521633 9.000000
-38.279987 -15.757245 -30.027320 0.000000 63.000000 15.088537 23.000000
-39.804438 -16.760752 -31.852322 0.000000 58.000000 14.668215 28.000000
-37.787759 -18.078494 -29.250364 0.000000 44.000000 15.038524 30.000000
-36.780142 -19.146875 -29.162748 0.000000 26.000000 14.291662 0.000000
-38.364758 -15.955601 -30.083331 0.000000 71.000000 15.080875 23.000000
-37.370478 -15.388473 -29.393552 0.000000 61.000000 14.980283 6.000000
-39.924269 -17.267421 -31.652463 0.000000 56.000000 14.832793 28.000000
-38.420780 -14.176450 -31.348720 0.000000 54.000000 14.414986 0.000000
-39.211649 -13.576745 -31.908332 0.000000 51.000000 14.615047 10.000000
-38.466905 -14.235621 -31.135098 0.000000 33.000000 14.594317 19.000000
-38.142324 -17.349998 -29.865313 0.000000 43.000000 14.919386 26.000000
-35.796576 -15.804750 -28.252075 0.000000 61.000000 14.697044 9.000000
-36.700027 -17.742928 -28.637638 0.000000 59.000000 14.790566 17.000000
-36.055357 -15.338864 -28.132819 0.000000 76.000000 15.015302 6.000000
-39.352488 -13.518120 -31.883837 0.000000 51.000000 14.735115 10.000000
-35.445428 -14.403203 -28.592291 0.000000 49.000000 14.383177 0.000000
-37.032192 -14.660282 -29.199595 0.000000 71.000000 14.981637 5.000000
-34.840408 -13.956313 -28.140236 0.000000 50.000000 14.357880 0.000000
-35.777022 -17.765725 -27.929366 0.000000 39.000000 14.679692 7.000000
-35.618002 -15.777327 -27.557845 0.000000 67.000000 15.084786 9.000000
-36.539509 -18.632276 -27.982129 0.000000 45.000000 15.050651 8.000000
-37.368484 -17.939669 -28.233314 0.000000 1.000000 15.512117 17.000000
-35.574033 -18.601128 -28.049884 0.000000 42.000000 14.353175 0.000000
-37.012992 -17.660947 -28.899364 0.000000 31.000000 14.821515 17.000000
-36.395552 -19.418477 -28.643134 0.000000 38.000000 14.376836 0.000000
-38.933061 -19.105486 -31.177856 0.000000 21.000000 14.284749 0.000000
-39.237488 -15.093648 -31.527723 0.000000 68.000000 14.724563 20.000000
-38.612134 -19.335170 -30.195679 0.000000 64.000000 14.754497 1.000000
-37.636813 -13.436432 -30.750132 0.000000 44.000000 14.411146 0.000000
-37.251616 -13.521007 -30.377134 0.000000 50.000000 14.412044 0.000000
-38.393254 -19.400073 -30.366176 0.000000 37.000000 14.474759 1.000000
-35.812612 -16.507174 -28.317109 0.000000 56.000000 14.574995 9.000000
-37.730985 -13.583037 -30.929561 0.000000 49.000000 14.326362 0.000000
-36.063106 -15.700514 -28.722448 0.000000 45.000000 14.547573 6.000000
-37.206165 -14.702366 -29.652193 0.000000 53.000000 14.764767 5.000000
-38.030219 -17.458968 -29.701501 0.000000 74.000000 14.949566 26.000000
-39.776727 -15.325469 -31.711624 0.000000 48.000000 14.926697 20.000000
-39.277866 -19.323362 -30.873257 0.000000 48.000000 14.712623 1.000000
-36.100050 -14.162984 -29.210699 0.000000 52.000000 14.404667 0.000000
-34.886132 -14.290837 -28.125758 0.000000 43.000000 14.358536 0.000000
-35.939710 -14.233423 -29.109967 0.000000 47.000000 14.361083 0.000000
-35.622031 -14.377072 -28.802601 0.000000 44.000000 14.352637 0.000000
-38.488528 -17.840219 -30.813972 0.000000 42.000000 14.403390 0.000000
-37.549311 -18.619983 -29.126240 0.000000 73.000000 14.901825 18.000000
-38.539035 -14.364112 -31.032648 0.000000 67.000000 14.701897 19.000000
-39.093467 -17.616229 -30.746899 0.000000 72.000000 14.887980 29.000000
-39.876846 -17.200559 -31.711957 0.000000 47.000000 14.765636 28.000000
-36.798667 -14.508785 -28.973104 0.000000 76.000000 15.007146 5.000000
-39.044527 -17.802134 -31.065469 0.000000 46.000000 14.600552 29.000000
-35.316899 -17.138593 -28.049986 0.000000 49.000000 14.357629 0.000000
-39.772281 -15.404244 -31.935583 0.000000 72.000000 14.751187 20.000000
-36.496740 -16.873694 -28.383862 0.000000 59.000000 14.943778 24.000000
-39.051435 -13.677397 -31.467713 0.000000 49.000000 14.815106 11.000000
-35.510850 -17.826906 -28.185427 0.000000 40.000000 14.306230 0.000000
-39.663421 -13.624999 -32.006510 0.000000 55.000000 14.842834 10.000000
-35.835325 -18.017842 -28.571208 0.000000 36.000000 14.221465 0.000000
-36.698238 -14.358017 -29.165549 0.000000 49.000000 14.817706 5.000000
-36.958390 -18.018252 -28.726399 0.000000 69.000000 14.866930 17.000000
-38.204257 -14.222944 -30.920359 0.000000 52.000000 14.574700 19.000000
-37.053103 -18.554665 -29.434602 0.000000 50.000000 14.350387 0.000000
-36.938177 -15.335078 -29.002458 0.000000 46.000000 14.979343 6.000000
-35.331300 -14.566367 -28.097259 0.000000 65.000000 14.646322 4.000000
-39.353511 -14.012926 -32.170164 0.000000 52.000000 14.467248 10.000000
-39.814649 -17.427862 -31.579837 0.000000 47.000000 14.792051 28.000000
-38.383276 -16.336579 -30.111688 0.000000 25.000000 15.026341 23.000000
-39.362289 -19.165207 -31.559263 0.000000 40.000000 14.289890 0.000000
-38.149226 -15.332996 -29.859617 0.000000 83.000000 15.173907 14.000000
-39.825362 -19.332467 -31.973677 0.000000 41.000000 14.280776 0.000000
-39.115548 -13.689478 -31.440698 0.000000 28.000000 14.876580 11.000000
-39.439958 -17.178231 -31.130899 0.000000 50.000000 14.895997 29.000000
-37.327366 -17.578857 -29.100469 0.000000 49.000000 14.897524 16.000000
-39.063898 -19.281615 -31.254539 0.000000 28.000000 14.295866 0.000000
-37.420030 -17.702567 -28.982814 0.000000 59.000000 15.030613 16.000000
-39.290495 -14.834645 -31.542096 0.000000 68.000000 14.781455 19.000000
-34.948201 -13.811082 -28.249812 0.000000 53.000000 14.368658 0.000000
-37.346934 -16.896704 -28.924081 0.000000 69.000000 15.122147 24.000000
-37.143481 -15.858889 -29.924878 0.000000 31.000000 14.383191 0.000000
-37.595866 -19.556068 -29.917426 0.000000 42.000000 14.243707 0.000000
-37.463429 -19.389069 -29.818447 0.000000 45.000000 14.246615 0.000000
-36.380673 -16.424807 -28.926769 0.000000 72.000000 14.525165 12.000000
-36.531416 -18.602017 -28.898262 0.000000 29.000000 14.382464 0.000000
-38.430301 -18.290217 -29.794792 0.000000 42.000000 15.050615 15.000000
-38.652956 -17.194055 -30.822402 0.000000 47.000000 14.587013 29.000000
-35.079401 -15.672385 -27.958027 0.000000 55.000000 14.442756 9.000000
-36.869159 -16.002732 -28.741884 0.000000 47.000000 15.040945 12.000000
-38.957569 -14.110644 -31.504121 0.000000 75.000000 14.672455 11.000000
-38.649795 -14.414174 -30.919883 0.000000 47.000000 14.852622 19.000000
-35.317954 -17.097560 -28.050499 0.000000 45.000000 14.362967 0.000000
-35.182922 -16.973882 -27.914942 0.000000 60.000000 14.385453 0.000000
-39.620989 -15.313863 -31.573309 0.000000 79.000000 14.923553 20.000000
-35.528061 -16.594151 -28.439139 0.000000 43.000000 14.283476 0.000000
-35.700173 -16.624993 -28.589891 0.000000 47.000000 14.286288 0.000000
-36.490220 -17.136984 -28.993968 0.000000 51.000000 14.463501 24.000000
-35.764656 -15.646281 -28.182199 0.000000 69.000000 14.745623 6.000000
-40.142297 -17.045622 -31.622162 0.000000 55.000000 15.029088 28.000000
-35.409134 -14.857225 -28.322030 0.000000 48.000000 14.499948 4.000000
-38.136317 -18.681360 -30.404601 0.000000 34.000000 14.360854 0.000000
-39.189438 -15.295920 -31.437033 0.000000 77.000000 14.733442 20.000000
-39.637062 -13.611769 -31.929002 0.000000 74.000000 14.883025 10.000000
-35.515503 -13.804787 -28.751573 0.000000 37.000000 14.387535 0.000000
-39.075633 -18.341033 -31.374057 0.000000 43.000000 14.331437 0.000000
-38.944796 -13.609312 -31.003912 0.000000 47.000000 15.088762 11.000000
-38.221539 -15.657306 -30.841239 0.000000 33.000000 14.469186 22.000000
-37.932313 -16.290916 -29.935437 0.000000 48.000000 14.855577 23.000000
-36.670419 -17.605412 -29.237627 0.000000 44.000000 14.350883 0.000000
-36.154358 -15.209078 -28.475999 0.000000 68.000000 14.848335 6.000000
-39.416362 -13.767952 -31.935480 0.000000 63.000000 14.710248 10.000000
-38.358036 -15.275892 -30.146674 0.000000 73.000000 15.113064 14.000000
-36.290874 -15.171048 -29.021520 0.000000 73.000000 14.548337 6.000000
-36.046544 -18.652424 -27.929316 0.000000 79.000000 14.753716 8.000000
-37.893743 -16.345440 -29.911530 0.000000 77.000000 14.840279 23.000000
-38.832129 -14.329142 -31.106294 0.000000 66.000000 14.850512 19.000000
-36.376287 -17.679207 -28.709419 0.000000 44.000000 14.527493 17.000000
-38.540268 -17.509123 -29.742405 0.000000 57.000000 15.258138 26.000000
-38.208255 -14.295626 -30.640964 0.000000 77.000000 14.771781 19.000000
-36.388111 -19.575684 -28.697871 0.000000 23.000000 14.312843 0.000000
-37.058852 -16.632011 -28.705600 0.000000 73.000000 15.118778 24.000000
-37.107378 -13.555329 -30.290030 0.000000 49.000000 14.373820 0.000000
-39.732742 -15.135832 -31.954883 0.000000 54.000000 14.743146 20.000000
-36.623345 -15.768046 -28.989540 0.000000 34.000000 14.723389 12.000000
-37.136907 -15.295255 -29.042633 0.000000 49.000000 15.089172 6.000000
-39.597295 -13.611407 -32.237349 0.000000 53.000000 14.631919 10.000000
-38.899132 -14.328525 -31.049591 0.000000 43.000000 14.937081 19.000000
-38.884150 -16.881703 -30.450317 0.000000 66.000000 15.051849 25.000000
-38.776356 -14.492934 -31.029004 0.000000 65.000000 14.849117 19.000000
-35.906523 -14.018733 -29.109108 0.000000 45.000000 14.365450 0.000000
-39.264549 -16.977616 -31.213269 0.000000 67.000000 14.742066 27.000000
-36.585478 -15.436075 -28.767302 0.000000 70.000000 14.899918 6.000000
-36.012355 -16.011966 -27.931868 0.000000 65.000000 15.050438 9.000000
-36.692531 -15.498966 -28.892071 0.000000 58.000000 14.873791 6.000000
-39.424438 -14.668159 -31.777090 0.000000 65.000000 14.721251 20.000000
-36.811088 -17.632911 -28.976449 0.000000 45.000000 14.632511 17.000000
-35.365935 -18.836261 -27.788714 0.000000 61.000000 14.373982 0.000000
-35.550222 -15.681929 -27.625567 0.000000 49.000000 15.001375 9.000000
-38.439919 -17.134191 -30.506670 0.000000 50.000000 14.680110 29.000000
-35.349370 -15.310076 -27.802192 0.000000 71.000000 14.782560 6.000000
-36.741318 -18.843421 -28.618750 0.000000 60.000000 14.698123 8.000000
-38.419515 -16.308624 -30.151557 0.000000 72.000000 15.025218 23.000000
-35.838124 -14.662135 -28.920263 0.000000 54.000000 14.378248 0.000000
-39.281029 -15.734610 -31.416747 0.000000 53.000000 14.756608 21.000000
-36.244626 -14.749976 -29.227385 0.000000 60.000000 14.418653 0.000000
-36.074575 -14.802857 -29.209173 0.000000 45.000000 14.310623 0.000000
-37.342548 -14.494437 -29.827850 0.000000 75.000000 14.754421 5.000000
-35.827682 -16.468293 -28.333138 0.000000 59.000000 14.578250 9.000000
-39.578061 -15.308654 -31.496895 0.000000 52.000000 14.950783 20.000000
-39.288202 -13.937528 -32.065681 0.000000 61.000000 14.508333 10.000000
-36.797373 -18.801866 -28.738270 0.000000 54.000000 14.654099 8.000000
-38.522969 -14.152869 -31.183794 0.000000 77.000000 14.606837 19.000000
-37.869400 -15.011202 -30.139272 0.000000 72.000000 14.820718 14.000000
-35.299353 -14.187256 -28.447415 0.000000 83.000000 14.416225 0.000000
-35.632091 -13.803729 -28.919908 0.000000 52.000000 14.343946 0.000000
-37.903591 -15.268459 -30.076612 0.000000 66.000000 14.858047 14.000000
-35.854214 -13.533028 -29.360842 0.000000 58.000000 14.206181 0.000000
-39.689307 -15.380709 -31.763267 0.000000 71.000000 14.823367 20.000000
-35.308508 -17.409394 -27.968210 0.000000 60.000000 14.378458 0.000000
-37.094986 -14.443005 -29.533095 0.000000 45.000000 14.807917 5.000000
-39.065882 -16.731523 -31.325689 0.000000 56.000000 14.556110 27.000000
-36.156597 -18.129034 -28.704892 0.000000 42.000000 14.327630 0.000000
-39.049292 -19.549161 -30.344254 0.000000 79.000000 14.915565 1.000000
-37.466168 -16.116846 -30.249364 0.000000 32.000000 14.333640 0.000000
-38.266299 -16.286220 -29.866340 0.000000 55.000000 15.131952 23.000000
-37.108597 -18.815252 -29.409346 0.000000 47.000000 14.374487 0.000000
-39.397235 -17.563746 -31.172927 0.000000 83.000000 14.789609 29.000000
-38.616722 -14.403675 -30.941289 0.000000 56.000000 14.815995 19.000000
-39.126608 -16.723852 -31.189586 0.000000 39.000000 14.697056 27.000000
-37.455453 -16.631082 -29.092167 0.000000 75.000000 15.105521 24.000000
-37.095443 -18.045518 -28.708892 0.000000 69.000000 14.968896 17.000000
-35.611269 -15.022471 -28.888394 0.000000 24.000000 14.204338 0.000000
-36.013788 -17.041165 -28.255864 0.000000 84.000000 14.690348 24.000000
-36.310874 -13.512133 -29.711028 0.000000 47.000000 14.262378 0.000000
-36.504049 -15.620613 -28.922902 0.000000 38.000000 14.709263 6.000000
-36.158561 -13.610673 -29.508309 0.000000 48.000000 14.294978 0.000000
-37.336518 -18.155466 -28.860776 0.000000 43.000000 15.007817 17.000000
-38.729638 -13.633943 -31.133339 0.000000 47.000000 14.846318 11.000000
-35.287582 -13.718830 -28.625192 0.000000 24.000000 14.336022 0.000000
-38.448357 -19.442030 -29.598565 0.000000 45.000000 15.065229 1.000000
-35.185154 -14.311729 -28.380724 0.000000 54.000000 14.372455 0.000000
-34.932115 -14.517034 -28.086436 0.000000 61.000000 14.390636 0.000000
-36.347699 -19.187411 -27.989335 0.000000 59.000000 14.848253 8.000000
-40.160177 -17.360654 -31.574847 0.000000 61.000000 15.037202 28.000000
-36.556964 -15.789222 -28.867568 0.000000 60.000000 14.764706 12.000000
-39.119818 -13.607180 -31.919480 0.000000 42.000000 14.541216 10.000000
-38.464943 -16.581238 -30.301194 0.000000 60.000000 14.913837 25.000000
-38.432386 -14.664284 -30.704335 0.000000 46.000000 14.832129 19.000000
-37.189822 -15.871535 -28.903590 0.000000 28.000000 15.155843 12.000000
-36.498183 -15.478467 -28.472921 0.000000 51.000000 15.049940 6.000000
-36.460821 -13.877265 -29.006224 0.000000 54.000000 14.831840 2.000000
-35.724501 -15.881820 -28.608293 0.000000 41.000000 14.379865 0.000000
-36.796137 -16.125555 -28.624325 0.000000 74.000000 15.062185 12.000000
-35.097764 -17.132799 -27.820469 0.000000 54.000000 14.377307 0.000000
-38.284062 -15.442603 -30.260962 0.000000 71.000000 14.959665 14.000000
-36.876382 -15.888734 -28.523074 0.000000 80.000000 15.218875 12.000000
-35.389144 -14.959899 -28.667720 0.000000 27.000000 14.222482 0.000000
-35.091663 -16.895430 -27.872278 0.000000 51.000000 14.364418 0.000000
-35.247881 -16.956738 -28.007630 0.000000 44.000000 14.363986 0.000000
-38.620421 -17.131975 -30.528404 0.000000 66.000000 14.786463 29.000000
-39.492638 -17.826251 -31.114215 0.000000 50.000000 14.864764 29.000000
-37.814768 -13.803461 -30.908332 0.000000 23.000000 14.371530 0.000000
-39.320533 -15.884977 -31.329316 0.000000 42.000000 14.828566 21.000000
-35.803559 -15.819166 -27.803564 0.000000 37.000000 15.026256 9.000000
-40.083263 -19.524806 -31.485841 0.000000 47.000000 14.786363 1.000000
-37.211839 -15.654900 -29.333198 0.000000 74.000000 14.884600 12.000000
-38.750567 -17.006653 -31.277514 0.000000 39.000000 14.344704 0.000000
-38.813241 -19.184947 -31.067629 0.000000 35.000000 14.274336 0.000000
-37.188398 -15.161076 -30.238339 0.000000 29.000000 14.270517 0.000000
-38.111031 -17.591178 -29.776927 0.000000 47.000000 14.933166 26.000000
-36.863950 -17.527073 -29.379536 0.000000 47.000000 14.387892 0.000000
-36.708355 -17.418352 -29.289336 0.000000 45.000000 14.361676 0.000000
-36.745634 -16.584217 -29.164098 0.000000 47.000000 14.579566 24.000000
-38.600533 -18.182500 -29.855567 0.000000 50.000000 15.134486 15.000000
-35.277194 -17.198852 -28.000607 0.000000 43.000000 14.359394 0.000000
-37.906152 -17.491638 -29.826580 0.000000 66.000000 14.770819 26.000000
-37.708204 -16.055075 -30.371797 0.000000 47.000000 14.415552 0.000000
-39.472840 -19.505398 -30.658163 0.000000 52.000000 14.978575 1.000000
-36.332700 -13.873256 -28.968275 0.000000 80.000000 14.773414 2.000000
-38.987635 -15.609543 -31.758367 0.000000 46.000000 14.325216 0.000000
-38.496473 -17.464031 -29.967623 0.000000 54.000000 15.070229 26.000000
-36.372603 -15.087827 -29.302666 0.000000 52.000000 14.409157 0.000000
-36.544975 -15.043672 -29.677157 0.000000 42.000000 14.258529 0.000000
-35.422642 -14.998644 -28.749527 0.000000 38.000000 14.180875 0.000000
-37.178588 -14.339969 -29.501550 0.000000 63.000000 14.899873 5.000000
-35.572928 -14.938001 -28.881362 0.000000 39.000000 14.193852 0.000000
-37.028700 -13.753447 -30.168998 0.000000 26.000000 14.384594 0.000000
-36.810132 -18.849748 -28.230172 0.000000 57.000000 15.026480 8.000000
-36.868508 -17.615607 -29.237702 0.000000 72.000000 14.483356 16.000000
-38.489809 -16.028738 -30.465776 0.000000 66.000000 14.878216 23.000000
-38.492496 -17.236648 -30.307224 0.000000 67.000000 14.848213 29.000000
-36.038357 -14.733313 -29.177485 0.000000 45.000000 14.317688 0.000000
-37.402805 -14.714720 -30.474854 0.000000 52.000000 14.297638 0.000000
-37.141652 -14.179968 -30.292724 0.000000 44.000000 14.318910 0.000000
-38.097836 -19.060293 -29.131283 0.000000 6.000000 15.214934 18.000000
-39.359321 -19.399246 -30.583340 0.000000 62.000000 14.969275 1.000000
-37.627218 -13.896872 -30.791736 0.000000 45.000000 14.318312 0.000000
-37.790496 -13.794357 -30.938794 0.000000 47.000000 14.334089 0.000000
-39.809210 -16.190761 -31.886435 0.000000 49.000000 14.716061 21.000000
-39.133047 -15.699350 -31.457575 0.000000 56.000000 14.631272 21.000000
-35.659855 -15.207310 -27.987430 0.000000 75.000000 14.870005 6.000000
-38.809192 -18.890438 -31.016915 0.000000 24.000000 14.344369 0.000000
-36.204811 -15.586642 -28.690998 0.000000 57.000000 14.680017 6.000000
-38.450754 -15.728770 -30.722553 0.000000 66.000000 14.701603 22.000000
-37.884523 -13.708456 -30.797014 0.000000 69.000000 14.511183 11.000000
-37.168869 -18.918199 -29.275017 0.000000 63.000000 14.500360 18.000000
-37.392656 -14.452091 -30.419401 0.000000 32.000000 14.363116 0.000000
-37.654112 -18.895294 -29.266506 0.000000 43.000000 14.837025 18.000000
-37.994317 -14.588868 -30.355686 0.000000 73.000000 14.799101 19.000000
-37.081177 -14.457509 -29.156792 0.000000 73.000000 15.070554 5.000000
-35.573515 -13.681351 -28.937584 0.000000 46.000000 14.306440 0.000000
-37.467870 -15.126684 -29.363496 0.000000 53.000000 15.099807 6.000000
-35.910540 -15.290743 -27.994039 0.000000 80.000000 15.024321 6.000000
-35.128197 -17.322715 -27.820353 0.000000 60.000000 14.374807 0.000000
-39.328989 -16.395673 -31.649805 0.000000 46.000000 14.538933 21.000000
-35.590454 -17.873052 -28.185072 0.000000 48.000000 14.354623 0.000000
-37.625497 -17.203224 -29.666236 0.000000 48.000000 14.733066 24.000000
-38.480435 -18.258597 -30.269200 0.000000 43.000000 14.743231 15.000000
-38.113379 -15.668904 -30.442945 0.000000 49.000000 14.684457 23.000000
-36.222230 -18.546912 -28.636110 0.000000 45.000000 14.371078 0.000000
-39.454621 -13.714016 -31.818811 0.000000 70.000000 14.827521 10.000000
-35.574091 -18.857740 -27.962753 0.000000 57.000000 14.385334 0.000000
-36.483735 -14.378951 -28.979333 0.000000 41.000000 14.805758 5.000000
-39.670592 -19.295320 -31.882506 0.000000 31.000000 14.247104 0.000000
-37.082413 -19.412886 -29.504083 0.000000 39.000000 14.215087 0.000000
-39.500758 -13.757728 -32.151982 0.000000 53.000000 14.611000 10.000000
-37.356892 -15.748996 -29.355646 0.000000 50.000000 14.954762 12.000000
-37.525301 -17.485974 -30.003624 0.000000 23.000000 14.385537 0.000000
-39.156421 -15.644679 -31.774027 0.000000 54.000000 14.423525 20.000000
-36.451182 -13.728893 -28.961716 0.000000 67.000000 14.875782 2.000000
-36.933537 -13.632594 -30.168363 0.000000 46.000000 14.335516 0.000000
-35.263722 -14.538772 -28.078718 0.000000 62.000000 14.617536 4.000000
-38.933499 -19.356498 -30.458718 0.000000 47.000000 14.777578 1.000000
-37.567288 -13.714766 -30.676957 0.000000 51.000000 14.383517 0.000000
-36.460123 -17.064163 -28.473604 0.000000 50.000000 14.830568 24.000000
-36.941388 -17.438795 -29.361150 0.000000 39.000000 14.464313 16.000000
-36.760215 -13.877182 -29.343704 0.000000 73.000000 14.788543 2.000000
-35.321231 -14.730252 -28.044821 0.000000 62.000000 14.657702 4.000000
-36.863528 -14.002187 -30.022137 0.000000 45.000000 14.349580 0.000000
-35.825683 -15.970489 -27.744875 0.000000 59.000000 15.065453 9.000000
-36.530468 -14.152417 -29.681179 0.000000 46.000000 14.354382 0.000000
-38.276792 -14.209228 -31.005279 0.000000 40.000000 14.563582 19.000000
-36.210807 -14.304538 -29.338240 0.000000 43.000000 14.369442 0.000000
-38.959436 -13.513247 -31.946412 0.000000 37.000000 14.424763 0.000000
-37.725682 -17.867067 -29.892285 0.000000 49.000000 14.555418 26.000000
-39.096528 -19.377375 -30.831365 0.000000 53.000000 14.614058 1.000000
-35.756599 -14.540515 -28.869238 0.000000 62.000000 14.375127 0.000000
-35.401582 -14.876737 -28.161236 0.000000 57.000000 14.609436 4.000000
-37.165855 -14.399750 -29.938496 0.000000 80.000000 14.566151 5.000000
-36.331634 -14.107335 -29.114420 0.000000 72.000000 14.637870 2.000000
-36.795776 -18.768718 -28.900811 0.000000 40.000000 14.538825 8.000000
-39.620739 -14.730960 -32.164583 0.000000 73.000000 14.564294 20.000000
-35.596100 -17.959588 -28.303130 0.000000 47.000000 14.262017 0.000000
-38.393872 -16.356654 -29.901573 0.000000 22.000000 15.183892 23.000000
-35.222099 -17.330520 -27.895130 0.000000 63.000000 14.382874 0.000000
-38.768521 -16.027615 -30.805518 0.000000 59.000000 14.819434 22.000000
-38.882262 -13.980731 -31.508252 0.000000 49.000000 14.634421 11.000000
-38.132931 -14.754453 -30.633363 0.000000 79.000000 14.670549 19.000000
-39.444101 -15.584489 -31.864211 0.000000 56.000000 14.559526 20.000000
-35.514102 -13.589594 -28.919486 0.000000 56.000000 14.290662 0.000000
-39.547780 -14.755519 -31.758423 0.000000 62.000000 14.807480 20.000000
-36.716950 -16.641522 -28.632395 0.000000 55.000000 14.939984 24.000000
-35.195748 -17.213828 -27.893159 0.000000 54.000000 14.380728 0.000000
-36.380685 -17.367851 -29.008690 0.000000 45.000000 14.350698 0.000000
-35.343002 -17.297301 -27.997283 0.000000 52.000000 14.394258 0.000000
-36.542085 -17.460758 -29.139409 0.000000 48.000000 14.353287 0.000000
-36.706491 -17.551304 -29.268592 0.000000 48.000000 14.359310 0.000000
-36.113460 -19.046552 -27.984269 0.000000 38.000000 14.710917 8.000000
-38.948337 -18.615834 -31.212300 0.000000 42.000000 14.329661 0.000000
-38.717922 -14.319278 -30.987801 0.000000 68.000000 14.860784 19.000000
-39.547236 -15.887546 -31.762267 0.000000 68.000000 14.666410 21.000000
-38.583488 -18.209268 -30.911679 0.000000 26.000000 14.351484 0.000000
-36.698517 -17.657662 -28.654707 0.000000 67.000000 14.787517 17.000000
-35.038424 -16.726120 -27.878822 0.000000 29.000000 14.344331 0.000000
-35.205273 -13.855719 -28.240801 0.000000 54.000000 14.543375 3.000000
-39.085909 -18.915168 -31.267869 0.000000 42.000000 14.345676 0.000000
-35.709813 -14.224526 -28.672290 0.000000 49.000000 14.525290 3.000000
-38.204937 -16.765242 -30.349406 0.000000 35.000000 14.680769 25.000000
-36.022845 -16.434007 -28.503886 0.000000 64.000000 14.590014 9.000000
-38.388049 -15.859113 -30.683752 0.000000 87.000000 14.671604 22.000000
-35.621179 -13.616097 -29.062699 0.000000 49.000000 14.255567 0.000000
-36.230375 -17.530209 -28.233642 0.000000 74.000000 14.793196 7.000000
-39.351819 -15.246694 -31.510414 0.000000 63.000000 14.795717 20.000000
-38.223501 -14.014304 -30.952581 0.000000 54.000000 14.589673 11.000000
-35.434297 -15.546387 -27.895876 0.000000 39.000000 14.742976 6.000000
-34.880380 -14.491133 -28.079485 0.000000 57.000000 14.363911 0.000000
-38.812022 -17.218820 -30.832934 0.000000 53.000000 14.683752 29.000000
-36.997282 -19.419562 -29.372559 0.000000 44.000000 14.252457 0.000000
-39.630342 -19.561235 -30.906568 0.000000 67.000000 14.897441 1.000000
-36.609430 -13.822025 -29.208096 0.000000 50.000000 14.792080 2.000000
-35.889522 -18.086545 -28.469409 0.000000 36.000000 14.323744 0.000000
-37.992337 -16.837248 -29.408559 0.000000 53.000000 15.212813 24.000000
-38.829164 -19.458550 -30.236780 0.000000 55.000000 14.856129 1.000000
-38.346501 -14.344805 -30.684941 0.000000 66.000000 14.827158 19.000000
-38.485165 -16.225611 -30.483511 0.000000 68.000000 14.838196 23.000000
-38.911772 -17.565829 -30.579539 0.000000 61.000000 14.893162 29.000000
-36.608724 -16.019038 -28.821334 0.000000 61.000000 14.805294 12.000000
-34.711321 -13.473537 -28.220027 0.000000 45.000000 14.271479 0.000000
-39.360921 -13.949008 -32.155728 0.000000 65.000000 14.490541 10.000000
-39.661700 -19.296151 -31.871759 0.000000 35.000000 14.248816 0.000000
-35.845670 -17.450417 -28.086030 0.000000 49.000000 14.650501 7.000000
-39.299135 -18.976585 -31.468652 0.000000 42.000000 14.336133 0.000000
-39.130548 -18.843561 -31.367542 0.000000 35.000000 14.312040 0.000000
-36.696884 -15.290110 -28.824736 0.000000 46.000000 14.951154 6.000000
-38.786633 -18.571729 -31.084566 0.000000 37.000000 14.318751 0.000000
-39.340295 -14.615192 -31.726406 0.000000 47.000000 14.707750 19.000000
-36.870602 -17.403946 -29.265735 0.000000 61.000000 14.490163 16.000000
-35.665627 -16.642438 -28.616972 0.000000 47.000000 14.241134 0.000000
-39.693266 -17.338799 -31.534102 0.000000 63.000000 14.754199 29.000000
-35.794713 -15.679680 -28.696858 0.000000 52.000000 14.387481 0.000000
-37.404876 -15.082881 -30.396332 0.000000 50.000000 14.311305 0.000000
-37.955288 -14.787378 -30.676706 0.000000 41.000000 14.515048 19.000000
-35.676660 -14.484625 -28.823547 0.000000 37.000000 14.361189 0.000000
-39.571051 -15.762199 -31.667543 0.000000 66.000000 14.766665 21.000000
-37.165798 -14.493954 -29.841464 0.000000 53.000000 14.625219 5.000000
-37.997962 -16.883852 -29.568205 0.000000 49.000000 15.094807 24.000000
-38.840427 -17.577160 -30.610364 0.000000 71.000000 14.821180 29.000000
-36.076307 -16.065808 -27.907752 0.000000 67.000000 15.104608 9.000000
-38.071227 -17.323788 -29.815889 0.000000 75.000000 14.910519 26.000000
-37.488471 -13.957039 -30.612878 0.000000 36.000000 14.347390 0.000000
-36.583377 -19.075998 -28.487350 0.000000 50.000000 14.658715 8.000000
-36.409903 -14.821799 -29.000366 0.000000 53.000000 14.686651 5.000000
-36.228727 -18.540185 -28.149245 0.000000 50.000000 14.730437 8.000000
-35.108160 -15.615946 -28.044449 0.000000 46.000000 14.406188 0.000000
-35.469359 -15.595683 -28.427779 0.000000 45.000000 14.373735 0.000000
-38.979967 -14.392190 -31.552256 0.000000 74.000000 14.618267 19.000000
-40.116316 -17.410651 -31.634052 0.000000 70.000000 14.958426 28.000000
-38.665065 -16.771634 -30.920934 0.000000 69.000000 14.574977 25.000000
-39.025678 -13.389925 -31.525040 0.000000 59.000000 14.791032 11.000000
-36.858544 -15.197452 -29.326257 0.000000 54.000000 14.706797 6.000000
-39.035877 -14.507938 -31.632627 0.000000 53.000000 14.583459 19.000000
-37.160782 -15.386683 -29.181817 0.000000 39.000000 14.992913 6.000000
-37.040899 -15.192578 -29.271099 0.000000 66.000000 14.870657 6.000000
-35.912593 -14.310432 -29.098386 0.000000 43.000000 14.341814 0.000000
-37.238686 -14.245675 -30.372385 0.000000 42.000000 14.318486 0.000000
-39.509127 -16.579285 -31.252164 0.000000 67.000000 14.927461 27.000000
-36.520560 -15.818100 -28.677732 0.000000 81.000000 14.874695 12.000000
-37.551985 -14.040029 -30.716328 0.000000 42.000000 14.304920 0.000000
-37.710506 -13.931334 -30.886004 0.000000 47.000000 14.301786 0.000000
-35.662161 -13.981790 -28.374285 0.000000 71.000000 14.739454 3.000000
-37.987890 -17.984861 -29.871601 0.000000 36.000000 14.733182 15.000000
-35.337813 -17.786027 -28.024452 0.000000 57.000000 14.311454 0.000000
-36.882362 -17.357990 -29.119917 0.000000 68.000000 14.609773 16.000000
-38.179325 -14.199658 -31.096061 0.000000 63.000000 14.432892 19.000000
-38.068876 -14.252270 -30.881022 0.000000 49.000000 14.508319 19.000000
-35.738142 -18.364396 -28.198861 0.000000 64.000000 14.384470 0.000000
-35.184994 -15.637330 -28.052701 0.000000 48.000000 14.449467 9.000000
-39.034994 -19.396917 -30.184544 0.000000 56.000000 15.040631 1.000000
-39.782393 -16.177051 -31.638087 0.000000 61.000000 14.880273 21.000000
-36.933150 -14.516433 -29.057807 0.000000 80.000000 15.035416 5.000000
-39.008329 -15.247892 -31.191019 0.000000 80.000000 14.795945 20.000000
-39.547415 -16.103496 -31.487014 0.000000 69.000000 14.840446 21.000000
-35.568870 -14.083047 -28.285158 0.000000 74.000000 14.728952 3.000000
-37.297262 -14.375304 -30.268707 0.000000 39.000000 14.417667 0.000000
-38.681463 -13.496090 -31.409826 0.000000 67.000000 14.629459 11.000000
-39.256248 -15.749729 -31.542479 0.000000 71.000000 14.646572 21.000000
-38.149671 -14.349532 -30.597933 0.000000 70.000000 14.756954 19.000000
-39.065284 -16.051888 -31.082818 0.000000 47.000000 14.815169 21.000000
-37.215338 -17.774003 -29.053666 0.000000 55.000000 14.832144 16.000000
-35.843890 -19.201691 -27.688876 0.000000 76.000000 14.724850 8.000000
-38.117458 -16.710036 -29.657026 0.000000 55.000000 15.132067 24.000000
-39.890174 -15.899927 -31.856240 0.000000 64.000000 14.828130 21.000000
-38.127113 -15.482463 -30.063824 0.000000 75.000000 14.992223 14.000000
-35.544337 -15.109660 -28.838015 0.000000 44.000000 14.185165 0.000000
-36.713848 -17.151389 -29.167482 0.000000 52.000000 14.486546 24.000000
