-32.107429 -17.592608 -7.984843 0.000000 44.000000 14.411175 0.000000
-32.226222 -15.776713 -4.958143 0.000000 61.000000 14.754054 22.000000
-29.293643 -14.722558 -3.778078 0.000000 36.000000 14.422754 0.000000
-32.195280 -16.118708 -5.945503 0.000000 52.000000 14.441626 0.000000
-33.797545 -16.095582 -5.642948 0.000000 39.000000 14.702934 21.000000
-29.469482 -16.603708 -6.353816 0.000000 32.000000 14.418018 0.000000
-28.995750 -14.272526 -3.134754 0.000000 35.000000 14.423902 0.000000
-31.769222 -17.048196 -7.411097 0.000000 38.000000 14.292768 0.000000
-28.348144 -17.088612 -6.385207 0.000000 44.000000 14.718421 3.000000
-28.435872 -14.271375 -3.223951 0.000000 38.000000 14.334973 0.000000
-30.406256 -15.126672 -4.334669 0.000000 56.000000 14.487276 28.000000
-31.642203 -16.368812 -6.222153 0.000000 53.000000 14.443804 0.000000
-32.893446 -15.074480 -4.649096 0.000000 42.000000 14.415163 0.000000
-32.755254 -15.097706 -4.781240 0.000000 37.000000 14.346829 0.000000
-32.813975 -16.909896 -7.283678 0.000000 39.000000 14.322802 0.000000
-34.038754 -15.069619 -4.984168 0.000000 26.000000 14.284588 0.000000
-31.749766 -16.629829 -6.689466 0.000000 49.000000 14.383228 0.000000
-31.926745 -15.544705 -5.201251 0.000000 43.000000 14.404874 0.000000
-33.460523 -18.122982 -7.926111 0.000000 46.000000 14.956831 15.000000
-31.769229 -15.613702 -5.322046 0.000000 39.000000 14.378809 0.000000
-33.293661 -15.519198 -5.293206 0.000000 41.000000 14.415705 0.000000
-30.640571 -16.946953 -7.074435 0.000000 52.000000 14.340125 0.000000
-27.985911 -16.694183 -6.282268 0.000000 58.000000 14.439943 0.000000
-31.366498 -15.860485 -5.523960 0.000000 44.000000 14.432048 0.000000
-29.788597 -16.471322 -5.961882 0.000000 46.000000 14.564004 8.000000
-28.431646 -17.692732 -7.572866 0.000000 50.000000 14.504974 17.000000
-33.599354 -16.719415 -6.998176 0.000000 41.000000 14.388332 0.000000
-30.699425 -17.582758 -7.864984 0.000000 39.000000 14.385907 0.000000
-33.590559 -14.447657 -3.885344 0.000000 40.000000 14.408169 0.000000
-27.542740 -17.829252 -7.434692 0.000000 73.000000 14.640687 18.000000
-29.643316 -14.995613 -4.171103 0.000000 48.000000 14.431068 0.000000
-30.612340 -16.264767 -6.110834 0.000000 39.000000 14.361572 0.000000
-33.131474 -16.230998 -5.921850 0.000000 54.000000 14.604586 21.000000
-32.535128 -17.625653 -7.745994 0.000000 59.000000 14.606104 12.000000
-33.336578 -18.110945 -8.303124 0.000000 71.000000 14.715962 15.000000
-28.342300 -16.816463 -6.472768 0.000000 55.000000 14.447618 0.000000
-31.289885 -17.285361 -7.233083 0.000000 56.000000 14.558623 13.000000
-31.532153 -16.546491 -6.471267 0.000000 56.000000 14.431951 0.000000
-32.866093 -17.025182 -7.520685 0.000000 44.000000 14.278200 0.000000
-31.423343 -16.597721 -6.610643 0.000000 45.000000 14.383665 0.000000
-31.013838 -16.033313 -5.720197 0.000000 46.000000 14.432405 0.000000
-30.811332 -16.607932 -6.260814 0.000000 66.000000 14.560758 9.000000
-33.439954 -16.217600 -6.382305 0.000000 31.000000 14.340321 0.000000
-28.552346 -15.775260 -5.170192 0.000000 56.000000 14.396598 0.000000
-30.246119 -16.552276 -6.345934 0.000000 52.000000 14.430140 0.000000
-33.686044 -17.694182 -7.715220 0.000000 57.000000 14.751621 11.000000
-28.948879 -17.893197 -6.905613 0.000000 73.000000 15.093846 20.000000
-33.868762 -16.539968 -6.756191 0.000000 43.000000 14.404544 0.000000
-29.177971 -16.213683 -5.869102 0.000000 41.000000 14.373760 0.000000
-31.981583 -17.623245 -7.795322 0.000000 48.000000 14.540190 12.000000
-27.741591 -16.938342 -6.602454 0.000000 38.000000 14.430929 0.000000
-27.456083 -17.807139 -7.700238 0.000000 58.000000 14.460124 0.000000
-34.028083 -14.286560 -3.943501 0.000000 39.000000 14.271803 0.000000
-29.307667 -16.108657 -5.871492 0.000000 55.000000 14.296146 0.000000
-32.057160 -17.620678 -7.268332 0.000000 62.000000 14.855173 12.000000
-30.992711 -16.928889 -7.015808 0.000000 46.000000 14.382467 0.000000
-29.912090 -14.508416 -3.660989 0.000000 33.000000 14.359001 0.000000
-32.784531 -15.763212 -5.506842 0.000000 63.000000 14.453095 0.000000
-31.615107 -17.680371 -7.506739 0.000000 76.000000 14.734076 13.000000
-30.246318 -15.301894 -4.817234 0.000000 31.000000 14.331972 0.000000
-31.857019 -17.790242 -8.502948 0.000000 42.000000 14.247128 0.000000
-29.498187 -14.875707 -4.037153 0.000000 37.000000 14.405048 0.000000
-33.005976 -15.429198 -5.248149 0.000000 34.000000 14.352074 0.000000
-28.175021 -16.017029 -5.346453 0.000000 55.000000 14.462607 0.000000
-29.260866 -15.090802 -4.294362 0.000000 42.000000 14.410455 0.000000
-29.182506 -15.147637 -4.437775 0.000000 41.000000 14.366189 0.000000
-29.492644 -16.980302 -7.045008 0.000000 43.000000 14.312283 0.000000
-29.098377 -15.219060 -4.578403 0.000000 44.000000 14.334926 0.000000
-29.189284 -16.495171 -5.957059 0.000000 59.000000 14.548392 2.000000
-29.049755 -15.240041 -4.734373 0.000000 30.000000 14.256292 0.000000
-27.825382 -17.526352 -7.422704 0.000000 24.000000 14.422294 0.000000
-28.851105 -15.482763 -4.814363 0.000000 37.000000 14.391334 0.000000
-28.743004 -15.599788 -4.936991 0.000000 38.000000 14.405853 0.000000
-30.279808 -16.982578 -7.062551 0.000000 49.000000 14.353129 0.000000
-28.667189 -15.676041 -5.074887 0.000000 35.000000 14.380609 0.000000
-32.355264 -15.736391 -5.503645 0.000000 41.000000 14.406504 0.000000
-29.149580 -15.732797 -5.177973 0.000000 45.000000 14.395378 0.000000
-29.933393 -15.720876 -5.250754 0.000000 42.000000 14.391879 0.000000
-27.851198 -17.069876 -5.840363 0.000000 3.000000 14.995060 29.000000
-28.758780 -15.208842 -4.583838 0.000000 46.000000 14.302181 0.000000
-29.915754 -15.832630 -5.366466 0.000000 45.000000 14.411941 0.000000
-27.893244 -16.540217 -5.982019 0.000000 68.000000 14.488416 29.000000
-28.772088 -18.047244 -7.377180 0.000000 70.000000 14.926998 17.000000
-31.480199 -17.026684 -7.322146 0.000000 52.000000 14.310063 0.000000
-33.514598 -14.424568 -3.804608 0.000000 47.000000 14.432704 0.000000
-29.667313 -16.019512 -5.827461 0.000000 36.000000 14.273229 0.000000
-32.984467 -15.537449 -5.315514 0.000000 46.000000 14.397732 0.000000
-29.222927 -16.607750 -6.274188 0.000000 55.000000 14.452975 0.000000
-29.194154 -16.656646 -6.426433 0.000000 40.000000 14.400212 0.000000
-33.037085 -16.970857 -7.465775 0.000000 38.000000 14.277849 0.000000
-27.727030 -16.919142 -6.565491 0.000000 37.000000 14.436501 0.000000
-30.570111 -17.891077 -7.250355 0.000000 77.000000 14.989618 19.000000
-28.109869 -17.811196 -7.482234 0.000000 47.000000 14.633616 17.000000
-33.246690 -17.787929 -8.555182 0.000000 55.000000 14.301552 0.000000
-28.209256 -14.209356 -3.143988 0.000000 32.000000 14.318330 0.000000
-27.936035 -14.642790 -3.530772 0.000000 43.000000 14.420030 0.000000
-27.723026 -16.086694 -5.667374 0.000000 43.000000 14.299996 0.000000
-30.149771 -15.382991 -4.720225 0.000000 49.000000 14.448524 0.000000
-31.602378 -16.664379 -6.720863 0.000000 50.000000 14.383115 0.000000
-29.448884 -15.675721 -5.153271 0.000000 31.000000 14.382972 0.000000
-28.124079 -17.563569 -6.832933 0.000000 49.000000 14.820436 20.000000
-28.387969 -16.936301 -6.349257 0.000000 62.000000 14.619913 3.000000
-31.186343 -17.634414 -7.975837 0.000000 39.000000 14.392263 0.000000
-28.674206 -16.854862 -6.572419 0.000000 52.000000 14.440235 0.000000
-31.322050 -17.528171 -7.864463 0.000000 39.000000 14.381466 0.000000
-33.580662 -17.013867 -7.476324 0.000000 46.000000 14.340259 0.000000
-28.899351 -16.655783 -6.363916 0.000000 57.000000 14.418061 0.000000
-32.025752 -16.919419 -7.314527 0.000000 41.000000 14.262687 0.000000
-30.312161 -17.215799 -7.127447 0.000000 42.000000 14.503987 19.000000
-29.927110 -16.921247 -6.762262 0.000000 56.000000 14.459692 0.000000
-28.362447 -16.060406 -5.704654 0.000000 43.000000 14.296932 0.000000
-31.583708 -16.912912 -7.178784 0.000000 40.000000 14.310155 0.000000
-31.298045 -16.207919 -6.097592 0.000000 38.000000 14.366813 0.000000
-32.982244 -15.953220 -6.098950 0.000000 32.000000 14.267200 0.000000
-27.977930 -14.616953 -3.523527 0.000000 47.000000 14.406206 0.000000
-30.519859 -16.927027 -6.944605 0.000000 49.000000 14.393485 0.000000
-30.157008 -16.069352 -5.620773 0.000000 55.000000 14.466478 0.000000
-33.462304 -16.788193 -7.041923 0.000000 60.000000 14.409035 0.000000
-33.011879 -16.619866 -6.767629 0.000000 55.000000 14.408136 0.000000
-28.276282 -16.007224 -5.446699 0.000000 30.000000 14.401683 0.000000
-29.536259 -16.211154 -6.040337 0.000000 33.000000 14.292745 0.000000
-28.712582 -15.200773 -4.075152 0.000000 48.000000 14.594254 1.000000
-30.594220 -16.618325 -6.490921 0.000000 49.000000 14.419111 0.000000
-33.668553 -14.928384 -4.564270 0.000000 36.000000 14.396768 0.000000
-29.336088 -16.503616 -5.921745 0.000000 73.000000 14.585316 2.000000
-33.513564 -17.581577 -7.967627 0.000000 18.000000 14.500789 15.000000
-32.233107 -17.004873 -6.765459 0.000000 79.000000 14.669710 7.000000
-29.993035 -16.488506 -5.955764 0.000000 56.000000 14.594262 8.000000
-33.660222 -17.455926 -8.007827 0.000000 35.000000 14.385269 0.000000
-31.468028 -18.027484 -8.034555 0.000000 62.000000 14.690799 14.000000
-32.182825 -17.782433 -8.508833 0.000000 39.000000 14.257822 0.000000
-32.249296 -16.688781 -6.737265 0.000000 65.000000 14.433601 0.000000
-31.421879 -16.566295 -6.583521 0.000000 44.000000 14.374409 0.000000
-33.464185 -16.126805 -5.975932 0.000000 66.000000 14.509751 21.000000
-30.919231 -17.723225 -8.027222 0.000000 43.000000 14.416362 0.000000
-33.232824 -16.142428 -5.996302 0.000000 48.000000 14.495702 21.000000
-32.842843 -15.787566 -5.617691 0.000000 55.000000 14.410622 0.000000
-31.405303 -16.949922 -7.105544 0.000000 47.000000 14.372080 0.000000
-30.802315 -17.929775 -6.922332 0.000000 69.000000 15.229661 19.000000
-29.862036 -16.514030 -6.265403 0.000000 59.000000 14.423040 0.000000
-30.985878 -14.762080 -3.967299 0.000000 57.000000 14.448587 0.000000
-32.277458 -15.162773 -4.982627 0.000000 24.000000 14.249743 0.000000
-29.889000 -16.917090 -6.743622 0.000000 47.000000 14.465007 0.000000
-32.085981 -15.621609 -5.170631 0.000000 56.000000 14.494773 22.000000
-29.949502 -16.790510 -6.624314 0.000000 36.000000 14.437860 0.000000
-32.512710 -15.703290 -5.466501 0.000000 47.000000 14.411818 0.000000
-29.980273 -16.699417 -6.486468 0.000000 43.000000 14.448329 0.000000
-30.776307 -17.090559 -7.148197 0.000000 35.000000 14.420255 0.000000
-32.991809 -18.241152 -7.902429 0.000000 71.000000 15.036336 15.000000
-30.037203 -16.508969 -6.207685 0.000000 45.000000 14.464176 0.000000
-31.802179 -16.108507 -6.151228 0.000000 43.000000 14.286843 0.000000
-31.839733 -15.993982 -6.006594 0.000000 49.000000 14.282944 0.000000
-30.926646 -15.523342 -5.056285 0.000000 51.000000 14.410847 0.000000
-28.270587 -14.271415 -3.130064 0.000000 30.000000 14.380268 0.000000
-30.707381 -17.901696 -7.353287 0.000000 64.000000 14.945764 19.000000
-31.035756 -16.137580 -5.436327 0.000000 77.000000 14.685736 27.000000
-28.587410 -18.197603 -7.304933 0.000000 53.000000 15.078963 17.000000
-32.437716 -14.992665 -4.330189 0.000000 44.000000 14.509842 5.000000
-27.795143 -17.661856 -6.844387 0.000000 34.000000 14.871928 20.000000
-31.905637 -15.417323 -5.093859 0.000000 38.000000 14.364898 0.000000
-30.234989 -15.633956 -5.124000 0.000000 41.000000 14.416127 0.000000
-31.985876 -16.561798 -6.584428 0.000000 57.000000 14.405666 0.000000
-33.737224 -17.744085 -7.525954 0.000000 42.000000 14.907069 11.000000
-30.822068 -17.429731 -7.007114 0.000000 51.000000 14.779103 19.000000
-27.536112 -17.918776 -7.032030 0.000000 62.000000 14.950785 18.000000
-32.515295 -17.929865 -8.329702 0.000000 41.000000 14.503242 14.000000
-30.224050 -15.245853 -4.557037 0.000000 42.000000 14.439767 0.000000
-33.496200 -15.105120 -5.032647 0.000000 29.000000 14.250309 0.000000
-30.198387 -15.170496 -4.408797 0.000000 39.000000 14.465490 0.000000
-32.992487 -16.521427 -6.624092 0.000000 43.000000 14.412931 0.000000
-28.517296 -17.720003 -6.726304 0.000000 62.000000 15.033932 20.000000
-28.401783 -17.880643 -6.798492 0.000000 73.000000 15.112902 20.000000
-33.452452 -16.660872 -6.846563 0.000000 62.000000 14.421945 0.000000
-29.426237 -15.711612 -5.197799 0.000000 38.000000 14.383984 0.000000
-29.445597 -18.220570 -7.608582 0.000000 51.000000 14.971333 16.000000
-30.159045 -14.741980 -3.855249 0.000000 51.000000 14.446944 0.000000
-31.953418 -14.220182 -3.643315 0.000000 30.000000 14.266156 0.000000
-29.186744 -14.743796 -3.544162 0.000000 42.000000 14.571720 26.000000
-28.971943 -18.232177 -7.552471 0.000000 70.000000 14.984173 17.000000
-31.337675 -16.618325 -6.623753 0.000000 34.000000 14.387063 0.000000
-30.033868 -17.815424 -7.323090 0.000000 36.000000 14.852100 19.000000
-30.112217 -14.255837 -3.325268 0.000000 35.000000 14.367685 0.000000
-29.801867 -17.853793 -7.665042 0.000000 65.000000 14.665703 16.000000
-30.209808 -17.898853 -7.061406 0.000000 72.000000 15.085218 19.000000
-28.042221 -17.622074 -7.561841 0.000000 36.000000 14.430321 0.000000
-31.165414 -17.614044 -7.587525 0.000000 51.000000 14.604709 13.000000
-32.423425 -16.131760 -6.245814 0.000000 30.000000 14.288461 0.000000
-32.098392 -16.659135 -6.693438 0.000000 53.000000 14.426294 0.000000
-33.299436 -15.066913 -4.801584 0.000000 36.000000 14.344207 0.000000
-33.420080 -16.679184 -6.822000 0.000000 53.000000 14.449175 0.000000
-28.044342 -17.877277 -6.914787 0.000000 65.000000 15.018843 20.000000
-27.961034 -17.392451 -6.737550 0.000000 45.000000 14.729312 20.000000
-30.180903 -17.897353 -7.691446 0.000000 61.000000 14.708830 16.000000
-32.508614 -15.796397 -5.617780 0.000000 55.000000 14.396680 0.000000
-30.280933 -17.982809 -7.757403 0.000000 62.000000 14.744647 16.000000
-32.803602 -16.918364 -7.314829 0.000000 47.000000 14.310490 0.000000
-32.544456 -17.096860 -7.377463 0.000000 39.000000 14.400444 0.000000
-33.124703 -16.494532 -6.565662 0.000000 63.000000 14.434259 0.000000
-33.646662 -18.227069 -7.944989 0.000000 78.000000 15.040914 15.000000
-32.320633 -18.083359 -8.018694 0.000000 44.000000 14.798590 14.000000
-32.485976 -17.575514 -7.311716 0.000000 69.000000 14.820114 12.000000
-30.508586 -16.109677 -6.038818 0.000000 50.000000 14.273193 0.000000
-30.747871 -17.958760 -6.931448 0.000000 62.000000 15.244116 19.000000
-28.948971 -17.804347 -6.859803 0.000000 64.000000 15.049649 20.000000
-28.064535 -17.713265 -7.664310 0.000000 43.000000 14.444227 0.000000
-28.061977 -17.616593 -7.539493 0.000000 35.000000 14.440403 0.000000
-29.427622 -17.454547 -7.499337 0.000000 42.000000 14.419798 0.000000
-31.393145 -16.606243 -6.518470 0.000000 50.000000 14.443236 0.000000
-33.534476 -16.638900 -6.317725 0.000000 69.000000 14.722845 4.000000
-27.981773 -17.063175 -6.784898 0.000000 39.000000 14.438133 0.000000
-30.527821 -16.940537 -7.091681 0.000000 29.000000 14.317674 0.000000
-29.278660 -16.698436 -6.443724 0.000000 42.000000 14.428829 0.000000
-30.058198 -16.942665 -6.879925 0.000000 42.000000 14.415392 0.000000
-31.547397 -17.712864 -7.516439 0.000000 72.000000 14.750170 13.000000
-29.146788 -16.021893 -5.717958 0.000000 36.000000 14.307358 0.000000
-27.685492 -16.264718 -5.658304 0.000000 61.000000 14.445975 0.000000
-29.046441 -16.005048 -5.557789 0.000000 36.000000 14.382449 0.000000
-30.276905 -17.992599 -8.044136 0.000000 70.000000 14.582335 16.000000
-28.864401 -15.781733 -5.166983 0.000000 40.000000 14.423286 0.000000
-28.815286 -15.684861 -5.047254 0.000000 33.000000 14.413365 0.000000
-28.745864 -15.610398 -4.917303 0.000000 39.000000 14.426220 0.000000
-27.711334 -16.836019 -6.467506 0.000000 49.000000 14.426831 0.000000
-30.620724 -16.916966 -6.902323 0.000000 49.000000 14.416794 0.000000
-28.650401 -15.206593 -4.599618 0.000000 34.000000 14.284220 0.000000
-29.809740 -15.538347 -4.900704 0.000000 25.000000 14.444982 0.000000
-31.666070 -16.106294 -5.531961 0.000000 75.000000 14.643506 24.000000
-31.496231 -16.871204 -6.902360 0.000000 53.000000 14.434983 0.000000
-28.325558 -18.506893 -7.477953 0.000000 77.000000 15.208363 17.000000
-28.003788 -14.800497 -3.735390 0.000000 39.000000 14.429670 0.000000
-32.284714 -16.901072 -7.285765 0.000000 40.000000 14.281255 0.000000
-31.658096 -15.244292 -4.758043 0.000000 46.000000 14.409417 0.000000
-33.676566 -17.836504 -7.950207 0.000000 44.000000 14.726060 15.000000
-29.153602 -17.868921 -6.933505 0.000000 77.000000 15.070673 20.000000
-30.325075 -16.539306 -6.327550 0.000000 56.000000 14.435575 0.000000
-28.924721 -16.006864 -5.566282 0.000000 25.000000 14.371233 0.000000
-33.631968 -14.498300 -3.898318 0.000000 47.000000 14.443748 0.000000
-32.581876 -15.099743 -4.349547 0.000000 32.000000 14.593407 5.000000
-28.400367 -14.835662 -3.859480 0.000000 34.000000 14.409266 0.000000
-32.482782 -16.163265 -6.284365 0.000000 42.000000 14.294642 0.000000
-31.818940 -16.648059 -6.706108 0.000000 39.000000 14.392348 0.000000
-34.087734 -14.258463 -3.889877 0.000000 36.000000 14.284762 0.000000
-30.535678 -14.795391 -4.052771 0.000000 42.000000 14.396424 0.000000
-31.771700 -17.924189 -8.108518 0.000000 61.000000 14.583080 14.000000
-28.781643 -16.517570 -5.818465 0.000000 50.000000 14.622922 2.000000
-30.861866 -17.557380 -7.826630 0.000000 40.000000 14.398454 0.000000
-31.179848 -15.189035 -4.327094 0.000000 78.000000 14.590406 23.000000
-28.643612 -16.902448 -6.715937 0.000000 45.000000 14.391477 0.000000
-31.627510 -16.726013 -6.774119 0.000000 53.000000 14.402627 0.000000
-30.872107 -15.403226 -4.967058 0.000000 36.000000 14.363842 0.000000
-31.886234 -16.549731 -6.520439 0.000000 46.000000 14.427640 0.000000
-28.696447 -16.215577 -5.281943 0.000000 69.000000 14.693011 25.000000
-28.318448 -17.564213 -7.380990 0.000000 41.000000 14.508370 20.000000
-30.574761 -14.743524 -3.951479 0.000000 41.000000 14.417254 0.000000
-31.889472 -15.656316 -5.357906 0.000000 41.000000 14.399327 0.000000
-33.789865 -14.390070 -3.853860 0.000000 58.000000 14.393093 0.000000
-30.076159 -16.038322 -5.699458 0.000000 43.000000 14.389855 0.000000
-31.466780 -16.002476 -5.736958 0.000000 41.000000 14.426142 0.000000
-30.054592 -16.015453 -5.873485 0.000000 32.000000 14.267006 0.000000
-32.559523 -17.042502 -7.531792 0.000000 38.000000 14.266281 0.000000
-32.030203 -17.610982 -7.544558 0.000000 65.000000 14.682000 12.000000
-31.932984 -16.099822 -6.230110 0.000000 50.000000 14.241333 0.000000
-28.728118 -14.816148 -3.506871 0.000000 69.000000 14.623130 26.000000
-32.507064 -16.831925 -7.018704 0.000000 48.000000 14.397948 0.000000
-33.839534 -15.110127 -4.905645 0.000000 22.000000 14.351145 0.000000
-30.866295 -16.534333 -6.368733 0.000000 51.000000 14.441152 0.000000
-29.395966 -16.670710 -6.418990 0.000000 39.000000 14.428585 0.000000
-30.778726 -16.614647 -6.505886 0.000000 42.000000 14.418871 0.000000
-32.300520 -17.153173 -6.898350 0.000000 65.000000 14.714281 7.000000
-30.666523 -16.727670 -6.627122 0.000000 52.000000 14.430744 0.000000
-28.532627 -16.916661 -6.744192 0.000000 27.000000 14.379180 0.000000
-30.393815 -16.015036 -5.766295 0.000000 35.000000 14.351488 0.000000
-29.072712 -16.648188 -5.889375 0.000000 62.000000 14.704063 2.000000
-33.712042 -16.888417 -7.208683 0.000000 45.000000 14.406372 0.000000
-30.447685 -16.943098 -7.052463 0.000000 45.000000 14.337941 0.000000
-28.326540 -18.063421 -7.919723 0.000000 38.000000 14.590503 17.000000
-28.430968 -15.776827 -5.137563 0.000000 45.000000 14.409573 0.000000
-29.307708 -16.417812 -6.040884 0.000000 54.000000 14.444028 0.000000
-29.843415 -16.684785 -5.965926 0.000000 43.000000 14.736468 8.000000
-28.788678 -18.300020 -7.665697 0.000000 45.000000 14.960050 17.000000
-33.353756 -18.038486 -7.939954 0.000000 68.000000 14.874072 15.000000
-29.377894 -18.169921 -7.743410 0.000000 70.000000 14.846510 16.000000
-31.366491 -17.981655 -8.148363 0.000000 54.000000 14.580178 14.000000
-33.126607 -16.569055 -6.679616 0.000000 56.000000 14.426693 0.000000
-28.396395 -14.708112 -3.627571 0.000000 44.000000 14.444021 0.000000
-29.107236 -16.750533 -6.481050 0.000000 54.000000 14.437784 0.000000
-28.321515 -14.794234 -3.765531 0.000000 35.000000 14.426724 0.000000
-30.543972 -15.896787 -5.514059 0.000000 34.000000 14.415433 0.000000
-33.901071 -16.581732 -6.376788 0.000000 70.000000 14.664949 4.000000
-31.880460 -17.863917 -7.989394 0.000000 72.000000 14.612101 14.000000
-28.889133 -15.956451 -5.392562 0.000000 57.000000 14.431464 0.000000
-28.868690 -14.555096 -3.339227 0.000000 39.000000 14.521668 26.000000
-29.427018 -15.044240 -4.203583 0.000000 41.000000 14.437291 0.000000
-32.334427 -17.742483 -7.317296 0.000000 49.000000 14.941375 12.000000
-29.614891 -17.897856 -6.979846 0.000000 71.000000 15.095405 19.000000
-30.620399 -17.926480 -7.306156 0.000000 78.000000 14.988136 19.000000
-31.220161 -14.810533 -4.156543 0.000000 42.000000 14.390056 0.000000
-27.964246 -15.274885 -4.610374 0.000000 30.000000 14.289614 0.000000
-34.035170 -14.225202 -3.831364 0.000000 38.000000 14.289428 0.000000
-31.253062 -15.050508 -4.334553 0.000000 58.000000 14.479340 23.000000
-29.977979 -17.888491 -6.944381 0.000000 74.000000 15.131694 19.000000
-31.403512 -17.017218 -7.347352 0.000000 27.000000 14.282710 0.000000
-28.630742 -17.974855 -6.828910 0.000000 69.000000 15.184904 20.000000
-28.966148 -15.762597 -5.157388 0.000000 39.000000 14.419993 0.000000
-33.476188 -16.957707 -7.489099 0.000000 31.000000 14.281031 0.000000
-29.040236 -17.964937 -7.545307 0.000000 36.000000 14.778101 17.000000
-28.745783 -16.230220 -5.838838 0.000000 38.000000 14.377844 0.000000
-30.995079 -17.247599 -7.123704 0.000000 40.000000 14.574612 19.000000
-31.391207 -15.600189 -5.201690 0.000000 53.000000 14.415551 0.000000
-31.981309 -15.255725 -4.881036 0.000000 43.000000 14.366001 0.000000
-32.633897 -16.691892 -6.316288 0.000000 53.000000 14.709718 10.000000
-31.472286 -16.760293 -6.751787 0.000000 50.000000 14.433645 0.000000
-28.383292 -17.552069 -7.493714 0.000000 40.000000 14.435887 0.000000
-28.369636 -17.654555 -7.616081 0.000000 46.000000 14.444814 0.000000
-29.239713 -15.641310 -4.964984 0.000000 46.000000 14.453789 0.000000
-32.170770 -17.752532 -8.452673 0.000000 39.000000 14.266335 0.000000
-32.672870 -17.506701 -7.953198 0.000000 37.000000 14.396436 0.000000
-32.849135 -17.387190 -7.853901 0.000000 39.000000 14.370374 0.000000
-30.770625 -17.893704 -7.298262 0.000000 75.000000 14.975924 19.000000
-27.796987 -17.568323 -7.462034 0.000000 37.000000 14.430908 0.000000
-34.047878 -15.230386 -5.123461 0.000000 42.000000 14.331717 0.000000
-32.351621 -15.609137 -5.022363 0.000000 63.000000 14.589298 22.000000
-32.560273 -16.788800 -6.907305 0.000000 54.000000 14.432674 0.000000
-28.631602 -17.797229 -7.092148 0.000000 66.000000 14.886320 20.000000
-29.180701 -18.055924 -7.616057 0.000000 79.000000 14.818057 17.000000
-28.401565 -15.292384 -4.712943 0.000000 36.000000 14.270335 0.000000
-32.751718 -16.892090 -7.269068 0.000000 39.000000 14.313252 0.000000
-29.449068 -17.819395 -7.044042 0.000000 67.000000 14.983944 19.000000
-30.307430 -17.805468 -6.904145 0.000000 53.000000 15.109549 19.000000
-31.899360 -15.696066 -5.424303 0.000000 45.000000 14.392521 0.000000
-29.887471 -15.249163 -4.666809 0.000000 26.000000 14.356244 0.000000
-32.965807 -16.613838 -6.824733 0.000000 50.000000 14.366563 0.000000
-31.300785 -16.723226 -6.782165 0.000000 41.000000 14.375111 0.000000
-29.067440 -17.456930 -6.893224 0.000000 68.000000 14.758291 20.000000
-30.864347 -17.669898 -7.961425 0.000000 37.000000 14.409086 0.000000
-33.098645 -16.421067 -6.528272 0.000000 50.000000 14.395785 0.000000
-31.422144 -16.532432 -6.505553 0.000000 64.000000 14.393438 0.000000
-33.119673 -15.196866 -5.054700 0.000000 22.000000 14.287280 0.000000
-31.467045 -15.583650 -5.170293 0.000000 56.000000 14.425637 0.000000
-32.777719 -16.928182 -7.173205 0.000000 33.000000 14.400678 0.000000
-33.125689 -16.217689 -6.371308 0.000000 40.000000 14.327181 0.000000
-30.907904 -17.585099 -7.362395 0.000000 69.000000 14.698714 19.000000
-29.308371 -15.165913 -4.567328 0.000000 28.000000 14.311992 0.000000
-31.804533 -15.944527 -6.025739 0.000000 35.000000 14.229674 0.000000
-28.502533 -16.973542 -6.806429 0.000000 43.000000 14.386086 0.000000
-27.698186 -17.653936 -7.181032 0.000000 42.000000 14.659982 20.000000
-30.304107 -17.890190 -7.792427 0.000000 57.000000 14.650970 16.000000
-28.662302 -17.818652 -6.817476 0.000000 55.000000 15.068224 20.000000
-29.940594 -14.889694 -4.059821 0.000000 50.000000 14.430619 0.000000
-29.894698 -16.649901 -6.423152 0.000000 50.000000 14.440717 0.000000
-29.623941 -18.341159 -7.588923 0.000000 72.000000 15.091017 16.000000
-30.398670 -15.789568 -5.329774 0.000000 31.000000 14.429420 0.000000
-33.806367 -15.188631 -5.065192 0.000000 38.000000 14.317556 0.000000
-29.538837 -16.955539 -6.962431 0.000000 57.000000 14.344234 0.000000
-30.573238 -15.143121 -4.322888 0.000000 55.000000 14.517948 23.000000
-33.181276 -15.075874 -4.642952 0.000000 32.000000 14.437992 0.000000
-32.276195 -17.674886 -7.333506 0.000000 55.000000 14.873831 12.000000
-32.477022 -16.921747 -6.708677 0.000000 62.000000 14.651918 7.000000
-33.115172 -17.708974 -7.740596 0.000000 30.000000 14.712625 11.000000
-32.099379 -15.058405 -4.684375 0.000000 31.000000 14.331500 0.000000
-30.986730 -15.445857 -5.046383 0.000000 32.000000 14.358263 0.000000
-33.956141 -14.644046 -4.270101 0.000000 41.000000 14.360815 0.000000
-30.992847 -15.904024 -5.430144 0.000000 42.000000 14.499151 27.000000
-33.549302 -16.004019 -6.112773 0.000000 30.000000 14.335398 0.000000
-32.593412 -15.351585 -5.132598 0.000000 47.000000 14.332326 0.000000
-28.531508 -17.841211 -6.811101 0.000000 48.000000 15.081908 20.000000
-34.116904 -14.188608 -3.826045 0.000000 39.000000 14.268325 0.000000
-31.139107 -16.236002 -6.088112 0.000000 49.000000 14.385005 0.000000
-31.166592 -15.721351 -5.367251 0.000000 44.000000 14.400636 0.000000
-32.180180 -14.325493 -3.637642 0.000000 38.000000 14.368321 0.000000
-29.074362 -16.945889 -7.092164 0.000000 39.000000 14.230446 0.000000
-33.504730 -16.870471 -7.265923 0.000000 60.000000 14.345026 0.000000
-33.004454 -16.457838 -6.447897 0.000000 65.000000 14.467032 0.000000
-28.686704 -17.723013 -7.395596 0.000000 46.000000 14.650354 20.000000
-31.877948 -17.521698 -7.924749 0.000000 41.000000 14.375438 0.000000
-32.681852 -15.499599 -5.248580 0.000000 46.000000 14.388006 0.000000
-29.773165 -18.205835 -7.825688 0.000000 69.000000 14.851404 16.000000
-31.345448 -17.751347 -8.187032 0.000000 43.000000 14.370996 0.000000
-33.396284 -17.849965 -7.526328 0.000000 74.000000 14.970471 11.000000
-29.054629 -16.021334 -5.496152 0.000000 56.000000 14.432568 0.000000
-29.228441 -18.098896 -7.965472 0.000000 50.000000 14.648495 17.000000
-30.619691 -17.792027 -8.337940 0.000000 53.000000 14.268674 0.000000
-30.599168 -17.756953 -8.164953 0.000000 38.000000 14.341734 0.000000
-28.950155 -17.944645 -6.971251 0.000000 77.000000 15.096343 20.000000
-29.848919 -17.893149 -7.034452 0.000000 37.000000 15.073956 19.000000
-30.784559 -16.869671 -6.928112 0.000000 45.000000 14.373816 0.000000
-31.145920 -16.646496 -6.632938 0.000000 44.000000 14.392205 0.000000
-30.204699 -15.994269 -5.830011 0.000000 23.000000 14.285181 0.000000
-29.293527 -16.914776 -6.722118 0.000000 49.000000 14.438513 0.000000
-33.084366 -17.670395 -7.661676 0.000000 60.000000 14.726480 11.000000
-30.330735 -16.934333 -7.043624 0.000000 28.000000 14.328800 0.000000
-30.812369 -16.554585 -6.519913 0.000000 47.000000 14.364439 0.000000
-32.650803 -15.159569 -4.526516 0.000000 63.000000 14.540903 5.000000
-33.410862 -15.453369 -5.255859 0.000000 38.000000 14.392332 0.000000
-28.167120 -18.221691 -7.777964 0.000000 68.000000 14.791600 17.000000
-29.299528 -17.002236 -7.093793 0.000000 45.000000 14.288864 0.000000
-31.966878 -17.808115 -7.608958 0.000000 76.000000 14.798166 12.000000
-31.147832 -17.675021 -8.000710 0.000000 40.000000 14.407714 0.000000
-32.313293 -16.096908 -5.959093 0.000000 55.000000 14.423475 0.000000
-31.892589 -15.267588 -4.416756 0.000000 42.000000 14.645095 5.000000
-30.811972 -14.767840 -3.942936 0.000000 52.000000 14.456734 0.000000
-29.365809 -15.975420 -5.740383 0.000000 32.000000 14.270498 0.000000
-30.866378 -17.761464 -7.304219 0.000000 63.000000 14.872211 19.000000
-31.746993 -16.925147 -6.800036 0.000000 45.000000 14.554682 7.000000
-31.393659 -15.780714 -5.471000 0.000000 46.000000 14.401078 0.000000
-31.773830 -16.900416 -7.092332 0.000000 40.000000 14.363288 0.000000
-30.129301 -16.716123 -5.986270 0.000000 74.000000 14.767524 8.000000
-33.383674 -16.043642 -5.747612 0.000000 45.000000 14.573219 21.000000
-33.830977 -16.502678 -6.699866 0.000000 53.000000 14.405605 0.000000
-29.943536 -16.994762 -7.124424 0.000000 43.000000 14.305137 0.000000
-33.448767 -16.199829 -5.696829 0.000000 63.000000 14.732824 21.000000
-30.842631 -17.915920 -6.991692 0.000000 76.000000 15.179962 19.000000
-32.817876 -15.966761 -6.071745 0.000000 58.000000 14.283878 0.000000
-29.304464 -16.699523 -6.478286 0.000000 42.000000 14.410840 0.000000
-31.827232 -18.009763 -8.234268 0.000000 53.000000 14.580765 14.000000
-30.205365 -18.010358 -7.651079 0.000000 63.000000 14.825035 16.000000
-30.545404 -15.168956 -4.592017 0.000000 36.000000 14.377459 0.000000
-33.428120 -16.657533 -6.365384 0.000000 64.000000 14.702889 4.000000
-29.408200 -18.208212 -7.876083 0.000000 56.000000 14.800538 16.000000
-33.636716 -16.258620 -6.436914 0.000000 41.000000 14.353251 0.000000
-29.080186 -16.602482 -5.968147 0.000000 31.000000 14.621148 2.000000
-27.707474 -16.087218 -5.403109 0.000000 57.000000 14.456047 0.000000
-30.417605 -14.878506 -4.194725 0.000000 38.000000 14.371634 0.000000
-30.990369 -17.642757 -7.939798 0.000000 32.000000 14.408017 0.000000
-32.651097 -15.976458 -5.834537 0.000000 74.000000 14.421767 0.000000
-30.118105 -15.823386 -5.323754 0.000000 60.000000 14.442532 0.000000
-29.000126 -16.881185 -6.604833 0.000000 44.000000 14.462623 0.000000
-32.677916 -15.092666 -4.583561 0.000000 54.000000 14.455074 0.000000
-30.367806 -17.911135 -7.736136 0.000000 57.000000 14.705146 16.000000
-29.002774 -14.789296 -3.858406 0.000000 39.000000 14.410485 0.000000
-30.195695 -18.009894 -7.673714 0.000000 71.000000 14.810641 16.000000
-30.017586 -17.602227 -7.805750 0.000000 58.000000 14.393843 0.000000
-30.105783 -14.274596 -3.430072 0.000000 40.000000 14.320238 0.000000
-32.651776 -16.290411 -6.318919 0.000000 39.000000 14.386876 0.000000
-31.631313 -15.657347 -5.324392 0.000000 59.000000 14.403810 0.000000
-31.386563 -16.579022 -6.544003 0.000000 42.000000 14.405832 0.000000
-33.805982 -15.042887 -4.698791 0.000000 56.000000 14.417627 0.000000
-33.716394 -15.022303 -4.855019 0.000000 34.000000 14.302891 0.000000
-29.985947 -15.610364 -5.036619 0.000000 46.000000 14.433331 0.000000
-32.988390 -16.799120 -6.634830 0.000000 53.000000 14.629308 30.000000
-33.124538 -15.341759 -5.196894 0.000000 40.000000 14.319674 0.000000
-29.862473 -15.129593 -4.222874 0.000000 53.000000 14.521736 28.000000
-32.702898 -15.611318 -5.401578 0.000000 53.000000 14.388374 0.000000
-30.769401 -17.779077 -7.071949 0.000000 46.000000 15.017913 19.000000
-32.298093 -15.880336 -5.604737 0.000000 59.000000 14.458600 0.000000
-28.795762 -16.911697 -6.679497 0.000000 48.000000 14.430050 0.000000
-28.162707 -17.655524 -7.205036 0.000000 49.000000 14.676192 20.000000
-30.053548 -16.051105 -5.721416 0.000000 43.000000 14.385688 0.000000
-31.137038 -15.917973 -5.554286 0.000000 66.000000 14.445837 0.000000
-29.525018 -16.949499 -7.100257 0.000000 39.000000 14.256839 0.000000
-31.394805 -16.646713 -6.688120 0.000000 40.000000 14.375302 0.000000
-28.068213 -17.565614 -6.715578 0.000000 47.000000 14.888117 20.000000
-28.167747 -16.936873 -6.843045 0.000000 44.000000 14.313924 0.000000
-31.968099 -14.693818 -4.038540 0.000000 41.000000 14.413211 0.000000
-32.714925 -16.459184 -6.485113 0.000000 63.000000 14.427883 0.000000
-30.537300 -17.813155 -6.914745 0.000000 53.000000 15.123870 19.000000
-33.033758 -16.674554 -6.829739 0.000000 52.000000 14.416619 0.000000
-29.778273 -16.685276 -6.511652 0.000000 27.000000 14.409369 0.000000
-29.129742 -14.773947 -3.784761 0.000000 47.000000 14.449772 0.000000
-30.860382 -16.800381 -6.785220 0.000000 49.000000 14.407613 0.000000
-32.165777 -17.099499 -6.862889 0.000000 66.000000 14.683735 7.000000
-32.405228 -16.645598 -6.283105 0.000000 62.000000 14.677852 10.000000
-33.543017 -17.656070 -7.761689 0.000000 63.000000 14.684499 11.000000
-33.551469 -16.071179 -6.213661 0.000000 66.000000 14.329679 0.000000
-29.373109 -15.650317 -5.070752 0.000000 50.000000 14.406716 0.000000
-28.632264 -16.525461 -6.100634 0.000000 61.000000 14.452665 0.000000
-33.417195 -16.268110 -6.419005 0.000000 28.000000 14.357704 0.000000
-31.038806 -17.761757 -8.229798 0.000000 43.000000 14.334762 0.000000
-28.702419 -16.175739 -5.346312 0.000000 52.000000 14.623248 25.000000
-28.089196 -17.842310 -7.954112 0.000000 51.000000 14.377663 0.000000
-31.027508 -16.984787 -7.282747 0.000000 39.000000 14.271349 0.000000
-32.778189 -16.308377 -6.341338 0.000000 41.000000 14.395953 0.000000
-27.955998 -17.612269 -7.571163 0.000000 35.000000 14.411510 0.000000
-28.967677 -18.292887 -7.626097 0.000000 77.000000 14.989026 17.000000
-30.532077 -16.526099 -6.355138 0.000000 55.000000 14.421615 0.000000
-27.694060 -17.232117 -6.945312 0.000000 44.000000 14.460676 0.000000
-29.102552 -15.926264 -5.371665 0.000000 53.000000 14.433004 0.000000
-29.919978 -16.730938 -6.570066 0.000000 44.000000 14.420316 0.000000
-30.054468 -16.625652 -6.381539 0.000000 62.000000 14.455933 0.000000
-28.792145 -16.797277 -6.531505 0.000000 48.000000 14.425642 0.000000
-28.728536 -16.712310 -6.412544 0.000000 55.000000 14.423914 0.000000
-28.670905 -16.613457 -6.297121 0.000000 55.000000 14.409314 0.000000
-33.649388 -16.588239 -6.660990 0.000000 57.000000 14.485954 4.000000
-30.524739 -17.546603 -6.973213 0.000000 76.000000 14.874381 19.000000
-28.444408 -16.390435 -5.938782 0.000000 40.000000 14.428357 0.000000
-29.050086 -16.568715 -6.206417 0.000000 55.000000 14.450940 0.000000
-28.547032 -16.955702 -6.835443 0.000000 52.000000 14.357359 0.000000
-30.818491 -16.621330 -6.536207 0.000000 49.000000 14.408766 0.000000
-33.768390 -16.172085 -5.929774 0.000000 46.000000 14.592563 21.000000
-33.625097 -18.041575 -8.260327 0.000000 57.000000 14.703729 15.000000
-27.939095 -15.953905 -5.256874 0.000000 49.000000 14.450191 0.000000
-27.891824 -15.814366 -5.174325 0.000000 38.000000 14.384088 0.000000
-32.367304 -16.953294 -6.734944 0.000000 55.000000 14.654798 7.000000
-31.078379 -14.278227 -3.512657 0.000000 37.000000 14.335267 0.000000
-29.824809 -16.506907 -6.233161 0.000000 52.000000 14.434090 0.000000
-30.935052 -16.562827 -6.355186 0.000000 41.000000 14.476378 9.000000
-28.257310 -15.644502 -4.954338 0.000000 50.000000 14.400991 0.000000
-32.302430 -14.390270 -3.763902 0.000000 40.000000 14.353191 0.000000
-30.623259 -14.708061 -3.885653 0.000000 54.000000 14.430829 0.000000
-31.547653 -17.958455 -7.978526 0.000000 61.000000 14.673568 14.000000
-33.770829 -17.043589 -7.534153 0.000000 27.000000 14.341794 0.000000
-32.018010 -17.644715 -7.560508 0.000000 70.000000 14.698871 12.000000
-30.418300 -14.884121 -4.162758 0.000000 36.000000 14.395130 0.000000
-31.705589 -16.603383 -6.510618 0.000000 55.000000 14.465205 0.000000
-31.033177 -15.299747 -4.979160 0.000000 42.000000 14.283684 0.000000
-28.312197 -18.137049 -7.585024 0.000000 73.000000 14.847075 17.000000
-33.409872 -16.711524 -6.945404 0.000000 58.000000 14.401373 0.000000
-31.843340 -17.602377 -7.956687 0.000000 41.000000 14.419127 0.000000
-30.179102 -15.250393 -4.181002 0.000000 74.000000 14.663434 28.000000
-29.372654 -15.140602 -4.429785 0.000000 27.000000 14.377211 0.000000
-27.849266 -17.825576 -6.953547 0.000000 39.000000 14.942109 20.000000
-31.339645 -15.302685 -4.873752 0.000000 43.000000 14.367747 0.000000
-32.551568 -15.283580 -5.118649 0.000000 28.000000 14.283355 0.000000
-30.869357 -17.684091 -7.000270 0.000000 74.000000 14.990389 19.000000
-29.729656 -15.595772 -5.095648 0.000000 43.000000 14.370543 0.000000
-28.710128 -18.216819 -7.783330 0.000000 64.000000 14.818595 17.000000
-29.631803 -15.713368 -5.220086 0.000000 37.000000 14.385091 0.000000
-31.051114 -15.622890 -5.282061 0.000000 48.000000 14.364803 0.000000
-33.373009 -14.577994 -4.054035 0.000000 50.000000 14.399210 0.000000
-30.790769 -17.843082 -6.980516 0.000000 72.000000 15.124837 19.000000
-30.124936 -16.935928 -7.056076 0.000000 39.000000 14.309782 0.000000
-29.411485 -15.985762 -5.625308 0.000000 35.000000 14.349865 0.000000
-27.973445 -17.846247 -7.073817 0.000000 44.000000 14.895231 20.000000
-28.689725 -17.675533 -6.821414 0.000000 63.000000 14.952682 20.000000
-28.529028 -16.833536 -6.532619 0.000000 46.000000 14.437581 0.000000
-32.369404 -16.960433 -7.425622 0.000000 37.000000 14.251360 0.000000
-30.603147 -16.202881 -6.115494 0.000000 45.000000 14.308536 0.000000
-29.037839 -15.642439 -5.057812 0.000000 41.000000 14.387012 0.000000
-28.992083 -16.593439 -6.226616 0.000000 57.000000 14.455183 0.000000
-32.427293 -16.086106 -6.205008 0.000000 50.000000 14.276225 0.000000
-29.727287 -18.054392 -7.518627 0.000000 66.000000 14.908877 16.000000
-32.401280 -16.862441 -6.902455 0.000000 46.000000 14.484704 7.000000
-28.887991 -16.770096 -6.493043 0.000000 50.000000 14.432624 0.000000
-29.841285 -14.772820 -3.942801 0.000000 43.000000 14.399878 0.000000
-30.969385 -16.252993 -6.159906 0.000000 49.000000 14.345449 0.000000
-33.473845 -16.636642 -6.819516 0.000000 61.000000 14.419859 0.000000
-31.679557 -17.325879 -7.426093 0.000000 47.000000 14.501243 13.000000
-30.135521 -16.928840 -6.862485 0.000000 51.000000 14.419479 0.000000
-28.832137 -16.922179 -6.947532 0.000000 43.000000 14.281910 0.000000
-30.142210 -16.956218 -7.032145 0.000000 53.000000 14.341343 0.000000
-28.539803 -17.522023 -7.528536 0.000000 40.000000 14.400948 0.000000
-32.790058 -16.849677 -6.998729 0.000000 53.000000 14.441806 0.000000
-30.685816 -17.808797 -7.170357 0.000000 33.000000 14.978215 19.000000
-29.737173 -17.915565 -8.171921 0.000000 50.000000 14.410865 0.000000
-32.231959 -17.512001 -7.904980 0.000000 47.000000 14.401589 0.000000
-29.743150 -17.469705 -7.000553 0.000000 55.000000 14.747363 19.000000
-27.842017 -17.779354 -7.787949 0.000000 44.000000 14.410061 0.000000
-32.742860 -16.515898 -6.609235 0.000000 56.000000 14.401624 0.000000
-32.046047 -16.813325 -6.808813 0.000000 52.000000 14.478456 7.000000
-29.000038 -14.292052 -3.270034 0.000000 36.000000 14.359683 0.000000
-30.305620 -15.486007 -4.938949 0.000000 55.000000 14.411415 0.000000
-28.736732 -14.759899 -3.811103 0.000000 34.000000 14.398210 0.000000
-32.946633 -15.127333 -4.745504 0.000000 34.000000 14.403812 0.000000
-28.556299 -15.130627 -4.205805 0.000000 40.000000 14.450687 0.000000
-31.676862 -17.564992 -7.585712 0.000000 56.000000 14.598499 13.000000
-31.690122 -14.838107 -4.200812 0.000000 33.000000 14.415466 0.000000
-29.170775 -16.952705 -6.866532 0.000000 47.000000 14.375684 0.000000
-28.450526 -15.470974 -4.763085 0.000000 36.000000 14.387109 0.000000
-28.403969 -15.598587 -4.888102 0.000000 40.000000 14.412578 0.000000
-32.572544 -17.241551 -7.433692 0.000000 23.000000 14.485078 12.000000
-28.348651 -15.805072 -5.151200 0.000000 51.000000 14.419006 0.000000
-32.721892 -16.009447 -6.115336 0.000000 66.000000 14.286298 0.000000
-32.048474 -16.534920 -6.465717 0.000000 61.000000 14.458360 0.000000
-28.331249 -16.040290 -5.567455 0.000000 56.000000 14.360126 0.000000
-28.357567 -16.078847 -5.722015 0.000000 51.000000 14.301147 0.000000
-33.711827 -16.788733 -7.057485 0.000000 56.000000 14.415910 0.000000
-32.414807 -16.885909 -6.767528 0.000000 48.000000 14.584358 7.000000
-28.886750 -15.166065 -4.299454 0.000000 43.000000 14.444392 0.000000
-28.252023 -16.972134 -6.684016 0.000000 39.000000 14.441772 0.000000
-30.581073 -16.936343 -7.070734 0.000000 43.000000 14.330063 0.000000
-33.226986 -15.659556 -5.534743 0.000000 33.000000 14.381095 0.000000
-28.381963 -17.590797 -7.569052 0.000000 42.000000 14.422257 0.000000
-30.176397 -17.859886 -7.097759 0.000000 78.000000 15.030285 19.000000
-30.408320 -16.922254 -7.023171 0.000000 37.000000 14.336091 0.000000
-30.243096 -15.330732 -4.709458 0.000000 44.000000 14.418797 0.000000
-32.829737 -16.933578 -7.331660 0.000000 44.000000 14.314374 0.000000
-28.050316 -16.905069 -6.327874 0.000000 52.000000 14.586308 3.000000
-32.945106 -16.834863 -7.018216 0.000000 49.000000 14.428095 0.000000
-31.794028 -15.308839 -5.074544 0.000000 22.000000 14.282221 0.000000
-33.695199 -16.662135 -6.607535 0.000000 69.000000 14.579849 4.000000
-30.523042 -15.505070 -5.015947 0.000000 36.000000 14.394742 0.000000
-27.537709 -17.908826 -7.109391 0.000000 46.000000 14.897050 18.000000
-28.114760 -16.694525 -6.269049 0.000000 55.000000 14.456139 0.000000
-30.884561 -16.024046 -6.002285 0.000000 55.000000 14.249680 0.000000
-28.668364 -16.395470 -5.976774 0.000000 27.000000 14.423944 0.000000
-28.763075 -16.089516 -5.365388 0.000000 78.000000 14.546511 25.000000
-33.956721 -15.675639 -5.656009 0.000000 34.000000 14.367956 0.000000
-30.664897 -14.883651 -4.170836 0.000000 36.000000 14.405446 0.000000
-32.848089 -17.694781 -7.406321 0.000000 62.000000 14.882557 11.000000
-30.221704 -17.783592 -8.208439 0.000000 33.000000 14.313661 0.000000
-33.609093 -15.045427 -4.675084 0.000000 44.000000 14.421356 0.000000
-31.336067 -16.680435 -6.699272 0.000000 41.000000 14.392086 0.000000
-32.429227 -16.936773 -7.416302 0.000000 38.000000 14.241639 0.000000
-32.228917 -16.857468 -7.253316 0.000000 36.000000 14.261966 0.000000
-29.523570 -16.554053 -6.274172 0.000000 45.000000 14.428736 0.000000
-30.631070 -16.898757 -6.848041 0.000000 43.000000 14.434989 0.000000
-32.196880 -16.727148 -6.737068 0.000000 60.000000 14.461237 0.000000
-30.662623 -16.803300 -6.711049 0.000000 48.000000 14.441497 0.000000
-28.226300 -17.598923 -7.270245 0.000000 49.000000 14.596088 20.000000
-30.707067 -16.688092 -6.583950 0.000000 46.000000 14.427091 0.000000
-29.863711 -15.738582 -5.250873 0.000000 35.000000 14.401652 0.000000
-30.755286 -16.563830 -6.459012 0.000000 40.000000 14.404370 0.000000
-30.767772 -16.481799 -6.314926 0.000000 45.000000 14.424667 0.000000
-31.407183 -17.780243 -7.297249 0.000000 72.000000 14.925371 13.000000
-28.549265 -16.137973 -5.241005 0.000000 73.000000 14.645713 25.000000
-27.964923 -16.261091 -5.771149 0.000000 64.000000 14.393730 0.000000
-30.903670 -17.792410 -7.350265 0.000000 80.000000 14.872116 19.000000
-27.920671 -15.378634 -4.690514 0.000000 44.000000 14.322701 0.000000
-32.919553 -14.672019 -4.077150 0.000000 55.000000 14.432551 0.000000
-29.708101 -14.975944 -4.183705 0.000000 33.000000 14.411872 0.000000
-32.519580 -15.584078 -5.322058 0.000000 49.000000 14.402116 0.000000
-29.957512 -15.270146 -4.734206 0.000000 28.000000 14.337551 0.000000
-32.538579 -15.462553 -5.180620 0.000000 38.000000 14.389537 0.000000
-30.805308 -16.582882 -6.115230 0.000000 47.000000 14.626539 9.000000
-32.996847 -15.088698 -4.949103 0.000000 22.000000 14.255284 0.000000
-30.015270 -17.850578 -6.962080 0.000000 79.000000 15.093101 19.000000
-27.575155 -18.034662 -7.262938 0.000000 77.000000 14.909458 18.000000
-29.769505 -16.069106 -5.918913 0.000000 30.000000 14.265274 0.000000
-30.981556 -15.230002 -4.837714 0.000000 38.000000 14.308258 0.000000
-31.431121 -17.938065 -8.276592 0.000000 20.000000 14.473241 14.000000
-27.784164 -17.738704 -7.691625 0.000000 32.000000 14.430868 0.000000
-28.767129 -17.799769 -6.840287 0.000000 76.000000 15.046124 20.000000
-29.354165 -15.918200 -5.415576 0.000000 53.000000 14.416301 0.000000
-32.481282 -14.742816 -4.139682 0.000000 61.000000 14.424835 0.000000
-29.181051 -14.743301 -3.654580 0.000000 58.000000 14.505530 26.000000
-31.626943 -15.768266 -5.523630 0.000000 41.000000 14.374537 0.000000
-30.778756 -14.763380 -3.953943 0.000000 48.000000 14.444544 0.000000
-31.296966 -15.096429 -4.562713 0.000000 25.000000 14.383762 0.000000
-33.840639 -14.855370 -4.499156 0.000000 42.000000 14.387525 0.000000
-30.883243 -16.548588 -6.383263 0.000000 58.000000 14.445052 0.000000
-27.927392 -14.785321 -3.742104 0.000000 30.000000 14.408708 0.000000
-30.747258 -14.385839 -3.564745 0.000000 26.000000 14.370030 0.000000
-30.769264 -14.203921 -3.449943 0.000000 29.000000 14.293357 0.000000
-32.560406 -16.044476 -5.988321 0.000000 60.000000 14.379561 0.000000
-30.485804 -15.225434 -4.549800 0.000000 41.000000 14.444090 0.000000
-30.330778 -15.672424 -5.223885 0.000000 42.000000 14.393838 0.000000
-29.671902 -18.265007 -7.504561 0.000000 72.000000 15.082868 16.000000
-28.473639 -17.842599 -6.912250 0.000000 57.000000 15.019448 20.000000
-33.427219 -16.714259 -6.449025 0.000000 71.000000 14.698819 4.000000
-28.989616 -17.705750 -7.096293 0.000000 69.000000 14.832877 20.000000
-30.289919 -16.660129 -6.533130 0.000000 37.000000 14.408566 0.000000
-32.131989 -16.951155 -7.173555 0.000000 35.000000 14.378383 0.000000
-32.081827 -16.892861 -7.282095 0.000000 38.000000 14.264100 0.000000
-32.472130 -16.575751 -6.586727 0.000000 69.000000 14.446032 0.000000
-33.417075 -16.909581 -7.472582 0.000000 43.000000 14.248462 0.000000
-33.640609 -16.006277 -6.178849 0.000000 35.000000 14.303786 0.000000
-32.648875 -17.418320 -7.847025 0.000000 41.000000 14.386876 0.000000
-33.130069 -16.832079 -6.992523 0.000000 42.000000 14.452696 0.000000
-30.993321 -16.128811 -5.513680 0.000000 63.000000 14.630190 27.000000
-32.584805 -17.319500 -7.358688 0.000000 36.000000 14.592892 12.000000
-30.207347 -16.205110 -6.006145 0.000000 43.000000 14.350282 0.000000
-29.852387 -16.867576 -6.690864 0.000000 40.000000 14.454213 0.000000
-31.346533 -16.304081 -6.140437 0.000000 56.000000 14.421688 0.000000
-32.015643 -17.793531 -8.461155 0.000000 40.000000 14.284494 0.000000
-30.226634 -16.514452 -6.278640 0.000000 59.000000 14.438422 0.000000
-29.991323 -17.958886 -7.017019 0.000000 75.000000 15.146015 19.000000
-33.454410 -17.793542 -7.356717 0.000000 73.000000 15.029323 11.000000
-32.894594 -17.606379 -8.114100 0.000000 45.000000 14.395048 0.000000
-29.486878 -18.246034 -7.901244 0.000000 60.000000 14.820938 16.000000
-33.001697 -15.158218 -4.820637 0.000000 21.000000 14.387546 0.000000
-28.815949 -16.941531 -6.767130 0.000000 36.000000 14.403343 0.000000
-30.168721 -16.764860 -6.684824 0.000000 45.000000 14.395165 0.000000
-29.687937 -17.768273 -7.199525 0.000000 75.000000 14.865746 19.000000
-28.447651 -16.823855 -6.507970 0.000000 48.000000 14.439306 0.000000
-28.744672 -16.773935 -6.511119 0.000000 41.000000 14.415998 0.000000
-30.105642 -16.572088 -6.425955 0.000000 48.000000 14.389810 0.000000
-28.712772 -16.680245 -6.387149 0.000000 49.000000 14.412225 0.000000
-30.932300 -15.133035 -4.706448 0.000000 32.000000 14.305087 0.000000
-28.681323 -16.581310 -6.265888 0.000000 39.000000 14.402662 0.000000
-30.659569 -15.481725 -5.009794 0.000000 45.000000 14.388212 0.000000
-30.661111 -14.213384 -3.407291 0.000000 30.000000 14.319443 0.000000
-30.030510 -16.074740 -5.962170 0.000000 42.000000 14.260548 0.000000
-31.151477 -15.655586 -5.272795 0.000000 53.000000 14.402851 0.000000
-29.971240 -15.997538 -5.826662 0.000000 45.000000 14.275135 0.000000
-32.268212 -16.366848 -6.271751 0.000000 42.000000 14.452132 0.000000
-29.857932 -15.992650 -5.665090 0.000000 40.000000 14.359846 0.000000
-28.876603 -18.052583 -7.523116 0.000000 72.000000 14.851363 17.000000
-29.179724 -14.904104 -4.026134 0.000000 40.000000 14.414391 0.000000
-28.401749 -16.059081 -5.523967 0.000000 64.000000 14.405413 0.000000
-33.750891 -15.630252 -5.535065 0.000000 45.000000 14.390260 0.000000
-32.016252 -16.038559 -5.918362 0.000000 40.000000 14.382109 0.000000
-27.881662 -16.700281 -6.248638 0.000000 58.000000 14.458224 0.000000
-29.223667 -17.630954 -7.219174 0.000000 78.000000 14.714684 20.000000
-33.217694 -14.532209 -4.033205 0.000000 23.000000 14.365037 0.000000
