42.835711 16.968353 11.165428 0.000000 52.000000 14.547759 23.000000
44.844632 18.387005 10.723311 0.000000 78.000000 15.127237 11.000000
39.727935 20.542430 9.847312 0.000000 49.000000 14.661500 21.000000
44.433840 16.462822 11.694936 0.000000 38.000000 14.418331 0.000000
44.513710 20.845521 11.087124 0.000000 38.000000 14.316280 0.000000
44.364869 20.849215 11.027999 0.000000 41.000000 14.344826 0.000000
42.388269 19.180927 10.789255 0.000000 46.000000 14.471198 0.000000
44.843514 17.381774 10.901720 0.000000 54.000000 15.116117 22.000000
44.588399 20.838069 11.117707 0.000000 41.000000 14.301973 0.000000
44.438979 20.821509 11.040154 0.000000 41.000000 14.351522 0.000000
41.064356 19.579831 10.055615 0.000000 54.000000 14.867368 27.000000
43.245638 20.892900 10.862543 0.000000 34.000000 14.286513 0.000000
40.812238 14.692639 10.767543 0.000000 50.000000 14.917265 8.000000
41.304197 15.748822 10.896310 0.000000 46.000000 14.715400 17.000000
42.589333 17.134141 10.748827 0.000000 69.000000 14.878038 23.000000
42.828380 20.870740 10.780378 0.000000 32.000000 14.290807 0.000000
39.037802 18.635228 10.226954 0.000000 38.000000 14.470498 0.000000
45.024098 17.535635 10.985239 0.000000 59.000000 15.044565 22.000000
42.285859 20.812290 10.673407 0.000000 32.000000 14.301298 0.000000
41.474280 18.294965 10.099972 0.000000 66.000000 15.108834 10.000000
42.017705 20.768728 10.610667 0.000000 27.000000 14.318404 0.000000
43.471546 17.481893 10.649227 0.000000 60.000000 15.085255 23.000000
41.754478 20.721454 10.569774 0.000000 28.000000 14.315877 0.000000
44.421570 15.917548 11.395577 0.000000 64.000000 14.793820 16.000000
42.360036 18.660554 10.528967 0.000000 54.000000 14.801812 4.000000
42.317471 20.504358 10.593034 0.000000 42.000000 14.434726 0.000000
41.240918 20.586803 10.414140 0.000000 25.000000 14.391254 0.000000
42.195671 20.472721 10.585081 0.000000 43.000000 14.424504 0.000000
44.065088 18.712027 11.248405 0.000000 31.000000 14.418896 0.000000
45.130968 19.617142 10.746510 0.000000 66.000000 14.960749 3.000000
41.296355 16.175344 11.184116 0.000000 31.000000 14.366427 0.000000
41.953975 20.396523 10.540450 0.000000 39.000000 14.434326 0.000000
41.412292 18.237375 10.043404 0.000000 63.000000 15.161189 10.000000
41.660051 18.273736 10.156884 0.000000 80.000000 15.092238 10.000000
39.532968 20.210478 9.920662 0.000000 71.000000 14.607064 21.000000
41.454774 19.247641 10.790462 0.000000 25.000000 14.282840 0.000000
40.630086 20.384784 10.267838 0.000000 31.000000 14.450057 0.000000
43.612632 16.206862 11.460510 0.000000 53.000000 14.531421 29.000000
39.576050 17.828113 9.767024 0.000000 46.000000 15.147758 26.000000
43.943108 17.755302 11.064580 0.000000 71.000000 14.728007 23.000000
43.711035 18.034703 10.723173 0.000000 44.000000 14.969851 12.000000
41.484624 16.813350 10.522781 0.000000 78.000000 14.939868 9.000000
40.275525 20.247163 10.209137 0.000000 34.000000 14.462070 0.000000
40.392785 14.775119 10.916706 0.000000 45.000000 14.680208 8.000000
44.951203 18.701411 10.641825 0.000000 76.000000 15.175673 11.000000
39.699025 19.614371 9.970375 0.000000 60.000000 14.686310 27.000000
42.693012 18.163445 10.469662 0.000000 58.000000 15.002265 10.000000
41.052988 20.031210 10.418018 0.000000 36.000000 14.441466 0.000000
42.596865 16.045780 11.099371 0.000000 58.000000 14.715200 29.000000
40.947865 19.975093 10.388903 0.000000 36.000000 14.458837 0.000000
41.377083 16.433494 10.345981 0.000000 65.000000 15.151986 9.000000
40.413214 17.470623 10.211147 0.000000 39.000000 14.933363 25.000000
43.191737 16.358114 10.777878 0.000000 49.000000 15.088753 18.000000
38.945988 18.361044 9.925505 0.000000 71.000000 14.789312 26.000000
43.708768 18.892018 10.802777 0.000000 73.000000 14.754226 12.000000
40.989547 17.759599 10.629784 0.000000 56.000000 14.590229 25.000000
40.957891 19.651361 10.145635 0.000000 63.000000 14.748524 27.000000
41.885510 17.227751 10.381767 0.000000 60.000000 15.085490 24.000000
40.721051 16.872797 10.649295 0.000000 72.000000 14.663416 9.000000
43.781542 17.526727 10.627112 0.000000 77.000000 15.158049 23.000000
44.895033 17.510356 10.956496 0.000000 68.000000 15.052084 22.000000
39.436401 16.734487 10.139187 0.000000 59.000000 14.937007 20.000000
44.326199 19.668532 10.765028 0.000000 82.000000 14.782421 3.000000
39.917220 19.321509 10.453941 0.000000 35.000000 14.306304 0.000000
39.837543 19.249836 10.447855 0.000000 34.000000 14.308684 0.000000
39.659060 18.132789 9.883914 0.000000 71.000000 15.001145 26.000000
39.353668 19.627464 10.168516 0.000000 31.000000 14.426990 0.000000
39.620298 19.007966 10.327612 0.000000 34.000000 14.423056 0.000000
43.658543 18.570975 10.554230 0.000000 62.000000 15.037203 12.000000
43.885283 17.782874 11.003729 0.000000 77.000000 14.771580 23.000000
44.887538 18.204735 10.704969 0.000000 54.000000 15.182473 11.000000
41.049313 16.469467 10.296367 0.000000 68.000000 15.132299 9.000000
39.303064 18.611983 10.293069 0.000000 34.000000 14.460336 0.000000
40.955463 18.040501 9.993578 0.000000 73.000000 15.154819 10.000000
41.018605 18.079159 10.195488 0.000000 52.000000 14.964942 10.000000
41.305249 17.878018 10.515476 0.000000 58.000000 14.741554 10.000000
41.713423 18.804524 10.426964 0.000000 77.000000 14.755213 4.000000
44.712199 15.574805 11.647336 0.000000 38.000000 14.660085 16.000000
44.842087 14.702656 11.597030 0.000000 53.000000 14.873842 5.000000
42.195371 17.822122 10.622516 0.000000 45.000000 14.815115 10.000000
41.865765 19.299453 10.302437 0.000000 68.000000 14.824915 4.000000
39.607804 18.604745 10.381951 0.000000 39.000000 14.433004 0.000000
42.424840 19.155558 10.403229 0.000000 51.000000 14.856130 4.000000
43.007949 16.507905 11.225063 0.000000 41.000000 14.596711 18.000000
38.882133 14.969595 10.943624 0.000000 23.000000 14.337275 0.000000
42.824717 16.030300 11.040485 0.000000 56.000000 14.817801 29.000000
42.370699 16.404109 10.944292 0.000000 57.000000 14.764957 18.000000
41.455982 15.621293 11.090234 0.000000 48.000000 14.576780 13.000000
42.495939 19.176466 10.550073 0.000000 70.000000 14.723957 4.000000
41.155363 16.253812 10.695890 0.000000 50.000000 14.800071 17.000000
45.132658 18.171736 10.802063 0.000000 71.000000 15.140066 11.000000
44.734149 19.751801 10.804239 0.000000 47.000000 14.808135 3.000000
42.846214 16.708281 10.903160 0.000000 53.000000 14.845686 18.000000
44.374383 19.151018 11.338369 0.000000 40.000000 14.319504 0.000000
44.231386 19.128382 11.317618 0.000000 31.000000 14.316223 0.000000
44.050349 17.473616 10.807718 0.000000 46.000000 15.042463 22.000000
44.334218 19.707502 10.581830 0.000000 50.000000 14.955120 3.000000
44.396157 17.489390 10.979363 0.000000 66.000000 14.939017 22.000000
39.861068 15.712107 10.458907 0.000000 58.000000 14.872244 19.000000
42.887954 20.225085 10.257613 0.000000 72.000000 14.912451 1.000000
44.063990 18.747348 11.207275 0.000000 47.000000 14.452842 0.000000
39.870207 15.802754 9.880468 0.000000 12.000000 15.419690 19.000000
43.288583 17.082707 10.826313 0.000000 67.000000 14.943430 23.000000
42.950441 19.408677 11.043179 0.000000 35.000000 14.294803 0.000000
41.097697 15.478358 10.488302 0.000000 71.000000 15.115159 13.000000
41.206725 17.154796 10.303881 0.000000 69.000000 15.044388 25.000000
43.056506 18.386411 11.074889 0.000000 35.000000 14.448789 0.000000
39.933728 16.270443 10.540644 0.000000 51.000000 14.716870 19.000000
41.992845 17.641483 10.398432 0.000000 68.000000 15.022995 24.000000
43.383088 18.241332 10.712084 0.000000 70.000000 14.885325 12.000000
42.533886 18.574318 10.957341 0.000000 42.000000 14.433607 0.000000
39.597416 16.441102 10.353279 0.000000 44.000000 14.807311 19.000000
41.501682 17.572184 10.528673 0.000000 41.000000 14.815160 25.000000
39.528211 17.876619 9.877169 0.000000 62.000000 15.024208 26.000000
44.931846 16.974181 11.226489 0.000000 74.000000 14.883869 22.000000
42.845873 20.526326 10.112537 0.000000 68.000000 14.996508 1.000000
43.136415 17.247063 10.477658 0.000000 55.000000 15.225929 23.000000
39.320824 17.033151 10.289952 0.000000 44.000000 14.721013 20.000000
43.767199 18.628348 10.917870 0.000000 49.000000 14.696251 12.000000
42.129714 19.096029 10.112554 0.000000 73.000000 15.091505 4.000000
42.169150 18.747898 10.080705 0.000000 78.000000 15.185883 4.000000
43.322808 15.219873 11.185548 0.000000 58.000000 14.901963 15.000000
45.078374 17.379269 10.839145 0.000000 64.000000 15.221527 22.000000
43.850691 19.886298 11.017655 0.000000 36.000000 14.412755 0.000000
39.226415 19.400641 10.223901 0.000000 52.000000 14.385821 0.000000
42.670023 15.949669 11.013603 0.000000 63.000000 14.827589 29.000000
41.907740 18.317366 10.264344 0.000000 46.000000 15.027933 10.000000
42.570367 16.754224 10.813951 0.000000 63.000000 14.872561 18.000000
43.329242 20.049918 10.421896 0.000000 73.000000 14.864937 1.000000
44.455092 18.271493 10.728788 0.000000 64.000000 15.066909 11.000000
43.005515 15.374331 11.118233 0.000000 35.000000 14.882318 15.000000
40.118876 14.792111 10.747549 0.000000 61.000000 14.789556 14.000000
41.311114 15.902493 10.608812 0.000000 57.000000 14.970447 17.000000
42.293131 16.086676 11.264593 0.000000 43.000000 14.491156 0.000000
42.194325 16.002442 11.281903 0.000000 33.000000 14.469281 0.000000
41.099032 16.011478 10.542171 0.000000 51.000000 14.977360 17.000000
42.970893 16.291742 11.336488 0.000000 43.000000 14.516590 18.000000
43.048190 15.679700 11.526254 0.000000 39.000000 14.445960 0.000000
41.889323 16.165757 10.876037 0.000000 62.000000 14.778478 17.000000
44.701874 16.317059 11.304117 0.000000 74.000000 14.871047 16.000000
42.223616 14.733901 11.586929 0.000000 31.000000 14.383669 0.000000
40.731442 20.866693 10.172721 0.000000 37.000000 14.483732 0.000000
40.391972 19.594201 10.141094 0.000000 60.000000 14.655163 27.000000
41.309478 14.671898 10.889375 0.000000 64.000000 14.896575 8.000000
40.905690 20.732571 10.352923 0.000000 28.000000 14.363712 0.000000
42.155909 17.208218 10.481541 0.000000 53.000000 15.043096 24.000000
43.390084 18.957944 10.935490 0.000000 64.000000 14.554815 12.000000
44.456408 15.952513 11.094389 0.000000 50.000000 15.086526 16.000000
40.466687 17.979933 10.805703 0.000000 18.000000 14.285504 0.000000
40.588064 19.532516 10.452471 0.000000 29.000000 14.400539 0.000000
45.066004 16.732522 11.105418 0.000000 73.000000 15.065429 16.000000
42.641213 18.850779 10.928633 0.000000 29.000000 14.437172 0.000000
41.282342 20.385828 10.359900 0.000000 36.000000 14.483996 0.000000
41.477107 20.242965 10.442813 0.000000 34.000000 14.463504 0.000000
44.309954 20.400972 10.565640 0.000000 66.000000 14.854520 2.000000
41.681002 20.098560 10.506324 0.000000 37.000000 14.463781 0.000000
41.496828 19.749656 10.559564 0.000000 36.000000 14.433595 0.000000
39.356657 20.597982 10.065296 0.000000 34.000000 14.371220 0.000000
43.011684 20.016688 10.811538 0.000000 39.000000 14.432831 0.000000
44.679334 17.928403 11.159419 0.000000 42.000000 14.747414 11.000000
44.688752 15.544719 11.540760 0.000000 51.000000 14.763737 15.000000
43.381817 17.479656 10.722349 0.000000 50.000000 14.997824 23.000000
42.860221 17.353484 10.599298 0.000000 66.000000 15.038754 23.000000
42.668527 20.399192 10.086679 0.000000 70.000000 15.008512 1.000000
41.577962 16.866994 11.022902 0.000000 45.000000 14.464415 0.000000
43.901372 20.677846 10.459807 0.000000 65.000000 14.835215 1.000000
42.568655 19.593373 10.837437 0.000000 28.000000 14.392188 0.000000
42.689088 19.543828 10.913200 0.000000 31.000000 14.349542 0.000000
43.794751 19.584829 11.067702 0.000000 38.000000 14.402260 0.000000
40.350462 14.855720 10.872623 0.000000 62.000000 14.701927 8.000000
39.823511 20.277309 10.061459 0.000000 40.000000 14.514829 21.000000
44.274695 20.366161 10.489130 0.000000 73.000000 14.927576 2.000000
41.861282 19.233128 10.370048 0.000000 36.000000 14.769258 4.000000
42.750551 17.206271 10.606740 0.000000 56.000000 15.034527 23.000000
45.032252 16.099041 11.056431 0.000000 71.000000 15.208536 16.000000
40.887421 18.309585 10.138787 0.000000 76.000000 14.957956 10.000000
44.012459 20.462373 10.473041 0.000000 46.000000 14.878098 1.000000
42.464909 17.825103 10.393867 0.000000 56.000000 15.087068 10.000000
43.412397 17.642947 10.723572 0.000000 79.000000 14.976119 23.000000
41.686086 20.228898 10.540663 0.000000 44.000000 14.410485 0.000000
41.890168 17.207090 10.567747 0.000000 67.000000 14.909544 24.000000
43.549596 19.168466 11.101192 0.000000 35.000000 14.390546 0.000000
44.648554 19.209128 11.258133 0.000000 45.000000 14.439688 0.000000
41.935982 18.856908 10.196661 0.000000 48.000000 15.011930 4.000000
40.209066 18.602333 10.443920 0.000000 54.000000 14.487011 0.000000
43.930859 19.026412 11.157545 0.000000 29.000000 14.430902 0.000000
41.544377 17.539027 10.402207 0.000000 71.000000 14.951075 25.000000
44.325304 18.897771 11.218726 0.000000 44.000000 14.466913 0.000000
43.581389 14.799888 11.568642 0.000000 37.000000 14.647391 6.000000
42.817630 20.551120 10.191108 0.000000 42.000000 14.911067 1.000000
43.689381 20.167962 10.636838 0.000000 76.000000 14.705786 1.000000
44.878241 18.689156 10.479633 0.000000 60.000000 15.320967 11.000000
43.906443 18.036497 10.998183 0.000000 48.000000 14.740102 12.000000
43.627707 18.282542 10.625513 0.000000 53.000000 15.008782 12.000000
40.708744 15.482515 11.041815 0.000000 55.000000 14.504798 13.000000
39.737975 19.907527 10.159873 0.000000 38.000000 14.462892 0.000000
42.574388 19.077547 10.281078 0.000000 73.000000 15.015286 4.000000
40.004168 19.509813 10.350797 0.000000 35.000000 14.392321 0.000000
40.999599 19.922476 10.280287 0.000000 52.000000 14.582305 27.000000
43.535031 18.277948 10.633947 0.000000 69.000000 14.983836 12.000000
41.282419 20.357126 10.418226 0.000000 41.000000 14.432135 0.000000
44.764011 18.312569 10.795769 0.000000 51.000000 15.053799 11.000000
40.436439 20.491828 10.240243 0.000000 53.000000 14.422945 0.000000
44.754721 16.575354 11.101487 0.000000 67.000000 15.035715 16.000000
42.913559 18.065678 10.597264 0.000000 66.000000 14.936093 10.000000
39.422628 18.849615 10.261803 0.000000 31.000000 14.474946 0.000000
44.040442 18.895948 11.213428 0.000000 41.000000 14.418496 0.000000
39.958220 19.220468 10.525195 0.000000 23.000000 14.261307 0.000000
39.597886 18.705825 10.326724 0.000000 28.000000 14.468345 0.000000
41.959402 17.552401 10.494571 0.000000 64.000000 14.937895 24.000000
39.689595 18.635715 10.355652 0.000000 28.000000 14.468950 0.000000
40.238868 18.036376 9.837288 0.000000 67.000000 15.171431 26.000000
42.496951 17.808040 11.213256 0.000000 32.000000 14.302151 0.000000
39.830129 17.482830 10.199889 0.000000 78.000000 14.832091 26.000000
41.026003 16.475256 10.202832 0.000000 43.000000 15.217566 9.000000
40.590060 20.790297 10.175522 0.000000 35.000000 14.466600 0.000000
39.422504 20.897022 10.088661 0.000000 25.000000 14.312868 0.000000
44.162225 20.121163 11.048379 0.000000 32.000000 14.404049 0.000000
43.908089 19.013754 11.210607 0.000000 37.000000 14.377237 0.000000
41.687099 18.952250 10.463893 0.000000 78.000000 14.690670 4.000000
40.339435 20.637917 10.237673 0.000000 34.000000 14.383568 0.000000
39.164957 20.705266 10.024704 0.000000 23.000000 14.357027 0.000000
43.751352 20.572065 10.308353 0.000000 80.000000 14.970606 1.000000
40.829934 19.317544 10.642873 0.000000 48.000000 14.296444 0.000000
38.989999 20.561291 9.979937 0.000000 21.000000 14.390512 0.000000
44.744647 17.638375 11.100990 0.000000 80.000000 14.863071 22.000000
41.509366 15.090185 10.587494 0.000000 61.000000 15.159407 13.000000
39.906953 20.104385 10.189616 0.000000 43.000000 14.434311 0.000000
43.671598 15.088876 11.418311 0.000000 73.000000 14.763517 15.000000
40.488017 16.398773 10.474707 0.000000 70.000000 14.864839 9.000000
39.542273 19.843465 10.147649 0.000000 39.000000 14.448061 0.000000
39.488015 19.762042 10.131940 0.000000 38.000000 14.466137 0.000000
42.969065 18.354593 10.940341 0.000000 49.000000 14.567720 10.000000
40.933937 14.785913 10.823306 0.000000 64.000000 14.871228 8.000000
39.508296 20.363091 9.884954 0.000000 69.000000 14.612408 21.000000
39.051624 18.674638 10.209676 0.000000 43.000000 14.483500 0.000000
39.453466 17.370605 10.549399 0.000000 26.000000 14.440411 0.000000
39.144199 17.657578 10.530332 0.000000 25.000000 14.354204 0.000000
43.716322 17.824347 10.957712 0.000000 77.000000 14.777540 23.000000
39.222392 17.480731 10.467880 0.000000 34.000000 14.457963 0.000000
40.847306 18.376153 10.253783 0.000000 38.000000 14.828258 10.000000
39.301255 17.319006 10.509900 0.000000 36.000000 14.458215 0.000000
39.345887 17.238812 10.533212 0.000000 35.000000 14.456986 0.000000
43.571428 20.640265 10.357097 0.000000 62.000000 14.878397 1.000000
39.547726 17.823715 9.942808 0.000000 58.000000 14.972835 26.000000
43.257248 14.606229 11.112587 0.000000 44.000000 15.059086 6.000000
43.405578 18.588647 10.915751 0.000000 80.000000 14.636347 12.000000
39.107385 16.213321 10.754505 0.000000 24.000000 14.362720 0.000000
44.855927 19.510001 10.812396 0.000000 72.000000 14.862197 3.000000
42.725476 16.878637 10.790890 0.000000 72.000000 14.904179 18.000000
41.143399 15.777888 11.113638 0.000000 37.000000 14.469805 0.000000
44.438517 18.368296 10.749638 0.000000 72.000000 15.027987 11.000000
41.271372 15.672524 11.135303 0.000000 30.000000 14.489978 0.000000
44.993675 17.437511 11.027958 0.000000 49.000000 15.013239 22.000000
44.634367 15.480415 11.487610 0.000000 49.000000 14.815300 15.000000
41.616510 16.708009 10.876228 0.000000 67.000000 14.639388 9.000000
40.397653 15.335144 10.493516 0.000000 34.000000 15.000858 14.000000
44.744950 19.895697 11.157205 0.000000 35.000000 14.445090 0.000000
42.068193 19.748707 10.672571 0.000000 50.000000 14.432276 0.000000
44.144982 15.446644 11.378599 0.000000 65.000000 14.833835 15.000000
44.989711 18.311595 10.483350 0.000000 72.000000 15.399249 11.000000
44.002936 15.160992 11.257795 0.000000 55.000000 14.970016 15.000000
42.060230 18.377915 10.488784 0.000000 64.000000 14.829593 10.000000
42.099628 18.200177 10.245758 0.000000 65.000000 15.101081 10.000000
42.806097 19.653960 10.828915 0.000000 46.000000 14.435564 0.000000
43.749534 19.558926 11.058150 0.000000 38.000000 14.407139 0.000000
41.890497 17.687656 10.613748 0.000000 54.000000 14.787642 24.000000
44.543553 19.668761 10.698061 0.000000 55.000000 14.888337 3.000000
42.542372 19.593148 10.799142 0.000000 31.000000 14.424352 0.000000
42.653630 18.228397 10.577631 0.000000 58.000000 14.879773 10.000000
39.692581 17.958509 9.872585 0.000000 50.000000 15.046526 26.000000
39.211988 18.704957 10.074862 0.000000 33.000000 14.639518 28.000000
42.286821 19.536039 10.824839 0.000000 31.000000 14.360356 0.000000
43.245769 19.434348 11.073078 0.000000 37.000000 14.317526 0.000000
39.343147 20.774818 10.131908 0.000000 41.000000 14.275658 0.000000
42.520841 16.805809 10.729689 0.000000 53.000000 14.936515 18.000000
42.876090 19.314170 11.037772 0.000000 36.000000 14.301208 0.000000
40.811389 15.993403 10.440269 0.000000 39.000000 15.024613 17.000000
42.820060 19.361024 11.038823 0.000000 34.000000 14.282053 0.000000
44.520447 15.813266 11.230255 0.000000 68.000000 14.989449 16.000000
41.414313 19.242347 10.729043 0.000000 33.000000 14.335540 0.000000
41.885888 17.645975 10.599441 0.000000 44.000000 14.807343 24.000000
39.487987 16.402078 10.265067 0.000000 59.000000 14.878362 19.000000
39.684665 18.174054 9.841995 0.000000 44.000000 15.039944 26.000000
44.780723 17.203253 11.108616 0.000000 72.000000 14.932589 22.000000
44.735311 18.718629 10.547661 0.000000 45.000000 15.223307 11.000000
41.091416 16.920806 10.483227 0.000000 68.000000 14.886553 9.000000
41.299356 15.850663 10.624679 0.000000 60.000000 14.961203 17.000000
40.662891 20.107036 10.337747 0.000000 40.000000 14.433275 0.000000
42.189527 18.284933 10.318543 0.000000 62.000000 15.033917 10.000000
39.764173 15.363549 10.378202 0.000000 64.000000 14.988248 7.000000
43.743210 20.692015 10.290131 0.000000 66.000000 14.967399 1.000000
42.240532 19.186251 10.049961 0.000000 68.000000 15.158552 4.000000
42.843223 19.996787 10.789189 0.000000 36.000000 14.425844 0.000000
40.885526 17.592965 10.594402 0.000000 61.000000 14.631680 25.000000
39.415451 17.092362 10.225729 0.000000 45.000000 14.791574 20.000000
39.826299 15.956085 10.385153 0.000000 50.000000 14.897819 19.000000
42.711487 17.594605 10.772422 0.000000 74.000000 14.804104 23.000000
40.654939 15.237531 10.610031 0.000000 66.000000 14.952345 13.000000
43.901849 18.008294 11.357350 0.000000 30.000000 14.395860 0.000000
42.096842 17.076582 11.092127 0.000000 37.000000 14.461675 0.000000
43.887529 18.712816 10.733115 0.000000 67.000000 14.884357 12.000000
41.989462 17.003728 11.084755 0.000000 36.000000 14.460255 0.000000
40.122796 14.822910 10.736327 0.000000 49.000000 14.796206 14.000000
39.608346 16.847768 10.079223 0.000000 82.000000 15.009346 20.000000
41.776443 16.850627 11.044006 0.000000 34.000000 14.484123 0.000000
39.001447 20.645017 10.032561 0.000000 34.000000 14.328215 0.000000
43.518061 16.632489 11.141161 0.000000 66.000000 14.754336 18.000000
41.088306 19.162098 10.677740 0.000000 36.000000 14.336542 0.000000
44.305143 15.976217 11.397711 0.000000 90.000000 14.760297 16.000000
40.980775 17.976535 10.102803 0.000000 64.000000 15.064102 10.000000
39.325940 14.860515 11.043369 0.000000 27.000000 14.342110 0.000000
42.845469 15.621199 11.512586 0.000000 31.000000 14.430305 0.000000
42.644724 17.678992 11.028768 0.000000 50.000000 14.529577 23.000000
40.504390 15.655330 11.017996 0.000000 28.000000 14.461410 0.000000
39.419172 18.001764 9.671908 0.000000 50.000000 15.182272 26.000000
42.163796 15.289861 10.619440 0.000000 45.000000 15.219996 13.000000
41.515840 16.376410 11.012874 0.000000 64.000000 14.541405 9.000000
42.057403 18.913709 10.191034 0.000000 49.000000 15.031182 4.000000
44.070433 20.679844 10.858360 0.000000 45.000000 14.480779 0.000000
44.672558 15.158183 11.666146 0.000000 37.000000 14.701477 15.000000
40.968205 17.306017 10.165134 0.000000 56.000000 15.109348 25.000000
43.919534 14.964808 11.604872 0.000000 46.000000 14.649647 15.000000
44.990784 20.030167 10.742449 0.000000 52.000000 14.871660 2.000000
41.043753 16.220845 10.667813 0.000000 70.000000 14.811483 17.000000
42.843979 16.963396 11.064549 0.000000 52.000000 14.647838 23.000000
40.703488 16.375233 10.842249 0.000000 32.000000 14.553329 9.000000
41.505380 16.594225 10.324698 0.000000 60.000000 15.170964 9.000000
40.223157 17.855287 10.152277 0.000000 61.000000 14.892508 26.000000
40.901907 17.941074 10.258463 0.000000 74.000000 14.904123 10.000000
44.518886 15.055150 12.070421 0.000000 32.000000 14.297415 0.000000
42.157575 20.066296 10.648162 0.000000 42.000000 14.421661 0.000000
39.383538 20.205494 9.810295 0.000000 54.000000 14.686532 21.000000
39.437466 18.405545 10.082494 0.000000 57.000000 14.722970 26.000000
39.864015 20.545112 9.958895 0.000000 53.000000 14.578701 21.000000
44.237631 16.075314 11.282822 0.000000 67.000000 14.842865 16.000000
42.333476 18.442801 10.659550 0.000000 71.000000 14.705372 10.000000
44.596027 18.238330 10.674609 0.000000 65.000000 15.151371 11.000000
40.176608 17.932077 10.036556 0.000000 61.000000 14.983437 26.000000
39.662916 20.815823 10.161948 0.000000 34.000000 14.300395 0.000000
40.728919 20.559940 10.281572 0.000000 33.000000 14.427223 0.000000
44.845171 15.913771 10.968624 0.000000 60.000000 15.288072 16.000000
40.859976 20.382895 10.298779 0.000000 39.000000 14.463842 0.000000
40.316157 16.508832 10.740351 0.000000 28.000000 14.557306 20.000000
42.869937 19.033965 10.979809 0.000000 46.000000 14.401325 0.000000
42.911224 16.789415 10.831149 0.000000 50.000000 14.914660 18.000000
44.488354 17.076370 11.590069 0.000000 48.000000 14.431393 0.000000
41.073490 20.140291 10.388102 0.000000 35.000000 14.456750 0.000000
39.331102 15.424344 10.253002 0.000000 58.000000 15.017879 7.000000
43.627541 17.835057 11.046055 0.000000 71.000000 14.673459 23.000000
42.076655 17.961133 10.342099 0.000000 75.000000 15.041919 10.000000
41.308816 19.905714 10.476231 0.000000 36.000000 14.453645 0.000000
41.390993 19.831058 10.505425 0.000000 39.000000 14.452922 0.000000
44.986317 18.430758 10.677055 0.000000 79.000000 15.191778 11.000000
43.786828 20.213488 10.962231 0.000000 31.000000 14.401673 0.000000
44.907375 20.393204 10.492698 0.000000 46.000000 15.039349 2.000000
41.648717 19.616182 10.601765 0.000000 37.000000 14.442923 0.000000
44.667814 15.613368 11.580101 0.000000 50.000000 14.710613 16.000000
40.744010 18.020382 10.058887 0.000000 53.000000 15.054829 10.000000
43.748250 20.363233 10.419615 0.000000 65.000000 14.895880 1.000000
43.422441 15.824389 11.283414 0.000000 36.000000 14.728626 29.000000
40.791866 19.395205 10.626857 0.000000 25.000000 14.292254 0.000000
40.893242 19.327764 10.667724 0.000000 27.000000 14.282691 0.000000
40.997651 19.249749 10.639125 0.000000 31.000000 14.342695 0.000000
40.516239 18.904291 10.151480 0.000000 71.000000 14.779713 30.000000
41.206415 19.117682 10.671802 0.000000 26.000000 14.371773 0.000000
44.251856 16.068517 11.373664 0.000000 79.000000 14.758652 16.000000
39.474539 20.081652 9.905154 0.000000 50.000000 14.631792 21.000000
42.640730 18.981897 10.928441 0.000000 38.000000 14.416148 0.000000
42.751515 18.926164 10.962707 0.000000 43.000000 14.412872 0.000000
42.857268 18.859507 10.929494 0.000000 38.000000 14.475769 0.000000
42.344816 18.557462 10.881681 0.000000 38.000000 14.473875 0.000000
40.272534 17.331910 10.240194 0.000000 75.000000 14.900978 25.000000
42.588251 18.467600 10.939081 0.000000 43.000000 14.478759 0.000000
43.802620 18.484625 11.218255 0.000000 38.000000 14.435120 0.000000
43.726515 20.749242 10.447005 0.000000 50.000000 14.803065 1.000000
39.614457 15.289227 10.088377 0.000000 64.000000 15.252668 7.000000
43.070531 18.585637 11.010937 0.000000 30.000000 14.481300 0.000000
40.070268 14.889070 10.757576 0.000000 50.000000 14.755039 14.000000
39.818271 17.560273 10.077767 0.000000 46.000000 14.935673 26.000000
41.430303 17.092271 10.500794 0.000000 44.000000 14.905973 25.000000
40.752980 18.118559 10.337838 0.000000 86.000000 14.770498 10.000000
39.777307 16.217061 10.358206 0.000000 40.000000 14.872626 19.000000
40.106071 17.677803 9.879663 0.000000 59.000000 15.163038 26.000000
39.373031 19.817887 10.111834 0.000000 34.000000 14.454885 0.000000
40.267346 19.052856 10.354653 0.000000 46.000000 14.511932 30.000000
41.658196 16.642465 10.556029 0.000000 48.000000 14.967993 9.000000
42.696157 16.338838 10.888405 0.000000 70.000000 14.891122 18.000000
42.307004 15.356498 11.186355 0.000000 49.000000 14.687175 15.000000
39.422617 19.215537 10.253548 0.000000 34.000000 14.424002 0.000000
39.450468 19.118730 10.221040 0.000000 32.000000 14.476348 0.000000
42.044370 20.251088 10.593731 0.000000 42.000000 14.423225 0.000000
42.754515 16.183076 11.177591 0.000000 50.000000 14.647114 29.000000
39.603138 18.702786 10.344426 0.000000 35.000000 14.452681 0.000000
40.326202 17.990218 10.194611 0.000000 54.000000 14.849243 26.000000
44.781636 16.162749 11.228238 0.000000 47.000000 14.984480 16.000000
40.385299 19.675746 10.065966 0.000000 70.000000 14.713542 27.000000
43.472106 20.441138 10.124084 0.000000 76.000000 15.117410 1.000000
41.902818 15.174075 10.613538 0.000000 57.000000 15.195035 13.000000
39.525295 18.816512 10.001386 0.000000 69.000000 14.751943 28.000000
41.911024 17.829023 10.491522 0.000000 62.000000 14.887149 10.000000
44.239208 17.857271 11.303235 0.000000 52.000000 14.536371 22.000000
39.482664 16.543661 10.241646 0.000000 53.000000 14.877238 20.000000
41.544651 17.854565 10.336622 0.000000 72.000000 14.963833 10.000000
42.146077 17.172610 10.259958 0.000000 72.000000 15.261615 24.000000
39.097797 14.820339 10.955941 0.000000 25.000000 14.390148 0.000000
43.008291 14.652781 11.245985 0.000000 63.000000 14.875313 6.000000
39.846833 15.137956 10.796567 0.000000 50.000000 14.634949 14.000000
42.669248 16.141222 11.142299 0.000000 61.000000 14.671925 29.000000
40.942120 15.069378 10.702251 0.000000 62.000000 14.944380 13.000000
45.056522 18.774915 10.386330 0.000000 7.000000 15.431231 11.000000
39.729591 17.749523 10.064349 0.000000 68.000000 14.901427 26.000000
39.643741 19.064659 10.286913 0.000000 32.000000 14.457779 0.000000
40.906442 16.439524 10.190461 0.000000 43.000000 15.212705 9.000000
39.136458 19.612868 10.117106 0.000000 32.000000 14.438084 0.000000
42.455763 20.177509 10.680455 0.000000 46.000000 14.428828 0.000000
41.365699 20.243035 10.435114 0.000000 32.000000 14.449893 0.000000
41.511847 18.436078 10.440933 0.000000 78.000000 14.762926 10.000000
41.245680 20.201266 10.422083 0.000000 30.000000 14.446558 0.000000
42.225851 20.090904 10.650669 0.000000 37.000000 14.428174 0.000000
42.101027 17.897793 10.382520 0.000000 71.000000 15.017572 10.000000
43.263336 17.571677 10.741832 0.000000 56.000000 14.941735 23.000000
40.845379 18.201726 10.151348 0.000000 81.000000 14.955215 10.000000
42.276724 20.119253 10.672544 0.000000 36.000000 14.412034 0.000000
40.899605 20.060037 10.369999 0.000000 34.000000 14.454346 0.000000
41.588586 18.335977 10.123325 0.000000 48.000000 15.101212 10.000000
40.786962 20.012319 10.359655 0.000000 36.000000 14.450761 0.000000
41.788080 19.897253 10.601848 0.000000 36.000000 14.423913 0.000000
43.525162 20.845329 10.608248 0.000000 42.000000 14.593338 1.000000
41.647285 15.275521 10.522790 0.000000 53.000000 15.218301 13.000000
44.239222 17.382919 10.843718 0.000000 66.000000 15.057899 22.000000
41.125152 15.758393 11.161533 0.000000 40.000000 14.423101 0.000000
40.454409 19.850173 10.319435 0.000000 38.000000 14.452981 0.000000
41.473010 19.728474 10.544324 0.000000 35.000000 14.447268 0.000000
40.314597 16.154607 10.661483 0.000000 70.000000 14.690463 19.000000
41.003363 18.153246 10.044421 0.000000 54.000000 15.096463 10.000000
43.602003 16.198694 11.402123 0.000000 35.000000 14.587286 29.000000
41.081366 19.490164 10.513052 0.000000 36.000000 14.441919 0.000000
39.930404 19.563262 10.334920 0.000000 22.000000 14.385149 0.000000
40.983777 19.448370 10.615734 0.000000 32.000000 14.330739 0.000000
42.091615 15.388377 10.773017 0.000000 73.000000 15.041719 13.000000
40.440045 17.907128 10.288355 0.000000 37.000000 14.793337 26.000000
39.604553 18.375063 9.971511 0.000000 67.000000 14.866967 26.000000
42.951518 16.625255 10.534205 0.000000 49.000000 15.236360 18.000000
40.299134 16.870715 10.722832 0.000000 51.000000 14.512771 20.000000
43.459706 17.060290 10.680117 0.000000 54.000000 15.121002 23.000000
39.272989 20.047671 9.875714 0.000000 39.000000 14.627688 21.000000
42.761090 15.741357 11.221767 0.000000 44.000000 14.676712 29.000000
40.607295 16.549094 10.389249 0.000000 69.000000 14.945954 9.000000
40.550710 19.101793 10.569432 0.000000 26.000000 14.349558 0.000000
44.323355 20.641787 10.623298 0.000000 54.000000 14.762413 2.000000
39.333818 17.736014 10.369744 0.000000 54.000000 14.532968 26.000000
38.996522 18.740957 10.180353 0.000000 43.000000 14.490807 0.000000
40.122373 18.636567 10.456978 0.000000 35.000000 14.452461 0.000000
42.973975 18.188551 10.548456 0.000000 48.000000 14.975001 10.000000
42.711914 20.562359 10.334026 0.000000 30.000000 14.750833 1.000000
42.153460 16.705682 11.201821 0.000000 34.000000 14.425859 0.000000
39.564253 17.697631 10.061251 0.000000 56.000000 14.881534 26.000000
41.619359 16.664989 10.810868 0.000000 59.000000 14.710168 9.000000
39.983897 17.905262 10.064310 0.000000 48.000000 14.924446 26.000000
38.904209 16.690660 10.280706 0.000000 36.000000 14.706390 20.000000
40.477477 18.889303 10.130061 0.000000 75.000000 14.795549 30.000000
39.915949 15.514825 10.921709 0.000000 31.000000 14.466089 0.000000
39.278641 14.925457 10.968579 0.000000 24.000000 14.395156 0.000000
43.222886 16.015863 11.311504 0.000000 52.000000 14.632856 29.000000
44.224973 18.895678 11.253741 0.000000 33.000000 14.414367 0.000000
44.080566 18.850618 11.166231 0.000000 38.000000 14.479100 0.000000
41.247637 16.380719 10.459348 0.000000 67.000000 15.026204 9.000000
40.063079 18.171742 9.510146 0.000000 65.000000 15.433296 26.000000
44.424295 15.131223 11.641356 0.000000 52.000000 14.682908 15.000000
42.282426 16.399259 10.973738 0.000000 54.000000 14.720529 18.000000
42.567441 17.798691 10.728054 0.000000 39.000000 14.786983 23.000000
44.009702 18.403565 11.272599 0.000000 37.000000 14.434676 0.000000
40.001953 16.185088 10.352998 0.000000 70.000000 14.925282 19.000000
40.007970 14.721748 10.743277 0.000000 58.000000 14.784065 14.000000
42.353533 18.861408 10.290002 0.000000 70.000000 14.999711 4.000000
40.979166 14.929435 10.725673 0.000000 28.000000 14.951234 13.000000
45.125050 20.558065 10.531740 0.000000 62.000000 15.016119 2.000000
42.856714 17.845870 11.249270 0.000000 33.000000 14.329171 0.000000
45.152197 18.184301 10.739897 0.000000 52.000000 15.201954 11.000000
43.349521 17.621827 10.721093 0.000000 56.000000 14.970037 23.000000
41.233533 16.999201 10.723019 0.000000 63.000000 14.668508 9.000000
40.275189 16.767614 10.825710 0.000000 26.000000 14.425196 0.000000
41.819165 18.008676 10.214365 0.000000 73.000000 15.109324 10.000000
39.967211 16.409541 10.748311 0.000000 27.000000 14.499633 0.000000
44.868502 20.418803 10.411684 0.000000 54.000000 15.106353 2.000000
39.814902 16.230074 10.857222 0.000000 26.000000 14.394252 0.000000
42.113285 17.690754 10.682359 0.000000 23.000000 14.762791 24.000000
39.155810 14.953423 10.999367 0.000000 21.000000 14.337612 0.000000
39.133044 14.853523 10.972251 0.000000 20.000000 14.375666 0.000000
41.166554 17.931531 10.190583 0.000000 61.000000 15.021435 10.000000
44.557536 20.908655 11.058779 0.000000 39.000000 14.341853 0.000000
44.518694 17.122888 11.556325 0.000000 39.000000 14.462322 0.000000
40.986693 16.467026 10.108251 0.000000 49.000000 15.303079 9.000000
42.789367 15.179823 11.036516 0.000000 52.000000 14.951950 15.000000
44.160840 16.915353 11.543085 0.000000 49.000000 14.440935 0.000000
44.192740 20.306358 10.727059 0.000000 74.000000 14.691241 2.000000
39.105384 17.998083 9.947456 0.000000 58.000000 14.856639 26.000000
43.279553 18.176381 10.892549 0.000000 78.000000 14.701406 12.000000
44.162702 20.495063 10.422806 0.000000 61.000000 14.949892 1.000000
44.669250 16.605868 11.058856 0.000000 66.000000 15.055940 16.000000
43.079420 19.164710 11.026883 0.000000 25.000000 14.374262 0.000000
39.101990 17.943616 9.936687 0.000000 60.000000 14.875202 26.000000
43.805555 15.723850 11.671661 0.000000 40.000000 14.441148 0.000000
39.469476 20.078196 9.949235 0.000000 70.000000 14.588691 21.000000
41.637736 17.841202 10.331179 0.000000 73.000000 14.988853 10.000000
43.606453 18.780880 10.764328 0.000000 64.000000 14.790032 12.000000
39.060923 17.851560 9.975524 0.000000 62.000000 14.844647 26.000000
42.961049 14.783030 11.599919 0.000000 37.000000 14.502557 0.000000
41.807691 14.815522 11.532415 0.000000 25.000000 14.344713 0.000000
45.006567 20.055477 10.697259 0.000000 75.000000 14.914342 2.000000
40.849030 17.451882 10.186618 0.000000 72.000000 15.042517 25.000000
41.074084 20.821862 10.427823 0.000000 29.000000 14.308605 0.000000
44.663619 17.788431 11.216125 0.000000 61.000000 14.712059 22.000000
42.735863 18.986462 10.950037 0.000000 42.000000 14.412475 0.000000
43.186074 16.782692 11.394406 0.000000 49.000000 14.422081 0.000000
45.106076 19.586215 10.965414 0.000000 72.000000 14.748979 3.000000
41.803314 17.950452 10.199939 0.000000 73.000000 15.129681 10.000000
41.728968 20.232561 10.506493 0.000000 32.000000 14.451100 0.000000
40.629115 19.779817 10.361777 0.000000 31.000000 14.456319 0.000000
42.952837 20.213231 10.779205 0.000000 44.000000 14.421371 0.000000
41.932517 20.091310 10.586124 0.000000 37.000000 14.435188 0.000000
43.897301 17.085348 11.104953 0.000000 59.000000 14.788150 22.000000
43.156357 20.073606 10.838161 0.000000 38.000000 14.425219 0.000000
43.167751 20.537577 10.332222 0.000000 36.000000 14.842731 1.000000
39.631641 18.467454 10.221272 0.000000 50.000000 14.615269 26.000000
41.110240 18.390229 10.162323 0.000000 44.000000 14.964284 10.000000
44.264987 17.915430 10.990296 0.000000 66.000000 14.835011 11.000000
41.401425 19.894580 10.527205 0.000000 39.000000 14.423565 0.000000
44.081349 15.405166 11.364641 0.000000 57.000000 14.842009 15.000000
43.461884 16.013089 11.348520 0.000000 64.000000 14.642621 29.000000
41.689908 15.755297 11.120338 0.000000 55.000000 14.570251 17.000000
40.347196 15.694690 10.795887 0.000000 35.000000 14.640510 19.000000
43.795463 19.684904 11.008329 0.000000 41.000000 14.443789 0.000000
42.395703 18.876469 10.411591 0.000000 69.000000 14.887475 4.000000
41.069219 16.057969 10.484278 0.000000 72.000000 15.020317 17.000000
40.254474 15.068550 10.834361 0.000000 46.000000 14.686567 14.000000
40.719598 18.647624 10.588245 0.000000 46.000000 14.436409 0.000000
40.966022 16.272167 10.856840 0.000000 52.000000 14.605418 17.000000
44.379330 14.995882 11.804680 0.000000 38.000000 14.538000 5.000000
40.079987 14.731718 10.792484 0.000000 50.000000 14.748405 14.000000
43.103836 20.573803 10.287925 0.000000 52.000000 14.867725 1.000000
42.164272 19.513411 10.792120 0.000000 29.000000 14.372531 0.000000
43.059668 18.476390 10.951659 0.000000 41.000000 14.554264 10.000000
40.684340 16.839246 10.399408 0.000000 55.000000 14.903941 9.000000
44.641146 19.329636 11.393611 0.000000 40.000000 14.287644 0.000000
43.659165 19.224566 11.207685 0.000000 30.000000 14.299062 0.000000
44.763005 19.276787 11.405071 0.000000 36.000000 14.308088 0.000000
39.585707 20.271519 9.961918 0.000000 81.000000 14.567236 21.000000
43.912455 19.129040 11.269611 0.000000 33.000000 14.302338 0.000000
43.702481 15.125397 11.324478 0.000000 62.000000 14.854365 15.000000
41.479382 18.396343 10.312001 0.000000 69.000000 14.888083 10.000000
44.167817 19.034334 11.288307 0.000000 32.000000 14.347748 0.000000
39.755546 15.782067 10.515536 0.000000 59.000000 14.786175 19.000000
42.004952 16.114684 10.780362 0.000000 66.000000 14.901238 17.000000
44.876350 14.845920 11.974253 0.000000 38.000000 14.491836 0.000000
39.789626 20.938562 10.175189 0.000000 33.000000 14.291750 0.000000
39.954360 20.177659 10.160072 0.000000 35.000000 14.460088 0.000000
43.783739 18.559564 10.861679 0.000000 72.000000 14.764887 12.000000
40.310879 15.345112 10.460141 0.000000 79.000000 15.015180 14.000000
40.065348 19.911690 10.198190 0.000000 39.000000 14.486981 0.000000
38.935926 19.751907 10.026827 0.000000 34.000000 14.465238 0.000000
38.987203 19.667154 10.060341 0.000000 28.000000 14.456116 0.000000
39.883167 17.451172 10.057492 0.000000 80.000000 14.985152 26.000000
44.983645 19.778736 10.857328 0.000000 59.000000 14.799529 3.000000
43.646043 15.572596 11.565635 0.000000 50.000000 14.538065 15.000000
44.299512 16.136807 11.184955 0.000000 74.000000 14.939457 16.000000
42.895649 14.733944 11.333558 0.000000 48.000000 14.756119 6.000000
40.584765 18.226327 10.211230 0.000000 48.000000 14.843987 26.000000
39.162242 17.950752 9.833650 0.000000 69.000000 14.985250 26.000000
39.047496 15.535739 10.470834 0.000000 38.000000 14.735322 7.000000
40.981487 20.179657 10.401052 0.000000 38.000000 14.420475 0.000000
40.340715 19.430461 10.182711 0.000000 49.000000 14.631535 27.000000
45.073708 18.859902 10.899167 0.000000 72.000000 14.924019 11.000000
42.579297 17.670784 10.807266 0.000000 63.000000 14.733096 23.000000
41.537609 14.653503 10.894612 0.000000 70.000000 14.937584 8.000000
39.269380 16.902444 10.115329 0.000000 70.000000 14.901496 20.000000
40.041255 16.269460 10.749150 0.000000 54.000000 14.535378 19.000000
39.746821 18.775235 10.360286 0.000000 31.000000 14.452805 0.000000
41.967775 17.556315 10.736120 0.000000 58.000000 14.704865 24.000000
39.830877 18.703601 10.395340 0.000000 25.000000 14.446275 0.000000
44.615267 19.574864 10.359751 0.000000 66.000000 15.244728 3.000000
41.074289 18.667367 10.629418 0.000000 38.000000 14.460387 0.000000
40.592095 17.364856 10.046397 0.000000 71.000000 15.143799 25.000000
42.449445 17.864178 11.204002 0.000000 30.000000 14.293094 0.000000
39.562469 20.486793 9.938600 0.000000 31.000000 14.550758 21.000000
43.151257 19.397521 11.110418 0.000000 26.000000 14.269423 0.000000
40.663462 14.734437 10.668063 0.000000 60.000000 14.978776 8.000000
45.016743 19.652611 10.728934 0.000000 73.000000 14.950471 3.000000
43.778262 16.252380 11.740373 0.000000 25.000000 14.284300 0.000000
41.151546 14.699988 10.908403 0.000000 62.000000 14.843767 8.000000
42.157575 16.108153 10.922080 0.000000 71.000000 14.793859 17.000000
39.559539 18.570024 10.377539 0.000000 37.000000 14.433748 0.000000
39.239912 20.711612 10.039224 0.000000 37.000000 14.356107 0.000000
39.306861 16.619396 10.252595 0.000000 39.000000 14.821205 20.000000
44.397547 16.035462 11.241930 0.000000 64.000000 14.919121 16.000000
39.035981 15.583661 10.557242 0.000000 56.000000 14.641726 7.000000
39.627422 16.812304 10.109104 0.000000 76.000000 14.989719 20.000000
40.021630 20.763591 10.211584 0.000000 27.000000 14.328528 0.000000
41.085496 20.631904 10.404058 0.000000 29.000000 14.364379 0.000000
39.848854 18.187124 9.792191 0.000000 69.000000 15.117117 26.000000
40.520415 18.846962 10.129989 0.000000 53.000000 14.810555 30.000000
42.594155 20.241727 10.244398 0.000000 80.000000 14.867039 1.000000
42.421904 18.023324 10.354335 0.000000 44.000000 15.085306 10.000000
42.013767 17.238105 10.211302 0.000000 64.000000 15.273190 24.000000
40.015883 18.891961 10.125146 0.000000 47.000000 14.712635 30.000000
43.210071 15.369842 11.223510 0.000000 62.000000 14.819726 15.000000
40.561011 18.779581 10.224092 0.000000 63.000000 14.737926 30.000000
40.428318 20.080126 10.272006 0.000000 34.000000 14.456954 0.000000
40.289254 19.933381 10.257844 0.000000 37.000000 14.468023 0.000000
39.086546 19.971630 10.018270 0.000000 29.000000 14.466605 0.000000
39.017102 19.894315 10.017972 0.000000 35.000000 14.466221 0.000000
40.353538 18.021102 9.968101 0.000000 75.000000 15.068851 26.000000
41.464567 18.292764 10.128299 0.000000 74.000000 15.079913 10.000000
39.926312 19.488824 10.360550 0.000000 30.000000 14.371539 0.000000
40.761180 17.006685 10.771136 0.000000 41.000000 14.531412 9.000000
39.564038 16.982222 10.253797 0.000000 48.000000 14.810210 20.000000
45.052270 20.529274 10.521482 0.000000 67.000000 15.016936 2.000000
41.254582 17.278109 10.227485 0.000000 61.000000 15.107574 25.000000
38.886450 19.305098 10.290792 0.000000 29.000000 14.272156 0.000000
41.735852 15.561782 10.889172 0.000000 71.000000 14.834029 13.000000
45.052447 18.009601 11.185299 0.000000 68.000000 14.779789 11.000000
44.873406 17.357326 10.975977 0.000000 78.000000 15.053775 22.000000
39.730390 17.306529 10.588498 0.000000 36.000000 14.465200 0.000000
45.053862 20.212097 10.645389 0.000000 42.000000 14.948299 2.000000
39.582912 18.546101 10.359028 0.000000 32.000000 14.459949 0.000000
44.842656 18.895493 10.948493 0.000000 46.000000 14.826834 11.000000
43.651393 16.130734 11.361410 0.000000 43.000000 14.647005 29.000000
40.703834 19.226790 10.657473 0.000000 34.000000 14.273084 0.000000
39.135139 17.920393 9.938032 0.000000 67.000000 14.883905 26.000000
38.965074 18.453202 9.966721 0.000000 48.000000 14.738151 26.000000
42.117138 18.004919 10.387432 0.000000 63.000000 14.998605 10.000000
43.827901 18.117846 10.776777 0.000000 50.000000 14.926624 12.000000
41.319102 15.791614 11.122201 0.000000 40.000000 14.492510 0.000000
40.968110 19.204007 10.613826 0.000000 45.000000 14.368986 0.000000
40.395500 15.649927 11.010526 0.000000 27.000000 14.448934 0.000000
44.780113 18.403162 10.940370 0.000000 72.000000 14.902181 11.000000
39.746101 17.527521 10.278698 0.000000 82.000000 14.732670 26.000000
44.125326 19.935461 11.039732 0.000000 37.000000 14.435361 0.000000
44.569958 15.168333 11.971682 0.000000 41.000000 14.384484 0.000000
41.982989 17.100687 10.716911 0.000000 47.000000 14.799735 24.000000
45.060976 18.696788 10.727386 0.000000 73.000000 15.114285 11.000000
42.743045 20.427038 9.937637 0.000000 61.000000 15.162486 1.000000
42.511217 15.890494 11.036987 0.000000 59.000000 14.784453 29.000000
39.803975 18.240721 9.583003 0.000000 75.000000 15.302637 26.000000
42.766333 17.676252 10.692062 0.000000 75.000000 14.879162 23.000000
41.751899 19.267329 10.535511 0.000000 53.000000 14.582794 4.000000
40.678174 19.530035 10.340856 0.000000 50.000000 14.526089 27.000000
44.876507 18.509283 10.924886 0.000000 79.000000 14.918306 11.000000
42.194456 17.615441 10.579803 0.000000 64.000000 14.889607 24.000000
43.898542 19.350481 11.187030 0.000000 44.000000 14.344035 0.000000
44.114574 18.095721 10.838297 0.000000 63.000000 14.924780 11.000000
42.769015 16.891547 10.944931 0.000000 48.000000 14.761113 18.000000
44.927917 17.640643 11.006645 0.000000 43.000000 14.988737 22.000000
40.784855 18.169099 10.257556 0.000000 46.000000 14.846149 10.000000
42.125496 15.294035 10.621700 0.000000 70.000000 15.209896 13.000000
43.567104 18.820389 10.683123 0.000000 63.000000 14.854892 12.000000
43.972926 15.206379 11.177792 0.000000 55.000000 15.034530 15.000000
43.278630 19.106034 10.975203 0.000000 50.000000 14.471427 0.000000
44.813077 14.857587 11.781449 0.000000 58.000000 14.664762 5.000000
44.900017 17.028102 11.221350 0.000000 51.000000 14.874146 22.000000
42.711084 18.856907 10.953946 0.000000 37.000000 14.424872 0.000000
40.519514 18.435330 10.589967 0.000000 34.000000 14.431117 0.000000
44.243943 17.637487 11.206336 0.000000 62.000000 14.666529 22.000000
39.740465 16.041212 10.318571 0.000000 70.000000 14.932380 19.000000
41.012831 15.624719 10.959939 0.000000 44.000000 14.618681 13.000000
44.097638 14.940032 11.668361 0.000000 24.000000 14.625801 15.000000
41.165390 18.685868 10.660988 0.000000 38.000000 14.444046 0.000000
41.061814 18.614007 10.600438 0.000000 35.000000 14.494696 0.000000
43.118310 17.243372 10.538064 0.000000 75.000000 15.164588 23.000000
41.228330 16.045657 10.979881 0.000000 54.000000 14.572295 17.000000
40.630093 17.128098 10.809484 0.000000 34.000000 14.449932 0.000000
39.576643 18.963194 10.088027 0.000000 73.000000 14.654095 28.000000
43.559906 18.147671 10.547589 0.000000 61.000000 15.093174 12.000000
41.615907 16.610517 10.534560 0.000000 38.000000 14.985942 9.000000
39.908685 17.879088 9.766375 0.000000 76.000000 15.203048 26.000000
42.869140 15.274810 10.979583 0.000000 46.000000 15.006878 15.000000
39.997396 18.497884 10.220290 0.000000 55.000000 14.680451 26.000000
38.905737 16.022341 10.660347 0.000000 22.000000 14.446576 0.000000
43.181029 18.262748 10.971873 0.000000 46.000000 14.592032 12.000000
40.384116 16.041892 10.591081 0.000000 46.000000 14.789955 19.000000
40.768141 14.831737 10.700194 0.000000 70.000000 14.951765 8.000000
44.989027 18.966044 10.643386 0.000000 47.000000 15.138685 11.000000
41.175417 15.189614 10.459260 0.000000 46.000000 15.204489 13.000000
44.087712 17.020613 11.128762 0.000000 63.000000 14.811503 22.000000
43.056853 16.599490 10.587782 0.000000 63.000000 15.208520 18.000000
44.704107 18.729247 10.751860 0.000000 58.000000 15.017897 11.000000
42.232814 18.989633 10.043143 0.000000 68.000000 15.195366 4.000000
38.919929 14.792384 10.871029 0.000000 22.000000 14.443283 0.000000
40.758713 17.090685 10.672193 0.000000 55.000000 14.613259 25.000000
44.860245 17.273142 10.862076 0.000000 43.000000 15.175179 22.000000
44.279180 19.662567 10.649687 0.000000 57.000000 14.886224 3.000000
41.624794 18.068591 10.113086 0.000000 75.000000 15.161042 10.000000
44.297029 17.201342 11.511162 0.000000 55.000000 14.451536 0.000000
43.649518 18.659104 10.600998 0.000000 37.000000 14.976000 12.000000
40.867272 16.546378 10.362551 0.000000 64.000000 15.021392 9.000000
42.745361 16.983322 11.224489 0.000000 37.000000 14.471059 0.000000
42.131590 16.515214 11.309379 0.000000 28.000000 14.348216 0.000000
43.081228 16.290897 11.505076 0.000000 37.000000 14.374274 0.000000
41.921104 18.678389 10.187362 0.000000 60.000000 15.046879 4.000000
41.143512 19.814477 10.044227 0.000000 52.000000 14.855566 27.000000
