-15.247152 -7.274364 -37.795044 0.000000 33.000000 14.105612 0.000000
-15.249145 -7.140299 -37.937215 0.000000 36.000000 14.194020 0.000000
-16.479143 -6.677983 -39.449111 0.000000 38.000000 14.198092 0.000000
-15.329336 -6.986683 -38.089433 0.000000 49.000000 14.228229 0.000000
-15.448993 -6.820301 -38.250685 0.000000 49.000000 14.237592 0.000000
-15.528235 -6.667779 -38.408895 0.000000 48.000000 14.276326 0.000000
-16.581469 -7.926293 -40.447569 0.000000 54.000000 14.750576 14.000000
-15.669740 -6.497459 -38.579135 0.000000 64.000000 14.274456 0.000000
-17.202791 -5.896084 -40.220688 0.000000 42.000000 14.125879 0.000000
-17.106968 -5.789653 -40.370805 0.000000 51.000000 14.295063 0.000000
-16.105657 -6.106995 -38.955805 0.000000 37.000000 14.175203 0.000000
-17.366356 -5.569291 -40.595280 0.000000 47.000000 14.236219 0.000000
-13.988458 -8.701055 -37.037737 0.000000 50.000000 14.601192 10.000000
-17.446247 -5.408020 -40.786575 0.000000 59.000000 14.295385 0.000000
-16.316820 -5.792844 -39.311196 0.000000 49.000000 14.236535 0.000000
-16.977750 -9.807253 -40.696839 0.000000 38.000000 14.601411 17.000000
-13.527196 -5.762102 -36.769158 0.000000 42.000000 14.788461 22.000000
-14.076382 -3.877024 -36.601857 0.000000 47.000000 14.257322 0.000000
-14.006757 -6.505067 -37.049899 0.000000 48.000000 14.594716 25.000000
-13.405450 -9.032226 -36.427797 0.000000 38.000000 14.666761 21.000000
-14.113128 -4.447892 -36.701317 0.000000 37.000000 14.291794 0.000000
-15.773241 -5.292443 -38.949997 0.000000 56.000000 14.428950 0.000000
-14.242094 -4.785858 -36.761798 0.000000 38.000000 14.230190 0.000000
-14.215589 -6.535872 -36.857052 0.000000 43.000000 14.310982 0.000000
-17.093520 -9.411680 -41.116228 0.000000 67.000000 14.777107 29.000000
-16.347626 -9.514325 -39.832502 0.000000 66.000000 14.542510 18.000000
-14.302028 -7.081353 -36.847611 0.000000 47.000000 14.238071 0.000000
-14.378768 -7.245942 -36.844871 0.000000 36.000000 14.176910 0.000000
-16.639004 -9.265114 -40.280265 0.000000 41.000000 14.600168 18.000000
-14.190284 -7.865802 -36.789310 0.000000 49.000000 14.287718 0.000000
-14.219406 -8.040482 -36.773556 0.000000 47.000000 14.255198 0.000000
-16.144050 -8.111292 -39.828870 0.000000 58.000000 14.697861 30.000000
-17.446427 -8.723410 -40.625120 0.000000 48.000000 14.193093 0.000000
-16.395805 -8.973195 -39.204222 0.000000 32.000000 14.107687 0.000000
-13.754784 -7.331825 -36.422087 0.000000 32.000000 14.392625 0.000000
-13.553279 -9.435686 -37.308213 0.000000 48.000000 15.109323 27.000000
-15.815822 -8.325264 -39.347367 0.000000 56.000000 14.647392 30.000000
-16.064750 -9.418324 -39.580291 0.000000 60.000000 14.601994 19.000000
-13.691080 -9.332262 -36.922747 0.000000 63.000000 14.758726 27.000000
-15.713101 -4.242762 -38.524407 0.000000 40.000000 14.206251 0.000000
-16.390987 -8.031030 -40.166846 0.000000 77.000000 14.720471 14.000000
-14.552058 -9.445419 -38.418626 0.000000 66.000000 15.038431 24.000000
-16.195184 -5.445806 -39.679813 0.000000 47.000000 14.563954 7.000000
-15.435212 -5.747514 -38.249191 0.000000 42.000000 14.247318 0.000000
-13.623804 -5.171187 -36.421476 0.000000 54.000000 14.493669 3.000000
-15.505471 -7.936220 -38.826388 0.000000 54.000000 14.558103 11.000000
-13.355722 -5.590529 -36.459603 0.000000 65.000000 14.725394 3.000000
-15.432258 -9.510450 -38.579801 0.000000 49.000000 14.458783 24.000000
-14.500593 -6.142666 -37.785138 0.000000 59.000000 14.677477 22.000000
-15.315902 -6.366013 -38.093458 0.000000 44.000000 14.241179 0.000000
-13.171147 -9.146235 -36.861125 0.000000 2.000000 15.122371 21.000000
-14.672929 -10.039117 -38.542316 0.000000 54.000000 15.023088 23.000000
-15.218706 -6.772692 -37.977095 0.000000 48.000000 14.242824 0.000000
-15.229288 -6.956757 -37.921952 0.000000 31.000000 14.199741 0.000000
-16.512533 -6.614064 -39.489042 0.000000 43.000000 14.197499 0.000000
-14.848445 -7.766997 -37.811772 0.000000 30.000000 14.424953 11.000000
-15.275911 -7.313629 -37.807718 0.000000 31.000000 14.091360 0.000000
-15.185383 -7.520285 -37.735615 0.000000 25.000000 14.115845 0.000000
-14.076771 -9.807738 -37.465752 0.000000 66.000000 14.803608 20.000000
-16.420794 -7.420799 -39.189066 0.000000 28.000000 14.078747 0.000000
-16.138958 -9.826127 -39.696594 0.000000 43.000000 14.618113 19.000000
-14.470509 -9.477745 -37.980001 0.000000 70.000000 14.824064 24.000000
-14.080092 -9.759135 -37.296614 0.000000 59.000000 14.694022 20.000000
-17.099333 -7.537363 -40.604836 0.000000 37.000000 14.449047 0.000000
-13.817148 -8.564774 -36.882850 0.000000 56.000000 14.635856 10.000000
-16.521307 -8.831163 -39.672284 0.000000 43.000000 14.306642 0.000000
-13.803942 -6.258387 -36.828670 0.000000 63.000000 14.611803 22.000000
-14.066532 -6.992061 -36.630241 0.000000 31.000000 14.282908 0.000000
-15.951574 -4.012735 -39.268977 0.000000 50.000000 14.492668 1.000000
-16.194282 -9.470255 -39.967392 0.000000 44.000000 14.746604 18.000000
-14.259681 -7.878392 -37.537633 0.000000 49.000000 14.707442 5.000000
-14.095128 -4.337343 -36.676984 0.000000 46.000000 14.290338 0.000000
-13.111149 -9.425727 -36.696297 0.000000 63.000000 15.064547 21.000000
-15.026250 -9.489875 -38.615091 0.000000 61.000000 14.795522 24.000000
-14.648800 -9.950944 -38.578409 0.000000 62.000000 15.064609 23.000000
-13.736548 -8.243817 -36.733696 0.000000 35.000000 14.603903 10.000000
-14.417419 -7.999089 -37.380889 0.000000 60.000000 14.486118 5.000000
-13.784112 -7.803283 -36.342155 0.000000 52.000000 14.319341 0.000000
-13.887771 -7.624721 -36.451697 0.000000 42.000000 14.308375 0.000000
-15.105619 -9.673868 -38.613983 0.000000 51.000000 14.733358 24.000000
-13.780150 -6.913175 -36.472065 0.000000 40.000000 14.404603 0.000000
-14.072866 -5.586456 -37.166815 0.000000 66.000000 14.617494 26.000000
-14.352705 -5.545401 -37.460978 0.000000 41.000000 14.586905 22.000000
-15.959145 -8.008813 -39.649061 0.000000 69.000000 14.727285 30.000000
-13.872450 -7.808417 -37.176878 0.000000 56.000000 14.779062 5.000000
-15.380991 -6.663831 -38.176232 0.000000 53.000000 14.243146 0.000000
-14.369367 -6.885766 -36.928034 0.000000 46.000000 14.236808 0.000000
-15.531518 -6.459466 -38.319031 0.000000 41.000000 14.216927 0.000000
-14.481968 -6.705004 -37.052590 0.000000 42.000000 14.228416 0.000000
-16.826069 -9.690285 -40.377626 0.000000 44.000000 14.516906 18.000000
-15.960498 -7.357873 -39.276828 0.000000 48.000000 14.490725 28.000000
-15.854013 -5.887826 -38.750214 0.000000 35.000000 14.239998 0.000000
-16.013597 -5.683290 -38.909987 0.000000 39.000000 14.217505 0.000000
-14.093134 -7.887966 -37.132000 0.000000 69.000000 14.579771 5.000000
-16.274183 -5.284151 -39.231585 0.000000 44.000000 14.219183 0.000000
-15.962710 -4.486286 -38.847609 0.000000 40.000000 14.217445 0.000000
-16.012701 -4.333251 -39.009944 0.000000 46.000000 14.281442 0.000000
-16.243473 -4.108742 -39.203791 0.000000 46.000000 14.225380 0.000000
-13.581582 -7.876283 -36.021513 0.000000 48.000000 14.273309 0.000000
-13.617140 -8.047897 -36.030879 0.000000 40.000000 14.251699 0.000000
-13.868851 -7.737958 -37.159952 0.000000 65.000000 14.771140 5.000000
-15.481100 -4.836888 -38.601452 0.000000 35.000000 14.434659 0.000000
-13.661237 -8.574595 -36.043017 0.000000 43.000000 14.225230 0.000000
-16.014539 -7.779994 -39.756687 0.000000 45.000000 14.752483 30.000000
-16.108706 -8.895707 -38.921467 0.000000 39.000000 14.151116 0.000000
-15.087106 -10.035798 -38.767002 0.000000 66.000000 14.844510 23.000000
-16.206721 -7.300728 -39.763228 0.000000 35.000000 14.607797 13.000000
-15.928540 -8.094710 -38.825257 0.000000 50.000000 14.229764 0.000000
-15.958408 -7.980747 -38.993033 0.000000 48.000000 14.312786 0.000000
-16.321462 -8.603764 -39.628133 0.000000 45.000000 14.433467 15.000000
-17.315370 -6.914174 -40.445664 0.000000 49.000000 14.181040 0.000000
-17.489115 -6.770875 -40.665400 0.000000 34.000000 14.185520 0.000000
-14.178429 -5.475194 -37.265270 0.000000 51.000000 14.598039 26.000000
-15.767750 -8.457639 -39.059916 0.000000 50.000000 14.502748 12.000000
-14.585059 -4.165954 -37.205304 0.000000 42.000000 14.245206 0.000000
-15.461570 -8.431845 -39.088657 0.000000 73.000000 14.758037 12.000000
-15.837913 -3.854899 -38.740778 0.000000 56.000000 14.246495 0.000000
-14.724286 -4.508643 -37.215176 0.000000 37.000000 14.143635 0.000000
-16.543923 -7.722956 -40.216492 0.000000 47.000000 14.633449 14.000000
-16.110028 -8.557135 -39.491692 0.000000 43.000000 14.510874 15.000000
-14.027797 -8.674156 -37.257956 0.000000 76.000000 14.710060 10.000000
-15.599699 -6.010522 -38.726338 0.000000 35.000000 14.421831 0.000000
-15.674032 -5.786299 -38.552825 0.000000 35.000000 14.254486 0.000000
-15.661113 -5.991642 -38.519514 0.000000 49.000000 14.243415 0.000000
-13.536955 -9.319996 -36.423559 0.000000 55.000000 14.562243 21.000000
-14.941125 -7.750629 -38.555377 0.000000 67.000000 14.823662 11.000000
-14.362759 -6.096268 -37.834664 0.000000 64.000000 14.815550 22.000000
-14.407623 -6.935174 -36.964723 0.000000 39.000000 14.230396 0.000000
-16.057179 -7.043682 -39.374598 0.000000 46.000000 14.477715 28.000000
-15.187281 -9.354999 -38.786057 0.000000 48.000000 14.778991 24.000000
-15.497362 -6.836944 -38.347302 0.000000 58.000000 14.261264 0.000000
-14.146012 -5.990522 -37.316503 0.000000 51.000000 14.655558 22.000000
-16.092216 -8.229543 -39.747478 0.000000 70.000000 14.686504 30.000000
-14.324716 -7.510048 -36.847631 0.000000 37.000000 14.220514 0.000000
-14.875280 -5.413098 -38.090108 0.000000 44.000000 14.580275 4.000000
-14.176122 -7.910345 -36.753650 0.000000 42.000000 14.276123 0.000000
-14.142237 -8.097476 -36.706726 0.000000 42.000000 14.272675 0.000000
-15.964647 -7.530959 -39.278823 0.000000 50.000000 14.488775 30.000000
-15.192620 -8.796994 -37.776366 0.000000 40.000000 14.136024 0.000000
-14.681678 -9.270705 -38.094579 0.000000 58.000000 14.733029 24.000000
-15.124896 -9.668990 -38.583829 0.000000 39.000000 14.699351 24.000000
-17.530636 -3.983945 -40.771311 0.000000 41.000000 14.220376 0.000000
-17.524164 -4.199500 -40.710594 0.000000 34.000000 14.186973 0.000000
-17.150876 -5.355445 -40.300168 0.000000 39.000000 14.216369 0.000000
-17.020443 -5.597549 -40.202557 0.000000 46.000000 14.255617 0.000000
-16.961753 -5.812226 -40.115071 0.000000 48.000000 14.245714 0.000000
-13.702215 -9.974956 -37.432686 0.000000 59.000000 15.072741 20.000000
-16.191941 -7.440015 -39.542854 0.000000 47.000000 14.479812 30.000000
-16.138116 -5.121511 -39.848496 0.000000 42.000000 14.714873 7.000000
-16.669623 -6.666253 -39.735527 0.000000 46.000000 14.231801 0.000000
-16.002179 -8.092132 -38.981694 0.000000 47.000000 14.271716 0.000000
-16.338006 -9.615668 -39.859670 0.000000 77.000000 14.567149 18.000000
-16.772721 -8.831799 -39.942452 0.000000 43.000000 14.282883 0.000000
-16.734947 -9.006717 -39.817553 0.000000 38.000000 14.233112 0.000000
-13.894763 -8.695577 -36.186724 0.000000 36.000000 14.135312 0.000000
-13.808668 -8.548880 -36.249139 0.000000 59.000000 14.241474 0.000000
-13.853291 -8.372726 -36.317294 0.000000 50.000000 14.250039 0.000000
-13.931459 -8.186000 -36.391447 0.000000 39.000000 14.236423 0.000000
-14.002590 -7.829912 -36.543962 0.000000 53.000000 14.277836 0.000000
-16.167650 -9.819312 -39.518131 0.000000 44.000000 14.482980 19.000000
-13.763914 -9.781669 -37.090124 0.000000 67.000000 14.808223 20.000000
-14.333581 -7.232636 -36.805546 0.000000 41.000000 14.187022 0.000000
-15.904667 -5.154370 -39.478406 0.000000 37.000000 14.661499 7.000000
-14.422774 -6.874197 -36.986009 0.000000 43.000000 14.232130 0.000000
-14.512677 -6.679349 -37.084252 0.000000 50.000000 14.224668 0.000000
-13.574245 -6.689737 -35.995743 0.000000 51.000000 14.262686 0.000000
-13.676237 -6.496247 -36.091899 0.000000 42.000000 14.244542 0.000000
-15.850934 -9.910650 -39.664990 0.000000 53.000000 14.821161 19.000000
-14.245554 -9.981853 -37.475590 0.000000 44.000000 14.679127 20.000000
-17.330097 -6.954746 -40.882305 0.000000 45.000000 14.445899 0.000000
-14.599264 -9.551760 -38.122929 0.000000 63.000000 14.814787 24.000000
-15.826449 -4.048178 -38.676529 0.000000 54.000000 14.214723 0.000000
-16.367742 -9.645561 -39.750973 0.000000 63.000000 14.475349 18.000000
-16.129478 -9.956307 -39.813150 0.000000 45.000000 14.699199 19.000000
-13.894515 -8.677658 -36.902071 0.000000 53.000000 14.588105 10.000000
-14.957560 -4.002852 -37.629742 0.000000 52.000000 14.225284 0.000000
-15.341727 -8.928451 -37.884912 0.000000 33.000000 14.089233 0.000000
-15.355199 -8.782259 -38.009938 0.000000 44.000000 14.157905 0.000000
-14.538233 -8.749863 -36.939375 0.000000 40.000000 14.113214 0.000000
-14.973349 -7.978925 -37.620079 0.000000 49.000000 14.206944 0.000000
-16.295608 -7.558110 -39.079166 0.000000 40.000000 14.106156 0.000000
-15.029984 -7.832986 -37.762844 0.000000 50.000000 14.253413 0.000000
-16.480402 -7.368483 -39.254062 0.000000 35.000000 14.073709 0.000000
-15.402776 -7.343914 -38.228954 0.000000 37.000000 14.259632 0.000000
-15.467836 -8.762880 -38.898747 0.000000 59.000000 14.633029 12.000000
-14.241144 -9.017601 -37.220621 0.000000 41.000000 14.521223 27.000000
-15.711263 -7.006359 -38.561248 0.000000 53.000000 14.230984 0.000000
-13.481184 -5.296214 -36.495396 0.000000 42.000000 14.650883 3.000000
-14.766989 -9.800797 -37.869457 0.000000 58.000000 14.524529 24.000000
-16.938212 -9.918160 -40.748708 0.000000 70.000000 14.664847 17.000000
-15.212061 -8.602729 -38.960508 0.000000 59.000000 14.870176 12.000000
-15.595182 -5.612065 -38.846913 0.000000 62.000000 14.501617 8.000000
-16.185557 -6.497664 -39.093157 0.000000 45.000000 14.200232 0.000000
-17.644176 -5.938215 -40.753357 0.000000 31.000000 14.121092 0.000000
-16.819252 -5.826775 -39.853573 0.000000 52.000000 14.190616 0.000000
-13.832943 -8.364414 -37.042133 0.000000 54.000000 14.724403 10.000000
-17.039907 -5.529740 -40.239563 0.000000 48.000000 14.263958 0.000000
-17.278045 -5.340508 -40.462150 0.000000 47.000000 14.220376 0.000000
-14.610341 -3.963354 -37.232958 0.000000 55.000000 14.243124 0.000000
-14.532589 -9.345912 -38.360233 0.000000 52.000000 15.016562 24.000000
-14.658467 -4.343632 -37.281651 0.000000 43.000000 14.236663 0.000000
-15.857314 -8.386939 -39.198263 0.000000 62.000000 14.520923 30.000000
-16.062819 -9.398942 -39.528800 0.000000 40.000000 14.570911 19.000000
-13.614209 -5.688368 -36.001160 0.000000 37.000000 14.235165 0.000000
-13.603249 -6.435461 -36.019441 0.000000 39.000000 14.255219 0.000000
-13.608207 -6.616479 -36.018591 0.000000 46.000000 14.250842 0.000000
-16.450431 -7.999681 -40.324222 0.000000 45.000000 14.774010 14.000000
-14.699797 -6.690124 -37.321789 0.000000 60.000000 14.230053 0.000000
-13.815858 -9.333522 -37.405545 0.000000 49.000000 14.967564 27.000000
-17.205542 -9.535814 -40.831968 0.000000 27.000000 14.510506 29.000000
-14.770858 -7.239601 -37.280729 0.000000 35.000000 14.149045 0.000000
-14.607074 -8.768840 -37.040290 0.000000 40.000000 14.123753 0.000000
-14.375153 -5.555302 -37.511809 0.000000 47.000000 14.601682 22.000000
-16.616233 -9.644326 -40.421152 0.000000 49.000000 14.706941 18.000000
-16.716857 -8.964218 -39.855732 0.000000 43.000000 14.271276 0.000000
-14.103949 -9.557813 -37.312185 0.000000 60.000000 14.685399 27.000000
-13.905639 -7.717757 -37.185712 0.000000 38.000000 14.758950 5.000000
-16.151572 -4.188983 -39.111952 0.000000 39.000000 14.238441 0.000000
-16.022835 -4.446574 -39.061122 0.000000 39.000000 14.305974 0.000000
-15.821431 -9.830410 -39.369099 0.000000 52.000000 14.656798 19.000000
-14.614674 -7.819148 -38.256035 0.000000 47.000000 14.887070 11.000000
-17.547341 -4.302339 -40.743391 0.000000 32.000000 14.189775 0.000000
-15.919432 -5.687596 -38.786665 0.000000 27.000000 14.212400 0.000000
-15.003429 -7.112563 -37.698693 0.000000 29.000000 14.233389 0.000000
-15.759056 -5.935238 -38.714246 0.000000 31.000000 14.290775 0.000000
-15.221009 -7.874154 -38.821766 0.000000 39.000000 14.775465 11.000000
-15.691258 -6.150549 -38.652951 0.000000 48.000000 14.304496 0.000000
-17.038753 -5.750797 -40.301841 0.000000 48.000000 14.304255 0.000000
-15.670589 -6.346571 -38.593805 0.000000 55.000000 14.283081 0.000000
-16.458400 -9.592668 -40.403797 0.000000 40.000000 14.818186 18.000000
-14.409648 -8.850378 -37.275014 0.000000 35.000000 14.425149 10.000000
-14.783638 -8.797593 -38.080608 0.000000 62.000000 14.645232 12.000000
-15.586567 -6.747473 -38.464559 0.000000 45.000000 14.266373 0.000000
-15.349115 -7.713124 -38.648338 0.000000 48.000000 14.566532 11.000000
-13.923137 -8.483943 -37.600857 0.000000 65.000000 15.008062 10.000000
-15.139487 -9.762075 -38.718374 0.000000 69.000000 14.773179 24.000000
-15.340645 -7.367546 -38.240516 0.000000 27.000000 14.315062 0.000000
-14.996681 -8.674097 -37.681033 0.000000 38.000000 14.227441 0.000000
-17.568546 -8.042693 -40.782997 0.000000 40.000000 14.198413 0.000000
-16.931401 -8.822363 -40.155431 0.000000 38.000000 14.294754 0.000000
-13.631493 -6.838561 -36.109589 0.000000 56.000000 14.290384 0.000000
-13.691579 -6.644025 -36.176792 0.000000 42.000000 14.286373 0.000000
-13.771513 -6.445621 -36.247945 0.000000 45.000000 14.269491 0.000000
-16.107780 -7.397184 -39.407979 0.000000 43.000000 14.459650 28.000000
-13.976442 -6.026852 -36.400467 0.000000 23.000000 14.207295 0.000000
-14.506552 -4.614340 -37.021332 0.000000 26.000000 14.189602 0.000000
-14.542123 -4.426738 -37.119544 0.000000 41.000000 14.224195 0.000000
-16.633335 -8.090999 -40.015427 0.000000 43.000000 14.436995 0.000000
-13.603794 -5.138508 -36.397812 0.000000 53.000000 14.494193 3.000000
-16.216605 -9.367767 -39.916031 0.000000 68.000000 14.696821 18.000000
-13.731976 -4.112734 -36.206184 0.000000 38.000000 14.273686 0.000000
-14.288144 -9.591773 -37.343754 0.000000 56.000000 14.562733 27.000000
-16.562541 -8.338018 -40.188842 0.000000 34.000000 14.601537 16.000000
-16.428345 -9.769178 -39.873649 0.000000 51.000000 14.506035 18.000000
-13.803148 -8.630284 -36.199521 0.000000 38.000000 14.214355 0.000000
-14.738507 -8.781916 -38.346016 0.000000 50.000000 14.848105 12.000000
-14.647503 -8.459211 -37.943751 0.000000 72.000000 14.664065 12.000000
-15.014742 -7.979393 -37.695602 0.000000 47.000000 14.222673 0.000000
-13.311929 -9.935934 -36.904204 0.000000 59.000000 15.040606 20.000000
-14.976580 -7.834494 -37.801279 0.000000 54.000000 14.319087 0.000000
-14.931699 -8.686258 -38.557778 0.000000 57.000000 14.832480 12.000000
-16.580881 -9.682702 -40.090737 0.000000 48.000000 14.525263 18.000000
-15.483888 -7.386565 -38.081768 0.000000 38.000000 14.103695 0.000000
-15.449749 -7.240712 -38.197438 0.000000 47.000000 14.203316 0.000000
-14.493835 -7.416336 -36.974423 0.000000 42.000000 14.169770 0.000000
-14.063907 -9.802200 -37.458579 0.000000 52.000000 14.809031 20.000000
-16.876884 -9.927685 -40.885000 0.000000 48.000000 14.798571 17.000000
-15.611969 -6.885829 -38.462451 0.000000 48.000000 14.245368 0.000000
-14.576755 -7.102678 -37.215108 0.000000 53.000000 14.257839 0.000000
-15.749881 -6.690491 -38.607931 0.000000 47.000000 14.230615 0.000000
-14.752533 -6.905306 -37.350325 0.000000 37.000000 14.207269 0.000000
-16.396184 -9.531118 -40.340347 0.000000 43.000000 14.826221 18.000000
-16.359159 -5.172066 -40.062227 0.000000 51.000000 14.678926 7.000000
-16.123632 -4.974529 -39.885177 0.000000 40.000000 14.749298 7.000000
-14.929417 -6.563766 -37.615934 0.000000 47.000000 14.238342 0.000000
-13.782874 -5.468036 -36.553267 0.000000 32.000000 14.453871 0.000000
-14.975965 -6.406552 -37.751239 0.000000 54.000000 14.287903 0.000000
-13.960828 -9.014382 -36.754554 0.000000 31.000000 14.443418 0.000000
-13.278658 -9.398700 -36.509039 0.000000 68.000000 14.816350 21.000000
-16.511813 -4.319458 -40.133147 0.000000 48.000000 14.605583 7.000000
-16.063736 -3.920274 -39.624517 0.000000 37.000000 14.630761 1.000000
-13.556481 -10.028082 -37.384619 0.000000 70.000000 15.155185 20.000000
-15.398114 -5.848441 -38.198981 0.000000 49.000000 14.244279 0.000000
-13.089360 -9.947273 -36.523570 0.000000 54.000000 14.972136 20.000000
-16.776753 -5.112813 -41.026149 0.000000 39.000000 14.965417 6.000000
-16.526089 -4.376241 -39.555621 0.000000 48.000000 14.229126 0.000000
-15.355305 -9.545219 -38.808430 0.000000 64.000000 14.663029 24.000000
-13.687278 -5.639256 -36.121897 0.000000 42.000000 14.254972 0.000000
-13.708827 -5.814219 -36.153655 0.000000 35.000000 14.258377 0.000000
-15.235295 -9.416431 -38.676470 0.000000 55.000000 14.672473 24.000000
-13.793452 -6.525690 -36.260407 0.000000 42.000000 14.260386 0.000000
-15.879391 -5.027254 -39.683404 0.000000 38.000000 14.810775 7.000000
-13.870996 -8.143338 -36.353089 0.000000 46.000000 14.258976 0.000000
-15.923740 -6.620302 -39.638028 0.000000 48.000000 14.747722 9.000000
-13.865203 -8.506955 -36.347650 0.000000 56.000000 14.260021 0.000000
-13.967688 -8.662262 -36.345181 0.000000 37.000000 14.179095 0.000000
-14.083955 -8.812912 -36.342704 0.000000 34.000000 14.087491 0.000000
-16.217697 -7.404591 -39.685976 0.000000 48.000000 14.550419 13.000000
-16.453405 -8.875478 -39.388813 0.000000 41.000000 14.179873 0.000000
-14.656975 -9.391685 -38.656625 0.000000 58.000000 15.107766 24.000000
-17.435527 -7.254611 -40.584996 0.000000 39.000000 14.176147 0.000000
-14.123096 -7.850416 -36.959020 0.000000 39.000000 14.447124 5.000000
-14.928826 -3.948275 -37.606111 0.000000 45.000000 14.232584 0.000000
-15.589514 -5.402298 -38.924060 0.000000 55.000000 14.554817 8.000000
-14.902342 -4.364894 -37.596330 0.000000 39.000000 14.246905 0.000000
-15.035304 -4.508052 -37.602701 0.000000 25.000000 14.147971 0.000000
-15.704542 -8.207073 -39.204655 0.000000 54.000000 14.643273 30.000000
-16.155333 -4.290619 -39.120407 0.000000 37.000000 14.240878 0.000000
-14.949413 -4.941986 -37.573030 0.000000 37.000000 14.195712 0.000000
-16.179698 -4.491413 -39.105347 0.000000 39.000000 14.212481 0.000000
-14.870779 -5.167487 -37.552293 0.000000 37.000000 14.243485 0.000000
-15.920239 -5.619203 -38.941485 0.000000 36.000000 14.309730 0.000000
-16.079323 -5.767676 -38.928479 0.000000 38.000000 14.178307 0.000000
-15.403714 -8.131586 -38.647324 0.000000 48.000000 14.523609 11.000000
-14.015682 -8.684346 -36.910128 0.000000 44.000000 14.499371 10.000000
-14.094399 -8.717629 -37.291032 0.000000 59.000000 14.679411 10.000000
-14.880264 -8.788142 -38.329638 0.000000 67.000000 14.727967 12.000000
-14.262154 -7.872571 -37.394988 0.000000 44.000000 14.615275 5.000000
-16.105532 -8.671690 -40.033914 0.000000 55.000000 14.857420 16.000000
-14.689085 -6.940344 -37.296200 0.000000 37.000000 14.222158 0.000000
-14.126205 -7.692719 -37.002228 0.000000 30.000000 14.472054 5.000000
-14.577870 -7.158705 -37.248926 0.000000 39.000000 14.278372 0.000000
-13.482134 -9.676380 -36.532367 0.000000 28.000000 14.673539 21.000000
-15.013055 -5.253287 -38.239430 0.000000 37.000000 14.568059 4.000000
-14.101035 -9.258350 -37.640276 0.000000 63.000000 14.895239 27.000000
-14.263954 -9.442106 -37.742280 0.000000 59.000000 14.833613 27.000000
-16.457029 -4.437294 -40.052461 0.000000 37.000000 14.596957 7.000000
-14.605189 -9.131204 -37.829127 0.000000 38.000000 14.624310 24.000000
-17.387615 -5.652552 -40.641073 0.000000 37.000000 14.248730 0.000000
-13.817847 -9.270620 -37.455974 0.000000 36.000000 14.997931 27.000000
-15.797822 -4.004946 -39.257150 0.000000 56.000000 14.604251 1.000000
-15.991345 -3.903551 -39.722444 0.000000 54.000000 14.748779 1.000000
-17.571994 -8.275555 -40.775958 0.000000 39.000000 14.191289 0.000000
-13.658202 -3.942926 -36.109082 0.000000 53.000000 14.269380 0.000000
-14.180658 -8.852442 -36.479195 0.000000 33.000000 14.098962 0.000000
-14.103507 -8.705438 -36.546578 0.000000 37.000000 14.201341 0.000000
-14.301201 -7.992652 -36.862557 0.000000 48.000000 14.248168 0.000000
-13.729288 -8.569952 -36.616471 0.000000 64.000000 14.535356 10.000000
-13.712263 -8.082520 -36.423385 0.000000 45.000000 14.426375 0.000000
-13.647137 -7.246209 -36.152954 0.000000 46.000000 14.305706 0.000000
-14.821173 -6.856090 -37.432204 0.000000 38.000000 14.205919 0.000000
-16.350930 -9.579172 -39.996272 0.000000 79.000000 14.643569 18.000000
-16.334001 -4.923750 -40.170829 0.000000 47.000000 14.767121 7.000000
-14.950425 -6.488048 -37.641231 0.000000 52.000000 14.238079 0.000000
-14.430121 -9.428975 -38.112943 0.000000 49.000000 14.939453 24.000000
-15.018110 -6.304502 -37.750210 0.000000 49.000000 14.254615 0.000000
-14.040152 -6.500455 -36.547007 0.000000 52.000000 14.250675 0.000000
-15.066936 -6.123887 -37.862291 0.000000 35.000000 14.287718 0.000000
-14.093346 -6.329447 -36.650805 0.000000 45.000000 14.275155 0.000000
-15.339312 -5.703371 -38.112312 0.000000 38.000000 14.234979 0.000000
-17.070844 -4.179003 -40.585853 0.000000 50.000000 14.459098 2.000000
-17.269007 -4.857030 -41.102589 0.000000 47.000000 14.632581 6.000000
-15.499429 -8.967580 -38.567940 0.000000 49.000000 14.399261 0.000000
-14.648429 -8.535337 -38.202186 0.000000 36.000000 14.826860 12.000000
-16.088720 -4.299201 -39.081641 0.000000 43.000000 14.267936 0.000000
-15.124974 -4.585874 -37.769026 0.000000 35.000000 14.183764 0.000000
-13.627245 -9.704261 -36.930115 0.000000 61.000000 14.812821 27.000000
-14.135457 -9.715241 -37.480563 0.000000 37.000000 14.767532 20.000000
-14.134618 -9.293032 -37.779469 0.000000 65.000000 14.957300 27.000000
-16.461604 -7.089835 -39.829377 0.000000 39.000000 14.452269 13.000000
-14.875714 -8.678520 -37.478291 0.000000 42.000000 14.192842 0.000000
-16.813085 -7.336330 -39.880336 0.000000 43.000000 14.212325 0.000000
-17.033281 -7.016453 -40.236445 0.000000 44.000000 14.267116 0.000000
-17.093903 -5.220795 -41.127713 0.000000 48.000000 14.784077 6.000000
-17.295708 -5.395737 -40.812201 0.000000 49.000000 14.428175 6.000000
-17.483325 -6.630914 -40.652997 0.000000 34.000000 14.182156 0.000000
-17.435817 -6.521033 -40.813303 0.000000 65.000000 14.320372 0.000000
-16.634173 -6.621691 -39.610149 0.000000 41.000000 14.179926 0.000000
-15.305152 -7.597340 -38.546056 0.000000 35.000000 14.535863 11.000000
-16.817483 -4.333636 -40.227160 0.000000 41.000000 14.428355 2.000000
-17.219361 -6.107988 -40.217707 0.000000 35.000000 14.111161 0.000000
-15.415452 -8.279815 -38.559133 0.000000 29.000000 14.458721 0.000000
-17.437507 -5.825181 -40.609901 0.000000 43.000000 14.190371 0.000000
-16.560693 -8.462674 -40.346940 0.000000 61.000000 14.702997 16.000000
-13.743574 -3.961476 -36.191831 0.000000 31.000000 14.255623 0.000000
-13.728583 -4.159238 -36.222999 0.000000 36.000000 14.286952 0.000000
-14.375746 -7.768767 -37.497863 0.000000 48.000000 14.592399 5.000000
-16.088712 -5.157260 -39.962825 0.000000 44.000000 14.825468 7.000000
-14.994408 -4.239446 -37.679931 0.000000 41.000000 14.228504 0.000000
-14.500866 -8.489582 -37.682445 0.000000 48.000000 14.612292 10.000000
-15.921861 -5.109502 -39.465777 0.000000 65.000000 14.640194 7.000000
-16.374553 -5.223570 -40.414264 0.000000 31.000000 14.889739 7.000000
-16.058751 -9.400948 -39.476283 0.000000 54.000000 14.540834 19.000000
-13.949525 -8.161584 -37.211790 0.000000 46.000000 14.741464 10.000000
-17.157738 -9.320942 -41.058540 0.000000 36.000000 14.690877 29.000000
-14.656005 -9.817373 -38.561670 0.000000 55.000000 15.048439 23.000000
-15.773065 -9.617785 -39.012983 0.000000 78.000000 14.468938 0.000000
-15.757264 -7.950126 -39.476225 0.000000 65.000000 14.774267 30.000000
-14.804565 -8.773732 -38.341738 0.000000 55.000000 14.794244 12.000000
-16.746324 -4.073106 -40.610732 0.000000 42.000000 14.726146 2.000000
-16.987142 -4.490538 -40.457903 0.000000 48.000000 14.442963 0.000000
-14.730935 -9.433770 -38.558770 0.000000 48.000000 14.988579 24.000000
-15.012233 -6.789650 -37.680441 0.000000 46.000000 14.215023 0.000000
-16.155084 -8.451723 -40.158027 0.000000 34.000000 14.897574 16.000000
-14.722966 -9.339726 -38.202765 0.000000 66.000000 14.769505 24.000000
-15.261434 -8.149939 -38.708270 0.000000 37.000000 14.672351 11.000000
-16.740239 -6.488993 -40.096495 0.000000 31.000000 14.405501 0.000000
-13.766051 -8.190261 -36.237007 0.000000 45.000000 14.266800 0.000000
-14.974166 -7.334734 -37.576915 0.000000 32.000000 14.179001 0.000000
-14.469455 -8.701122 -37.532322 0.000000 51.000000 14.541634 10.000000
-13.872303 -8.685284 -36.154438 0.000000 32.000000 14.132277 0.000000
-13.896360 -8.850690 -36.123020 0.000000 20.000000 14.093770 0.000000
-16.388401 -9.720011 -39.983602 0.000000 55.000000 14.606535 18.000000
-14.816121 -8.293684 -38.242096 0.000000 41.000000 14.722251 12.000000
-16.564985 -4.015866 -39.606634 0.000000 46.000000 14.231281 0.000000
-16.510342 -4.242455 -39.565443 0.000000 40.000000 14.247535 0.000000
-16.545260 -5.193045 -40.180942 0.000000 46.000000 14.609921 7.000000
-16.668204 -9.524986 -40.253185 0.000000 54.000000 14.560422 18.000000
-13.856027 -5.601353 -37.013333 0.000000 65.000000 14.688305 26.000000
-16.217103 -5.756833 -39.206848 0.000000 45.000000 14.247735 0.000000
-15.234160 -8.751454 -38.962166 0.000000 58.000000 14.854112 12.000000
-17.588470 -5.538424 -40.846825 0.000000 31.000000 14.223368 0.000000
-16.272132 -6.126292 -39.102747 0.000000 22.000000 14.139256 0.000000
-13.588490 -5.770551 -36.709956 0.000000 59.000000 14.703538 22.000000
-16.073044 -6.379908 -39.015440 0.000000 45.000000 14.238190 0.000000
-17.522780 -5.973943 -40.696357 0.000000 31.000000 14.179037 0.000000
-16.544021 -9.639574 -40.316770 0.000000 61.000000 14.696819 18.000000
-15.445270 -8.849140 -38.776664 0.000000 65.000000 14.573262 12.000000
-13.709722 -8.425008 -36.594375 0.000000 63.000000 14.536528 10.000000
-17.224775 -6.466143 -40.493994 0.000000 37.000000 14.281775 0.000000
-15.883474 -6.998268 -38.798644 0.000000 45.000000 14.247825 0.000000
-15.874782 -7.183090 -38.728989 0.000000 43.000000 14.210485 0.000000
-16.545809 -4.743145 -40.397652 0.000000 47.000000 14.746609 7.000000
-15.627831 -6.982075 -38.786539 0.000000 52.000000 14.438135 0.000000
-15.380883 -8.871941 -37.970974 0.000000 33.000000 14.113362 0.000000
-16.415641 -8.901495 -39.310215 0.000000 43.000000 14.159388 0.000000
-17.584852 -8.741481 -40.739690 0.000000 45.000000 14.158385 0.000000
-17.559027 -8.899285 -40.604944 0.000000 31.000000 14.093130 0.000000
-16.252363 -9.477321 -40.065547 0.000000 43.000000 14.763729 18.000000
-13.764373 -5.562114 -36.695001 0.000000 38.000000 14.557873 22.000000
-14.000720 -6.757927 -36.474654 0.000000 42.000000 14.235433 0.000000
-14.051957 -6.571587 -36.550722 0.000000 50.000000 14.243883 0.000000
-14.908571 -4.730032 -37.392314 0.000000 25.000000 14.113000 0.000000
-14.528190 -9.897050 -38.423866 0.000000 55.000000 15.060230 23.000000
-14.937578 -4.377942 -37.602945 0.000000 41.000000 14.223804 0.000000
-15.030608 -4.173861 -37.717924 0.000000 45.000000 14.224509 0.000000
-16.431943 -9.186569 -40.035607 0.000000 64.000000 14.605720 18.000000
-14.198728 -9.560438 -37.640165 0.000000 41.000000 14.819516 27.000000
-13.305240 -9.689340 -36.549542 0.000000 67.000000 14.821392 20.000000
-16.252388 -8.521483 -39.595815 0.000000 48.000000 14.466510 15.000000
-14.831237 -9.872295 -38.266184 0.000000 65.000000 14.725786 23.000000
-17.393654 -5.345942 -41.013438 0.000000 49.000000 14.479649 6.000000
-14.094523 -10.044240 -37.709333 0.000000 81.000000 14.943974 20.000000
-14.898938 -7.792209 -37.850207 0.000000 47.000000 14.410169 11.000000
-13.699774 -9.998244 -37.044366 0.000000 66.000000 14.828941 20.000000
-15.825200 -7.897580 -39.595090 0.000000 69.000000 14.796864 30.000000
-16.587047 -7.760118 -40.533538 0.000000 56.000000 14.800649 14.000000
-16.170624 -6.732546 -39.083875 0.000000 44.000000 14.205923 0.000000
-13.694822 -8.347525 -36.138038 0.000000 34.000000 14.259342 0.000000
-16.131738 -6.596470 -39.216950 0.000000 60.000000 14.320233 0.000000
-15.206297 -6.805499 -37.947895 0.000000 52.000000 14.233959 0.000000
-15.314323 -6.636656 -38.090778 0.000000 53.000000 14.240706 0.000000
-15.418518 -6.471049 -38.236635 0.000000 56.000000 14.252302 0.000000
-14.755594 -10.010182 -38.139644 0.000000 51.000000 14.704301 23.000000
-15.614680 -6.274039 -38.397010 0.000000 44.000000 14.201864 0.000000
-15.396105 -5.282245 -38.774721 0.000000 58.000000 14.610106 8.000000
-14.716125 -8.733427 -38.206655 0.000000 57.000000 14.777264 12.000000
-15.729330 -5.972903 -38.697263 0.000000 39.000000 14.303050 0.000000
-17.102086 -5.424993 -40.261899 0.000000 40.000000 14.229939 0.000000
-15.995887 -5.752536 -38.878286 0.000000 39.000000 14.211162 0.000000
-17.147891 -5.268364 -40.430338 0.000000 51.000000 14.301039 0.000000
-15.931995 -4.760792 -39.950888 0.000000 7.000000 14.939276 7.000000
-14.811451 -9.848034 -37.925823 0.000000 62.000000 14.525761 24.000000
-13.589177 -4.195602 -36.044563 0.000000 46.000000 14.282011 0.000000
-13.859182 -5.370333 -36.360249 0.000000 39.000000 14.272655 0.000000
-15.986834 -7.533468 -39.192111 0.000000 36.000000 14.416730 0.000000
-13.975538 -5.699820 -36.428324 0.000000 43.000000 14.225621 0.000000
-15.829250 -7.703451 -39.358712 0.000000 59.000000 14.644171 30.000000
-14.030980 -8.584218 -37.374434 0.000000 59.000000 14.781291 10.000000
-16.659847 -8.383463 -40.401391 0.000000 58.000000 14.660664 16.000000
-14.019222 -6.975355 -36.574536 0.000000 44.000000 14.284300 0.000000
-14.045479 -7.149825 -36.586762 0.000000 41.000000 14.271702 0.000000
-14.032247 -7.338796 -36.595174 0.000000 38.000000 14.287271 0.000000
-15.498031 -8.777966 -39.126768 0.000000 62.000000 14.753915 12.000000
-14.066831 -7.694102 -36.605716 0.000000 42.000000 14.267160 0.000000
-14.783590 -9.921221 -38.343580 0.000000 59.000000 14.811652 23.000000
-14.098268 -8.048326 -36.608321 0.000000 39.000000 14.244463 0.000000
-14.267351 -9.489109 -37.800489 0.000000 54.000000 14.867811 27.000000
-16.204655 -9.567655 -39.153995 0.000000 53.000000 14.223935 0.000000
-15.218918 -9.446058 -38.865099 0.000000 48.000000 14.804501 24.000000
-17.338928 -8.554245 -40.490253 0.000000 50.000000 14.191009 0.000000
-13.944575 -9.434261 -37.207702 0.000000 56.000000 14.742711 27.000000
-13.827952 -9.604441 -36.970336 0.000000 74.000000 14.682842 27.000000
-15.016939 -5.463381 -38.160943 0.000000 43.000000 14.515393 4.000000
-15.219000 -4.017968 -37.972761 0.000000 44.000000 14.239854 0.000000
-15.234697 -4.211568 -37.971669 0.000000 35.000000 14.227008 0.000000
-15.282922 -4.392873 -37.970415 0.000000 27.000000 14.188869 0.000000
-16.185297 -4.999150 -39.770624 0.000000 56.000000 14.629067 7.000000
-16.203420 -7.164173 -39.602573 0.000000 60.000000 14.508706 13.000000
-15.285482 -4.790781 -37.951364 0.000000 31.000000 14.174833 0.000000
-15.736916 -7.154354 -39.023681 0.000000 41.000000 14.503700 28.000000
-15.044314 -5.471196 -37.878655 0.000000 44.000000 14.315590 0.000000
-16.866799 -6.641662 -40.239144 0.000000 44.000000 14.397747 0.000000
-15.262329 -8.193506 -38.486706 0.000000 42.000000 14.531474 11.000000
-15.063197 -6.232718 -37.774194 0.000000 42.000000 14.234874 0.000000
-16.378737 -5.836693 -39.285066 0.000000 41.000000 14.172055 0.000000
-13.352224 -9.621373 -36.703536 0.000000 66.000000 14.882439 21.000000
-16.463344 -6.009937 -39.259486 0.000000 22.000000 14.090351 0.000000
-15.034540 -6.616611 -37.707924 0.000000 38.000000 14.215137 0.000000
-14.920008 -10.035061 -38.661988 0.000000 64.000000 14.907467 23.000000
-13.759509 -9.279389 -37.403382 0.000000 66.000000 15.009832 27.000000
-15.592873 -9.906736 -38.763472 0.000000 40.000000 14.450612 23.000000
-16.191898 -6.691049 -39.090157 0.000000 45.000000 14.193423 0.000000
-16.737216 -8.118071 -40.112054 0.000000 45.000000 14.417686 14.000000
-16.087898 -6.915797 -39.027959 0.000000 46.000000 14.234608 0.000000
-16.069086 -7.115396 -38.974182 0.000000 43.000000 14.215151 0.000000
-16.348944 -9.612452 -39.642078 0.000000 49.000000 14.421008 19.000000
-15.187955 -9.842798 -37.951825 0.000000 41.000000 14.250650 0.000000
-14.395665 -10.019647 -37.911557 0.000000 42.000000 14.838718 20.000000
-13.322730 -5.220929 -36.482868 0.000000 40.000000 14.765663 3.000000
-17.234081 -6.788362 -40.554892 0.000000 30.000000 14.313099 0.000000
-14.957779 -9.936283 -38.517612 0.000000 60.000000 14.786871 23.000000
-15.347587 -8.126892 -38.581749 0.000000 52.000000 14.525584 11.000000
-17.154907 -7.352564 -40.264565 0.000000 40.000000 14.190721 0.000000
-16.403672 -8.883960 -39.325536 0.000000 39.000000 14.178350 0.000000
-16.443069 -7.728517 -40.472545 0.000000 64.000000 14.873555 14.000000
-13.955210 -8.658946 -36.747542 0.000000 35.000000 14.443332 10.000000
-15.703383 -7.197206 -39.335871 0.000000 68.000000 14.727191 28.000000
-16.036568 -8.656155 -39.711496 0.000000 64.000000 14.706832 15.000000
-13.298463 -9.096350 -36.815670 0.000000 56.000000 14.995019 21.000000
-15.629212 -9.270081 -39.119987 0.000000 63.000000 14.648038 24.000000
-14.995455 -7.209189 -37.557117 0.000000 37.000000 14.149989 0.000000
-15.472100 -5.513184 -38.722966 0.000000 51.000000 14.518510 8.000000
-15.289788 -8.510414 -39.078408 0.000000 43.000000 14.884580 12.000000
-14.071212 -7.048779 -36.588442 0.000000 42.000000 14.252838 0.000000
-15.158552 -6.678282 -37.883841 0.000000 51.000000 14.230405 0.000000
-14.193222 -6.862869 -36.693014 0.000000 41.000000 14.224517 0.000000
-13.799528 -5.795436 -36.541655 0.000000 56.000000 14.433627 22.000000
-14.323192 -8.617846 -37.558396 0.000000 65.000000 14.671396 10.000000
-15.204630 -8.489175 -38.706514 0.000000 40.000000 14.715229 12.000000
-15.528100 -6.080878 -38.254534 0.000000 29.000000 14.178767 0.000000
-16.435993 -5.283677 -39.801337 0.000000 49.000000 14.454361 7.000000
-14.740087 -8.784245 -38.244367 0.000000 42.000000 14.782568 12.000000
-13.833153 -7.974032 -36.317531 0.000000 36.000000 14.265784 0.000000
-13.785578 -9.584712 -36.844551 0.000000 52.000000 14.636072 27.000000
-14.711078 -9.517647 -38.419479 0.000000 42.000000 14.915826 24.000000
-15.829167 -4.095178 -38.673845 0.000000 47.000000 14.210920 0.000000
-15.892943 -3.934729 -38.827854 0.000000 43.000000 14.258973 0.000000
-13.592271 -10.032347 -37.411535 0.000000 69.000000 15.144499 20.000000
-17.249380 -7.342771 -40.408664 0.000000 47.000000 14.208733 0.000000
-13.365835 -9.813098 -36.565590 0.000000 41.000000 14.784621 20.000000
-17.393247 -7.182509 -40.601049 0.000000 43.000000 14.219045 0.000000
-13.626306 -5.933553 -36.362532 0.000000 61.000000 14.454438 0.000000
-17.615712 -6.998932 -40.813514 0.000000 29.000000 14.181196 0.000000
-13.560859 -7.588200 -36.069030 0.000000 24.000000 14.319421 0.000000
-17.381737 -6.402728 -40.580023 0.000000 37.000000 14.214655 0.000000
-13.875558 -3.843309 -36.337348 0.000000 38.000000 14.245484 0.000000
-13.893699 -4.022725 -36.369412 0.000000 37.000000 14.251723 0.000000
-16.252569 -9.487082 -39.768675 0.000000 35.000000 14.575738 18.000000
-15.865813 -5.100923 -39.111675 0.000000 49.000000 14.459557 0.000000
-15.077410 -3.923333 -37.808202 0.000000 48.000000 14.245385 0.000000
-15.129452 -4.102392 -37.834588 0.000000 43.000000 14.221778 0.000000
-15.090450 -4.316384 -37.847897 0.000000 46.000000 14.260401 0.000000
-13.900075 -5.400867 -37.154914 0.000000 55.000000 14.743773 26.000000
-15.247518 -4.651262 -37.888236 0.000000 44.000000 14.164291 0.000000
-15.153173 -4.890946 -37.889974 0.000000 37.000000 14.238451 0.000000
-14.763659 -7.729248 -38.284348 0.000000 41.000000 14.789610 11.000000
-13.992052 -6.417671 -36.543272 0.000000 50.000000 14.285560 0.000000
-15.143967 -6.071604 -37.886944 0.000000 42.000000 14.243663 0.000000
-14.347395 -8.756107 -37.403879 0.000000 53.000000 14.554890 10.000000
-15.145826 -6.265532 -37.877933 0.000000 46.000000 14.236522 0.000000
-15.372176 -8.291781 -38.628082 0.000000 47.000000 14.535858 12.000000
-14.139701 -9.890308 -37.589678 0.000000 63.000000 14.833283 20.000000
-15.145201 -6.647335 -37.852167 0.000000 46.000000 14.220704 0.000000
-13.987693 -7.141820 -36.509818 0.000000 45.000000 14.267769 0.000000
-16.045127 -5.147572 -39.375327 0.000000 53.000000 14.487509 7.000000
-15.133444 -7.032228 -37.814532 0.000000 39.000000 14.205997 0.000000
-13.895975 -7.527650 -36.475757 0.000000 35.000000 14.317245 0.000000
-16.851124 -5.202893 -40.900303 0.000000 55.000000 14.828202 6.000000
-15.267282 -7.372981 -37.780147 0.000000 35.000000 14.080598 0.000000
-15.454688 -8.611390 -39.071112 0.000000 72.000000 14.752266 12.000000
-16.705806 -3.845236 -40.628930 0.000000 48.000000 14.769038 2.000000
-13.776085 -8.527191 -37.137499 0.000000 50.000000 14.828772 10.000000
-13.917692 -8.226436 -36.388415 0.000000 36.000000 14.245166 0.000000
-17.167016 -9.138474 -40.700693 0.000000 33.000000 14.457282 0.000000
-16.574323 -9.867163 -40.111937 0.000000 45.000000 14.543755 18.000000
-13.866608 -8.587136 -36.329177 0.000000 50.000000 14.247245 0.000000
-13.988340 -8.729248 -36.301117 0.000000 33.000000 14.135223 0.000000
-13.998804 -8.897202 -36.267593 0.000000 21.000000 14.105909 0.000000
-15.832372 -7.915372 -38.726255 0.000000 28.000000 14.241598 0.000000
-16.621083 -4.390389 -39.777403 0.000000 40.000000 14.295885 0.000000
-16.496295 -5.443850 -39.541594 0.000000 37.000000 14.243324 0.000000
-17.208481 -9.761189 -40.711012 0.000000 50.000000 14.431701 17.000000
-16.452696 -5.848985 -39.431942 0.000000 34.000000 14.207710 0.000000
-14.498644 -9.406427 -37.919788 0.000000 58.000000 14.764179 24.000000
-16.124219 -8.761688 -39.559077 0.000000 65.000000 14.542519 15.000000
-15.858198 -8.386879 -39.293840 0.000000 69.000000 14.580709 30.000000
-15.019063 -8.772505 -38.647859 0.000000 57.000000 14.821820 12.000000
-16.152056 -7.712920 -39.864467 0.000000 46.000000 14.714183 30.000000
-13.564618 -9.395347 -37.203191 0.000000 37.000000 15.034095 27.000000
-17.458625 -6.757230 -40.643852 0.000000 30.000000 14.195498 0.000000
-16.096190 -7.273441 -38.947101 0.000000 40.000000 14.177027 0.000000
-17.355738 -6.982528 -40.546060 0.000000 43.000000 14.213300 0.000000
-15.714736 -8.192595 -39.497961 0.000000 62.000000 14.820953 30.000000
-17.257565 -7.200630 -40.447347 0.000000 45.000000 14.226870 0.000000
-13.223714 -9.940857 -36.871812 0.000000 70.000000 15.088426 20.000000
-16.820935 -8.059901 -40.027757 0.000000 54.000000 14.299519 0.000000
-16.578153 -8.822481 -39.616747 0.000000 42.000000 14.227482 0.000000
-13.497642 -5.465897 -36.518312 0.000000 40.000000 14.652637 3.000000
-15.129518 -8.451449 -38.778361 0.000000 62.000000 14.818853 12.000000
-16.205969 -9.570520 -39.165715 0.000000 52.000000 14.230332 0.000000
-14.560653 -5.721075 -37.583124 0.000000 40.000000 14.503153 22.000000
-13.777116 -8.802793 -36.043320 0.000000 33.000000 14.135686 0.000000
-13.732574 -8.645658 -36.095500 0.000000 42.000000 14.203193 0.000000
-13.709053 -8.486864 -36.150308 0.000000 57.000000 14.256085 0.000000
-13.763887 -8.306403 -36.208067 0.000000 46.000000 14.250166 0.000000
-13.831634 -8.120621 -36.270708 0.000000 48.000000 14.237336 0.000000
-13.847331 -7.785277 -36.396497 0.000000 54.000000 14.304767 0.000000
-13.991579 -7.578089 -36.469142 0.000000 37.000000 14.239024 0.000000
-14.029774 -7.400577 -36.540181 0.000000 39.000000 14.254392 0.000000
-14.695836 -9.315473 -38.648170 0.000000 76.000000 15.072322 24.000000
-13.976918 -7.685447 -37.122233 0.000000 43.000000 14.663589 5.000000
-14.055018 -7.001221 -36.616485 0.000000 34.000000 14.283121 0.000000
-15.498107 -9.511308 -39.041239 0.000000 48.000000 14.699742 24.000000
-13.654260 -6.070345 -36.059536 0.000000 37.000000 14.241085 0.000000
-14.898223 -8.365953 -38.208268 0.000000 37.000000 14.637269 12.000000
-16.629588 -4.697806 -40.430693 0.000000 41.000000 14.702636 7.000000
-15.826643 -7.066892 -39.359976 0.000000 54.000000 14.646990 28.000000
-16.218547 -9.361680 -40.310832 0.000000 22.000000 14.945108 18.000000
-15.080697 -4.873477 -37.755276 0.000000 37.000000 14.209353 0.000000
-13.849456 -6.581329 -37.139222 0.000000 64.000000 14.773044 25.000000
-14.054427 -9.474088 -37.422409 0.000000 43.000000 14.793488 27.000000
-14.572013 -9.267435 -38.599446 0.000000 50.000000 15.137383 24.000000
-13.375603 -9.502061 -36.756438 0.000000 64.000000 14.897806 21.000000
-15.363889 -4.270164 -38.118900 0.000000 47.000000 14.220115 0.000000
-14.792394 -8.361286 -38.237039 0.000000 42.000000 14.737426 12.000000
-15.479166 -4.060550 -38.248240 0.000000 39.000000 14.212679 0.000000
-14.436392 -4.363635 -36.997922 0.000000 40.000000 14.229122 0.000000
-15.576648 -3.855651 -38.380818 0.000000 47.000000 14.221071 0.000000
-14.799708 -4.905710 -37.734140 0.000000 20.000000 14.413577 0.000000
-14.625907 -3.980481 -37.242480 0.000000 57.000000 14.237094 0.000000
-13.980780 -5.041353 -36.936471 0.000000 27.000000 14.543066 26.000000
-15.057991 -8.812046 -37.895465 0.000000 43.000000 14.315634 0.000000
-13.789377 -8.521314 -37.206859 0.000000 51.000000 14.862363 10.000000
-16.488165 -7.848096 -40.280368 0.000000 57.000000 14.717042 14.000000
-16.504162 -9.482247 -40.386463 0.000000 62.000000 14.771780 18.000000
-14.772550 -9.134817 -38.101348 0.000000 71.000000 14.666941 24.000000
-14.854956 -8.507659 -38.375851 0.000000 61.000000 14.776804 12.000000
-15.422782 -7.092585 -38.172067 0.000000 44.000000 14.208148 0.000000
-15.025174 -8.733763 -38.570178 0.000000 43.000000 14.767939 12.000000
-14.815816 -8.831059 -38.049595 0.000000 65.000000 14.600692 12.000000
-17.198330 -4.961397 -41.007021 0.000000 33.000000 14.626847 6.000000
-16.862389 -6.315619 -39.956116 0.000000 43.000000 14.222090 0.000000
-17.329165 -6.595198 -40.912618 0.000000 63.000000 14.465800 0.000000
-17.177597 -6.079210 -40.161832 0.000000 29.000000 14.108151 0.000000
-15.791537 -6.466011 -38.774358 0.000000 43.000000 14.303655 0.000000
-17.212786 -5.929462 -40.327200 0.000000 44.000000 14.185529 0.000000
-15.975036 -5.187681 -40.081306 0.000000 46.000000 14.988461 7.000000
-17.203416 -5.796121 -40.487085 0.000000 49.000000 14.293944 0.000000
-16.108334 -8.686896 -39.616651 0.000000 62.000000 14.591248 15.000000
-14.032229 -6.299281 -37.281459 0.000000 37.000000 14.721498 25.000000
-16.365229 -5.906276 -39.300413 0.000000 41.000000 14.192225 0.000000
-16.130714 -6.304699 -39.525426 0.000000 34.000000 14.516199 9.000000
-14.604234 -9.859424 -38.613101 0.000000 57.000000 15.121071 23.000000
-16.907513 -9.827899 -40.011395 0.000000 24.000000 14.222121 0.000000
-13.688409 -3.803133 -36.159864 0.000000 39.000000 14.278118 0.000000
-13.753171 -3.957720 -36.217216 0.000000 34.000000 14.264252 0.000000
-13.771505 -4.132804 -36.270015 0.000000 38.000000 14.283461 0.000000
-14.032136 -5.316930 -36.573812 0.000000 36.000000 14.273842 0.000000
-17.222410 -5.295001 -40.989613 0.000000 57.000000 14.597185 6.000000
-16.360981 -9.987612 -40.085743 0.000000 46.000000 14.692394 19.000000
-14.232085 -6.914710 -36.772478 0.000000 50.000000 14.244698 0.000000
-15.382579 -7.916202 -38.821678 0.000000 44.000000 14.650290 11.000000
-14.314728 -7.257859 -36.792201 0.000000 35.000000 14.193178 0.000000
-13.937617 -9.629231 -37.074768 0.000000 71.000000 14.663992 27.000000
-13.607245 -9.122108 -37.181762 0.000000 5.000000 14.987526 27.000000
-14.171891 -7.943719 -36.934931 0.000000 39.000000 14.394096 5.000000
-14.295503 -8.714455 -36.758441 0.000000 42.000000 14.186706 0.000000
-17.459412 -8.883907 -40.603403 0.000000 37.000000 14.169296 0.000000
-17.225057 -9.371546 -40.858038 0.000000 72.000000 14.511888 29.000000
-16.470726 -8.990658 -39.432290 0.000000 41.000000 14.193968 0.000000
-16.612831 -8.870111 -39.623507 0.000000 47.000000 14.204905 0.000000
-14.956155 -5.332194 -38.305342 0.000000 39.000000 14.653825 4.000000
-16.874622 -10.013717 -41.041250 0.000000 71.000000 14.899182 17.000000
-15.426837 -4.136822 -38.226690 0.000000 38.000000 14.239567 0.000000
-15.463252 -4.319706 -38.224765 0.000000 38.000000 14.210150 0.000000
-14.247099 -6.226779 -37.379742 0.000000 51.000000 14.617288 25.000000
-15.568876 -4.476280 -38.225978 0.000000 23.000000 14.129122 0.000000
-15.325991 -5.550664 -38.118682 0.000000 48.000000 14.249325 0.000000
-15.289535 -5.755330 -38.090813 0.000000 35.000000 14.259924 0.000000
-13.646744 -9.192366 -37.229347 0.000000 61.000000 14.987045 27.000000
