4.088045 -30.571796 12.193619 0.000000 43.000000 14.377915 0.000000
4.785545 -30.462345 10.569209 0.000000 46.000000 14.431763 0.000000
4.066553 -30.598688 11.943767 0.000000 57.000000 14.446859 0.000000
4.552895 -30.767452 12.659690 0.000000 51.000000 14.430477 0.000000
4.925497 -30.548190 11.586075 0.000000 60.000000 14.334756 0.000000
4.919758 -30.501607 10.658351 0.000000 43.000000 14.437310 0.000000
2.676152 -30.497051 9.994339 0.000000 58.000000 14.850500 9.000000
6.367773 -30.636425 10.478351 0.000000 46.000000 14.396160 0.000000
3.565751 -30.310708 9.955303 0.000000 75.000000 14.550758 22.000000
4.973282 -30.232619 9.724280 0.000000 39.000000 14.315233 0.000000
3.887578 -30.466424 11.212411 0.000000 49.000000 14.458595 0.000000
3.526750 -30.804848 9.182451 0.000000 63.000000 15.161888 24.000000
6.855904 -30.887153 7.623438 0.000000 15.000000 15.026564 25.000000
4.809060 -30.262518 9.880705 0.000000 49.000000 14.342477 0.000000
4.288415 -30.446924 10.873899 0.000000 41.000000 14.437497 0.000000
4.160690 -29.975552 8.685947 0.000000 39.000000 14.341891 0.000000
5.443528 -30.460103 9.919579 0.000000 47.000000 14.441144 0.000000
7.295811 -31.077701 12.069628 0.000000 37.000000 14.445706 0.000000
6.586693 -31.204686 14.125194 0.000000 45.000000 14.342162 0.000000
5.110091 -30.678283 8.587534 0.000000 68.000000 14.912288 30.000000
5.087310 -30.849686 13.369125 0.000000 35.000000 14.323855 0.000000
4.439753 -30.638052 9.106707 0.000000 48.000000 14.883822 28.000000
6.020819 -30.204684 7.767128 0.000000 34.000000 14.452876 0.000000
7.503839 -30.908353 11.505622 0.000000 40.000000 14.340770 0.000000
5.885785 -30.255220 8.843107 0.000000 43.000000 14.350239 0.000000
4.048201 -29.973362 8.743991 0.000000 38.000000 14.346189 0.000000
4.255498 -30.666982 9.695817 0.000000 52.000000 14.844212 22.000000
3.648413 -30.469379 11.609292 0.000000 40.000000 14.431756 0.000000
3.731680 -30.925847 9.788264 0.000000 68.000000 15.155460 22.000000
7.150336 -30.593432 8.028405 0.000000 36.000000 14.634196 4.000000
8.873754 -31.118173 10.994813 0.000000 41.000000 14.436320 0.000000
4.263150 -30.433616 10.833892 0.000000 49.000000 14.434357 0.000000
4.776333 -30.333808 10.128273 0.000000 20.000000 14.377410 0.000000
2.523441 -30.310065 11.055057 0.000000 25.000000 14.520577 11.000000
4.456970 -30.477064 8.977011 0.000000 77.000000 14.744658 28.000000
4.551237 -30.650530 8.215243 0.000000 62.000000 15.022037 30.000000
7.993709 -30.638726 8.913943 0.000000 45.000000 14.420514 0.000000
8.105030 -31.302513 12.952334 0.000000 39.000000 14.412698 0.000000
8.045095 -31.130324 9.591619 0.000000 57.000000 14.786290 2.000000
6.811013 -30.593107 8.409519 0.000000 25.000000 14.620592 4.000000
3.778213 -30.830504 9.314828 0.000000 74.000000 15.130955 24.000000
6.974650 -31.197187 13.217217 0.000000 45.000000 14.424997 0.000000
5.144996 -30.638728 8.783396 0.000000 71.000000 14.837671 28.000000
4.567516 -30.683784 9.172794 0.000000 73.000000 14.900252 28.000000
6.008490 -31.256958 14.859690 0.000000 37.000000 14.357108 0.000000
6.844995 -31.123492 12.855822 0.000000 36.000000 14.428382 0.000000
7.683075 -31.065581 11.717432 0.000000 40.000000 14.435883 0.000000
7.609815 -30.971753 11.615291 0.000000 38.000000 14.370582 0.000000
6.935514 -30.650257 9.219864 0.000000 60.000000 14.530475 26.000000
7.874887 -30.594150 9.223447 0.000000 41.000000 14.344339 0.000000
7.788985 -30.834830 10.156833 0.000000 47.000000 14.443361 0.000000
2.753713 -30.472075 12.254227 0.000000 52.000000 14.456506 0.000000
5.853805 -31.011884 13.086344 0.000000 44.000000 14.420626 0.000000
2.517575 -30.888378 11.224396 0.000000 72.000000 15.059786 11.000000
8.238496 -30.981966 10.393730 0.000000 44.000000 14.487016 0.000000
3.193718 -30.471068 11.155895 0.000000 55.000000 14.568665 12.000000
5.350442 -30.242210 9.437769 0.000000 50.000000 14.317610 0.000000
6.336654 -30.856780 11.711383 0.000000 46.000000 14.420118 0.000000
6.258401 -30.819525 11.559071 0.000000 44.000000 14.418775 0.000000
2.775116 -30.359128 11.880896 0.000000 22.000000 14.402398 0.000000
5.795983 -30.605812 8.094854 0.000000 52.000000 14.824220 29.000000
8.265372 -31.074101 9.516397 0.000000 39.000000 14.712623 2.000000
6.444578 -30.610444 9.647231 0.000000 60.000000 14.492028 0.000000
6.890288 -30.594097 7.861136 0.000000 60.000000 14.697591 25.000000
6.832045 -30.574834 10.156459 0.000000 55.000000 14.322454 0.000000
7.228515 -31.082186 9.181833 0.000000 62.000000 14.917932 3.000000
5.179617 -31.544202 14.803112 0.000000 49.000000 14.762206 7.000000
6.625693 -31.410286 13.708770 0.000000 54.000000 14.603813 18.000000
2.971720 -30.486235 9.691658 0.000000 62.000000 14.846851 23.000000
5.752093 -30.594589 10.698622 0.000000 54.000000 14.405975 0.000000
5.670551 -30.603257 10.519566 0.000000 53.000000 14.454222 0.000000
9.398527 -31.151020 10.713046 0.000000 33.000000 14.440133 0.000000
5.573537 -30.541526 10.408669 0.000000 52.000000 14.424990 0.000000
2.564713 -30.239313 10.907174 0.000000 45.000000 14.469155 0.000000
4.071585 -30.689786 9.834694 0.000000 55.000000 14.870047 22.000000
6.314954 -30.504428 9.244533 0.000000 55.000000 14.470374 0.000000
5.387686 -30.472762 10.146092 0.000000 52.000000 14.425326 0.000000
5.664926 -30.504022 11.074899 0.000000 40.000000 14.269840 0.000000
4.923727 -30.513989 10.679084 0.000000 48.000000 14.445569 0.000000
6.121065 -30.397691 9.032814 0.000000 43.000000 14.426638 0.000000
5.284942 -30.475519 10.032470 0.000000 52.000000 14.460358 0.000000
6.003184 -30.250435 9.006051 0.000000 47.000000 14.303354 0.000000
6.397974 -30.239172 7.340148 0.000000 50.000000 14.501890 0.000000
6.480882 -30.577154 7.407401 0.000000 66.000000 14.810040 25.000000
6.083571 -30.211799 7.750834 0.000000 44.000000 14.453685 0.000000
6.340290 -30.373009 8.722950 0.000000 50.000000 14.421200 0.000000
6.386788 -30.466238 8.910828 0.000000 34.000000 14.476028 0.000000
3.153424 -30.582530 10.734537 0.000000 59.000000 14.750119 12.000000
2.958397 -30.715117 9.609068 0.000000 70.000000 15.085541 23.000000
2.090008 -30.196350 10.337287 0.000000 71.000000 14.583698 9.000000
9.211295 -31.226594 11.189796 0.000000 58.000000 14.464368 0.000000
6.472144 -30.408210 7.483993 0.000000 63.000000 14.633959 25.000000
5.832478 -30.901028 8.297163 0.000000 82.000000 15.075584 29.000000
8.837171 -31.049189 10.707232 0.000000 36.000000 14.419639 0.000000
8.737130 -30.963248 10.630571 0.000000 37.000000 14.361728 0.000000
6.143995 -30.510043 7.794640 0.000000 76.000000 14.729843 27.000000
6.549362 -30.810753 7.522955 0.000000 76.000000 15.010498 25.000000
8.436853 -30.962548 10.178098 0.000000 48.000000 14.474666 0.000000
3.144497 -30.417531 9.841511 0.000000 58.000000 14.731861 23.000000
4.417773 -30.604824 9.938514 0.000000 53.000000 14.722342 22.000000
3.835464 -30.868568 9.654068 0.000000 53.000000 15.106335 22.000000
3.497197 -30.813263 10.782239 0.000000 73.000000 14.920238 12.000000
7.564134 -30.620245 9.393218 0.000000 57.000000 14.386138 0.000000
4.867290 -30.602385 11.125730 0.000000 41.000000 14.468916 0.000000
6.491723 -30.878052 11.623240 0.000000 62.000000 14.433325 0.000000
6.216404 -30.537913 9.727342 0.000000 45.000000 14.440166 0.000000
3.188474 -30.662267 10.948582 0.000000 64.000000 14.789198 12.000000
3.239161 -30.750780 12.463893 0.000000 52.000000 14.628086 8.000000
5.547451 -31.347886 14.756119 0.000000 31.000000 14.526588 7.000000
5.878772 -30.248782 8.188343 0.000000 50.000000 14.448874 0.000000
1.738317 -30.481954 11.043499 0.000000 74.000000 14.799685 10.000000
6.644539 -31.447188 13.557301 0.000000 31.000000 14.661309 18.000000
6.271553 -30.154323 7.090694 0.000000 48.000000 14.476151 0.000000
4.742716 -30.809962 8.135068 0.000000 65.000000 15.163958 30.000000
4.079263 -30.873142 13.848341 0.000000 39.000000 14.410981 0.000000
4.997716 -30.532656 8.978799 0.000000 56.000000 14.723463 28.000000
2.667816 -30.037456 9.909849 0.000000 48.000000 14.415838 0.000000
2.550338 -30.491578 10.793707 0.000000 55.000000 14.735748 12.000000
7.484536 -30.700414 9.765926 0.000000 22.000000 14.416404 0.000000
3.918044 -30.621606 9.476225 0.000000 61.000000 14.881683 24.000000
5.795281 -30.287119 9.233256 0.000000 30.000000 14.332072 0.000000
4.671909 -30.588029 9.559400 0.000000 49.000000 14.730749 22.000000
3.567285 -30.571708 12.104142 0.000000 60.000000 14.464504 0.000000
6.867926 -30.671030 9.292100 0.000000 62.000000 14.548717 26.000000
5.748263 -31.194210 14.210082 0.000000 51.000000 14.435122 0.000000
3.769039 -30.506051 12.750503 0.000000 48.000000 14.269632 0.000000
3.883181 -30.619798 12.821930 0.000000 35.000000 14.353591 0.000000
4.005698 -30.755961 12.863315 0.000000 63.000000 14.463065 0.000000
4.173802 -30.751451 13.240397 0.000000 34.000000 14.375396 0.000000
1.957708 -29.966292 10.564240 0.000000 43.000000 14.341204 0.000000
4.382616 -30.843010 13.513657 0.000000 38.000000 14.392449 0.000000
7.048116 -30.554191 9.558604 0.000000 40.000000 14.367125 0.000000
6.351820 -30.198595 7.337141 0.000000 44.000000 14.469128 0.000000
4.699005 -30.929161 13.954947 0.000000 38.000000 14.362568 0.000000
3.280252 -30.802454 12.478071 0.000000 50.000000 14.670626 8.000000
2.763053 -30.335625 11.862901 0.000000 45.000000 14.383960 0.000000
5.168842 -31.097026 14.459811 0.000000 35.000000 14.381113 0.000000
5.653283 -30.817210 8.610775 0.000000 64.000000 14.968802 29.000000
7.715391 -30.699014 8.875258 0.000000 47.000000 14.524315 3.000000
5.377862 -31.393700 14.594538 0.000000 35.000000 14.620623 7.000000
3.259873 -30.264455 11.330558 0.000000 32.000000 14.329773 0.000000
5.847599 -29.933317 7.083021 0.000000 37.000000 14.320343 0.000000
2.999167 -30.448956 11.917284 0.000000 55.000000 14.453245 0.000000
6.642934 -30.272028 8.406610 0.000000 39.000000 14.330602 0.000000
7.670144 -31.551223 12.545277 0.000000 48.000000 14.780947 6.000000
8.603772 -30.905753 10.000384 0.000000 31.000000 14.424138 0.000000
5.299459 -30.481861 10.183838 0.000000 39.000000 14.440505 0.000000
6.057041 -30.699268 11.046326 0.000000 42.000000 14.410655 0.000000
3.650528 -30.351276 11.132434 0.000000 49.000000 14.391728 0.000000
7.020857 -30.661185 7.884549 0.000000 35.000000 14.741279 25.000000
6.655208 -31.486269 13.491451 0.000000 62.000000 14.708479 18.000000
3.313848 -30.166728 9.937115 0.000000 41.000000 14.447965 0.000000
3.330692 -30.747864 10.548384 0.000000 45.000000 14.916611 12.000000
5.003954 -30.908020 7.972804 0.000000 48.000000 15.249213 30.000000
4.015489 -30.506091 11.427290 0.000000 48.000000 14.445453 0.000000
6.908813 -30.562326 8.410472 0.000000 45.000000 14.576743 4.000000
5.069056 -30.506987 10.504729 0.000000 47.000000 14.446182 0.000000
3.595279 -30.275834 10.269549 0.000000 42.000000 14.462670 0.000000
5.187795 -30.539804 10.607329 0.000000 39.000000 14.445447 0.000000
7.790627 -30.913955 10.531424 0.000000 57.000000 14.461003 0.000000
6.657843 -31.167605 14.087888 0.000000 26.000000 14.301938 0.000000
4.500141 -30.615549 11.885899 0.000000 42.000000 14.412189 0.000000
5.434158 -30.620385 10.790803 0.000000 43.000000 14.460798 0.000000
2.388849 -30.546488 10.331582 0.000000 77.000000 14.885262 9.000000
3.080236 -30.564128 9.546980 0.000000 50.000000 14.930857 23.000000
4.753312 -30.673789 12.095694 0.000000 54.000000 14.400577 0.000000
2.198103 -30.365984 10.394587 0.000000 73.000000 14.725368 9.000000
5.050720 -30.487814 10.389418 0.000000 54.000000 14.448300 0.000000
7.282872 -30.965881 8.990085 0.000000 52.000000 14.827127 3.000000
4.132192 -30.247560 10.584528 0.000000 36.000000 14.310308 0.000000
5.932294 -30.727763 11.177899 0.000000 55.000000 14.434978 0.000000
6.911238 -30.386134 8.103849 0.000000 41.000000 14.452866 0.000000
6.070240 -30.808058 11.218441 0.000000 55.000000 14.487830 0.000000
5.010040 -30.869611 8.985485 0.000000 66.000000 15.050046 28.000000
6.197838 -30.805385 11.338367 0.000000 43.000000 14.448421 0.000000
2.548693 -30.173160 10.679535 0.000000 42.000000 14.442863 0.000000
5.405335 -30.769037 8.868548 0.000000 52.000000 14.915295 29.000000
3.614867 -30.798665 9.385232 0.000000 66.000000 15.111388 24.000000
6.464106 -30.849380 11.521484 0.000000 37.000000 14.425298 0.000000
3.640712 -30.811035 9.336910 0.000000 46.000000 15.127554 24.000000
6.602167 -30.899934 11.578630 0.000000 44.000000 14.446427 0.000000
6.841040 -30.573726 8.985362 0.000000 51.000000 14.506046 0.000000
6.738487 -30.922915 11.660249 0.000000 39.000000 14.436961 0.000000
1.913722 -30.628989 11.162032 0.000000 72.000000 14.900178 10.000000
6.941316 -30.896809 11.272333 0.000000 51.000000 14.444805 0.000000
7.011120 -30.948543 11.838865 0.000000 34.000000 14.395714 0.000000
4.281921 -30.613530 8.768080 0.000000 50.000000 14.935579 30.000000
7.252228 -31.002535 9.192003 0.000000 75.000000 14.835162 3.000000
8.203478 -30.925288 9.302125 0.000000 45.000000 14.609796 2.000000
6.137727 -31.174053 14.520890 0.000000 22.000000 14.311876 0.000000
5.331264 -30.748521 8.631554 0.000000 49.000000 14.943175 29.000000
5.200134 -30.424685 7.610715 0.000000 43.000000 14.806958 30.000000
7.732794 -31.147913 12.098386 0.000000 33.000000 14.448959 0.000000
7.879832 -31.165491 12.165204 0.000000 30.000000 14.435071 0.000000
8.158619 -31.175771 12.745276 0.000000 30.000000 14.314229 0.000000
4.428653 -30.580219 11.739831 0.000000 47.000000 14.410794 0.000000
8.748857 -30.963913 9.837015 0.000000 50.000000 14.486734 0.000000
6.418208 -30.537541 10.115000 0.000000 25.000000 14.350173 0.000000
8.665230 -30.902711 10.482845 0.000000 38.000000 14.336014 0.000000
5.341668 -30.660275 11.582212 0.000000 41.000000 14.387013 0.000000
3.821998 -30.709104 13.030530 0.000000 51.000000 14.416280 0.000000
3.794889 -30.584513 12.916482 0.000000 47.000000 14.316377 0.000000
4.441072 -30.486100 9.030613 0.000000 65.000000 14.747193 28.000000
6.061906 -30.379463 9.021000 0.000000 51.000000 14.418929 0.000000
1.899424 -30.343584 10.883903 0.000000 47.000000 14.667352 10.000000
8.046779 -31.164806 11.233146 0.000000 49.000000 14.559146 13.000000
7.821720 -30.663068 8.890696 0.000000 45.000000 14.471932 0.000000
2.051316 -30.481283 10.961825 0.000000 61.000000 14.768439 10.000000
3.768416 -30.486006 11.388704 0.000000 58.000000 14.466330 0.000000
6.373288 -30.241929 7.632983 0.000000 36.000000 14.461529 0.000000
7.282505 -31.100057 10.278608 0.000000 39.000000 14.753759 5.000000
8.759441 -31.017645 9.827283 0.000000 55.000000 14.539327 21.000000
3.700688 -30.324522 11.103909 0.000000 41.000000 14.363125 0.000000
2.943294 -30.244454 11.615070 0.000000 33.000000 14.309108 0.000000
7.702752 -30.880335 10.440329 0.000000 46.000000 14.454832 0.000000
9.106367 -31.246424 12.116666 0.000000 34.000000 14.351200 0.000000
2.566524 -30.182413 10.677271 0.000000 44.000000 14.449785 0.000000
2.441007 -30.058169 10.174863 0.000000 49.000000 14.425573 0.000000
5.478027 -30.872275 8.701123 0.000000 31.000000 15.032671 29.000000
8.359993 -31.212167 12.705576 0.000000 26.000000 14.328084 0.000000
5.803954 -31.131847 14.780124 0.000000 23.000000 14.275912 0.000000
5.149508 -30.280977 9.792675 0.000000 38.000000 14.327119 0.000000
3.166609 -30.922278 10.817622 0.000000 78.000000 15.067183 12.000000
6.624023 -30.662326 9.338231 0.000000 59.000000 14.566827 26.000000
6.163850 -30.364006 8.880262 0.000000 51.000000 14.411978 0.000000
5.791364 -30.806931 11.610734 0.000000 47.000000 14.463255 0.000000
2.168681 -30.615046 10.285578 0.000000 77.000000 14.990218 9.000000
7.702426 -30.603098 9.167399 0.000000 60.000000 14.385984 0.000000
6.455007 -30.482154 8.919460 0.000000 48.000000 14.480722 0.000000
5.754087 -30.495441 9.888882 0.000000 63.000000 14.437341 0.000000
4.535544 -30.472153 10.894340 0.000000 51.000000 14.424522 0.000000
7.340847 -31.109484 12.366182 0.000000 41.000000 14.423424 0.000000
6.734185 -30.507786 9.022598 0.000000 44.000000 14.450551 0.000000
3.083197 -30.452616 11.835656 0.000000 54.000000 14.458088 0.000000
2.955818 -30.185875 10.336645 0.000000 42.000000 14.453074 0.000000
6.194165 -30.580351 9.996653 0.000000 47.000000 14.441986 0.000000
4.239196 -30.446028 10.518582 0.000000 52.000000 14.499882 0.000000
6.345674 -30.626173 10.013385 0.000000 51.000000 14.463034 0.000000
6.480149 -30.555890 10.128346 0.000000 44.000000 14.357370 0.000000
4.454417 -30.508161 12.106574 0.000000 31.000000 14.278549 0.000000
6.777189 -30.574115 10.212344 0.000000 49.000000 14.320512 0.000000
7.578791 -31.047884 11.707114 0.000000 30.000000 14.434736 0.000000
8.736576 -30.943129 10.608470 0.000000 33.000000 14.345648 0.000000
2.865097 -30.189857 10.120742 0.000000 36.000000 14.503868 9.000000
6.101998 -30.590490 10.674469 0.000000 64.000000 14.357110 0.000000
5.396554 -30.656513 8.615109 0.000000 81.000000 14.846766 29.000000
5.807052 -30.156003 7.766200 0.000000 31.000000 14.435188 0.000000
8.539100 -31.146808 11.547025 0.000000 46.000000 14.423209 0.000000
7.538266 -30.827082 10.179884 0.000000 46.000000 14.467018 0.000000
2.072264 -30.753507 11.614069 0.000000 75.000000 14.928059 11.000000
2.592447 -30.741292 11.618599 0.000000 48.000000 14.843011 11.000000
4.537492 -30.722714 9.209661 0.000000 83.000000 14.936629 28.000000
2.122465 -30.340156 10.479354 0.000000 67.000000 14.697191 9.000000
6.934216 -30.643425 9.282769 0.000000 72.000000 14.513990 26.000000
8.436723 -30.953070 10.200879 0.000000 36.000000 14.461803 0.000000
6.067897 -31.236087 13.993751 0.000000 50.000000 14.465919 0.000000
8.879864 -31.012412 10.172821 0.000000 41.000000 14.462595 0.000000
4.858433 -31.116945 14.041927 0.000000 43.000000 14.510124 0.000000
9.175677 -30.947238 10.235105 0.000000 31.000000 14.347836 0.000000
7.914522 -30.570203 9.169706 0.000000 46.000000 14.323949 0.000000
2.653763 -30.698179 11.035676 0.000000 77.000000 14.884884 12.000000
5.611764 -31.198454 15.132900 0.000000 31.000000 14.311755 0.000000
8.410599 -30.929584 10.085272 0.000000 47.000000 14.460837 0.000000
4.797139 -30.799754 12.654749 0.000000 45.000000 14.428846 0.000000
5.570114 -31.241422 14.558274 0.000000 34.000000 14.450781 0.000000
7.111382 -30.547672 9.791160 0.000000 37.000000 14.315027 0.000000
6.471295 -30.286461 8.422374 0.000000 50.000000 14.366092 0.000000
5.486362 -31.110000 14.211319 0.000000 33.000000 14.389059 0.000000
4.916187 -30.650306 11.827355 0.000000 30.000000 14.397559 0.000000
4.492222 -30.735334 9.467622 0.000000 61.000000 14.914310 22.000000
5.416001 -31.104409 13.730100 0.000000 41.000000 14.469786 0.000000
6.272230 -30.917606 12.660164 0.000000 35.000000 14.337907 0.000000
6.225751 -30.463067 7.240585 0.000000 79.000000 14.760513 1.000000
6.212961 -30.813921 12.552166 0.000000 35.000000 14.261953 0.000000
3.589077 -30.444231 11.652621 0.000000 36.000000 14.408553 0.000000
6.157845 -30.208830 7.567201 0.000000 46.000000 14.469601 0.000000
5.244080 -30.847833 13.314815 0.000000 46.000000 14.308850 0.000000
3.707442 -30.946224 10.042659 0.000000 54.000000 15.138362 22.000000
6.571485 -30.731715 7.740940 0.000000 47.000000 14.895555 25.000000
3.577709 -30.489868 11.806084 0.000000 51.000000 14.430379 0.000000
5.019688 -30.849488 12.813910 0.000000 41.000000 14.421220 0.000000
6.561947 -30.407987 8.226205 0.000000 46.000000 14.503408 0.000000
7.575985 -31.307155 13.553333 0.000000 37.000000 14.395441 0.000000
5.466064 -30.865115 8.618106 0.000000 76.000000 15.040517 29.000000
5.050274 -30.804759 12.465298 0.000000 41.000000 14.428589 0.000000
2.952147 -30.067453 9.758034 0.000000 57.000000 14.429694 0.000000
6.775148 -30.774664 7.641192 0.000000 47.000000 14.925030 25.000000
2.340184 -30.540524 11.228040 0.000000 58.000000 14.743880 11.000000
5.403813 -30.383170 8.442432 0.000000 46.000000 14.605989 30.000000
7.903397 -31.132019 11.695730 0.000000 44.000000 14.473609 0.000000
4.895917 -30.947990 9.378589 0.000000 72.000000 15.080129 28.000000
5.704659 -30.517659 10.983016 0.000000 52.000000 14.292228 0.000000
4.774397 -30.536400 11.906579 0.000000 42.000000 14.293375 0.000000
5.659003 -30.586700 10.727397 0.000000 53.000000 14.406649 0.000000
4.725106 -30.568490 11.675424 0.000000 45.000000 14.368300 0.000000
1.699433 -29.915221 10.742176 0.000000 32.000000 14.298976 0.000000
6.260704 -30.008283 6.897978 0.000000 38.000000 14.365509 0.000000
5.532574 -30.558379 10.380953 0.000000 51.000000 14.451563 0.000000
3.753992 -30.726470 9.454438 0.000000 77.000000 15.010472 24.000000
8.704219 -31.064506 9.750147 0.000000 65.000000 14.605062 21.000000
6.470612 -30.483463 8.796443 0.000000 50.000000 14.499360 0.000000
5.656270 -30.739661 8.216170 0.000000 78.000000 14.955234 29.000000
3.188230 -30.589989 9.846281 0.000000 64.000000 14.893589 23.000000
5.316834 -30.452178 9.938933 0.000000 48.000000 14.447955 0.000000
5.703447 -31.211727 14.208184 0.000000 43.000000 14.458782 0.000000
4.475827 -30.459779 10.904511 0.000000 50.000000 14.419122 0.000000
4.375817 -30.658920 8.849814 0.000000 75.000000 14.953903 30.000000
5.722008 -30.610161 8.157371 0.000000 78.000000 14.828840 29.000000
4.229325 -30.371656 10.542694 0.000000 39.000000 14.424732 0.000000
2.775021 -30.160121 10.390786 0.000000 36.000000 14.444464 0.000000
5.243179 -31.123135 15.218828 0.000000 25.000000 14.275784 0.000000
5.336563 -31.207155 14.573765 0.000000 34.000000 14.447328 0.000000
2.339632 -30.843239 11.684797 0.000000 81.000000 14.967333 11.000000
6.607423 -30.558349 10.247044 0.000000 29.000000 14.323217 0.000000
5.762328 -30.543150 10.725541 0.000000 46.000000 14.349997 0.000000
5.784261 -30.188198 7.965391 0.000000 43.000000 14.438205 0.000000
4.801541 -30.434010 7.986072 0.000000 65.000000 14.811949 30.000000
6.109866 -30.317014 7.070821 0.000000 44.000000 14.660831 1.000000
6.485714 -30.762633 7.612269 0.000000 68.000000 14.958140 25.000000
6.938278 -30.806269 8.400182 0.000000 81.000000 14.812721 4.000000
8.233248 -31.289679 12.917211 0.000000 35.000000 14.387887 0.000000
9.041895 -31.162944 11.875358 0.000000 27.000000 14.316884 0.000000
2.096542 -30.419998 10.661205 0.000000 64.000000 14.749969 9.000000
6.650269 -30.606373 7.476515 0.000000 69.000000 14.804055 25.000000
8.890217 -31.180815 11.475771 0.000000 37.000000 14.418900 0.000000
4.431185 -30.636005 8.965504 0.000000 77.000000 14.905432 28.000000
8.085132 -31.493539 12.165784 0.000000 55.000000 14.727063 6.000000
8.732306 -31.118573 11.170721 0.000000 42.000000 14.428467 0.000000
7.845531 -31.116217 12.113188 0.000000 33.000000 14.399939 0.000000
4.479731 -30.787934 13.081534 0.000000 28.000000 14.393705 0.000000
5.207336 -30.778913 12.391889 0.000000 24.000000 14.393124 0.000000
7.261410 -30.534375 9.507825 0.000000 42.000000 14.326135 0.000000
7.014663 -31.135781 13.875492 0.000000 25.000000 14.254897 0.000000
8.480954 -30.931189 10.820875 0.000000 33.000000 14.335828 0.000000
7.593226 -31.023791 11.651932 0.000000 39.000000 14.417938 0.000000
8.392132 -30.872970 10.702980 0.000000 35.000000 14.309999 0.000000
6.837343 -30.783793 7.672218 0.000000 67.000000 14.920372 25.000000
8.303936 -30.874299 10.531164 0.000000 44.000000 14.350849 0.000000
7.831395 -30.837164 10.224363 0.000000 46.000000 14.429020 0.000000
8.215149 -30.909217 10.332805 0.000000 43.000000 14.428828 0.000000
3.041606 -30.458297 9.890310 0.000000 62.000000 14.778279 23.000000
8.125249 -30.883382 10.195936 0.000000 43.000000 14.437816 0.000000
3.784957 -30.344002 9.028958 0.000000 40.000000 14.699866 24.000000
8.033634 -30.845923 10.069263 0.000000 41.000000 14.434061 0.000000
7.143644 -30.856583 10.953759 0.000000 44.000000 14.427907 0.000000
3.166522 -30.550551 9.895031 0.000000 60.000000 14.850321 23.000000
7.109413 -30.563404 8.956885 0.000000 43.000000 14.463131 0.000000
4.659410 -30.584653 8.873290 0.000000 52.000000 14.838118 28.000000
6.860622 -30.801845 10.526750 0.000000 54.000000 14.481582 0.000000
7.648790 -30.695146 9.594008 0.000000 39.000000 14.415691 0.000000
6.760171 -30.759715 10.410528 0.000000 50.000000 14.472833 0.000000
5.028970 -30.580475 8.731886 0.000000 63.000000 14.805055 28.000000
3.572539 -30.643028 9.797167 0.000000 75.000000 14.899749 22.000000
4.739696 -30.662358 8.041104 0.000000 61.000000 15.035019 30.000000
3.170976 -30.259855 9.377327 0.000000 54.000000 14.647749 24.000000
7.778596 -30.831336 9.559897 0.000000 66.000000 14.536164 2.000000
8.715316 -31.172318 11.535523 0.000000 31.000000 14.425448 0.000000
6.240993 -30.551071 9.868263 0.000000 41.000000 14.427233 0.000000
7.035375 -30.516122 8.905950 0.000000 46.000000 14.435304 0.000000
6.132511 -30.507013 9.769182 0.000000 49.000000 14.414994 0.000000
8.394465 -30.886904 10.318647 0.000000 30.000000 14.384312 0.000000
4.266406 -30.454920 8.725458 0.000000 70.000000 14.789470 30.000000
6.713963 -30.431517 8.589166 0.000000 49.000000 14.447628 0.000000
5.803895 -30.402671 9.460161 0.000000 44.000000 14.407796 0.000000
2.730255 -30.779149 11.213846 0.000000 61.000000 14.925098 11.000000
5.693287 -30.373888 9.355971 0.000000 48.000000 14.411596 0.000000
6.061252 -30.351917 8.975013 0.000000 58.000000 14.399396 0.000000
5.592147 -30.411462 9.200429 0.000000 43.000000 14.487092 0.000000
6.377700 -30.316780 8.315646 0.000000 38.000000 14.425697 0.000000
4.152690 -30.468686 11.198583 0.000000 50.000000 14.426108 0.000000
5.798097 -30.173877 7.862737 0.000000 43.000000 14.438579 0.000000
5.679043 -30.151010 7.773867 0.000000 41.000000 14.446904 0.000000
5.440800 -30.113314 7.596728 0.000000 47.000000 14.471335 0.000000
6.884298 -30.314096 8.261489 0.000000 41.000000 14.361173 0.000000
4.358706 -29.954345 8.436376 0.000000 45.000000 14.333229 0.000000
3.713421 -30.507466 10.174624 0.000000 76.000000 14.687711 22.000000
3.303014 -30.502901 9.263206 0.000000 72.000000 14.885061 24.000000
6.208727 -30.199313 7.548958 0.000000 48.000000 14.456114 0.000000
5.802990 -31.192086 14.854158 0.000000 25.000000 14.323174 0.000000
2.195577 -30.520242 10.332906 0.000000 75.000000 14.886294 9.000000
5.653054 -30.027246 7.431398 0.000000 42.000000 14.383918 0.000000
4.983129 -30.776925 8.370592 0.000000 71.000000 15.060817 30.000000
3.041218 -30.404452 11.719319 0.000000 47.000000 14.435322 0.000000
7.645202 -31.141835 13.279934 0.000000 27.000000 14.267621 0.000000
5.821621 -30.590205 10.475646 0.000000 25.000000 14.427414 0.000000
4.417919 -30.353770 9.551791 0.000000 46.000000 14.538324 22.000000
3.799422 -30.330802 10.989666 0.000000 39.000000 14.373662 0.000000
6.402103 -31.082273 13.175515 0.000000 28.000000 14.398970 0.000000
2.944772 -30.752452 10.824932 0.000000 70.000000 14.930895 12.000000
5.779891 -30.493631 9.842921 0.000000 50.000000 14.439278 0.000000
4.009992 -30.453681 11.200168 0.000000 43.000000 14.431048 0.000000
8.452435 -30.836367 9.535405 0.000000 43.000000 14.451197 0.000000
3.902015 -30.721829 9.364984 0.000000 78.000000 14.999538 24.000000
7.485731 -30.601688 8.661465 0.000000 53.000000 14.495085 0.000000
3.323962 -30.170411 9.973359 0.000000 49.000000 14.444404 0.000000
3.429831 -30.600831 12.862311 0.000000 63.000000 14.391729 0.000000
7.110094 -30.895369 11.812436 0.000000 55.000000 14.334161 0.000000
3.509632 -30.535390 13.103128 0.000000 49.000000 14.278425 0.000000
8.304148 -31.305900 11.347255 0.000000 59.000000 14.643127 13.000000
3.655023 -30.684167 13.113743 0.000000 74.000000 14.401931 0.000000
5.649758 -30.787969 11.802208 0.000000 48.000000 14.434028 0.000000
6.302897 -30.215492 8.571163 0.000000 40.000000 14.296535 0.000000
4.318311 -30.724398 9.520586 0.000000 68.000000 14.919413 22.000000
3.223268 -30.689213 10.947980 0.000000 72.000000 14.810790 12.000000
4.869834 -30.745557 12.165973 0.000000 51.000000 14.443354 0.000000
2.268307 -30.808430 11.731097 0.000000 56.000000 14.935883 11.000000
8.285312 -30.938960 10.000736 0.000000 58.000000 14.500857 0.000000
4.127580 -30.817840 13.625442 0.000000 41.000000 14.385590 0.000000
7.440744 -31.280510 13.094143 0.000000 39.000000 14.461120 0.000000
4.279625 -30.953487 13.629164 0.000000 53.000000 14.496430 0.000000
3.336569 -30.789538 9.795994 0.000000 69.000000 15.075980 23.000000
7.453372 -31.286929 13.558786 0.000000 32.000000 14.391868 0.000000
5.340274 -30.848990 12.641646 0.000000 41.000000 14.403469 0.000000
6.380820 -30.503495 7.658393 0.000000 43.000000 14.712117 25.000000
5.461068 -30.852967 12.780550 0.000000 30.000000 14.368494 0.000000
6.433836 -31.315089 13.620694 0.000000 44.000000 14.551444 18.000000
3.688407 -30.848599 9.404622 0.000000 36.000000 15.146884 24.000000
4.788341 -31.060974 14.120338 0.000000 41.000000 14.452720 0.000000
5.701794 -30.830703 13.085270 0.000000 32.000000 14.264854 0.000000
5.714569 -30.480507 9.822130 0.000000 43.000000 14.438841 0.000000
4.814874 -30.817341 9.247315 0.000000 75.000000 14.984545 28.000000
5.988088 -31.019946 13.147667 0.000000 39.000000 14.400084 0.000000
7.326843 -30.921677 10.962866 0.000000 57.000000 14.464594 0.000000
2.235409 -30.698055 11.793619 0.000000 56.000000 14.822648 11.000000
4.529421 -30.755571 12.662188 0.000000 44.000000 14.421734 0.000000
8.198265 -31.211031 11.210050 0.000000 31.000000 14.586914 13.000000
5.606899 -31.179121 14.817417 0.000000 25.000000 14.343622 0.000000
6.538682 -31.194902 13.454959 0.000000 42.000000 14.445688 0.000000
5.373104 -30.408778 9.862213 0.000000 45.000000 14.409884 0.000000
3.916606 -30.639167 10.169546 0.000000 50.000000 14.788974 22.000000
8.003545 -31.132571 9.322011 0.000000 64.000000 14.837072 2.000000
6.950954 -31.180252 13.818699 0.000000 29.000000 14.316248 0.000000
7.100022 -31.237189 13.868812 0.000000 28.000000 14.343201 0.000000
6.528202 -31.365563 12.662076 0.000000 52.000000 14.739842 14.000000
2.538159 -30.255481 12.006322 0.000000 36.000000 14.314149 0.000000
2.603249 -30.170046 10.735367 0.000000 39.000000 14.423363 0.000000
6.818422 -30.785251 10.751921 0.000000 42.000000 14.435486 0.000000
2.586413 -30.067925 9.982892 0.000000 56.000000 14.445352 0.000000
1.567756 -29.949269 10.999766 0.000000 40.000000 14.309685 0.000000
3.920547 -29.998817 8.903486 0.000000 43.000000 14.363513 0.000000
7.853050 -31.206164 13.142953 0.000000 42.000000 14.323323 0.000000
3.988895 -30.260812 10.559026 0.000000 42.000000 14.347252 0.000000
5.470516 -30.554665 10.968678 0.000000 23.000000 14.363260 0.000000
6.251318 -30.774790 11.000511 0.000000 66.000000 14.464712 0.000000
3.289085 -30.728186 12.514118 0.000000 54.000000 14.591080 8.000000
4.417028 -30.463256 10.705343 0.000000 46.000000 14.462324 0.000000
5.087308 -30.701598 8.282566 0.000000 54.000000 14.986665 30.000000
5.272469 -30.450176 10.051499 0.000000 29.000000 14.434301 0.000000
4.040318 -30.543689 9.377812 0.000000 43.000000 14.804131 24.000000
2.889601 -30.359700 11.767710 0.000000 24.000000 14.404995 0.000000
5.564939 -30.478765 9.911848 0.000000 52.000000 14.443717 0.000000
4.819106 -30.517387 10.960911 0.000000 53.000000 14.418706 0.000000
5.699725 -30.514973 9.973596 0.000000 57.000000 14.450548 0.000000
6.957429 -30.346790 8.126251 0.000000 28.000000 14.404424 0.000000
5.887997 -29.940400 7.047534 0.000000 37.000000 14.327278 0.000000
6.561962 -30.456385 8.667182 0.000000 43.000000 14.480702 0.000000
5.970245 -30.568587 10.109668 0.000000 56.000000 14.443705 0.000000
5.226623 -30.533543 11.231795 0.000000 43.000000 14.334781 0.000000
6.108872 -30.604638 10.163986 0.000000 47.000000 14.451028 0.000000
2.282992 -30.682296 11.842137 0.000000 70.000000 14.792920 11.000000
3.097188 -30.225176 11.461745 0.000000 35.000000 14.293191 0.000000
2.715638 -30.705038 11.259947 0.000000 73.000000 14.847372 11.000000
5.607415 -30.846848 12.876708 0.000000 41.000000 14.326881 0.000000
5.687166 -30.764162 11.273556 0.000000 58.000000 14.489482 0.000000
5.820536 -31.262536 14.498612 0.000000 45.000000 14.446042 0.000000
3.473014 -30.520402 9.763909 0.000000 52.000000 14.799017 23.000000
7.275841 -30.978030 11.895318 0.000000 29.000000 14.378735 0.000000
5.977348 -30.821125 11.379092 0.000000 55.000000 14.488024 0.000000
6.000208 -30.213700 7.281014 0.000000 55.000000 14.541735 1.000000
4.359071 -30.522721 8.427237 0.000000 68.000000 14.890194 30.000000
7.611780 -31.145998 12.487682 0.000000 26.000000 14.402122 0.000000
5.028255 -31.623127 14.739147 0.000000 51.000000 14.870571 7.000000
8.061853 -30.849532 9.983955 0.000000 45.000000 14.447206 0.000000
6.986013 -30.880811 11.126736 0.000000 46.000000 14.446063 0.000000
6.104827 -30.198137 7.236089 0.000000 56.000000 14.519096 1.000000
7.534858 -30.870890 10.654789 0.000000 36.000000 14.434916 0.000000
3.308629 -30.652124 9.352933 0.000000 69.000000 15.015894 24.000000
3.417350 -30.530809 13.106864 0.000000 40.000000 14.286196 0.000000
7.826653 -30.887075 10.755272 0.000000 34.000000 14.394177 0.000000
5.110094 -31.360109 14.733006 0.000000 43.000000 14.603068 7.000000
7.974679 -30.915963 10.781494 0.000000 33.000000 14.397651 0.000000
5.222571 -30.598666 7.547134 0.000000 74.000000 14.983990 30.000000
4.669514 -30.704136 8.238195 0.000000 47.000000 15.054331 30.000000
7.471602 -31.018151 11.808521 0.000000 34.000000 14.404490 0.000000
4.945338 -30.286141 9.853890 0.000000 48.000000 14.350860 0.000000
7.627174 -31.101609 11.767931 0.000000 48.000000 14.470861 0.000000
6.630503 -30.653742 7.860831 0.000000 72.000000 14.792092 25.000000
2.643594 -30.564986 11.511210 0.000000 58.000000 14.680611 11.000000
5.612372 -30.485206 9.979448 0.000000 63.000000 14.432680 0.000000
7.930207 -31.090855 11.857833 0.000000 38.000000 14.403906 0.000000
5.240995 -30.505842 7.790759 0.000000 60.000000 14.852015 30.000000
4.807644 -30.235602 9.933968 0.000000 43.000000 14.307909 0.000000
8.235190 -31.169291 11.844883 0.000000 41.000000 14.440188 0.000000
5.555539 -30.205803 9.134652 0.000000 30.000000 14.301606 0.000000
4.410902 -30.515464 8.963548 0.000000 36.000000 14.790741 28.000000
6.493082 -31.426948 13.531160 0.000000 45.000000 14.666752 18.000000
8.537863 -31.218683 11.846145 0.000000 50.000000 14.446147 0.000000
9.317109 -31.148539 10.894915 0.000000 29.000000 14.420164 0.000000
5.774483 -30.743437 8.589088 0.000000 34.000000 14.883269 29.000000
4.664596 -30.417856 9.235321 0.000000 61.000000 14.616881 28.000000
6.164013 -30.344674 7.282507 0.000000 35.000000 14.646724 1.000000
4.102912 -30.704608 9.639010 0.000000 57.000000 14.911243 22.000000
8.991294 -31.151924 11.962030 0.000000 27.000000 14.299394 0.000000
3.060693 -30.654344 12.588823 0.000000 45.000000 14.538825 8.000000
6.997492 -30.681723 8.554031 0.000000 61.000000 14.658317 4.000000
9.443161 -31.180174 11.950656 0.000000 28.000000 14.265931 0.000000
6.779751 -31.197002 12.378265 0.000000 48.000000 14.585134 14.000000
4.898940 -31.100133 14.633328 0.000000 32.000000 14.394161 0.000000
6.341353 -30.494036 9.273623 0.000000 53.000000 14.451924 0.000000
4.865197 -31.006779 13.972657 0.000000 39.000000 14.412498 0.000000
7.542917 -30.967694 10.204085 0.000000 38.000000 14.599972 5.000000
3.419197 -30.693993 10.992433 0.000000 37.000000 14.781140 12.000000
6.791403 -30.830984 7.741251 0.000000 36.000000 14.961933 25.000000
3.393889 -30.805313 9.558093 0.000000 44.000000 15.121193 23.000000
4.729292 -30.810715 12.759201 0.000000 39.000000 14.432418 0.000000
4.712015 -30.828143 12.514879 0.000000 58.000000 14.490647 0.000000
4.672416 -30.765555 12.354757 0.000000 60.000000 14.460402 0.000000
3.726827 -30.784867 13.360222 0.000000 44.000000 14.451237 0.000000
9.499163 -31.169781 10.920939 0.000000 24.000000 14.411460 0.000000
3.689830 -30.739353 13.179427 0.000000 65.000000 14.440601 0.000000
7.120141 -31.118638 12.610943 0.000000 45.000000 14.424226 0.000000
6.243780 -30.589690 7.931944 0.000000 61.000000 14.772010 27.000000
4.641869 -30.502515 10.889786 0.000000 47.000000 14.440126 0.000000
3.568523 -30.516665 12.956161 0.000000 45.000000 14.275260 0.000000
6.454708 -30.268049 7.426342 0.000000 52.000000 14.508537 25.000000
3.542179 -30.529867 12.716924 0.000000 50.000000 14.329812 0.000000
3.373661 -30.684876 9.281123 0.000000 68.000000 15.050258 24.000000
7.176193 -31.001401 10.080094 0.000000 38.000000 14.703638 5.000000
4.432228 -30.554635 11.289147 0.000000 57.000000 14.456841 0.000000
3.248507 -30.323296 10.549884 0.000000 50.000000 14.512812 12.000000
3.058718 -30.539821 12.315441 0.000000 51.000000 14.470562 0.000000
3.435410 -30.515284 12.072824 0.000000 62.000000 14.432676 0.000000
4.336380 -30.483569 10.953526 0.000000 51.000000 14.454000 0.000000
3.386148 -30.477276 11.899391 0.000000 52.000000 14.429915 0.000000
5.171843 -30.591173 10.855612 0.000000 53.000000 14.458459 0.000000
7.518580 -30.846737 10.622847 0.000000 36.000000 14.418644 0.000000
2.011402 -30.249958 10.706823 0.000000 66.000000 14.588367 9.000000
3.140295 -30.532353 9.583566 0.000000 45.000000 14.885632 23.000000
4.156982 -30.295706 10.540236 0.000000 40.000000 14.360952 0.000000
4.584433 -30.830981 8.666991 0.000000 81.000000 15.122080 30.000000
4.302891 -30.777537 13.140166 0.000000 36.000000 14.398843 0.000000
3.897577 -29.956399 8.841926 0.000000 48.000000 14.335021 0.000000
5.524753 -30.191967 8.089121 0.000000 44.000000 14.458358 0.000000
1.975536 -29.998220 10.619228 0.000000 22.000000 14.361202 0.000000
5.811516 -30.237335 8.147781 0.000000 42.000000 14.453484 0.000000
5.841921 -30.259660 9.203113 0.000000 39.000000 14.303527 0.000000
4.068630 -30.749599 13.177914 0.000000 30.000000 14.398142 0.000000
4.504074 -30.230468 9.117526 0.000000 51.000000 14.474757 0.000000
5.807862 -30.407458 9.354545 0.000000 37.000000 14.428691 0.000000
7.783593 -30.864649 10.397646 0.000000 40.000000 14.435026 0.000000
7.215700 -31.019949 9.091422 0.000000 47.000000 14.873235 3.000000
4.901816 -31.142791 14.764909 0.000000 30.000000 14.414568 0.000000
6.410869 -30.504997 7.554193 0.000000 79.000000 14.725947 25.000000
7.942639 -31.545250 12.527664 0.000000 49.000000 14.739985 6.000000
4.709593 -31.105459 14.172190 0.000000 47.000000 14.498929 0.000000
2.814923 -30.491229 12.304843 0.000000 57.000000 14.458674 0.000000
6.663750 -31.296680 12.555885 0.000000 55.000000 14.670508 14.000000
6.799407 -30.484959 8.575284 0.000000 43.000000 14.490179 0.000000
6.063198 -30.597397 7.938172 0.000000 78.000000 14.803685 27.000000
7.942494 -30.593897 9.090975 0.000000 54.000000 14.355716 0.000000
8.086413 -30.554996 9.113792 0.000000 38.000000 14.294041 0.000000
7.671688 -31.170087 13.448682 0.000000 28.000000 14.264759 0.000000
7.614386 -31.124377 13.277632 0.000000 28.000000 14.255210 0.000000
6.237274 -31.186182 12.873130 0.000000 59.000000 14.571483 14.000000
4.852476 -30.732548 8.924654 0.000000 84.000000 14.947657 28.000000
3.789777 -30.570902 11.981520 0.000000 61.000000 14.452222 0.000000
6.211046 -31.393138 12.979256 0.000000 44.000000 14.760575 14.000000
4.889282 -30.795432 9.395302 0.000000 64.000000 14.929280 28.000000
3.994596 -30.608393 9.681196 0.000000 85.000000 14.825573 22.000000
2.651302 -30.805824 11.009404 0.000000 37.000000 14.994616 12.000000
3.392264 -30.562752 9.740458 0.000000 58.000000 14.855373 23.000000
5.658654 -30.691421 11.186002 0.000000 46.000000 14.436249 0.000000
3.055256 -30.294186 9.532822 0.000000 38.000000 14.672723 23.000000
6.275308 -31.074265 12.854403 0.000000 54.000000 14.459768 0.000000
7.095692 -30.897415 11.866584 0.000000 34.000000 14.329569 0.000000
2.754893 -30.387195 10.154045 0.000000 58.000000 14.706807 9.000000
6.105278 -30.828208 12.709092 0.000000 34.000000 14.265989 0.000000
6.961447 -30.972387 11.411067 0.000000 46.000000 14.493852 0.000000
4.122402 -30.254350 10.376969 0.000000 39.000000 14.351261 0.000000
5.075219 -30.843144 8.434570 0.000000 74.000000 15.102571 30.000000
5.968170 -30.877269 12.260580 0.000000 37.000000 14.404232 0.000000
6.799594 -30.833831 11.175517 0.000000 42.000000 14.418339 0.000000
5.892481 -30.851355 12.096153 0.000000 40.000000 14.415540 0.000000
6.802067 -30.521356 8.964723 0.000000 49.000000 14.463557 0.000000
5.809118 -30.800863 11.958956 0.000000 43.000000 14.399569 0.000000
6.641352 -30.779402 10.871152 0.000000 46.000000 14.435480 0.000000
2.358433 -30.657401 11.564956 0.000000 70.000000 14.802093 11.000000
7.961215 -31.042359 9.397268 0.000000 24.000000 14.742836 2.000000
4.479772 -30.812546 14.109928 0.000000 28.000000 14.254485 0.000000
4.660270 -31.071686 14.562713 0.000000 37.000000 14.410780 0.000000
7.206999 -30.618989 9.834457 0.000000 49.000000 14.364557 0.000000
2.803620 -30.772771 10.744753 0.000000 78.000000 14.983129 12.000000
8.328907 -31.516472 12.077544 0.000000 55.000000 14.729564 6.000000
5.363278 -30.525756 11.328027 0.000000 41.000000 14.292874 0.000000
7.600087 -31.140897 12.386099 0.000000 28.000000 14.414891 0.000000
6.622539 -30.526653 10.164993 0.000000 62.000000 14.303159 0.000000
8.179491 -31.237751 12.781918 0.000000 36.000000 14.366090 0.000000
5.204395 -30.579125 10.939757 0.000000 53.000000 14.428794 0.000000
4.490683 -30.718465 9.167736 0.000000 76.000000 14.945646 28.000000
3.522039 -30.978490 9.185349 0.000000 74.000000 15.331811 24.000000
5.935488 -30.491931 9.813690 0.000000 44.000000 14.420604 0.000000
5.014506 -30.490645 10.694576 0.000000 42.000000 14.407659 0.000000
4.419436 -30.010263 8.520666 0.000000 40.000000 14.366053 0.000000
4.921131 -30.466909 10.558766 0.000000 46.000000 14.419014 0.000000
5.747087 -30.432688 9.561790 0.000000 47.000000 14.428907 0.000000
4.827436 -30.445915 10.421120 0.000000 53.000000 14.433385 0.000000
5.647338 -30.382623 9.455275 0.000000 43.000000 14.410762 0.000000
4.726376 -30.397597 10.312550 0.000000 41.000000 14.417457 0.000000
8.977661 -31.145595 11.953008 0.000000 23.000000 14.296537 0.000000
4.616120 -30.321144 10.226726 0.000000 38.000000 14.371696 0.000000
2.763731 -30.762816 10.689378 0.000000 68.000000 14.987741 12.000000
4.221547 -30.266768 9.694887 0.000000 43.000000 14.457891 0.000000
4.109482 -30.210095 9.605161 0.000000 40.000000 14.432336 0.000000
4.593032 -30.498981 9.822427 0.000000 60.000000 14.612925 22.000000
7.173815 -30.681407 9.303114 0.000000 48.000000 14.514544 3.000000
6.738493 -30.473246 8.687853 0.000000 46.000000 14.469335 0.000000
2.508243 -30.672716 11.027139 0.000000 55.000000 14.881601 11.000000
5.566246 -30.014243 7.479649 0.000000 41.000000 14.375628 0.000000
2.732830 -30.412841 10.594290 0.000000 27.000000 14.665051 12.000000
7.342438 -30.920319 9.144025 0.000000 74.000000 14.749862 3.000000
5.708800 -30.566619 10.751845 0.000000 50.000000 14.376210 0.000000
4.941235 -30.475168 10.279596 0.000000 60.000000 14.468611 0.000000
4.697022 -30.375133 9.227168 0.000000 56.000000 14.571903 28.000000
4.909843 -30.668034 8.966518 0.000000 59.000000 14.869967 28.000000
2.514890 -30.524076 11.646308 0.000000 50.000000 14.637085 11.000000
2.400174 -30.719772 11.503270 0.000000 76.000000 14.867043 11.000000
6.093755 -30.234880 7.334311 0.000000 56.000000 14.540957 1.000000
5.326067 -30.855777 12.824535 0.000000 20.000000 14.383044 0.000000
1.739852 -30.014942 10.868488 0.000000 41.000000 14.370771 0.000000
6.249768 -30.222816 8.683173 0.000000 39.000000 14.293304 0.000000
8.531675 -31.154280 11.116304 0.000000 47.000000 14.499929 0.000000
7.803609 -30.835015 9.715494 0.000000 44.000000 14.511575 2.000000
8.337662 -30.950296 10.998213 0.000000 31.000000 14.346290 0.000000
5.605184 -30.863622 12.642863 0.000000 42.000000 14.380713 0.000000
3.282323 -30.487812 10.154417 0.000000 44.000000 14.731700 12.000000
7.755166 -31.150074 12.238501 0.000000 36.000000 14.425713 0.000000
5.929779 -30.546814 10.862025 0.000000 50.000000 14.308607 0.000000
7.825907 -30.858057 10.347496 0.000000 44.000000 14.430656 0.000000
5.506257 -31.190981 14.477875 0.000000 44.000000 14.423127 0.000000
6.487678 -30.482408 7.458370 0.000000 63.000000 14.708391 25.000000
7.504817 -30.780077 10.009509 0.000000 46.000000 14.452777 0.000000
3.294267 -30.175827 9.300562 0.000000 57.000000 14.560646 24.000000
2.526483 -30.204420 10.924530 0.000000 48.000000 14.437613 0.000000
4.952462 -30.688111 7.947758 0.000000 59.000000 15.045403 30.000000
9.102230 -30.942569 10.326016 0.000000 23.000000 14.339059 0.000000
2.403989 -30.551583 11.753968 0.000000 60.000000 14.662313 11.000000
2.924807 -30.979838 10.491885 0.000000 74.000000 15.208810 12.000000
6.686432 -31.384880 12.608505 0.000000 47.000000 14.745209 14.000000
3.491899 -30.755362 9.351110 0.000000 58.000000 15.091590 24.000000
6.870442 -30.849649 7.585881 0.000000 58.000000 14.993845 25.000000
2.302083 -30.611112 10.419478 0.000000 73.000000 14.946550 9.000000
6.059804 -30.847531 12.545542 0.000000 33.000000 14.317170 0.000000
6.476769 -30.512961 9.158565 0.000000 54.000000 14.469845 0.000000
7.245977 -30.494267 8.229717 0.000000 45.000000 14.491996 0.000000
3.882288 -30.646190 9.901990 0.000000 42.000000 14.843092 22.000000
7.127012 -30.454374 8.159131 0.000000 42.000000 14.480764 0.000000
4.483595 -30.588998 8.838479 0.000000 67.000000 14.872358 30.000000
3.998928 -30.046249 8.717040 0.000000 38.000000 14.428569 0.000000
2.801751 -30.235607 11.682197 0.000000 37.000000 14.309500 0.000000
6.127434 -30.211375 7.605917 0.000000 43.000000 14.470174 0.000000
2.971521 -30.737203 9.788569 0.000000 55.000000 15.076804 23.000000
6.884774 -31.156368 13.962583 0.000000 20.000000 14.279268 0.000000
5.585386 -29.988372 7.447227 0.000000 35.000000 14.352824 0.000000
7.367652 -31.056188 10.934137 0.000000 38.000000 14.594955 20.000000
7.226757 -30.745717 9.327379 0.000000 24.000000 14.566184 3.000000
2.347312 -30.148555 10.811094 0.000000 41.000000 14.425950 0.000000
2.402672 -30.171044 10.980685 0.000000 37.000000 14.413303 0.000000
2.717064 -30.288041 11.830993 0.000000 38.000000 14.348914 0.000000
2.815782 -30.395129 11.915729 0.000000 44.000000 14.426398 0.000000
6.610553 -30.800751 10.975448 0.000000 45.000000 14.444076 0.000000
2.972020 -30.469444 12.218895 0.000000 47.000000 14.429164 0.000000
7.208842 -31.205051 9.170686 0.000000 7.000000 15.042535 3.000000
5.033776 -30.826904 8.505961 0.000000 75.000000 15.081130 30.000000
2.297250 -30.465118 10.222742 0.000000 62.000000 14.835753 9.000000
2.535818 -30.675219 11.544725 0.000000 66.000000 14.798037 11.000000
5.108462 -31.659112 14.745084 0.000000 65.000000 14.893641 7.000000
3.518812 -30.254298 11.048705 0.000000 43.000000 14.328559 0.000000
4.952436 -30.460613 7.813019 0.000000 76.000000 14.844428 30.000000
5.765061 -30.229851 9.003678 0.000000 26.000000 14.316749 0.000000
2.159822 -30.475816 10.453674 0.000000 83.000000 14.828671 9.000000
4.929481 -31.163072 14.859653 0.000000 38.000000 14.415499 0.000000
5.302569 -31.178368 15.324522 0.000000 37.000000 14.304727 0.000000
6.928214 -30.831894 10.937279 0.000000 44.000000 14.436371 0.000000
3.378889 -30.649144 9.233960 0.000000 73.000000 15.022092 24.000000
6.153998 -30.013309 7.037189 0.000000 41.000000 14.363169 0.000000
3.830968 -30.564737 11.999094 0.000000 63.000000 14.437673 0.000000
1.570194 -30.005661 11.014842 0.000000 38.000000 14.362074 0.000000
1.572058 -29.918649 10.871463 0.000000 37.000000 14.299527 0.000000
2.191469 -30.090743 10.345408 0.000000 47.000000 14.465062 0.000000
3.829510 -30.570275 12.103668 0.000000 57.000000 14.426687 0.000000
2.602098 -30.230258 10.835078 0.000000 46.000000 14.466547 0.000000
3.141283 -30.334231 11.478699 0.000000 38.000000 14.390960 0.000000
5.782144 -31.370257 14.231846 0.000000 66.000000 14.599030 17.000000
4.742877 -30.518317 8.036615 0.000000 72.000000 14.894495 30.000000
4.205506 -30.354500 10.570148 0.000000 35.000000 14.406919 0.000000
7.314121 -30.695354 9.754838 0.000000 42.000000 14.436934 0.000000
7.331881 -31.128238 10.031799 0.000000 63.000000 14.813618 5.000000
3.501943 -30.445639 11.795711 0.000000 41.000000 14.399337 0.000000
4.453313 -30.485314 10.713018 0.000000 40.000000 14.477616 0.000000
3.627699 -30.487268 11.891183 0.000000 42.000000 14.407370 0.000000
7.644819 -30.884312 11.283007 0.000000 38.000000 14.332995 0.000000
2.690858 -30.192988 10.573597 0.000000 36.000000 14.459279 0.000000
4.685614 -30.517984 10.936296 0.000000 54.000000 14.441775 0.000000
6.761078 -30.502181 8.588350 0.000000 40.000000 14.510273 4.000000
3.481019 -30.485188 11.874724 0.000000 45.000000 14.428362 0.000000
4.022371 -30.343878 8.925099 0.000000 62.000000 14.683195 24.000000
5.222106 -30.497890 10.400402 0.000000 41.000000 14.432555 0.000000
