33.888334 4.480774 0.843030 0.000000 53.000000 14.843030 11.000000
32.214096 1.446981 1.168898 0.000000 53.000000 15.168898 28.000000
34.096966 1.032221 0.448423 0.000000 48.000000 14.448423 0.000000
33.033693 3.450632 0.971359 0.000000 72.000000 14.971359 10.000000
31.907557 4.183298 0.482462 0.000000 40.000000 14.482462 0.000000
30.121548 -0.658663 0.437029 0.000000 51.000000 14.437029 0.000000
30.261911 1.113671 0.930997 0.000000 72.000000 14.930997 16.000000
32.578121 4.355449 1.132837 0.000000 76.000000 15.132837 4.000000
30.039373 -0.334321 0.540025 0.000000 49.000000 14.540025 0.000000
30.079851 -0.188075 0.476050 0.000000 51.000000 14.476050 0.000000
34.739628 1.390884 1.012518 0.000000 77.000000 15.012518 25.000000
29.970455 1.966827 0.379667 0.000000 27.000000 14.379667 0.000000
31.125828 3.089118 0.740282 0.000000 54.000000 14.740282 3.000000
34.446745 0.429641 0.307068 0.000000 27.000000 14.307068 0.000000
32.445847 -0.432913 0.465870 0.000000 44.000000 14.465870 0.000000
29.662084 3.993197 0.960443 0.000000 71.000000 14.960443 7.000000
33.940971 1.842089 0.930552 0.000000 69.000000 14.930552 23.000000
31.680376 2.496710 0.449764 0.000000 65.000000 14.449764 0.000000
34.106440 -0.554391 0.441619 0.000000 49.000000 14.441619 0.000000
32.813719 -1.214352 0.877746 0.000000 81.000000 14.877746 5.000000
29.384612 3.877792 1.002926 0.000000 4.000000 15.002926 7.000000
31.800617 2.963458 0.457985 0.000000 56.000000 14.457985 0.000000
33.495167 0.207276 0.361390 0.000000 41.000000 14.361390 0.000000
29.594920 0.876175 0.649396 0.000000 43.000000 14.649396 19.000000
31.993958 1.198748 1.208888 0.000000 70.000000 15.208888 28.000000
29.892556 2.487529 0.543622 0.000000 39.000000 14.543622 0.000000
29.912738 4.856158 0.364764 0.000000 23.000000 14.364764 0.000000
34.743076 0.714397 0.913176 0.000000 68.000000 14.913176 14.000000
32.497866 0.588670 1.136477 0.000000 84.000000 15.136477 29.000000
30.827930 2.825906 1.004380 0.000000 63.000000 15.004380 3.000000
29.214593 -0.953709 1.019628 0.000000 70.000000 15.019628 1.000000
32.008224 -0.355749 0.963115 0.000000 75.000000 14.963115 27.000000
30.255590 2.812780 0.796350 0.000000 70.000000 14.796350 3.000000
34.238569 2.814610 0.870491 0.000000 72.000000 14.870491 23.000000
34.792320 1.966091 0.659850 0.000000 64.000000 14.659850 23.000000
28.844639 -0.676647 1.095862 0.000000 4.000000 15.095862 1.000000
32.371668 4.530946 0.472947 0.000000 49.000000 14.472947 0.000000
34.928305 0.547938 0.710906 0.000000 73.000000 14.710906 14.000000
32.517834 4.704597 0.383487 0.000000 37.000000 14.383487 0.000000
31.169165 0.349391 0.807199 0.000000 67.000000 14.807199 20.000000
29.142053 2.909379 1.008081 0.000000 61.000000 15.008081 17.000000
30.521984 2.641338 0.488714 0.000000 22.000000 14.488714 0.000000
34.017523 0.495324 0.659372 0.000000 53.000000 14.659372 14.000000
29.665653 2.616413 0.800581 0.000000 55.000000 14.800581 17.000000
34.267965 -0.642670 0.440605 0.000000 46.000000 14.440605 0.000000
31.635897 4.732071 0.341117 0.000000 32.000000 14.341117 0.000000
31.024588 1.723472 0.360673 0.000000 70.000000 14.360673 0.000000
34.041975 1.865814 0.922976 0.000000 61.000000 14.922976 23.000000
33.943232 1.813595 1.036555 0.000000 71.000000 15.036555 25.000000
31.178553 2.717496 0.717507 0.000000 52.000000 14.717507 3.000000
32.704229 1.653683 0.972279 0.000000 71.000000 14.972279 26.000000
31.342381 1.790305 1.145463 0.000000 68.000000 15.145463 15.000000
30.996136 4.645576 0.314746 0.000000 39.000000 14.314746 0.000000
32.350155 4.695439 0.311305 0.000000 47.000000 14.311305 0.000000
28.870211 2.030211 0.992357 0.000000 61.000000 14.992357 18.000000
32.345467 1.608667 1.051641 0.000000 65.000000 15.051641 28.000000
32.196362 4.346589 0.468317 0.000000 57.000000 14.468317 0.000000
30.297281 2.829381 0.743411 0.000000 58.000000 14.743411 3.000000
31.711191 0.875773 0.830705 0.000000 73.000000 14.830705 29.000000
32.169636 4.022415 0.451553 0.000000 57.000000 14.451553 0.000000
30.831236 0.838124 0.641488 0.000000 52.000000 14.641488 21.000000
28.974217 4.134959 0.476305 0.000000 46.000000 14.476305 0.000000
32.139301 1.487846 1.297318 0.000000 35.000000 15.297318 28.000000
30.795977 3.392777 0.392047 0.000000 44.000000 14.392047 0.000000
33.737766 1.922568 0.765061 0.000000 71.000000 14.765061 23.000000
30.796917 3.242270 0.349927 0.000000 44.000000 14.349927 0.000000
32.102421 3.229413 0.358745 0.000000 45.000000 14.358745 0.000000
30.738012 3.086868 0.390494 0.000000 40.000000 14.390494 0.000000
31.964701 3.059253 0.489236 0.000000 58.000000 14.489236 0.000000
28.878094 -0.902435 1.058579 0.000000 76.000000 15.058579 1.000000
29.722213 -0.168773 0.446475 0.000000 36.000000 14.446475 0.000000
28.830447 -0.090739 0.730190 0.000000 37.000000 14.730190 12.000000
30.471481 2.042322 1.012315 0.000000 50.000000 15.012315 15.000000
29.407507 0.419979 0.998098 0.000000 42.000000 14.998098 19.000000
32.138916 -1.179905 0.821177 0.000000 57.000000 14.821177 5.000000
30.353111 1.885808 0.483526 0.000000 52.000000 14.483526 0.000000
31.629349 2.179110 0.724760 0.000000 60.000000 14.724760 15.000000
31.206837 0.930676 0.542546 0.000000 67.000000 14.542546 0.000000
30.453114 3.958358 0.772997 0.000000 62.000000 14.772997 7.000000
30.528872 -0.475843 0.431563 0.000000 48.000000 14.431563 0.000000
30.445148 -0.607641 0.429838 0.000000 51.000000 14.429838 0.000000
32.345564 1.929069 0.341979 0.000000 48.000000 14.341979 0.000000
31.706400 0.876028 0.948073 0.000000 53.000000 14.948073 29.000000
33.964384 1.914821 0.913221 0.000000 68.000000 14.913221 23.000000
28.899842 -1.100730 0.374586 0.000000 36.000000 14.374586 0.000000
31.379808 1.918984 1.284331 0.000000 73.000000 15.284331 15.000000
31.450647 -0.587530 0.435273 0.000000 33.000000 14.435273 0.000000
32.975973 1.674327 0.772885 0.000000 46.000000 14.772885 26.000000
29.707165 1.899524 0.768366 0.000000 64.000000 14.768366 18.000000
29.900515 1.740105 0.461972 0.000000 45.000000 14.461972 0.000000
34.534658 1.403467 1.048093 0.000000 47.000000 15.048093 25.000000
34.123121 1.416046 1.107195 0.000000 72.000000 15.107195 25.000000
31.397491 1.173975 0.520382 0.000000 45.000000 14.520382 0.000000
32.319317 2.292747 0.702930 0.000000 69.000000 14.702930 24.000000
29.466656 0.397391 1.043883 0.000000 61.000000 15.043883 19.000000
30.679338 4.126795 0.705427 0.000000 49.000000 14.705427 7.000000
35.003876 0.216346 0.309661 0.000000 47.000000 14.309661 0.000000
34.377848 2.037076 0.997196 0.000000 26.000000 14.997196 23.000000
32.261595 -0.450679 0.792727 0.000000 60.000000 14.792727 27.000000
34.313684 -0.324480 0.421988 0.000000 41.000000 14.421988 0.000000
29.572629 2.571699 0.884958 0.000000 75.000000 14.884958 17.000000
32.538788 2.784347 0.949792 0.000000 46.000000 14.949792 9.000000
31.855553 -0.814944 1.048648 0.000000 53.000000 15.048648 5.000000
35.041933 -0.802972 0.408511 0.000000 47.000000 14.408511 0.000000
31.634239 0.811100 1.089909 0.000000 50.000000 15.089909 29.000000
29.335532 0.637179 1.277753 0.000000 16.000000 15.277753 19.000000
30.576849 -0.592660 0.431665 0.000000 48.000000 14.431665 0.000000
33.368921 0.576257 1.012698 0.000000 80.000000 15.012698 29.000000
33.738211 -0.197703 0.921263 0.000000 55.000000 14.921263 13.000000
31.326790 3.030266 0.536528 0.000000 42.000000 14.536528 0.000000
30.393530 1.569569 0.615271 0.000000 48.000000 14.615271 16.000000
33.764351 1.619899 1.029778 0.000000 72.000000 15.029778 25.000000
30.885908 2.443185 0.461006 0.000000 43.000000 14.461006 0.000000
32.257559 2.536753 0.441000 0.000000 47.000000 14.441000 0.000000
34.942404 1.734447 0.918317 0.000000 70.000000 14.918317 25.000000
29.928309 2.086980 0.460869 0.000000 26.000000 14.460869 0.000000
32.846407 3.233570 0.399250 0.000000 48.000000 14.399250 0.000000
31.504330 3.244560 0.474503 0.000000 46.000000 14.474503 0.000000
32.965950 3.374231 0.399919 0.000000 48.000000 14.399919 0.000000
30.833298 0.768030 0.758044 0.000000 63.000000 14.758044 21.000000
33.308262 3.789759 0.445909 0.000000 48.000000 14.445909 0.000000
34.345320 2.224187 1.054830 0.000000 76.000000 15.054830 23.000000
31.540421 3.455208 0.662819 0.000000 73.000000 14.662819 8.000000
29.474188 1.465816 0.911709 0.000000 62.000000 14.911709 19.000000
28.989594 -0.403539 0.586051 0.000000 60.000000 14.586051 12.000000
32.762293 2.173243 1.147139 0.000000 71.000000 15.147139 24.000000
28.889067 1.668486 1.209512 0.000000 74.000000 15.209512 19.000000
34.421926 4.787007 0.316900 0.000000 37.000000 14.316900 0.000000
32.039263 -0.150048 1.008742 0.000000 62.000000 15.008742 27.000000
34.501167 4.913749 0.402396 0.000000 43.000000 14.402396 0.000000
33.157358 4.859444 0.362769 0.000000 41.000000 14.362769 0.000000
30.689974 -0.812486 0.974221 0.000000 53.000000 14.974221 6.000000
34.418201 0.164147 0.375861 0.000000 48.000000 14.375861 0.000000
32.550186 -0.044735 1.186233 0.000000 60.000000 15.186233 27.000000
34.000036 0.276250 0.357006 0.000000 45.000000 14.357006 0.000000
30.889883 2.664347 0.552271 0.000000 45.000000 14.552271 3.000000
33.631020 1.295113 0.975786 0.000000 53.000000 14.975786 25.000000
32.614622 4.161757 1.293358 0.000000 48.000000 15.293358 4.000000
31.816599 1.766149 0.954184 0.000000 45.000000 14.954184 28.000000
30.590294 1.507670 0.413778 0.000000 38.000000 14.413778 0.000000
30.897516 -0.100847 0.907254 0.000000 66.000000 14.907254 20.000000
32.714991 2.257504 1.051389 0.000000 62.000000 15.051389 24.000000
31.210060 -0.816368 0.560957 0.000000 69.000000 14.560957 6.000000
31.488918 0.801850 0.569999 0.000000 54.000000 14.569999 29.000000
29.013984 0.869327 0.744309 0.000000 37.000000 14.744309 19.000000
31.552658 0.911462 0.598958 0.000000 57.000000 14.598958 29.000000
32.419121 4.681293 0.367727 0.000000 40.000000 14.367727 0.000000
31.346737 3.702031 0.796351 0.000000 53.000000 14.796351 8.000000
30.403488 1.854626 0.649135 0.000000 58.000000 14.649135 15.000000
33.721172 2.626877 0.878550 0.000000 51.000000 14.878550 23.000000
33.574936 4.386305 0.523550 0.000000 61.000000 14.523550 0.000000
30.273798 0.282838 0.847678 0.000000 67.000000 14.847678 20.000000
32.049967 4.053427 0.456058 0.000000 47.000000 14.456058 0.000000
33.476820 4.081595 0.434999 0.000000 49.000000 14.434999 0.000000
32.876589 0.211781 0.889468 0.000000 78.000000 14.889468 29.000000
32.629341 -1.269495 0.917188 0.000000 51.000000 14.917188 5.000000
33.860779 -0.066753 0.926285 0.000000 59.000000 14.926285 13.000000
34.086790 4.243480 0.894134 0.000000 41.000000 14.894134 11.000000
34.616941 0.158122 0.753623 0.000000 64.000000 14.753623 30.000000
33.644009 4.191187 0.590837 0.000000 52.000000 14.590837 11.000000
32.485552 2.585787 0.446077 0.000000 56.000000 14.446077 0.000000
32.609493 4.240669 1.112084 0.000000 52.000000 15.112084 4.000000
33.734331 -0.335803 0.550488 0.000000 40.000000 14.550488 0.000000
31.708340 0.710648 1.205804 0.000000 77.000000 15.205804 29.000000
29.202173 -1.165479 0.333033 0.000000 30.000000 14.333033 0.000000
31.465408 1.394129 0.455285 0.000000 45.000000 14.455285 0.000000
30.605732 0.575048 0.465091 0.000000 53.000000 14.465091 0.000000
31.420273 2.079547 0.956342 0.000000 75.000000 14.956342 15.000000
30.106302 0.148557 0.454084 0.000000 54.000000 14.454084 0.000000
29.695756 -0.844765 0.439580 0.000000 55.000000 14.439580 0.000000
29.050349 -0.603890 0.463044 0.000000 56.000000 14.463044 0.000000
31.370722 3.298204 0.741350 0.000000 58.000000 14.741350 8.000000
29.030833 3.090320 0.414006 0.000000 46.000000 14.414006 0.000000
33.625135 1.794013 0.719149 0.000000 68.000000 14.719149 25.000000
29.304811 1.542977 0.863412 0.000000 46.000000 14.863412 19.000000
31.220549 -0.874454 0.499237 0.000000 42.000000 14.499237 0.000000
29.759840 2.179706 0.808260 0.000000 67.000000 14.808260 18.000000
33.364061 0.912840 0.946612 0.000000 63.000000 14.946612 29.000000
32.036219 1.176699 1.180829 0.000000 52.000000 15.180829 28.000000
32.686111 -1.204171 0.958065 0.000000 52.000000 14.958065 5.000000
29.780854 2.662959 0.767530 0.000000 61.000000 14.767530 17.000000
34.721498 -0.986734 0.349284 0.000000 54.000000 14.349284 0.000000
34.602261 0.496696 0.644425 0.000000 43.000000 14.644425 14.000000
29.104209 -1.259185 0.315162 0.000000 42.000000 14.315162 0.000000
29.473758 -0.624859 0.441133 0.000000 50.000000 14.441133 0.000000
30.300533 -0.153493 0.639012 0.000000 59.000000 14.639012 20.000000
33.312323 -0.846562 0.414500 0.000000 42.000000 14.414500 0.000000
31.328341 0.372519 0.400495 0.000000 39.000000 14.400495 0.000000
30.107389 0.083775 0.397148 0.000000 50.000000 14.397148 0.000000
33.931973 3.095895 0.535976 0.000000 32.000000 14.535976 0.000000
31.958092 0.315024 1.074426 0.000000 64.000000 15.074426 29.000000
30.857782 -0.691632 1.007479 0.000000 72.000000 15.007479 6.000000
29.949979 1.627736 0.894651 0.000000 46.000000 14.894651 16.000000
30.971605 1.263921 0.737901 0.000000 71.000000 14.737901 16.000000
28.858294 1.045690 1.262311 0.000000 66.000000 15.262311 19.000000
31.129713 -0.427580 0.463676 0.000000 57.000000 14.463676 0.000000
31.463528 2.346568 0.461782 0.000000 53.000000 14.461782 0.000000
29.581079 4.340364 0.746039 0.000000 66.000000 14.746039 7.000000
29.788628 1.446155 0.679339 0.000000 60.000000 14.679339 16.000000
30.893372 -0.724446 0.953223 0.000000 68.000000 14.953223 6.000000
34.503134 0.096137 0.749691 0.000000 57.000000 14.749691 30.000000
30.741795 2.643077 0.665892 0.000000 45.000000 14.665892 3.000000
33.122322 0.891693 0.952884 0.000000 68.000000 14.952884 29.000000
33.570904 2.847949 0.443498 0.000000 55.000000 14.443498 0.000000
29.371962 4.221354 0.759938 0.000000 72.000000 14.759938 7.000000
32.737770 3.128086 0.492476 0.000000 48.000000 14.492476 0.000000
34.887871 1.581037 1.056053 0.000000 56.000000 15.056053 25.000000
30.509521 1.173706 1.283571 0.000000 70.000000 15.283571 16.000000
33.782627 2.549185 0.958806 0.000000 67.000000 14.958806 23.000000
33.806337 3.683324 0.533092 0.000000 67.000000 14.533092 0.000000
29.718947 -0.097592 0.501456 0.000000 25.000000 14.501456 0.000000
34.717926 4.055249 0.413687 0.000000 40.000000 14.413687 0.000000
32.996405 1.724769 1.053610 0.000000 61.000000 15.053610 26.000000
31.126158 3.027588 0.773552 0.000000 59.000000 14.773552 3.000000
31.983780 -0.312320 0.971672 0.000000 67.000000 14.971672 27.000000
29.964059 3.007721 0.395633 0.000000 34.000000 14.395633 0.000000
34.167397 2.953532 1.142973 0.000000 72.000000 15.142973 23.000000
35.030451 -0.876060 0.453904 0.000000 45.000000 14.453904 0.000000
31.443083 -0.052191 0.510936 0.000000 48.000000 14.510936 0.000000
34.046207 3.801583 0.983313 0.000000 56.000000 14.983313 22.000000
33.814407 3.060072 0.552601 0.000000 47.000000 14.552601 22.000000
28.921484 -0.012356 0.996825 0.000000 64.000000 14.996825 12.000000
33.358149 1.029394 0.765308 0.000000 49.000000 14.765308 29.000000
30.442369 0.988472 0.849095 0.000000 54.000000 14.849095 16.000000
33.568605 0.066628 0.486374 0.000000 46.000000 14.486374 0.000000
29.237523 0.692804 1.111247 0.000000 61.000000 15.111247 19.000000
30.885838 2.483518 0.488590 0.000000 45.000000 14.488590 0.000000
30.743162 2.677013 0.682821 0.000000 56.000000 14.682821 3.000000
31.015980 0.045428 0.928650 0.000000 66.000000 14.928650 20.000000
30.771828 -0.211686 0.886167 0.000000 53.000000 14.886167 20.000000
30.557720 1.130559 1.160541 0.000000 67.000000 15.160541 16.000000
29.104901 2.676687 0.738954 0.000000 64.000000 14.738954 17.000000
32.308912 1.356278 1.072429 0.000000 63.000000 15.072429 28.000000
30.150957 3.501841 0.417035 0.000000 45.000000 14.417035 0.000000
32.910742 2.440422 0.862771 0.000000 47.000000 14.862771 24.000000
29.948726 3.753922 0.461415 0.000000 54.000000 14.461415 0.000000
33.857430 1.089988 0.714512 0.000000 62.000000 14.714512 25.000000
30.669151 -0.796026 0.883325 0.000000 78.000000 14.883325 6.000000
34.446745 4.766888 0.324463 0.000000 33.000000 14.324463 0.000000
33.610668 4.029389 0.501691 0.000000 59.000000 14.501691 0.000000
34.130884 2.027668 1.032368 0.000000 52.000000 15.032368 23.000000
34.317276 2.003968 0.904888 0.000000 70.000000 14.904888 23.000000
30.550386 -1.150569 0.719254 0.000000 52.000000 14.719254 6.000000
32.986233 3.387241 0.410030 0.000000 43.000000 14.410030 0.000000
32.811119 3.261242 0.452272 0.000000 47.000000 14.452272 0.000000
35.093256 1.986470 0.372170 0.000000 32.000000 14.372170 0.000000
30.569895 1.186088 0.746198 0.000000 58.000000 14.746198 16.000000
33.438269 0.961520 0.843149 0.000000 55.000000 14.843149 29.000000
33.964844 1.976228 0.872555 0.000000 55.000000 14.872555 23.000000
32.079494 2.673486 0.455917 0.000000 43.000000 14.455917 0.000000
29.478926 1.674593 0.727693 0.000000 44.000000 14.727693 19.000000
30.350485 2.729771 0.796228 0.000000 75.000000 14.796228 3.000000
31.770069 2.454653 0.476830 0.000000 60.000000 14.476830 0.000000
31.663404 3.248436 0.304399 0.000000 35.000000 14.304399 0.000000
33.773119 1.463283 1.015286 0.000000 51.000000 15.015286 25.000000
31.571962 0.417021 0.811219 0.000000 79.000000 14.811219 29.000000
30.664297 1.669644 0.357038 0.000000 55.000000 14.357038 0.000000
31.585712 4.209126 0.759109 0.000000 53.000000 14.759109 8.000000
30.777874 3.024887 0.767200 0.000000 57.000000 14.767200 3.000000
33.501883 -0.678927 0.432565 0.000000 41.000000 14.432565 0.000000
28.941657 0.068670 0.600292 0.000000 43.000000 14.600292 12.000000
33.219500 0.209051 0.297548 0.000000 25.000000 14.297548 0.000000
29.802481 3.753142 0.459636 0.000000 51.000000 14.459636 0.000000
30.039698 4.236875 1.010289 0.000000 61.000000 15.010289 7.000000
29.393943 -0.143154 1.331704 0.000000 66.000000 15.331704 12.000000
32.823608 4.298913 0.891063 0.000000 57.000000 14.891063 4.000000
30.259132 -1.094606 0.868438 0.000000 68.000000 14.868438 6.000000
30.357508 3.332198 0.337774 0.000000 43.000000 14.337774 0.000000
29.226077 3.231781 0.350848 0.000000 37.000000 14.350848 0.000000
30.456356 3.215228 0.366578 0.000000 47.000000 14.366578 0.000000
32.791033 0.711921 1.061133 0.000000 62.000000 15.061133 29.000000
32.989361 2.251090 0.886382 0.000000 68.000000 14.886382 24.000000
30.933273 2.612263 0.495474 0.000000 60.000000 14.495474 0.000000
32.438068 3.528681 0.417438 0.000000 26.000000 14.417438 0.000000
32.955183 0.417841 1.075371 0.000000 72.000000 15.075371 29.000000
31.591347 -0.339809 0.459893 0.000000 56.000000 14.459893 0.000000
33.606400 4.452641 0.965847 0.000000 38.000000 14.965847 11.000000
29.443386 -0.896277 0.588701 0.000000 42.000000 14.588701 1.000000
30.614033 1.833921 0.347217 0.000000 36.000000 14.347217 0.000000
32.324591 -0.300343 0.928617 0.000000 47.000000 14.928617 27.000000
29.518401 4.250483 0.968745 0.000000 50.000000 14.968745 7.000000
30.440619 -1.015616 0.891374 0.000000 72.000000 14.891374 6.000000
29.282562 3.287899 0.361649 0.000000 30.000000 14.361649 0.000000
30.938894 1.733312 0.371666 0.000000 61.000000 14.371666 0.000000
29.767694 1.073404 1.061717 0.000000 55.000000 15.061717 19.000000
33.794968 -0.298256 0.804424 0.000000 56.000000 14.804424 13.000000
33.010929 0.568930 1.101434 0.000000 79.000000 15.101434 29.000000
32.877821 1.957629 0.409125 0.000000 54.000000 14.409125 0.000000
29.589307 2.586789 0.874087 0.000000 37.000000 14.874087 17.000000
32.163059 2.127145 0.436569 0.000000 45.000000 14.436569 0.000000
32.046429 1.747584 1.041529 0.000000 74.000000 15.041529 28.000000
32.621979 2.415047 1.098897 0.000000 66.000000 15.098897 24.000000
33.339420 -0.900468 0.467972 0.000000 48.000000 14.467972 0.000000
30.102919 3.293452 0.335242 0.000000 30.000000 14.335242 0.000000
30.124971 0.464395 0.435642 0.000000 53.000000 14.435642 0.000000
29.247088 2.737801 0.995564 0.000000 66.000000 14.995564 17.000000
31.396255 0.125120 0.714905 0.000000 73.000000 14.714905 20.000000
31.917641 1.535399 1.193780 0.000000 72.000000 15.193780 28.000000
31.513985 3.377730 0.627464 0.000000 69.000000 14.627464 8.000000
31.461649 2.354195 0.481576 0.000000 54.000000 14.481576 0.000000
30.158695 2.412268 0.495456 0.000000 44.000000 14.495456 0.000000
33.129831 3.300575 1.150194 0.000000 4.000000 15.150194 10.000000
28.897079 -1.270375 0.314130 0.000000 28.000000 14.314130 0.000000
33.661337 1.546526 1.061790 0.000000 73.000000 15.061790 25.000000
31.289639 1.730909 0.672010 0.000000 59.000000 14.672010 15.000000
32.037642 1.291495 1.028381 0.000000 64.000000 15.028381 28.000000
32.735537 1.442351 1.138960 0.000000 59.000000 15.138960 26.000000
29.975242 3.298129 0.342422 0.000000 38.000000 14.342422 0.000000
30.557686 1.141713 1.308186 0.000000 80.000000 15.308186 16.000000
29.885122 3.440236 0.419332 0.000000 44.000000 14.419332 0.000000
29.108156 1.490611 1.269897 0.000000 48.000000 15.269897 19.000000
31.037569 3.700510 0.488720 0.000000 57.000000 14.488720 0.000000
34.542782 -0.072344 0.874211 0.000000 36.000000 14.874211 30.000000
31.007839 3.852509 0.480797 0.000000 53.000000 14.480797 0.000000
30.959656 4.002890 0.502791 0.000000 69.000000 14.502791 0.000000
29.429694 1.281363 1.152632 0.000000 73.000000 15.152632 19.000000
29.945506 4.884055 0.385480 0.000000 33.000000 14.385480 0.000000
33.316692 2.143573 0.858948 0.000000 77.000000 14.858948 23.000000
32.060049 1.468169 1.203002 0.000000 65.000000 15.203002 28.000000
32.297737 2.127434 0.470559 0.000000 44.000000 14.470559 0.000000
33.330231 1.969914 0.351346 0.000000 58.000000 14.351346 0.000000
33.158859 1.912074 0.315926 0.000000 42.000000 14.315926 0.000000
32.950169 1.855860 0.327508 0.000000 42.000000 14.327508 0.000000
29.707742 3.014086 0.389280 0.000000 37.000000 14.389280 0.000000
31.441677 2.070528 0.995442 0.000000 62.000000 14.995442 15.000000
34.313215 3.765652 0.943011 0.000000 70.000000 14.943011 22.000000
29.329264 4.079696 0.704967 0.000000 75.000000 14.704967 7.000000
32.645355 -0.806496 0.924164 0.000000 49.000000 14.924164 5.000000
34.054447 2.067078 1.059027 0.000000 70.000000 15.059027 23.000000
30.858414 -0.291292 0.772616 0.000000 70.000000 14.772616 20.000000
28.954778 0.507068 0.894239 0.000000 62.000000 14.894239 19.000000
29.416735 0.557073 0.870591 0.000000 61.000000 14.870591 19.000000
28.910401 0.075600 0.851082 0.000000 63.000000 14.851082 12.000000
33.147600 3.362672 0.782181 0.000000 41.000000 14.782181 10.000000
33.722284 -0.023037 0.799679 0.000000 74.000000 14.799679 13.000000
31.011866 3.661060 0.534499 0.000000 64.000000 14.534499 0.000000
30.270969 3.870078 0.792450 0.000000 37.000000 14.792450 7.000000
29.413926 2.095311 0.769902 0.000000 67.000000 14.769902 18.000000
30.406223 1.842615 0.763103 0.000000 74.000000 14.763103 15.000000
30.096064 3.113374 0.388702 0.000000 49.000000 14.388702 0.000000
31.445774 3.969823 0.929325 0.000000 52.000000 14.929325 8.000000
31.475256 1.504741 0.488468 0.000000 29.000000 14.488468 0.000000
30.191591 2.679142 0.486000 0.000000 51.000000 14.486000 0.000000
30.241346 2.534973 0.483572 0.000000 44.000000 14.483572 0.000000
31.014194 3.107616 0.866765 0.000000 53.000000 14.866765 3.000000
34.786772 2.111226 0.872867 0.000000 58.000000 14.872867 23.000000
29.708268 3.935668 0.644156 0.000000 38.000000 14.644156 7.000000
31.996391 0.163182 0.529302 0.000000 52.000000 14.529302 0.000000
29.636889 1.005694 1.203408 0.000000 70.000000 15.203408 19.000000
33.996897 3.514867 0.786953 0.000000 64.000000 14.786953 22.000000
30.581253 1.466862 0.522268 0.000000 48.000000 14.522268 0.000000
29.972581 3.415245 0.356326 0.000000 24.000000 14.356326 0.000000
30.001616 1.669826 0.624262 0.000000 61.000000 14.624262 16.000000
29.984761 1.560637 0.522856 0.000000 58.000000 14.522856 0.000000
32.551138 1.733562 0.923036 0.000000 73.000000 14.923036 28.000000
31.698481 3.054029 0.355297 0.000000 20.000000 14.355297 0.000000
30.971354 0.727553 0.710815 0.000000 71.000000 14.710815 21.000000
29.548457 2.015752 0.952725 0.000000 75.000000 14.952725 18.000000
31.197895 1.634053 0.360920 0.000000 49.000000 14.360920 0.000000
33.189636 3.920773 0.454156 0.000000 49.000000 14.454156 0.000000
32.075651 -0.555778 0.468608 0.000000 52.000000 14.468608 0.000000
31.012634 -0.191402 0.776888 0.000000 64.000000 14.776888 20.000000
31.656105 4.061982 0.640205 0.000000 49.000000 14.640205 8.000000
31.683846 3.762144 0.497284 0.000000 44.000000 14.497284 0.000000
34.042492 4.455435 0.821850 0.000000 28.000000 14.821850 11.000000
31.783512 2.428606 0.468858 0.000000 65.000000 14.468858 0.000000
33.318676 1.453110 1.220905 0.000000 71.000000 15.220905 26.000000
34.391541 1.795009 1.049843 0.000000 67.000000 15.049843 25.000000
31.786060 2.741876 0.490244 0.000000 53.000000 14.490244 0.000000
31.507818 2.227613 0.766832 0.000000 53.000000 14.766832 15.000000
31.851053 3.060229 0.442069 0.000000 48.000000 14.442069 0.000000
33.738590 4.080741 0.628161 0.000000 43.000000 14.628161 11.000000
34.993801 2.211743 0.607862 0.000000 52.000000 14.607862 23.000000
30.199436 2.011230 0.640253 0.000000 49.000000 14.640253 15.000000
34.552254 1.212974 0.615462 0.000000 39.000000 14.615462 25.000000
31.403917 2.031706 1.005484 0.000000 65.000000 15.005484 15.000000
31.749311 0.275557 1.121990 0.000000 45.000000 15.121990 29.000000
31.175922 2.110618 1.056606 0.000000 69.000000 15.056606 15.000000
29.357323 -0.845432 0.428837 0.000000 54.000000 14.428837 0.000000
31.972012 4.007327 0.470427 0.000000 53.000000 14.470427 0.000000
31.997789 -1.129821 1.036080 0.000000 57.000000 15.036080 5.000000
33.087416 1.523776 1.083981 0.000000 69.000000 15.083981 26.000000
29.709145 0.863103 1.017690 0.000000 71.000000 15.017690 19.000000
31.796528 0.797605 1.329906 0.000000 80.000000 15.329906 29.000000
32.303011 2.267569 0.583613 0.000000 77.000000 14.583613 24.000000
35.063841 1.181721 0.772545 0.000000 46.000000 14.772545 25.000000
31.348316 1.591679 0.474008 0.000000 43.000000 14.474008 0.000000
32.761816 0.794633 1.113432 0.000000 73.000000 15.113432 29.000000
31.033117 1.593699 0.385959 0.000000 53.000000 14.385959 0.000000
30.818457 1.598706 0.422827 0.000000 44.000000 14.422827 0.000000
30.631287 1.605267 0.424025 0.000000 46.000000 14.424025 0.000000
31.312513 1.648059 0.379741 0.000000 48.000000 14.379741 0.000000
34.625647 2.063231 0.816584 0.000000 58.000000 14.816584 23.000000
34.319847 2.625374 1.090581 0.000000 51.000000 15.090581 23.000000
31.127781 -0.540603 0.441613 0.000000 54.000000 14.441613 0.000000
29.854926 0.598289 0.854543 0.000000 52.000000 14.854543 19.000000
29.610837 1.682262 0.390469 0.000000 57.000000 14.390469 0.000000
30.742298 1.703824 0.385817 0.000000 67.000000 14.385817 0.000000
30.379517 0.861417 0.461300 0.000000 33.000000 14.461300 0.000000
34.099607 4.318692 0.863344 0.000000 51.000000 14.863344 11.000000
31.117334 -0.277605 0.611552 0.000000 42.000000 14.611552 20.000000
29.834562 1.306216 0.727158 0.000000 64.000000 14.727158 16.000000
31.931316 4.060359 0.481959 0.000000 51.000000 14.481959 0.000000
30.646343 3.733450 0.493996 0.000000 42.000000 14.493996 0.000000
30.657785 3.581354 0.484414 0.000000 55.000000 14.484414 0.000000
30.723309 3.436245 0.392856 0.000000 37.000000 14.392856 0.000000
30.738632 3.284013 0.371237 0.000000 48.000000 14.371237 0.000000
31.432043 0.856636 0.725584 0.000000 53.000000 14.725584 29.000000
32.675770 0.325892 1.099620 0.000000 63.000000 15.099620 29.000000
28.963963 0.025414 0.640155 0.000000 45.000000 14.640155 12.000000
32.327007 2.663696 0.692028 0.000000 41.000000 14.692028 9.000000
30.864258 0.071874 0.968912 0.000000 67.000000 14.968912 20.000000
31.915300 2.630786 0.485193 0.000000 59.000000 14.485193 0.000000
29.338242 0.537598 1.281927 0.000000 37.000000 15.281927 19.000000
29.580690 3.847134 0.793224 0.000000 42.000000 14.793224 7.000000
31.480108 3.400242 0.716739 0.000000 79.000000 14.716739 8.000000
32.633636 0.027196 0.768653 0.000000 70.000000 14.768653 27.000000
30.979013 2.406207 0.757792 0.000000 48.000000 14.757792 15.000000
29.146582 1.221597 1.294473 0.000000 64.000000 15.294473 19.000000
31.665176 1.069086 0.500218 0.000000 50.000000 14.500218 0.000000
30.481907 4.463965 0.478049 0.000000 32.000000 14.478049 0.000000
34.064337 1.730495 1.047905 0.000000 44.000000 15.047905 25.000000
29.866846 -0.698413 0.457458 0.000000 48.000000 14.457458 0.000000
29.826140 -0.841540 0.429244 0.000000 39.000000 14.429244 0.000000
31.581598 0.770582 0.830591 0.000000 56.000000 14.830591 29.000000
30.919477 -0.109978 0.942070 0.000000 50.000000 14.942070 20.000000
30.233818 1.846606 0.354383 0.000000 46.000000 14.354383 0.000000
34.419395 0.064843 0.826603 0.000000 66.000000 14.826603 30.000000
30.551855 3.884579 0.760187 0.000000 52.000000 14.760187 7.000000
28.812166 2.796000 0.907604 0.000000 51.000000 14.907604 17.000000
33.979954 4.418174 0.870380 0.000000 54.000000 14.870380 11.000000
30.900110 1.762405 0.442500 0.000000 60.000000 14.442500 0.000000
28.849455 4.661434 0.762256 0.000000 60.000000 14.762256 2.000000
29.685628 0.974534 1.174994 0.000000 36.000000 15.174994 19.000000
31.302979 1.706765 0.402669 0.000000 52.000000 14.402669 0.000000
33.490934 2.483417 1.056851 0.000000 55.000000 15.056851 23.000000
33.700823 2.350157 1.186209 0.000000 57.000000 15.186209 23.000000
32.163244 1.308018 1.119149 0.000000 56.000000 15.119149 28.000000
32.256760 1.736320 1.123934 0.000000 71.000000 15.123934 28.000000
31.520918 1.788902 0.976247 0.000000 58.000000 14.976247 15.000000
29.399030 4.107581 0.680455 0.000000 53.000000 14.680455 7.000000
34.213964 1.011513 0.488124 0.000000 49.000000 14.488124 0.000000
34.581036 0.364273 0.292171 0.000000 37.000000 14.292171 0.000000
31.011484 -1.092301 0.752732 0.000000 68.000000 14.752732 6.000000
30.433352 0.298118 0.834764 0.000000 41.000000 14.834764 20.000000
31.196220 -0.266059 0.448792 0.000000 43.000000 14.448792 0.000000
31.915451 1.712583 1.066411 0.000000 42.000000 15.066411 28.000000
31.774761 -0.589074 0.441140 0.000000 41.000000 14.441140 0.000000
33.988876 -0.982605 0.493445 0.000000 25.000000 14.493445 0.000000
32.659861 2.207935 1.141037 0.000000 67.000000 15.141037 24.000000
31.248247 3.935311 0.773108 0.000000 44.000000 14.773108 8.000000
30.067486 0.048416 0.430240 0.000000 48.000000 14.430240 0.000000
33.330519 1.222977 1.035468 0.000000 65.000000 15.035468 26.000000
30.864769 1.411421 0.560158 0.000000 46.000000 14.560158 16.000000
34.871296 2.449641 0.892944 0.000000 76.000000 14.892944 23.000000
29.271091 4.095653 0.996579 0.000000 61.000000 14.996579 7.000000
32.018749 2.179117 0.481318 0.000000 53.000000 14.481318 0.000000
29.105875 -1.017607 0.887920 0.000000 71.000000 14.887920 1.000000
29.504722 0.928370 1.029194 0.000000 63.000000 15.029194 19.000000
30.743502 -0.865978 1.209659 0.000000 60.000000 15.209659 6.000000
32.246477 2.626305 0.464133 0.000000 46.000000 14.464133 0.000000
31.698624 2.120859 0.623157 0.000000 52.000000 14.623157 15.000000
34.792828 3.793008 0.431891 0.000000 31.000000 14.431891 0.000000
30.634192 1.299731 1.047865 0.000000 61.000000 15.047865 16.000000
28.893756 -0.195054 1.020974 0.000000 41.000000 15.020974 12.000000
32.983456 3.954804 0.525302 0.000000 58.000000 14.525302 0.000000
32.050953 4.398144 0.458716 0.000000 41.000000 14.458716 0.000000
30.220774 2.231155 1.106928 0.000000 77.000000 15.106928 15.000000
32.270693 4.565036 0.310213 0.000000 40.000000 14.310213 0.000000
33.682978 4.731864 0.332780 0.000000 40.000000 14.332780 0.000000
34.046074 2.719481 0.943958 0.000000 75.000000 14.943958 23.000000
32.340284 4.823740 0.503061 0.000000 52.000000 14.503061 0.000000
31.892443 0.730553 1.316793 0.000000 59.000000 15.316793 29.000000
33.874390 1.038029 0.460848 0.000000 50.000000 14.460848 0.000000
31.775770 1.247887 0.490946 0.000000 43.000000 14.490946 0.000000
34.811661 2.978648 0.456333 0.000000 26.000000 14.456333 0.000000
32.706591 0.126902 0.474255 0.000000 42.000000 14.474255 0.000000
30.119497 1.790560 0.334905 0.000000 49.000000 14.334905 0.000000
31.878452 4.961890 0.507949 0.000000 47.000000 14.507949 0.000000
32.849785 4.285545 1.057910 0.000000 53.000000 15.057910 4.000000
34.506439 2.037467 0.840405 0.000000 53.000000 14.840405 23.000000
33.104900 1.425820 1.309589 0.000000 50.000000 15.309589 26.000000
30.806519 -0.182357 0.755689 0.000000 58.000000 14.755689 20.000000
29.788753 -0.741890 0.431636 0.000000 42.000000 14.431636 0.000000
32.752365 3.274846 0.372079 0.000000 47.000000 14.372079 0.000000
32.385426 0.095050 1.017889 0.000000 73.000000 15.017889 27.000000
30.032215 1.241115 0.949147 0.000000 64.000000 14.949147 16.000000
32.802706 2.482538 0.739595 0.000000 55.000000 14.739595 24.000000
32.308949 2.509089 0.464238 0.000000 44.000000 14.464238 0.000000
30.941195 0.636528 1.106628 0.000000 63.000000 15.106628 21.000000
33.277700 0.783850 1.106074 0.000000 72.000000 15.106074 29.000000
29.674938 1.266815 0.981227 0.000000 78.000000 14.981227 19.000000
30.638966 1.715412 0.377301 0.000000 70.000000 14.377301 0.000000
32.905169 1.236925 1.014216 0.000000 48.000000 15.014216 26.000000
31.215170 0.841820 0.503740 0.000000 75.000000 14.503740 0.000000
28.957670 0.635471 0.858562 0.000000 74.000000 14.858562 19.000000
32.883749 0.365528 0.931590 0.000000 80.000000 14.931590 29.000000
29.350286 2.309290 0.939219 0.000000 59.000000 14.939219 18.000000
29.862803 -0.706592 0.445720 0.000000 50.000000 14.445720 0.000000
29.751950 -0.815353 0.435289 0.000000 43.000000 14.435289 0.000000
30.100164 1.874821 0.388817 0.000000 34.000000 14.388817 0.000000
30.114090 1.948164 0.931721 0.000000 71.000000 14.931721 15.000000
30.870115 1.866982 0.402617 0.000000 38.000000 14.402617 0.000000
29.928713 2.003412 0.447731 0.000000 37.000000 14.447731 0.000000
30.297783 1.008510 1.003672 0.000000 74.000000 15.003672 16.000000
28.992644 1.498803 1.099416 0.000000 58.000000 15.099416 19.000000
30.288361 4.586884 0.383329 0.000000 31.000000 14.383329 0.000000
34.318043 0.060915 0.527673 0.000000 56.000000 14.527673 0.000000
30.451246 4.016408 0.803586 0.000000 69.000000 14.803586 7.000000
33.560759 -0.441330 0.451637 0.000000 49.000000 14.451637 0.000000
33.709845 -0.569703 0.451664 0.000000 47.000000 14.451664 0.000000
34.151892 1.163839 0.894604 0.000000 75.000000 14.894604 25.000000
29.375722 2.386085 0.787498 0.000000 67.000000 14.787498 18.000000
31.276009 3.309183 0.414885 0.000000 47.000000 14.414885 0.000000
28.939839 0.350564 1.021252 0.000000 49.000000 15.021252 19.000000
29.903171 -1.257844 0.333499 0.000000 37.000000 14.333499 0.000000
29.191004 -1.045953 0.597662 0.000000 62.000000 14.597662 1.000000
29.991363 -0.975468 0.408249 0.000000 41.000000 14.408249 0.000000
34.170605 1.644562 1.152432 0.000000 64.000000 15.152432 25.000000
31.154705 2.234098 1.006446 0.000000 60.000000 15.006446 15.000000
30.111879 -0.699510 0.447233 0.000000 58.000000 14.447233 0.000000
33.522472 2.533406 0.923621 0.000000 80.000000 14.923621 23.000000
30.319490 0.982941 0.468204 0.000000 41.000000 14.468204 0.000000
34.522734 1.578800 1.118843 0.000000 55.000000 15.118843 25.000000
34.625799 1.626538 1.173380 0.000000 77.000000 15.173380 25.000000
30.749956 0.486331 0.657844 0.000000 56.000000 14.657844 21.000000
29.755919 0.715808 1.067481 0.000000 51.000000 15.067481 19.000000
30.659964 1.680965 0.365355 0.000000 65.000000 14.365355 0.000000
29.277150 4.781904 0.630323 0.000000 49.000000 14.630323 2.000000
30.770723 0.442344 0.734803 0.000000 74.000000 14.734803 21.000000
30.492289 2.142731 0.997873 0.000000 49.000000 14.997873 15.000000
31.821516 4.929943 0.409925 0.000000 34.000000 14.409925 0.000000
29.618185 2.082576 0.834187 0.000000 57.000000 14.834187 18.000000
31.248636 1.645219 0.806878 0.000000 55.000000 14.806878 15.000000
34.418446 3.743913 0.505857 0.000000 48.000000 14.505857 0.000000
33.634148 4.534699 0.724625 0.000000 50.000000 14.724625 11.000000
34.660667 -1.138303 0.301142 0.000000 46.000000 14.301142 0.000000
31.876755 -1.032283 0.772559 0.000000 71.000000 14.772559 5.000000
28.868181 0.814299 1.069071 0.000000 80.000000 15.069071 19.000000
34.487411 -0.811008 0.445387 0.000000 50.000000 14.445387 0.000000
32.513163 3.339738 0.327030 0.000000 39.000000 14.327030 0.000000
31.853121 3.370403 0.325401 0.000000 27.000000 14.325401 0.000000
30.719997 0.067221 0.976048 0.000000 72.000000 14.976048 20.000000
32.985584 3.394090 0.638596 0.000000 42.000000 14.638596 10.000000
29.382215 0.692240 1.258135 0.000000 73.000000 15.258135 19.000000
32.612326 0.989498 0.528638 0.000000 37.000000 14.528638 0.000000
33.181137 0.362559 0.364737 0.000000 40.000000 14.364737 0.000000
29.610681 3.239393 0.387879 0.000000 50.000000 14.387879 0.000000
35.091722 4.296479 0.428957 0.000000 45.000000 14.428957 0.000000
34.530216 4.693224 0.316464 0.000000 35.000000 14.316464 0.000000
29.593520 2.680917 0.846210 0.000000 75.000000 14.846210 17.000000
34.843626 4.899889 0.391774 0.000000 39.000000 14.391774 0.000000
34.989546 4.998916 0.447608 0.000000 51.000000 14.447608 0.000000
34.112717 1.657450 1.296961 0.000000 69.000000 15.296961 25.000000
32.803186 1.782593 0.801684 0.000000 61.000000 14.801684 26.000000
32.109602 0.106149 0.956223 0.000000 77.000000 14.956223 27.000000
29.025575 1.690204 1.105410 0.000000 73.000000 15.105410 19.000000
31.081095 1.617196 0.341248 0.000000 26.000000 14.341248 0.000000
34.105612 3.696285 1.160834 0.000000 55.000000 15.160834 22.000000
30.122467 4.016444 0.802203 0.000000 46.000000 14.802203 7.000000
33.899563 1.842739 0.979249 0.000000 67.000000 14.979249 23.000000
34.170166 1.633710 1.229987 0.000000 54.000000 15.229987 25.000000
30.583916 1.615006 0.455751 0.000000 51.000000 14.455751 0.000000
31.432161 0.698310 0.883050 0.000000 79.000000 14.883050 29.000000
34.669128 2.231141 0.912877 0.000000 43.000000 14.912877 23.000000
30.007580 2.972673 0.400546 0.000000 26.000000 14.400546 0.000000
31.842663 3.081670 0.369788 0.000000 26.000000 14.369788 0.000000
30.168026 2.153347 1.158289 0.000000 70.000000 15.158289 15.000000
28.907005 1.403542 1.336079 0.000000 62.000000 15.336079 19.000000
31.124046 -0.471559 0.450203 0.000000 55.000000 14.450203 0.000000
33.026468 2.450535 0.976789 0.000000 70.000000 14.976789 24.000000
34.056377 0.453859 0.667336 0.000000 44.000000 14.667336 14.000000
29.831076 3.415144 0.380568 0.000000 42.000000 14.380568 0.000000
34.483488 1.786009 1.132412 0.000000 73.000000 15.132412 25.000000
30.429737 1.332882 1.180352 0.000000 51.000000 15.180352 16.000000
29.317752 0.067228 1.031544 0.000000 50.000000 15.031544 12.000000
29.496718 0.663724 1.152166 0.000000 50.000000 15.152166 19.000000
29.267209 3.985924 0.476211 0.000000 48.000000 14.476211 0.000000
31.739353 -0.637052 0.443527 0.000000 33.000000 14.443527 0.000000
28.960064 4.475144 0.376389 0.000000 44.000000 14.376389 0.000000
28.887068 4.600208 0.353862 0.000000 47.000000 14.353862 0.000000
35.085291 4.989008 0.468283 0.000000 59.000000 14.468283 0.000000
31.805693 1.851411 0.654092 0.000000 28.000000 14.654092 28.000000
33.075024 0.775074 1.104127 0.000000 80.000000 15.104127 29.000000
33.787544 0.030555 0.805777 0.000000 65.000000 14.805777 13.000000
34.574680 1.704057 1.134011 0.000000 62.000000 15.134011 25.000000
34.819345 4.531068 0.376824 0.000000 39.000000 14.376824 0.000000
31.253546 4.107099 1.060630 0.000000 66.000000 15.060630 8.000000
31.761116 1.428428 0.943503 0.000000 78.000000 14.943503 28.000000
33.843521 3.350866 0.336951 0.000000 42.000000 14.336951 0.000000
33.320004 -0.664923 0.439406 0.000000 39.000000 14.439406 0.000000
31.257130 4.154707 1.233758 0.000000 69.000000 15.233758 8.000000
34.548929 2.042009 0.920510 0.000000 29.000000 14.920510 23.000000
33.550966 3.075121 0.372707 0.000000 36.000000 14.372707 0.000000
29.003847 -0.261187 0.945370 0.000000 45.000000 14.945370 12.000000
32.200079 -0.627513 0.700627 0.000000 63.000000 14.700627 5.000000
29.222055 2.278257 0.898163 0.000000 65.000000 14.898163 18.000000
33.092464 2.677186 0.439662 0.000000 45.000000 14.439662 0.000000
31.126242 1.901378 0.940824 0.000000 74.000000 14.940824 15.000000
31.520452 2.465691 0.465699 0.000000 45.000000 14.465699 0.000000
32.430746 2.069094 0.411235 0.000000 40.000000 14.411235 0.000000
28.953188 -0.864945 1.118760 0.000000 71.000000 15.118760 1.000000
31.832823 0.425823 1.209560 0.000000 79.000000 15.209560 29.000000
30.703001 1.674415 0.356443 0.000000 54.000000 14.356443 0.000000
29.967618 -0.418158 0.424765 0.000000 35.000000 14.424765 0.000000
29.120814 1.266679 1.287928 0.000000 75.000000 15.287928 19.000000
30.400145 0.656234 0.467855 0.000000 50.000000 14.467855 0.000000
28.937959 -0.226945 0.965126 0.000000 59.000000 14.965126 12.000000
28.923038 3.862021 0.466062 0.000000 50.000000 14.466062 0.000000
32.732630 2.169271 0.987596 0.000000 74.000000 14.987596 24.000000
34.063152 2.258968 1.179181 0.000000 69.000000 15.179181 23.000000
29.485889 3.537182 0.443199 0.000000 49.000000 14.443199 0.000000
29.647181 3.455353 0.400821 0.000000 41.000000 14.400821 0.000000
29.814205 3.369468 0.354004 0.000000 42.000000 14.354004 0.000000
29.971194 3.280730 0.320940 0.000000 40.000000 14.320940 0.000000
33.516872 1.913850 0.866314 0.000000 48.000000 14.866314 23.000000
33.803925 1.708101 1.195330 0.000000 52.000000 15.195330 25.000000
29.018802 3.110036 0.330575 0.000000 35.000000 14.330575 0.000000
30.215672 3.089356 0.360227 0.000000 49.000000 14.360227 0.000000
34.572594 2.969101 0.942348 0.000000 48.000000 14.942348 23.000000
33.129715 -1.279403 0.283737 0.000000 36.000000 14.283737 0.000000
30.012503 2.184687 0.505837 0.000000 48.000000 14.505837 0.000000
33.171488 3.569643 0.635878 0.000000 51.000000 14.635878 10.000000
30.327503 4.038840 0.957809 0.000000 62.000000 14.957809 7.000000
29.273913 -0.569556 0.472096 0.000000 56.000000 14.472096 0.000000
33.271950 1.368953 1.160162 0.000000 67.000000 15.160162 26.000000
29.991379 1.599856 0.630490 0.000000 46.000000 14.630490 16.000000
34.054628 3.742690 0.963215 0.000000 68.000000 14.963215 22.000000
32.308016 3.495816 0.374261 0.000000 40.000000 14.374261 0.000000
30.473097 1.187715 0.974416 0.000000 64.000000 14.974416 16.000000
31.442245 0.424564 0.737422 0.000000 57.000000 14.737422 29.000000
33.776876 -0.686013 0.433349 0.000000 56.000000 14.433349 0.000000
32.943607 1.263703 1.055309 0.000000 45.000000 15.055309 26.000000
33.862917 -0.839083 0.451914 0.000000 52.000000 14.451914 0.000000
34.388121 2.456478 0.956852 0.000000 69.000000 14.956852 23.000000
34.419708 1.248043 0.858510 0.000000 53.000000 14.858510 25.000000
28.855349 -0.569844 0.459838 0.000000 47.000000 14.459838 0.000000
28.966152 -0.466236 0.455462 0.000000 46.000000 14.455462 0.000000
29.107960 1.318748 1.328104 0.000000 72.000000 15.328104 19.000000
34.307016 3.806234 0.962820 0.000000 72.000000 14.962820 22.000000
33.669813 -0.250632 0.910755 0.000000 64.000000 14.910755 13.000000
34.373674 0.548154 0.606928 0.000000 51.000000 14.606928 14.000000
30.799503 1.694074 0.368306 0.000000 51.000000 14.368306 0.000000
30.902046 -0.376703 0.722668 0.000000 73.000000 14.722668 20.000000
30.556673 1.946366 0.707939 0.000000 51.000000 14.707939 15.000000
32.528715 1.910204 0.325495 0.000000 52.000000 14.325495 0.000000
34.570410 4.637369 0.320340 0.000000 28.000000 14.320340 0.000000
32.042501 2.328889 0.473335 0.000000 55.000000 14.473335 0.000000
33.449717 2.087560 0.814034 0.000000 51.000000 14.814034 23.000000
32.414400 2.478518 0.452415 0.000000 42.000000 14.452415 0.000000
33.667025 -0.121179 0.939534 0.000000 76.000000 14.939534 13.000000
32.976740 2.695587 0.438643 0.000000 41.000000 14.438643 0.000000
33.170599 2.764898 0.430932 0.000000 46.000000 14.430932 0.000000
32.305855 2.208121 1.084711 0.000000 84.000000 15.084711 24.000000
30.857586 -1.002231 1.202414 0.000000 44.000000 15.202414 6.000000
34.315943 -0.069592 0.822329 0.000000 54.000000 14.822329 30.000000
31.703522 -0.960125 0.968279 0.000000 69.000000 14.968279 5.000000
29.143923 -1.091455 0.511089 0.000000 45.000000 14.511089 0.000000
31.029671 -0.925388 1.004016 0.000000 66.000000 15.004016 6.000000
30.088720 0.221210 0.732451 0.000000 58.000000 14.732451 20.000000
32.182652 0.960855 1.101295 0.000000 73.000000 15.101295 29.000000
34.134129 1.676873 1.285463 0.000000 43.000000 15.285463 25.000000
33.921608 -0.976597 0.542266 0.000000 44.000000 14.542266 0.000000
34.901762 1.428228 1.024510 0.000000 49.000000 15.024510 25.000000
31.992683 0.066484 0.363928 0.000000 39.000000 14.363928 0.000000
33.301016 1.146201 0.929694 0.000000 52.000000 14.929694 26.000000
31.216280 -0.493922 0.446309 0.000000 48.000000 14.446309 0.000000
28.835678 -0.524711 0.458717 0.000000 48.000000 14.458717 0.000000
31.141512 -0.188937 0.731444 0.000000 70.000000 14.731444 20.000000
29.460293 4.086728 0.910530 0.000000 64.000000 14.910530 7.000000
31.344400 2.534453 0.481410 0.000000 53.000000 14.481410 0.000000
30.346264 1.606645 0.658796 0.000000 51.000000 14.658796 16.000000
29.277207 4.182108 0.877028 0.000000 48.000000 14.877028 7.000000
29.055446 0.392763 0.962702 0.000000 69.000000 14.962702 19.000000
34.710575 4.591143 0.324623 0.000000 28.000000 14.324623 0.000000
30.997316 3.235238 0.449173 0.000000 56.000000 14.449173 0.000000
32.514158 1.725065 1.052583 0.000000 44.000000 15.052583 28.000000
29.509192 2.487786 0.844675 0.000000 69.000000 14.844675 17.000000
32.430490 0.284623 1.012354 0.000000 44.000000 15.012354 29.000000
32.095938 -0.059577 1.156676 0.000000 76.000000 15.156676 27.000000
31.219858 -0.164882 0.755396 0.000000 61.000000 14.755396 20.000000
35.041952 1.590031 0.814002 0.000000 77.000000 14.814002 25.000000
29.543580 3.680541 0.450013 0.000000 46.000000 14.450013 0.000000
29.470205 3.816966 0.475399 0.000000 53.000000 14.475399 0.000000
32.398026 -0.775871 0.924713 0.000000 44.000000 14.924713 5.000000
29.321028 4.388603 0.376209 0.000000 37.000000 14.376209 0.000000
32.817245 3.431131 0.832251 0.000000 42.000000 14.832251 10.000000
34.811417 1.595145 1.183062 0.000000 67.000000 15.183062 25.000000
31.842842 -1.038107 0.960799 0.000000 52.000000 14.960799 5.000000
34.770336 1.970994 0.832110 0.000000 60.000000 14.832110 23.000000
32.523397 0.229282 0.956769 0.000000 42.000000 14.956769 29.000000
34.495962 4.053666 0.440311 0.000000 35.000000 14.440311 0.000000
32.957554 2.708343 0.432188 0.000000 42.000000 14.432188 0.000000
32.175386 4.864892 0.412628 0.000000 31.000000 14.412628 0.000000
32.433170 2.434125 0.455906 0.000000 47.000000 14.455906 0.000000
31.212299 -0.078254 1.060369 0.000000 73.000000 15.060369 20.000000
32.513891 1.231405 1.094470 0.000000 76.000000 15.094470 28.000000
34.983067 1.575157 0.813959 0.000000 39.000000 14.813959 25.000000
32.609573 1.841706 0.305431 0.000000 39.000000 14.305431 0.000000
31.006285 1.738622 0.353937 0.000000 65.000000 14.353937 0.000000
33.955296 3.518202 0.966543 0.000000 68.000000 14.966543 22.000000
30.617943 1.611389 0.444908 0.000000 41.000000 14.444908 0.000000
31.435497 1.457037 0.450276 0.000000 44.000000 14.450276 0.000000
31.634768 1.922118 0.885697 0.000000 67.000000 14.885697 15.000000
28.937854 4.612288 0.335714 0.000000 36.000000 14.335714 0.000000
30.128693 4.640668 0.337068 0.000000 65.000000 14.337068 0.000000
29.012655 4.493412 0.378074 0.000000 41.000000 14.378074 0.000000
33.941813 1.987840 0.760643 0.000000 34.000000 14.760643 23.000000
30.163696 1.402840 1.051863 0.000000 71.000000 15.051863 16.000000
29.240961 4.126576 0.479583 0.000000 43.000000 14.479583 0.000000
30.536594 0.297904 0.827071 0.000000 74.000000 14.827071 20.000000
30.535404 2.374458 0.587667 0.000000 44.000000 14.587667 15.000000
30.748724 3.770882 0.456644 0.000000 48.000000 14.456644 0.000000
29.620235 3.644281 0.448596 0.000000 43.000000 14.448596 0.000000
30.843027 3.643599 0.453857 0.000000 59.000000 14.453857 0.000000
30.329556 1.960485 0.755918 0.000000 55.000000 14.755918 15.000000
30.266087 2.018152 1.054417 0.000000 84.000000 15.054417 15.000000
29.251819 -1.124559 0.960949 0.000000 63.000000 14.960949 1.000000
29.207607 -0.523116 0.456958 0.000000 43.000000 14.456958 0.000000
32.820208 -0.813373 0.757544 0.000000 65.000000 14.757544 5.000000
