39.651518 -11.561409 -18.873309 0.000000 31.000000 14.249545 0.000000
38.734847 -11.684251 -18.110198 0.000000 38.000000 14.325636 0.000000
39.820000 -11.631758 -18.919252 0.000000 32.000000 14.313187 0.000000
37.350953 -11.738784 -20.773625 0.000000 67.000000 14.878109 25.000000
39.966781 -11.612254 -18.881462 0.000000 33.000000 14.277405 0.000000
36.830320 -11.342311 -20.493621 0.000000 44.000000 14.484351 13.000000
40.272853 -11.637263 -18.877488 0.000000 34.000000 14.278672 0.000000
40.422867 -11.648541 -18.882255 0.000000 29.000000 14.279324 0.000000
40.572014 -11.647822 -18.877794 0.000000 30.000000 14.266840 0.000000
41.605989 -12.407563 -17.012512 0.000000 41.000000 14.661937 1.000000
39.797818 -11.711261 -18.117706 0.000000 33.000000 14.274187 0.000000
38.739138 -11.482751 -21.119143 0.000000 51.000000 14.573524 22.000000
39.946636 -11.722604 -18.145269 0.000000 40.000000 14.278378 0.000000
37.816450 -11.811884 -20.617495 0.000000 69.000000 14.892321 23.000000
39.539651 -11.299567 -21.440358 0.000000 63.000000 14.380952 20.000000
41.165842 -11.680943 -18.942976 0.000000 32.000000 14.264937 0.000000
41.316940 -11.715718 -18.994679 0.000000 36.000000 14.295650 0.000000
38.467298 -11.816239 -19.014603 0.000000 56.000000 14.610051 11.000000
39.851996 -11.237676 -21.623158 0.000000 36.000000 14.323800 0.000000
39.989003 -11.207313 -21.610171 0.000000 48.000000 14.281722 0.000000
35.179307 -11.464372 -17.431701 0.000000 33.000000 14.272952 0.000000
35.233374 -11.269518 -18.888562 0.000000 42.000000 14.293160 0.000000
35.221730 -11.232441 -19.077636 0.000000 47.000000 14.285548 0.000000
35.388920 -11.988741 -18.149288 0.000000 43.000000 14.880993 7.000000
34.702389 -11.765575 -18.632710 0.000000 54.000000 14.783882 8.000000
38.495456 -11.920967 -21.310262 0.000000 43.000000 15.052190 25.000000
38.292920 -12.156848 -14.627674 0.000000 33.000000 14.307344 0.000000
38.332387 -12.119590 -14.826261 0.000000 35.000000 14.297158 0.000000
38.017488 -11.585395 -18.870547 0.000000 37.000000 14.394534 11.000000
37.148343 -12.154025 -14.080738 0.000000 25.000000 14.308605 0.000000
38.396410 -12.031414 -15.210995 0.000000 25.000000 14.262581 0.000000
38.648847 -11.697472 -18.707238 0.000000 33.000000 14.433757 11.000000
36.439102 -11.812639 -16.496619 0.000000 32.000000 14.383629 4.000000
37.207015 -12.060801 -14.496583 0.000000 24.000000 14.274069 0.000000
38.529676 -11.936692 -16.309281 0.000000 37.000000 14.322371 0.000000
38.717953 -11.589816 -20.655148 0.000000 35.000000 14.611764 22.000000
41.437693 -12.466696 -17.816420 0.000000 62.000000 14.852189 2.000000
37.337773 -11.900782 -15.854027 0.000000 37.000000 14.308148 0.000000
38.518342 -11.738535 -16.788283 0.000000 25.000000 14.198958 0.000000
38.655169 -11.819554 -20.066824 0.000000 52.000000 14.755605 10.000000
38.522126 -11.717534 -16.994901 0.000000 27.000000 14.208655 0.000000
37.063648 -12.456318 -15.032826 0.000000 28.000000 14.754415 15.000000
38.523982 -11.701248 -17.208161 0.000000 26.000000 14.224131 0.000000
35.307114 -11.851439 -17.908729 0.000000 44.000000 14.715966 7.000000
38.528951 -11.709096 -17.440442 0.000000 29.000000 14.266000 0.000000
36.696644 -11.672965 -19.935408 0.000000 69.000000 14.737459 24.000000
38.524124 -11.689442 -17.643450 0.000000 33.000000 14.277131 0.000000
37.324867 -11.727176 -16.862841 0.000000 35.000000 14.287752 0.000000
38.184847 -11.891632 -21.354299 0.000000 40.000000 15.052946 25.000000
37.162818 -12.227814 -15.613027 0.000000 51.000000 14.607874 15.000000
38.514133 -11.691349 -18.084425 0.000000 33.000000 14.345252 0.000000
38.504172 -11.685271 -18.294222 0.000000 34.000000 14.371161 0.000000
41.595999 -12.492661 -17.693372 0.000000 54.000000 14.847722 2.000000
37.085432 -11.424412 -18.747342 0.000000 36.000000 14.286935 0.000000
37.252591 -12.298445 -15.600307 0.000000 47.000000 14.668945 15.000000
37.046731 -11.396836 -18.927118 0.000000 35.000000 14.289327 0.000000
38.180020 -11.318874 -19.763165 0.000000 31.000000 14.252186 0.000000
40.108290 -11.413613 -21.223409 0.000000 28.000000 14.418823 20.000000
41.332579 -12.164334 -16.084467 0.000000 24.000000 14.304622 0.000000
40.318973 -12.154932 -15.590354 0.000000 31.000000 14.297483 0.000000
36.433640 -11.459229 -20.404309 0.000000 53.000000 14.615933 13.000000
38.414068 -11.698265 -19.884733 0.000000 74.000000 14.626920 10.000000
40.536455 -11.988357 -16.819237 0.000000 41.000000 14.299541 0.000000
37.691417 -11.670436 -21.019574 0.000000 61.000000 14.821874 25.000000
40.568884 -11.990465 -17.225981 0.000000 37.000000 14.359615 0.000000
41.695744 -11.883873 -18.034359 0.000000 30.000000 14.290611 0.000000
40.571363 -11.951319 -17.383314 0.000000 48.000000 14.344197 0.000000
41.697685 -11.849851 -18.190142 0.000000 27.000000 14.280056 0.000000
40.449540 -11.655507 -18.829197 0.000000 32.000000 14.276325 0.000000
39.541657 -11.411002 -21.484128 0.000000 57.000000 14.497190 20.000000
36.328401 -11.982365 -16.339126 0.000000 32.000000 14.535852 4.000000
40.335831 -11.506403 -19.238015 0.000000 30.000000 14.198486 0.000000
40.292715 -11.453783 -19.368104 0.000000 29.000000 14.169132 0.000000
38.580556 -11.785615 -20.028752 0.000000 48.000000 14.722042 10.000000
40.193511 -11.549151 -19.990060 0.000000 34.000000 14.362942 0.000000
40.127715 -11.447025 -20.065682 0.000000 30.000000 14.278370 0.000000
40.743191 -11.976386 -17.634953 0.000000 56.000000 14.393488 28.000000
36.896921 -11.820554 -18.120628 0.000000 77.000000 14.598531 6.000000
37.710940 -11.596153 -19.387957 0.000000 75.000000 14.504831 9.000000
39.895958 -11.317962 -20.617275 0.000000 39.000000 14.250295 0.000000
37.210693 -12.459817 -15.171867 0.000000 51.000000 14.767561 15.000000
34.593768 -11.167056 -19.306514 0.000000 32.000000 14.301854 0.000000
34.712710 -11.195460 -19.192793 0.000000 40.000000 14.304111 0.000000
38.549165 -11.784094 -19.112945 0.000000 79.000000 14.586860 12.000000
34.977509 -11.291251 -19.010924 0.000000 39.000000 14.351829 0.000000
35.086976 -11.287383 -18.871717 0.000000 35.000000 14.319182 0.000000
37.972090 -12.634350 -15.207017 0.000000 56.000000 14.888159 17.000000
39.591195 -12.090533 -18.196976 0.000000 61.000000 14.675355 19.000000
35.762504 -11.458418 -18.416544 0.000000 42.000000 14.369903 0.000000
35.871985 -11.428719 -18.270554 0.000000 36.000000 14.310777 0.000000
36.771307 -12.549040 -15.141602 0.000000 47.000000 14.883786 15.000000
38.765362 -12.257195 -16.069233 0.000000 31.000000 14.585205 18.000000
36.299097 -11.515357 -18.025461 0.000000 38.000000 14.327985 0.000000
36.004905 -11.655922 -20.047533 0.000000 60.000000 14.788845 13.000000
38.712720 -11.626590 -20.763450 0.000000 67.000000 14.664502 22.000000
37.074462 -11.679024 -20.749896 0.000000 46.000000 14.836256 25.000000
35.801525 -11.666738 -16.637884 0.000000 33.000000 14.308242 0.000000
35.959521 -11.695334 -16.584952 0.000000 31.000000 14.316807 0.000000
39.713135 -11.833772 -21.127032 0.000000 54.000000 14.848268 20.000000
37.949173 -11.988187 -20.433179 0.000000 58.000000 15.028908 23.000000
37.953590 -12.706323 -15.209338 0.000000 52.000000 14.960854 17.000000
37.774659 -11.694306 -17.362809 0.000000 33.000000 14.296085 0.000000
38.100232 -11.480193 -20.785545 0.000000 44.000000 14.569057 25.000000
37.055570 -11.783605 -16.219056 0.000000 30.000000 14.267843 0.000000
38.233581 -11.726894 -17.223376 0.000000 30.000000 14.273318 0.000000
38.374920 -11.698118 -17.141746 0.000000 18.000000 14.222287 0.000000
37.374985 -11.811182 -16.157208 0.000000 39.000000 14.262051 0.000000
38.526105 -11.701126 -17.096778 0.000000 21.000000 14.207310 0.000000
39.577508 -11.695684 -21.507239 0.000000 40.000000 14.778675 20.000000
38.831735 -11.702786 -17.024176 0.000000 25.000000 14.175392 0.000000
35.369798 -11.784913 -18.677462 0.000000 56.000000 14.759872 8.000000
39.160855 -11.795436 -17.073618 0.000000 29.000000 14.249575 0.000000
36.249255 -11.920886 -17.631635 0.000000 44.000000 14.673096 5.000000
39.330466 -11.863781 -17.129459 0.000000 34.000000 14.312627 0.000000
38.352632 -11.947224 -16.180646 0.000000 41.000000 14.326842 0.000000
39.418900 -12.019872 -18.098582 0.000000 43.000000 14.603899 19.000000
39.641030 -11.887778 -17.132930 0.000000 38.000000 14.313667 0.000000
38.675008 -11.983214 -16.220375 0.000000 35.000000 14.344213 0.000000
37.846224 -11.921410 -19.461990 0.000000 47.000000 14.826483 9.000000
38.826596 -11.977468 -16.221760 0.000000 40.000000 14.327458 0.000000
39.947462 -11.897159 -17.139733 0.000000 29.000000 14.301097 0.000000
38.982389 -11.988228 -16.247916 0.000000 36.000000 14.330346 0.000000
40.768584 -12.029687 -18.860252 0.000000 50.000000 14.626145 3.000000
39.511816 -11.784943 -21.192906 0.000000 68.000000 14.824901 20.000000
39.281485 -11.974497 -16.271767 0.000000 41.000000 14.298064 0.000000
39.420914 -11.935958 -16.255249 0.000000 24.000000 14.247219 0.000000
40.558699 -11.979820 -17.285988 0.000000 41.000000 14.358790 0.000000
39.556312 -11.897143 -16.242431 0.000000 21.000000 14.196951 0.000000
40.698774 -11.964515 -17.293844 0.000000 40.000000 14.334428 0.000000
34.997176 -12.000265 -18.739777 0.000000 74.000000 15.009248 8.000000
40.842109 -11.954040 -17.314005 0.000000 39.000000 14.316413 0.000000
36.099565 -11.601023 -17.870343 0.000000 53.000000 14.404287 5.000000
40.980794 -11.949085 -17.343043 0.000000 39.000000 14.305507 0.000000
41.686963 -12.396121 -16.738851 0.000000 38.000000 14.603975 1.000000
37.841762 -11.971986 -21.129550 0.000000 62.000000 15.124364 25.000000
40.132956 -11.928138 -16.465055 0.000000 24.000000 14.217617 0.000000
41.255931 -11.949884 -17.430876 0.000000 29.000000 14.298841 0.000000
37.643015 -12.278637 -15.581948 0.000000 47.000000 14.617597 18.000000
40.543765 -11.973418 -16.713611 0.000000 36.000000 14.268576 0.000000
40.672736 -11.970188 -16.785220 0.000000 33.000000 14.266418 0.000000
40.622890 -12.312198 -18.606898 0.000000 54.000000 14.877954 3.000000
40.906088 -11.871188 -16.837816 0.000000 20.000000 14.159220 0.000000
38.671875 -11.396313 -20.881048 0.000000 58.000000 14.457936 22.000000
41.840803 -12.605394 -17.541798 0.000000 50.000000 14.918135 2.000000
38.945827 -11.734318 -20.068991 0.000000 65.000000 14.650219 10.000000
38.640062 -11.213391 -19.992466 0.000000 30.000000 14.147950 0.000000
39.717640 -11.314061 -20.794219 0.000000 28.000000 14.286015 0.000000
39.847783 -12.561024 -15.418581 0.000000 50.000000 14.707523 30.000000
37.713044 -12.118748 -16.030945 0.000000 44.000000 14.521401 18.000000
35.772119 -11.511479 -18.304210 0.000000 46.000000 14.404825 7.000000
39.996996 -11.240610 -20.701102 0.000000 27.000000 14.178941 0.000000
38.925780 -11.992971 -19.817669 0.000000 43.000000 14.869442 10.000000
40.155654 -11.291382 -20.736657 0.000000 26.000000 14.222466 0.000000
35.962554 -11.663506 -20.107959 0.000000 59.000000 14.808454 13.000000
39.212863 -11.609624 -20.920112 0.000000 54.000000 14.633777 22.000000
36.226801 -12.003037 -15.573974 0.000000 46.000000 14.450161 15.000000
39.580714 -11.402459 -20.137175 0.000000 34.000000 14.285798 0.000000
39.729157 -11.408806 -20.151480 0.000000 40.000000 14.283121 0.000000
39.876524 -11.415279 -20.169763 0.000000 40.000000 14.281240 0.000000
40.019124 -11.412960 -20.183262 0.000000 35.000000 14.270333 0.000000
40.166019 -11.429103 -20.217457 0.000000 30.000000 14.280386 0.000000
39.162187 -12.068483 -19.155152 0.000000 43.000000 14.827889 12.000000
36.829255 -11.834253 -20.005691 0.000000 62.000000 14.897063 24.000000
40.592258 -11.452533 -20.319173 0.000000 40.000000 14.286840 0.000000
36.828152 -11.908113 -15.716159 0.000000 31.000000 14.332870 0.000000
36.824780 -11.807885 -15.846996 0.000000 28.000000 14.253720 0.000000
35.205181 -11.962274 -18.278814 0.000000 56.000000 14.887822 7.000000
41.498560 -12.195899 -17.697355 0.000000 42.000000 14.562937 2.000000
35.147782 -11.821522 -18.731947 0.000000 51.000000 14.820606 8.000000
35.693338 -11.690178 -16.303161 0.000000 39.000000 14.289702 0.000000
36.960288 -11.700885 -17.430213 0.000000 38.000000 14.373260 0.000000
35.696344 -11.651467 -16.511910 0.000000 30.000000 14.282310 0.000000
36.929964 -11.594519 -17.547920 0.000000 39.000000 14.288115 0.000000
39.151338 -11.791813 -21.808909 0.000000 42.000000 14.950026 29.000000
37.062121 -12.513231 -15.550375 0.000000 53.000000 14.887520 15.000000
36.914641 -11.511723 -18.364369 0.000000 34.000000 14.328875 0.000000
40.543878 -12.256570 -18.938213 0.000000 41.000000 14.878195 3.000000
38.803417 -11.740289 -19.952026 0.000000 39.000000 14.649345 10.000000
36.381245 -12.014077 -16.486393 0.000000 62.000000 14.585059 4.000000
36.868568 -11.418221 -18.706942 0.000000 43.000000 14.290987 0.000000
35.682017 -11.504320 -18.016621 0.000000 40.000000 14.361765 0.000000
40.901234 -12.269865 -18.424253 0.000000 41.000000 14.788343 3.000000
36.792278 -11.280992 -18.993987 0.000000 41.000000 14.203984 0.000000
40.663381 -12.345731 -16.647380 0.000000 42.000000 14.616964 27.000000
35.485320 -11.163850 -18.549485 0.000000 32.000000 14.119828 0.000000
35.476288 -11.179482 -18.777840 0.000000 28.000000 14.169832 0.000000
39.639635 -12.581422 -15.471592 0.000000 54.000000 14.751019 30.000000
39.634661 -12.063746 -17.645009 0.000000 27.000000 14.563720 19.000000
38.840527 -12.038412 -21.173277 0.000000 67.000000 15.121947 22.000000
40.005616 -12.127019 -15.569595 0.000000 29.000000 14.290222 0.000000
37.228989 -11.574362 -20.699107 0.000000 76.000000 14.713992 25.000000
37.393235 -11.834431 -16.292459 0.000000 29.000000 14.303706 0.000000
37.493539 -11.697564 -17.228545 0.000000 27.000000 14.300301 0.000000
37.368908 -11.758532 -18.524292 0.000000 43.000000 14.562160 6.000000
37.222881 -11.818733 -18.527214 0.000000 65.000000 14.632838 6.000000
40.028031 -11.840956 -19.594979 0.000000 49.000000 14.604340 26.000000
38.992221 -12.088193 -15.508163 0.000000 34.000000 14.318316 0.000000
40.136316 -11.878196 -16.343600 0.000000 18.000000 14.150080 0.000000
37.844881 -11.690392 -19.902042 0.000000 47.000000 14.664136 23.000000
40.168887 -11.924355 -16.611291 0.000000 18.000000 14.232929 0.000000
35.635686 -11.507747 -18.351974 0.000000 60.000000 14.418405 7.000000
37.305991 -11.814444 -20.502302 0.000000 31.000000 14.915768 23.000000
39.032435 -11.951695 -16.026024 0.000000 26.000000 14.257635 0.000000
35.019187 -11.839422 -17.937771 0.000000 80.000000 14.729882 7.000000
37.754249 -12.039740 -20.564796 0.000000 22.000000 15.113816 23.000000
36.698073 -11.908210 -15.587065 0.000000 32.000000 14.323484 0.000000
40.214247 -11.952274 -17.961255 0.000000 61.000000 14.457585 28.000000
40.216312 -11.878267 -17.405379 0.000000 33.000000 14.301891 0.000000
35.760667 -11.487333 -19.964793 0.000000 55.000000 14.628508 13.000000
40.213764 -11.842455 -17.573286 0.000000 29.000000 14.291706 0.000000
39.060233 -11.864477 -16.821949 0.000000 39.000000 14.287774 0.000000
38.462252 -11.900552 -21.273941 0.000000 53.000000 15.029139 25.000000
36.279622 -12.294328 -15.175174 0.000000 61.000000 14.674235 15.000000
40.175735 -11.734753 -18.277456 0.000000 38.000000 14.292922 0.000000
39.039915 -11.808764 -17.620681 0.000000 34.000000 14.352982 0.000000
40.156368 -11.704980 -18.446656 0.000000 34.000000 14.290136 0.000000
39.010937 -11.741754 -17.755842 0.000000 42.000000 14.309138 0.000000
40.133775 -11.664438 -18.604787 0.000000 34.000000 14.275328 0.000000
37.745697 -12.123093 -20.278080 0.000000 45.000000 15.154063 23.000000
39.403219 -11.686682 -21.087710 0.000000 42.000000 14.720473 20.000000
37.862421 -12.261606 -15.716997 0.000000 45.000000 14.604513 18.000000
36.775897 -12.074601 -16.619555 0.000000 49.000000 14.635115 4.000000
38.934293 -11.637966 -18.265955 0.000000 34.000000 14.288268 0.000000
40.065249 -11.648882 -19.173752 0.000000 40.000000 14.349600 0.000000
38.923662 -11.682488 -18.510718 0.000000 39.000000 14.369317 0.000000
39.904172 -11.493262 -19.776905 0.000000 41.000000 14.297729 0.000000
39.855804 -11.450036 -19.918611 0.000000 30.000000 14.279754 0.000000
38.236545 -11.534953 -18.228961 0.000000 24.000000 14.233180 0.000000
38.339634 -11.867559 -20.601487 0.000000 68.000000 14.905863 23.000000
39.711117 -11.384337 -20.390495 0.000000 34.000000 14.295836 0.000000
40.823387 -12.321862 -18.430360 0.000000 44.000000 14.846324 3.000000
36.534848 -12.625219 -14.945306 0.000000 54.000000 14.947368 15.000000
36.563381 -11.894752 -15.655701 0.000000 30.000000 14.330443 0.000000
38.811064 -11.877375 -21.632124 0.000000 45.000000 15.033494 29.000000
37.072566 -12.138970 -14.128039 0.000000 34.000000 14.306430 0.000000
37.355955 -11.750113 -20.827698 0.000000 33.000000 14.896939 25.000000
36.071780 -11.404153 -19.959184 0.000000 49.000000 14.522472 13.000000
36.722136 -12.228612 -16.590970 0.000000 44.000000 14.786745 4.000000
37.198291 -11.609196 -20.487701 0.000000 43.000000 14.719230 23.000000
40.563289 -12.174586 -18.667892 0.000000 57.000000 14.755755 3.000000
40.487211 -11.926329 -18.892783 0.000000 52.000000 14.550020 3.000000
39.184127 -12.579045 -15.389846 0.000000 52.000000 14.770473 14.000000
41.644401 -12.576089 -18.029758 0.000000 71.000000 14.976346 2.000000
37.264201 -12.428367 -15.144594 0.000000 53.000000 14.728511 15.000000
36.911979 -12.546617 -15.037185 0.000000 60.000000 14.855407 15.000000
36.757887 -11.725065 -18.111710 0.000000 43.000000 14.513404 6.000000
38.363454 -11.439841 -21.032751 0.000000 42.000000 14.546371 25.000000
40.515684 -12.125430 -15.757805 0.000000 29.000000 14.278605 0.000000
39.779547 -12.097265 -18.041383 0.000000 67.000000 14.644850 19.000000
40.775608 -12.126468 -15.908542 0.000000 30.000000 14.282651 0.000000
40.900620 -12.121051 -15.985663 0.000000 29.000000 14.279449 0.000000
39.490918 -11.674946 -18.513361 0.000000 27.000000 14.320008 0.000000
40.341982 -12.153246 -15.510897 0.000000 30.000000 14.282304 0.000000
36.351637 -11.553389 -20.209626 0.000000 69.000000 14.685979 13.000000
37.812060 -12.262456 -16.070167 0.000000 39.000000 14.661559 18.000000
37.744145 -12.102304 -16.485937 0.000000 50.000000 14.570446 18.000000
40.741746 -12.120443 -16.001059 0.000000 34.000000 14.292974 0.000000
37.698757 -11.921352 -20.959008 0.000000 71.000000 15.059759 25.000000
40.904884 -12.032310 -16.182952 0.000000 18.000000 14.220927 0.000000
40.992150 -12.067504 -16.372191 0.000000 31.000000 14.277237 0.000000
39.849547 -11.857480 -19.467717 0.000000 45.000000 14.615031 26.000000
35.223680 -12.065228 -18.291374 0.000000 42.000000 14.989832 7.000000
41.194054 -11.934682 -16.680130 0.000000 27.000000 14.176955 0.000000
39.016120 -11.893210 -19.458835 0.000000 50.000000 14.711041 12.000000
41.319639 -11.934542 -17.001264 0.000000 22.000000 14.215157 0.000000
38.559394 -12.196217 -16.165918 0.000000 47.000000 14.554781 18.000000
40.498907 -12.212913 -16.740494 0.000000 63.000000 14.512077 27.000000
36.751205 -12.669596 -14.886750 0.000000 56.000000 14.966311 15.000000
35.941690 -11.988113 -17.657028 0.000000 55.000000 14.766076 5.000000
34.679556 -11.137653 -19.425446 0.000000 40.000000 14.284133 0.000000
37.340673 -11.913350 -19.861669 0.000000 47.000000 14.915565 23.000000
36.076744 -12.181556 -15.927546 0.000000 51.000000 14.689894 16.000000
35.103255 -11.194105 -19.175360 0.000000 36.000000 14.271087 0.000000
35.255833 -11.227817 -19.110716 0.000000 39.000000 14.283361 0.000000
35.404612 -11.253309 -19.044066 0.000000 42.000000 14.287514 0.000000
35.532060 -11.228455 -18.930406 0.000000 31.000000 14.236629 0.000000
35.641858 -11.165793 -18.784618 0.000000 26.000000 14.145004 0.000000
39.944716 -11.778694 -19.674675 0.000000 68.000000 14.560988 26.000000
35.938834 -11.195449 -18.655159 0.000000 33.000000 14.132893 0.000000
36.799226 -12.070119 -16.273354 0.000000 40.000000 14.577537 4.000000
36.333217 -11.437205 -18.749827 0.000000 39.000000 14.355964 0.000000
36.475777 -11.433569 -18.678719 0.000000 47.000000 14.331196 0.000000
40.974518 -12.084303 -18.448598 0.000000 45.000000 14.603517 3.000000
34.709396 -11.800064 -18.914279 0.000000 62.000000 14.859190 8.000000
36.765945 -11.419935 -18.542099 0.000000 39.000000 14.275840 0.000000
39.856167 -11.659603 -21.252669 0.000000 40.000000 14.684523 20.000000
37.094827 -11.500857 -18.517760 0.000000 56.000000 14.327518 0.000000
36.825509 -11.783461 -18.212347 0.000000 47.000000 14.580897 6.000000
35.209046 -11.931051 -18.245511 0.000000 68.000000 14.851799 7.000000
34.922101 -11.201958 -19.278530 0.000000 26.000000 14.307652 0.000000
36.872425 -12.249090 -15.633008 0.000000 46.000000 14.653458 15.000000
38.789684 -12.092597 -19.323500 0.000000 49.000000 14.904426 12.000000
39.456936 -11.909107 -18.130831 0.000000 33.000000 14.496630 19.000000
39.548509 -11.508854 -19.080841 0.000000 30.000000 14.236220 0.000000
39.726851 -13.173734 -15.468839 0.000000 3.000000 15.328190 30.000000
37.178487 -12.082967 -20.297739 0.000000 65.000000 15.159676 23.000000
38.798571 -11.634637 -18.361551 0.000000 39.000000 14.309296 0.000000
37.325658 -12.165190 -15.522203 0.000000 52.000000 14.520498 15.000000
38.953308 -11.658485 -18.383765 0.000000 39.000000 14.324583 0.000000
36.111210 -11.587865 -17.875453 0.000000 44.000000 14.391203 5.000000
40.163823 -11.607695 -19.146492 0.000000 36.000000 14.297592 0.000000
39.250978 -11.662342 -18.399857 0.000000 31.000000 14.308598 0.000000
40.302830 -11.568669 -19.112060 0.000000 33.000000 14.243638 0.000000
35.859220 -11.933377 -16.267934 0.000000 35.000000 14.511928 16.000000
40.455151 -11.604383 -19.154087 0.000000 32.000000 14.273748 0.000000
39.216956 -11.982608 -18.170277 0.000000 59.000000 14.592848 19.000000
38.757603 -11.783478 -19.384219 0.000000 66.000000 14.611013 12.000000
39.180995 -11.729856 -20.852093 0.000000 39.000000 14.744609 22.000000
38.232081 -11.381845 -19.925731 0.000000 26.000000 14.334548 0.000000
38.519894 -12.249514 -16.071114 0.000000 36.000000 14.596199 18.000000
39.157197 -11.960133 -18.124229 0.000000 65.000000 14.568299 19.000000
39.972430 -11.646824 -18.486586 0.000000 30.000000 14.252424 0.000000
41.039847 -11.658990 -19.276060 0.000000 27.000000 14.302149 0.000000
40.116492 -11.663793 -18.538329 0.000000 37.000000 14.266109 0.000000
41.178997 -11.646853 -19.291774 0.000000 29.000000 14.282147 0.000000
35.100039 -11.965640 -18.598217 0.000000 57.000000 14.946415 8.000000
38.936583 -11.349651 -20.018464 0.000000 30.000000 14.264084 0.000000
41.044764 -11.672025 -18.894461 0.000000 36.000000 14.257959 0.000000
40.266948 -12.261203 -16.688956 0.000000 69.000000 14.569323 27.000000
38.642756 -11.835566 -21.050732 0.000000 70.000000 14.918455 22.000000
37.152265 -11.701000 -19.991499 0.000000 50.000000 14.739488 23.000000
38.488416 -11.866763 -20.012287 0.000000 76.000000 14.806481 10.000000
34.938222 -11.178215 -19.408234 0.000000 37.000000 14.302302 0.000000
34.935671 -11.179811 -19.621346 0.000000 51.000000 14.335719 0.000000
36.977566 -12.187811 -13.926765 0.000000 35.000000 14.331776 0.000000
37.315083 -11.843766 -18.554265 0.000000 60.000000 14.654671 6.000000
35.376544 -11.572801 -18.963821 0.000000 65.000000 14.592737 8.000000
36.567840 -11.375498 -19.762489 0.000000 36.000000 14.428041 24.000000
40.766030 -12.187726 -18.699190 0.000000 40.000000 14.758255 3.000000
38.380543 -11.855847 -16.671493 0.000000 34.000000 14.307559 0.000000
37.193832 -11.907308 -15.857001 0.000000 35.000000 14.325750 0.000000
38.352106 -11.719084 -16.742848 0.000000 30.000000 14.185414 0.000000
37.207019 -11.895075 -16.085890 0.000000 32.000000 14.346700 0.000000
35.949416 -11.965165 -16.048486 0.000000 46.000000 14.503960 16.000000
35.032453 -11.576915 -18.109153 0.000000 63.000000 14.495491 7.000000
38.367439 -11.725456 -17.199879 0.000000 28.000000 14.258437 0.000000
37.172902 -11.748815 -16.389260 0.000000 32.000000 14.250074 0.000000
38.363338 -11.700148 -17.394403 0.000000 31.000000 14.262678 0.000000
37.182284 -11.756559 -16.634294 0.000000 33.000000 14.293405 0.000000
37.832130 -12.767861 -15.324690 0.000000 48.000000 15.047719 17.000000
37.168699 -11.714285 -16.820553 0.000000 30.000000 14.280395 0.000000
38.349185 -11.674007 -17.801622 0.000000 36.000000 14.298437 0.000000
37.167870 -11.711229 -17.045861 0.000000 38.000000 14.310908 0.000000
39.727419 -12.281781 -15.380025 0.000000 52.000000 14.435404 30.000000
37.173687 -11.736861 -17.300137 0.000000 32.000000 14.373516 0.000000
36.152971 -12.207968 -15.569595 0.000000 51.000000 14.657094 15.000000
36.961764 -11.458906 -18.511547 0.000000 42.000000 14.295142 0.000000
36.924590 -11.430477 -18.685198 0.000000 37.000000 14.295669 0.000000
37.265875 -11.775966 -18.608748 0.000000 62.000000 14.599572 6.000000
40.038579 -11.428060 -21.413916 0.000000 30.000000 14.466558 20.000000
36.819998 -11.314237 -18.971084 0.000000 37.000000 14.231300 0.000000
38.028640 -11.958413 -21.281631 0.000000 57.000000 15.119644 25.000000
40.936374 -12.134453 -15.950487 0.000000 29.000000 14.284777 0.000000
40.998336 -12.116963 -16.100437 0.000000 29.000000 14.285185 0.000000
39.149354 -11.565348 -21.253728 0.000000 65.000000 14.644399 22.000000
40.003651 -12.116510 -15.615735 0.000000 31.000000 14.286858 0.000000
40.751188 -12.211334 -18.295024 0.000000 46.000000 14.722611 3.000000
41.201193 -12.030647 -16.712800 0.000000 25.000000 14.275906 0.000000
40.093892 -12.077822 -15.958712 0.000000 33.000000 14.292925 0.000000
38.473878 -12.002505 -21.519276 0.000000 57.000000 15.165247 25.000000
37.152251 -12.506776 -15.083261 0.000000 51.000000 14.805061 15.000000
38.650933 -12.059992 -19.954425 0.000000 64.000000 14.976321 10.000000
40.148022 -11.935601 -16.182366 0.000000 29.000000 14.181867 0.000000
39.399951 -11.768119 -18.218240 0.000000 51.000000 14.374830 19.000000
41.335911 -11.957078 -17.363417 0.000000 32.000000 14.289956 0.000000
40.395571 -12.058329 -17.902631 0.000000 70.000000 14.539949 28.000000
41.356143 -11.912947 -17.499004 0.000000 27.000000 14.265069 0.000000
41.642751 -12.194308 -17.379367 0.000000 59.000000 14.503396 2.000000
35.631094 -11.689440 -18.340922 0.000000 57.000000 14.596272 7.000000
38.317364 -11.520621 -19.731485 0.000000 43.000000 14.436190 10.000000
37.892133 -11.688881 -19.580890 0.000000 66.000000 14.611426 9.000000
41.402174 -11.863547 -18.008841 0.000000 32.000000 14.288651 0.000000
40.286327 -11.922113 -17.357111 0.000000 34.000000 14.332742 0.000000
41.405120 -11.799492 -18.126619 0.000000 27.000000 14.242760 0.000000
39.147871 -11.809316 -21.872848 0.000000 67.000000 14.977041 29.000000
34.567497 -11.886173 -18.715335 0.000000 61.000000 14.925126 8.000000
38.689601 -11.744582 -20.634143 0.000000 68.000000 14.763371 23.000000
41.407780 -11.778703 -18.474543 0.000000 26.000000 14.273738 0.000000
35.981929 -11.734360 -17.867010 0.000000 42.000000 14.544040 5.000000
40.208691 -11.657849 -18.607243 0.000000 35.000000 14.263614 0.000000
40.185271 -11.630837 -18.766173 0.000000 32.000000 14.262327 0.000000
40.157669 -11.599678 -18.918087 0.000000 33.000000 14.256221 0.000000
37.137577 -11.857774 -20.138373 0.000000 64.000000 14.916991 23.000000
40.102833 -11.603781 -19.285614 0.000000 55.000000 14.318940 0.000000
40.393860 -12.105514 -18.243359 0.000000 53.000000 14.637212 28.000000
39.934903 -11.468576 -19.855765 0.000000 36.000000 14.282809 0.000000
38.111345 -12.146806 -16.444145 0.000000 50.000000 14.580763 18.000000
39.833786 -11.405564 -20.138949 0.000000 41.000000 14.270267 0.000000
39.781944 -11.391798 -20.290780 0.000000 40.000000 14.283106 0.000000
35.160466 -11.365965 -18.850510 0.000000 49.000000 14.388047 8.000000
35.165658 -11.997044 -18.288247 0.000000 65.000000 14.926455 7.000000
37.952880 -11.932546 -21.283567 0.000000 43.000000 15.100069 25.000000
34.442699 -11.152205 -19.195725 0.000000 30.000000 14.282010 0.000000
38.728973 -11.797571 -21.167447 0.000000 50.000000 14.891900 22.000000
34.708936 -11.233755 -19.006081 0.000000 41.000000 14.314423 0.000000
38.089609 -12.299765 -15.218790 0.000000 63.000000 14.551218 17.000000
36.515799 -11.553530 -19.945775 0.000000 47.000000 14.634698 24.000000
38.339862 -11.990681 -18.925326 0.000000 53.000000 14.778303 11.000000
35.907980 -11.431397 -18.152238 0.000000 34.000000 14.293162 0.000000
36.068538 -11.496612 -18.119907 0.000000 34.000000 14.340706 0.000000
38.215119 -11.722925 -17.393908 0.000000 29.000000 14.296108 0.000000
36.346000 -11.509376 -17.943397 0.000000 43.000000 14.306404 0.000000
36.488775 -11.519487 -17.865907 0.000000 33.000000 14.294227 0.000000
35.561252 -11.555694 -16.696761 0.000000 31.000000 14.225389 0.000000
35.738744 -11.624347 -16.694772 0.000000 39.000000 14.279568 0.000000
35.905701 -11.663001 -16.664055 0.000000 35.000000 14.300682 0.000000
36.073180 -11.712274 -16.648709 0.000000 34.000000 14.334513 0.000000
37.260325 -11.681309 -17.647591 0.000000 39.000000 14.363888 0.000000
42.006109 -12.519683 -17.496108 0.000000 48.000000 14.814513 2.000000
39.045876 -11.785895 -20.982279 0.000000 42.000000 14.829272 22.000000
38.189431 -11.612328 -18.975004 0.000000 42.000000 14.423796 11.000000
36.651096 -12.407352 -15.425436 0.000000 63.000000 14.795181 15.000000
38.013523 -11.718966 -17.404118 0.000000 34.000000 14.308741 0.000000
36.190859 -11.901335 -17.704001 0.000000 51.000000 14.668916 5.000000
37.168703 -11.780307 -16.370535 0.000000 35.000000 14.278660 0.000000
38.313496 -11.718273 -17.321839 0.000000 30.000000 14.273487 0.000000
38.584224 -11.923815 -21.124312 0.000000 59.000000 15.020767 22.000000
36.323290 -11.419861 -18.695379 0.000000 34.000000 14.331514 0.000000
38.017063 -12.978428 -15.146011 0.000000 1.000000 15.215042 17.000000
38.611471 -11.699767 -17.235599 0.000000 24.000000 14.220228 0.000000
38.766581 -11.718626 -17.232771 0.000000 32.000000 14.226848 0.000000
39.359207 -11.792109 -18.159955 0.000000 44.000000 14.392866 19.000000
39.383824 -11.757795 -17.227070 0.000000 25.000000 14.218637 0.000000
36.644816 -11.744017 -19.743911 0.000000 72.000000 14.782942 24.000000
38.302699 -11.844715 -20.687707 0.000000 56.000000 14.898894 23.000000
41.179977 -12.469953 -16.808718 0.000000 51.000000 14.724932 1.000000
39.853172 -11.873564 -17.366949 0.000000 31.000000 14.318602 0.000000
38.895577 -11.929069 -16.490437 0.000000 31.000000 14.314498 0.000000
39.997991 -11.863729 -17.370097 0.000000 29.000000 14.298581 0.000000
39.040000 -11.919429 -16.504529 0.000000 27.000000 14.296325 0.000000
36.789317 -11.476529 -18.316687 0.000000 36.000000 14.296426 0.000000
39.186684 -11.920328 -16.536973 0.000000 36.000000 14.291101 0.000000
38.854081 -11.686617 -21.105746 0.000000 54.000000 14.764002 22.000000
39.330076 -11.920336 -16.573335 0.000000 35.000000 14.285826 0.000000
40.443113 -11.940336 -17.527881 0.000000 32.000000 14.364394 0.000000
36.615484 -11.617826 -19.466053 0.000000 40.000000 14.619422 24.000000
39.621767 -11.957686 -16.705686 0.000000 36.000000 14.320581 0.000000
39.752979 -11.932360 -16.727807 0.000000 34.000000 14.289117 0.000000
34.920021 -11.930064 -18.662432 0.000000 45.000000 14.934284 8.000000
37.189720 -11.970041 -18.050516 0.000000 54.000000 14.713711 6.000000
37.298731 -11.753938 -16.821979 0.000000 27.000000 14.310021 0.000000
40.033506 -11.983352 -16.905194 0.000000 36.000000 14.344845 0.000000
40.163058 -11.980414 -16.970345 0.000000 38.000000 14.341972 0.000000
41.251621 -11.910888 -17.771010 0.000000 42.000000 14.311227 0.000000
35.037437 -11.801460 -17.951714 0.000000 68.000000 14.693159 7.000000
40.418051 -11.987791 -17.125485 0.000000 38.000000 14.353290 0.000000
41.503581 -11.881456 -17.870771 0.000000 29.000000 14.278248 0.000000
41.625919 -11.892061 -17.953876 0.000000 33.000000 14.291934 0.000000
40.654962 -11.975270 -17.274652 0.000000 46.000000 14.345447 0.000000
41.743127 -11.877289 -18.012574 0.000000 26.000000 14.277353 0.000000
40.770321 -11.969842 -17.357419 0.000000 42.000000 14.343792 0.000000
40.878734 -11.933572 -17.410703 0.000000 34.000000 14.307863 0.000000
36.805628 -12.135220 -16.619645 0.000000 48.000000 14.692690 4.000000
41.096184 -11.948374 -17.626841 0.000000 34.000000 14.338360 0.000000
41.195620 -11.938866 -17.719530 0.000000 38.000000 14.335342 0.000000
38.162298 -11.605360 -19.783272 0.000000 41.000000 14.538996 9.000000
38.590693 -11.682842 -20.859432 0.000000 41.000000 14.743320 22.000000
41.472144 -11.875337 -17.987368 0.000000 37.000000 14.291874 0.000000
41.555945 -11.854747 -18.082247 0.000000 31.000000 14.279419 0.000000
38.477401 -11.984246 -19.032801 0.000000 48.000000 14.777672 11.000000
36.446959 -11.638866 -20.149907 0.000000 55.000000 14.754295 13.000000
38.084172 -12.253454 -15.221518 0.000000 49.000000 14.506361 17.000000
38.015542 -11.572372 -18.860038 0.000000 62.000000 14.380276 11.000000
38.879316 -11.236841 -20.088603 0.000000 29.000000 14.167527 0.000000
39.910005 -11.196995 -20.736273 0.000000 24.000000 14.147637 0.000000
39.038461 -11.283818 -20.135634 0.000000 27.000000 14.208979 0.000000
40.061143 -11.208016 -20.746902 0.000000 26.000000 14.148823 0.000000
39.196694 -11.336102 -20.192044 0.000000 34.000000 14.257125 0.000000
40.213082 -11.252452 -20.788057 0.000000 24.000000 14.187433 0.000000
40.516048 -12.051336 -17.737647 0.000000 63.000000 14.499572 28.000000
40.305294 -11.648466 -19.669805 0.000000 58.000000 14.404982 26.000000
38.488959 -11.794174 -20.480314 0.000000 52.000000 14.804375 23.000000
39.635989 -11.373573 -20.270498 0.000000 33.000000 14.272997 0.000000
38.038917 -11.637808 -20.685086 0.000000 50.000000 14.714128 23.000000
39.920222 -11.380028 -20.325383 0.000000 35.000000 14.266337 0.000000
40.060518 -11.380251 -20.354842 0.000000 37.000000 14.260479 0.000000
38.496536 -11.963374 -19.879155 0.000000 66.000000 14.881371 10.000000
40.337900 -11.405982 -20.447740 0.000000 45.000000 14.278983 0.000000
37.853522 -12.030758 -21.186767 0.000000 43.000000 15.189941 25.000000
36.429974 -11.906003 -15.291605 0.000000 31.000000 14.297399 0.000000
38.375097 -11.562299 -20.187513 0.000000 43.000000 14.540719 23.000000
39.089027 -12.074854 -19.368468 0.000000 59.000000 14.871306 12.000000
36.566916 -11.705447 -17.014863 0.000000 43.000000 14.345377 0.000000
39.499065 -11.863227 -21.196486 0.000000 61.000000 14.903578 20.000000
36.530108 -11.568163 -17.332619 0.000000 37.000000 14.259939 0.000000
40.233504 -11.942554 -18.256782 0.000000 49.000000 14.490459 28.000000
36.514778 -11.507634 -17.724283 0.000000 36.000000 14.259566 0.000000
36.510081 -11.497396 -17.934340 0.000000 35.000000 14.281020 0.000000
36.809664 -11.870312 -16.563915 0.000000 48.000000 14.422886 4.000000
35.571191 -11.730800 -17.596161 0.000000 55.000000 14.530904 5.000000
36.478621 -11.443986 -18.318937 0.000000 41.000000 14.287819 0.000000
36.481776 -11.472345 -18.560262 0.000000 41.000000 14.351392 0.000000
36.445024 -11.412090 -18.714078 0.000000 46.000000 14.317558 0.000000
39.455439 -11.504596 -21.631625 0.000000 52.000000 14.617813 20.000000
36.324122 -11.188104 -18.916081 0.000000 33.000000 14.135697 0.000000
39.135352 -12.003940 -19.019565 0.000000 65.000000 14.746105 12.000000
41.627471 -12.513061 -17.559426 0.000000 55.000000 14.845599 2.000000
35.024123 -11.222219 -19.034966 0.000000 42.000000 14.283854 0.000000
34.985534 -11.197448 -19.216297 0.000000 41.000000 14.289235 0.000000
36.637232 -12.272743 -15.355226 0.000000 64.000000 14.653048 15.000000
34.902713 -11.153878 -19.569720 0.000000 40.000000 14.304934 0.000000
39.656762 -12.153674 -15.347967 0.000000 23.000000 14.309581 0.000000
37.883569 -12.707302 -14.983633 0.000000 55.000000 14.933514 17.000000
38.542428 -12.159633 -14.645947 0.000000 30.000000 14.294214 0.000000
40.866077 -12.122528 -16.641980 0.000000 32.000000 14.380960 27.000000
38.582847 -12.144268 -14.854170 0.000000 31.000000 14.306978 0.000000
39.631865 -12.462271 -15.382635 0.000000 63.000000 14.620891 30.000000
37.435348 -11.665681 -17.757633 0.000000 31.000000 14.351781 0.000000
39.780628 -11.963781 -15.964187 0.000000 29.000000 14.204623 0.000000
38.642333 -12.082921 -15.234686 0.000000 28.000000 14.298568 0.000000
39.800911 -11.920900 -16.123153 0.000000 23.000000 14.184438 0.000000
39.827625 -11.926685 -16.343368 0.000000 27.000000 14.220860 0.000000
36.673809 -11.758730 -19.458560 0.000000 62.000000 14.752908 24.000000
37.352982 -11.502061 -18.728465 0.000000 32.000000 14.340766 0.000000
39.877871 -11.914774 -16.964521 0.000000 27.000000 14.297628 0.000000
39.714764 -11.752434 -21.434542 0.000000 69.000000 14.813612 20.000000
39.881053 -11.879114 -17.133750 0.000000 29.000000 14.287362 0.000000
38.732870 -11.928127 -16.402013 0.000000 38.000000 14.312559 0.000000
39.885554 -11.873645 -17.336556 0.000000 27.000000 14.311755 0.000000
38.728400 -11.883901 -16.567445 0.000000 32.000000 14.293852 0.000000
39.866851 -11.760147 -17.415919 0.000000 27.000000 14.213016 0.000000
38.723613 -11.847345 -16.747379 0.000000 32.000000 14.284885 0.000000
39.484844 -12.355482 -15.479019 0.000000 46.000000 14.540857 14.000000
38.701457 -11.758546 -16.864992 0.000000 28.000000 14.216440 0.000000
39.576644 -11.698051 -21.334223 0.000000 51.000000 14.755376 20.000000
36.035235 -12.070109 -17.622157 0.000000 61.000000 14.834783 5.000000
39.850705 -11.757250 -18.026785 0.000000 34.000000 14.302092 0.000000
38.680897 -11.714922 -17.242851 0.000000 29.000000 14.231077 0.000000
39.829913 -11.710416 -18.175614 0.000000 28.000000 14.279563 0.000000
38.681572 -11.742824 -17.483037 0.000000 33.000000 14.294214 0.000000
40.019481 -11.570870 -21.045466 0.000000 29.000000 14.554081 20.000000
36.583769 -12.484166 -15.322932 0.000000 23.000000 14.860719 15.000000
38.802451 -11.674520 -20.878776 0.000000 60.000000 14.722209 22.000000
41.628357 -12.601051 -16.965002 0.000000 44.000000 14.844012 1.000000
39.763934 -11.639842 -18.692578 0.000000 35.000000 14.291669 0.000000
38.617707 -11.681504 -18.029168 0.000000 39.000000 14.319620 0.000000
39.733999 -11.606354 -18.851857 0.000000 31.000000 14.284534 0.000000
36.213011 -12.104486 -15.533887 0.000000 34.000000 14.545274 15.000000
38.073018 -12.198706 -15.144879 0.000000 37.000000 14.441822 17.000000
38.557112 -11.631865 -18.378152 0.000000 37.000000 14.327019 0.000000
38.147478 -11.932098 -21.381320 0.000000 54.000000 15.099647 25.000000
35.857227 -12.527745 -16.158169 0.000000 49.000000 15.081879 16.000000
39.588906 -11.520748 -19.519376 0.000000 40.000000 14.310072 0.000000
34.586224 -11.196830 -19.179110 0.000000 26.000000 14.312854 0.000000
38.398939 -11.516091 -19.029027 0.000000 40.000000 14.321311 0.000000
39.495697 -11.454081 -19.818692 0.000000 34.000000 14.295733 0.000000
39.446189 -11.424600 -19.968837 0.000000 33.000000 14.292651 0.000000
39.677096 -11.892341 -21.104125 0.000000 51.000000 14.905305 20.000000
39.337720 -11.362081 -20.263181 0.000000 31.000000 14.282801 0.000000
38.191102 -11.386897 -19.634354 0.000000 38.000000 14.299306 0.000000
39.260867 -11.246599 -20.331793 0.000000 28.000000 14.184841 0.000000
37.741831 -11.486071 -19.548383 0.000000 32.000000 14.417806 9.000000
36.143042 -11.784813 -15.546970 0.000000 24.000000 14.237201 0.000000
36.317749 -11.852251 -15.551271 0.000000 29.000000 14.291323 0.000000
37.300826 -11.723043 -20.866907 0.000000 52.000000 14.880177 25.000000
36.637832 -11.909544 -15.477756 0.000000 30.000000 14.313053 0.000000
34.522933 -11.884021 -18.836554 0.000000 56.000000 14.944328 8.000000
37.183814 -12.146398 -14.185932 0.000000 24.000000 14.314065 0.000000
38.360886 -11.997808 -15.206536 0.000000 21.000000 14.231427 0.000000
37.344873 -12.153174 -14.201225 0.000000 23.000000 14.311018 0.000000
39.451990 -12.152718 -15.526943 0.000000 33.000000 14.350477 0.000000
40.499282 -11.972829 -18.439758 0.000000 65.000000 14.527688 3.000000
38.211344 -11.790654 -18.829502 0.000000 51.000000 14.576400 11.000000
39.874911 -12.126104 -15.639748 0.000000 32.000000 14.309477 0.000000
40.010082 -12.114979 -15.685821 0.000000 30.000000 14.295279 0.000000
36.854023 -11.841827 -18.288157 0.000000 74.000000 14.647587 6.000000
38.419444 -11.519444 -21.027721 0.000000 44.000000 14.619948 25.000000
38.716319 -12.039941 -19.462305 0.000000 68.000000 14.878585 12.000000
40.530069 -12.092918 -15.951330 0.000000 29.000000 14.274217 0.000000
36.649826 -11.449908 -20.144839 0.000000 39.000000 14.552097 13.000000
40.770805 -12.063495 -16.095560 0.000000 24.000000 14.248688 0.000000
40.883227 -12.034454 -16.157179 0.000000 15.000000 14.220827 0.000000
39.866992 -12.155482 -15.406305 0.000000 36.000000 14.304364 0.000000
41.002826 -12.080564 -16.313917 0.000000 30.000000 14.280665 0.000000
39.974888 -12.137178 -15.501058 0.000000 32.000000 14.292349 0.000000
41.116061 -12.121159 -16.466844 0.000000 33.000000 14.334972 0.000000
41.624283 -12.111093 -17.936803 0.000000 44.000000 14.505507 2.000000
34.715965 -11.821946 -18.727142 0.000000 62.000000 14.852483 8.000000
40.282515 -12.118439 -15.858799 0.000000 33.000000 14.304084 0.000000
40.377700 -12.115615 -15.991633 0.000000 31.000000 14.313937 0.000000
40.844059 -11.996867 -16.730732 0.000000 50.000000 14.271868 0.000000
37.777355 -11.979467 -20.325587 0.000000 36.000000 15.017131 23.000000
40.958729 -11.895188 -16.930288 0.000000 19.000000 14.192698 0.000000
41.024307 -11.977407 -17.183493 0.000000 31.000000 14.306496 0.000000
35.740578 -12.065154 -16.229808 0.000000 42.000000 14.645050 16.000000
38.963915 -11.892862 -19.471873 0.000000 39.000000 14.716524 12.000000
37.607072 -11.766641 -20.596418 0.000000 63.000000 14.860176 23.000000
41.198043 -11.927259 -17.779858 0.000000 42.000000 14.332676 0.000000
41.228129 -11.889680 -17.903085 0.000000 34.000000 14.311681 0.000000
37.172923 -11.744628 -20.189518 0.000000 39.000000 14.810381 23.000000
37.873514 -11.869510 -20.191837 0.000000 5.000000 14.881672 23.000000
38.730871 -12.185986 -16.188077 0.000000 39.000000 14.535207 18.000000
41.315062 -11.824701 -18.502527 0.000000 23.000000 14.330161 0.000000
35.921821 -11.597522 -19.962438 0.000000 46.000000 14.724809 13.000000
41.332748 -11.716321 -18.901617 0.000000 34.000000 14.281245 0.000000
34.426178 -11.196107 -19.370837 0.000000 49.000000 14.352542 0.000000
34.544823 -11.168871 -19.245912 0.000000 35.000000 14.298290 0.000000
34.688253 -11.187454 -19.166706 0.000000 45.000000 14.294164 0.000000
34.838041 -11.214796 -19.100745 0.000000 57.000000 14.300169 0.000000
36.442697 -11.424537 -18.758079 0.000000 33.000000 14.336541 0.000000
36.818847 -12.493146 -15.530041 0.000000 60.000000 14.882820 15.000000
35.289236 -11.287554 -18.910917 0.000000 46.000000 14.310104 0.000000
40.675910 -11.782478 -18.830769 0.000000 55.000000 14.384898 3.000000
39.113676 -11.582070 -21.272573 0.000000 53.000000 14.666345 22.000000
36.711711 -12.043698 -16.618710 0.000000 52.000000 14.609299 4.000000
35.843206 -11.242631 -18.568739 0.000000 33.000000 14.173708 0.000000
36.045228 -11.379413 -18.637347 0.000000 39.000000 14.303726 0.000000
36.194740 -11.385281 -18.583009 0.000000 35.000000 14.290303 0.000000
36.821970 -12.138600 -16.558764 0.000000 58.000000 14.685763 4.000000
39.031941 -11.998144 -21.841703 0.000000 42.000000 15.167255 29.000000
41.430794 -12.542630 -16.843658 0.000000 35.000000 14.783101 1.000000
37.606937 -11.372441 -19.297524 0.000000 35.000000 14.278547 0.000000
40.131084 -11.776884 -19.730829 0.000000 61.000000 14.553658 26.000000
41.050315 -12.161297 -18.541610 0.000000 53.000000 14.687608 3.000000
36.990473 -11.515292 -18.461378 0.000000 50.000000 14.341153 0.000000
35.180141 -11.591506 -18.134765 0.000000 69.000000 14.502679 7.000000
37.608232 -11.548064 -18.365326 0.000000 39.000000 14.313176 0.000000
35.888537 -11.764670 -17.615210 0.000000 63.000000 14.543488 5.000000
38.655852 -12.090364 -16.144458 0.000000 42.000000 14.440025 18.000000
38.169885 -11.510722 -18.130769 0.000000 27.000000 14.199668 0.000000
37.052392 -11.162713 -20.549094 0.000000 41.000000 14.298943 0.000000
36.504140 -12.314070 -16.433753 0.000000 54.000000 14.863906 4.000000
39.189264 -11.913067 -18.155531 0.000000 56.000000 14.524147 19.000000
39.891720 -11.606850 -19.151255 0.000000 31.000000 14.317740 0.000000
38.989044 -11.684812 -18.458942 0.000000 37.000000 14.359047 0.000000
39.130392 -11.662684 -18.451481 0.000000 31.000000 14.325587 0.000000
40.182822 -11.598285 -19.161885 0.000000 42.000000 14.289184 0.000000
39.274483 -11.664892 -18.473918 0.000000 34.000000 14.320361 0.000000
38.374759 -11.691341 -17.919881 0.000000 33.000000 14.331189 0.000000
38.844146 -11.661421 -20.137052 0.000000 66.000000 14.596020 10.000000
41.688453 -12.323492 -17.048392 0.000000 37.000000 14.578220 1.000000
36.956675 -11.599022 -19.478023 0.000000 48.000000 14.577236 24.000000
40.616641 -11.635966 -19.255314 0.000000 36.000000 14.307895 0.000000
39.702005 -11.676113 -18.570976 0.000000 35.000000 14.313989 0.000000
40.759829 -11.656203 -19.301594 0.000000 28.000000 14.324056 0.000000
37.414745 -12.049495 -21.060020 0.000000 41.000000 15.222285 25.000000
40.905208 -11.698395 -19.372674 0.000000 33.000000 14.365387 0.000000
39.332322 -11.661197 -21.726545 0.000000 54.000000 14.795508 29.000000
37.260354 -12.262576 -15.538815 0.000000 36.000000 14.623863 15.000000
40.111332 -11.648866 -18.667570 0.000000 34.000000 14.270969 0.000000
40.244101 -11.644048 -18.712559 0.000000 30.000000 14.263008 0.000000
37.735494 -12.117969 -15.869682 0.000000 42.000000 14.495008 18.000000
40.504113 -11.657974 -18.835268 0.000000 32.000000 14.275593 0.000000
40.631447 -11.652479 -18.892131 0.000000 30.000000 14.269133 0.000000
38.838292 -11.920745 -19.610948 0.000000 59.000000 14.774035 10.000000
40.878466 -11.682300 -19.055093 0.000000 29.000000 14.304339 0.000000
36.310784 -11.538498 -20.414228 0.000000 60.000000 14.704727 13.000000
41.108760 -11.650823 -19.173201 0.000000 29.000000 14.273683 0.000000
34.662329 -11.249040 -18.827981 0.000000 48.000000 14.306516 0.000000
37.814859 -12.008756 -20.331462 0.000000 47.000000 15.044091 23.000000
35.405239 -11.838915 -18.079699 0.000000 66.000000 14.721699 7.000000
36.412800 -11.718215 -16.539310 0.000000 34.000000 14.298819 0.000000
37.869064 -12.039866 -14.921608 0.000000 34.000000 14.267225 0.000000
37.965883 -11.788256 -16.492843 0.000000 32.000000 14.245269 0.000000
36.773386 -11.861997 -15.716918 0.000000 33.000000 14.291589 0.000000
37.968756 -11.778498 -17.153556 0.000000 39.000000 14.333565 0.000000
39.087812 -12.352250 -15.485717 0.000000 45.000000 14.568246 14.000000
36.738955 -11.739574 -16.746871 0.000000 36.000000 14.326408 0.000000
37.899497 -11.632164 -17.643411 0.000000 38.000000 14.267182 0.000000
36.708752 -11.680652 -16.907018 0.000000 36.000000 14.294341 0.000000
36.531849 -12.008371 -16.371840 0.000000 59.000000 14.551197 4.000000
37.420383 -12.428022 -15.391241 0.000000 53.000000 14.753167 15.000000
37.831219 -11.505699 -17.936466 0.000000 30.000000 14.191089 0.000000
36.671954 -11.649548 -17.315478 0.000000 41.000000 14.327079 0.000000
37.783409 -11.415239 -18.052056 0.000000 29.000000 14.122617 0.000000
36.920755 -12.403167 -15.621314 0.000000 57.000000 14.800056 15.000000
37.749949 -12.090041 -20.355674 0.000000 36.000000 15.132678 23.000000
37.954395 -12.421474 -14.918085 0.000000 59.000000 14.636647 17.000000
39.289964 -11.920984 -18.067396 0.000000 63.000000 14.511361 19.000000
39.003462 -12.253205 -15.430336 0.000000 31.000000 14.468637 14.000000
36.522072 -11.470851 -17.975484 0.000000 40.000000 14.260061 0.000000
37.765007 -11.676415 -19.421623 0.000000 80.000000 14.584950 9.000000
36.452438 -11.438967 -18.353631 0.000000 43.000000 14.289973 0.000000
37.598727 -11.392594 -19.221449 0.000000 38.000000 14.287732 0.000000
36.411853 -11.421456 -18.534305 0.000000 43.000000 14.302565 0.000000
37.535215 -11.313160 -19.335338 0.000000 34.000000 14.231050 0.000000
35.472924 -11.931545 -18.260887 0.000000 48.000000 14.834909 7.000000
36.290788 -11.299161 -18.805675 0.000000 40.000000 14.231295 0.000000
36.195005 -11.154261 -18.860187 0.000000 29.000000 14.103643 0.000000
36.147519 -11.144960 -19.042578 0.000000 27.000000 14.125099 0.000000
36.095611 -11.799328 -17.906991 0.000000 58.000000 14.605573 5.000000
41.677081 -12.371734 -17.160994 0.000000 53.000000 14.643363 1.000000
