-42.972408 31.391140 -17.616002 0.000000 34.000000 14.331468 0.000000
-42.309933 31.333058 -14.117437 0.000000 51.000000 14.328495 0.000000
-42.940993 31.388931 -17.709842 0.000000 42.000000 14.327506 0.000000
-46.225709 31.357199 -14.811932 0.000000 45.000000 14.362957 0.000000
-42.213424 31.663905 -17.009690 0.000000 51.000000 14.610120 15.000000
-40.697141 31.357205 -14.805423 0.000000 46.000000 14.332010 0.000000
-41.930969 31.327968 -12.369664 0.000000 34.000000 14.350662 0.000000
-42.524575 31.791854 -13.144475 0.000000 71.000000 14.804784 30.000000
-40.629575 31.610311 -17.152693 0.000000 32.000000 14.545231 13.000000
-44.973522 31.302249 -13.733785 0.000000 46.000000 14.319107 0.000000
-45.615025 31.297759 -14.132169 0.000000 48.000000 14.311524 0.000000
-45.912693 31.546561 -15.635576 0.000000 76.000000 14.536682 5.000000
-45.576095 31.327866 -15.186449 0.000000 57.000000 14.323682 0.000000
-45.635035 31.364100 -14.862019 0.000000 54.000000 14.365696 0.000000
-46.151180 31.287310 -13.897473 0.000000 43.000000 14.308035 0.000000
-46.291220 31.276513 -13.845121 0.000000 43.000000 14.298907 0.000000
-41.859121 31.703072 -16.814962 0.000000 56.000000 14.650564 15.000000
-45.679029 31.360425 -17.044122 0.000000 44.000000 14.325581 0.000000
-43.953662 31.325998 -13.341424 0.000000 25.000000 14.343719 0.000000
-40.394964 31.352285 -15.003522 0.000000 48.000000 14.322062 0.000000
-45.323752 31.798895 -13.008131 0.000000 76.000000 14.829843 25.000000
-43.426230 31.735376 -12.548443 0.000000 74.000000 14.763402 28.000000
-41.968000 31.377636 -12.832271 0.000000 33.000000 14.392753 17.000000
-44.243609 31.308115 -13.348221 0.000000 51.000000 14.327354 0.000000
-44.191335 31.300878 -14.296544 0.000000 42.000000 14.303880 0.000000
-43.209080 31.486610 -13.924387 0.000000 62.000000 14.490321 16.000000
-44.921415 31.361427 -16.890071 0.000000 62.000000 14.324916 0.000000
-39.462861 31.421294 -16.506379 0.000000 25.000000 14.360555 0.000000
-40.643060 31.410060 -16.872816 0.000000 29.000000 14.349793 0.000000
-43.159361 31.639228 -17.898192 0.000000 77.000000 14.575823 22.000000
-39.904722 31.392382 -17.327012 0.000000 32.000000 14.320333 0.000000
-41.007815 31.711800 -13.233266 0.000000 72.000000 14.714728 27.000000
-40.848952 31.386773 -16.332544 0.000000 27.000000 14.336750 0.000000
-39.724632 31.378347 -15.853236 0.000000 24.000000 14.330067 0.000000
-43.309228 31.443186 -18.168683 0.000000 48.000000 14.376106 0.000000
-44.633708 31.402116 -16.895745 0.000000 38.000000 14.363887 0.000000
-43.305244 31.191410 -13.659864 0.000000 37.000000 14.200155 0.000000
-41.466003 31.288027 -16.403379 0.000000 43.000000 14.240296 0.000000
-43.751800 31.328942 -13.238442 0.000000 43.000000 14.347260 0.000000
-44.815981 31.558280 -17.774028 0.000000 58.000000 14.506283 21.000000
-43.087840 31.561684 -12.708841 0.000000 47.000000 14.585139 28.000000
-45.264851 31.227056 -17.400843 0.000000 20.000000 14.183908 0.000000
-45.457667 31.211140 -14.292422 0.000000 27.000000 14.221340 0.000000
-41.194690 31.381090 -15.706835 0.000000 32.000000 14.343531 0.000000
-40.398709 31.453135 -16.899952 0.000000 38.000000 14.391032 13.000000
-42.587682 31.714541 -12.093252 0.000000 79.000000 14.745512 28.000000
-41.330429 31.378555 -15.510716 0.000000 31.000000 14.345056 0.000000
-45.880441 31.588252 -15.776344 0.000000 44.000000 14.575819 5.000000
-44.493979 31.365696 -16.882198 0.000000 56.000000 14.326915 0.000000
-42.399805 31.366593 -16.226562 0.000000 42.000000 14.327069 0.000000
-41.477322 31.365556 -15.320552 0.000000 30.000000 14.336082 0.000000
-41.800350 31.705092 -12.866281 0.000000 62.000000 14.718644 17.000000
-41.627250 31.405801 -15.118041 0.000000 40.000000 14.380568 0.000000
-39.832139 31.418335 -16.454201 0.000000 32.000000 14.360549 0.000000
-41.996397 31.503111 -16.829095 0.000000 48.000000 14.451168 15.000000
-41.508186 31.212287 -14.628386 0.000000 39.000000 14.194648 0.000000
-43.555790 31.275942 -18.426944 0.000000 34.000000 14.205932 0.000000
-43.712470 31.247531 -13.860207 0.000000 39.000000 14.255187 0.000000
-39.372412 31.426289 -16.854780 0.000000 21.000000 14.359184 0.000000
-44.368637 31.292468 -13.127866 0.000000 38.000000 14.316116 0.000000
-40.084572 31.305363 -15.680961 0.000000 41.000000 14.262014 0.000000
-40.668110 31.400028 -16.644672 0.000000 37.000000 14.343739 0.000000
-40.527826 31.421583 -16.940838 0.000000 73.000000 14.359523 0.000000
-40.191913 31.752486 -16.264335 0.000000 64.000000 14.699861 12.000000
-41.411855 31.375789 -13.881239 0.000000 29.000000 14.370145 0.000000
-42.534164 31.369304 -14.296839 0.000000 39.000000 14.362979 0.000000
-42.007519 31.351391 -13.995912 0.000000 46.000000 14.347170 0.000000
-42.639473 31.353047 -14.227721 0.000000 37.000000 14.348479 0.000000
-43.585827 31.386106 -14.959139 0.000000 35.000000 14.374552 0.000000
-46.142051 31.309052 -14.056214 0.000000 63.000000 14.327053 0.000000
-43.440494 31.161266 -13.808332 0.000000 37.000000 14.168279 0.000000
-45.324954 31.411788 -18.701418 0.000000 43.000000 14.347082 0.000000
-43.821581 31.670599 -17.521979 0.000000 61.000000 14.617235 23.000000
-44.093691 31.355467 -13.413687 0.000000 52.000000 14.372755 0.000000
-43.134950 31.314642 -12.948774 0.000000 40.000000 14.334367 0.000000
-41.769211 31.670636 -12.166160 0.000000 62.000000 14.695789 26.000000
-42.939486 31.341347 -14.277973 0.000000 42.000000 14.337621 0.000000
-44.479529 31.308216 -13.280153 0.000000 39.000000 14.329925 0.000000
-41.345079 31.301240 -15.252722 0.000000 35.000000 14.272174 0.000000
-43.930701 31.343135 -16.712205 0.000000 27.000000 14.304051 0.000000
-44.237865 31.343266 -13.823772 0.000000 52.000000 14.354471 0.000000
-45.769987 31.344549 -15.023397 0.000000 29.000000 14.344193 0.000000
-42.590876 31.359344 -16.275318 0.000000 24.000000 14.320075 0.000000
-45.665919 31.326052 -12.929183 0.000000 53.000000 14.360324 0.000000
-45.700324 31.326701 -17.540136 0.000000 32.000000 14.283642 0.000000
-41.165699 31.607907 -12.968350 0.000000 62.000000 14.616192 29.000000
-40.799441 31.364371 -12.987780 0.000000 39.000000 14.370310 0.000000
-44.995185 31.290277 -13.994313 0.000000 46.000000 14.302878 0.000000
-44.584771 31.363820 -16.509514 0.000000 45.000000 14.331815 0.000000
-43.069244 31.204189 -13.638428 0.000000 31.000000 14.211966 0.000000
-44.490977 31.435374 -17.725443 0.000000 46.000000 14.382388 0.000000
-42.152782 31.344179 -14.186106 0.000000 51.000000 14.337577 0.000000
-42.745885 31.278107 -15.279035 0.000000 26.000000 14.256472 0.000000
-45.260822 31.398094 -18.244539 0.000000 39.000000 14.340711 0.000000
-42.486679 31.487193 -16.970067 0.000000 30.000000 14.435637 15.000000
-40.370513 31.643251 -16.925041 0.000000 67.000000 14.580538 13.000000
-43.180996 31.297662 -12.937661 0.000000 42.000000 14.317835 0.000000
-45.176200 31.313971 -13.795740 0.000000 52.000000 14.330924 0.000000
-42.438076 31.371968 -15.926192 0.000000 31.000000 14.337708 0.000000
-45.157801 31.820865 -13.115769 0.000000 71.000000 14.849068 25.000000
-45.857374 31.301621 -13.929583 0.000000 39.000000 14.320153 0.000000
-43.018543 31.292666 -13.740971 0.000000 44.000000 14.298421 0.000000
-43.632928 31.374605 -17.829561 0.000000 31.000000 14.315057 0.000000
-44.807411 31.278838 -13.926118 0.000000 30.000000 14.291533 0.000000
-41.086082 32.008043 -12.583616 0.000000 65.000000 15.022286 29.000000
-45.389406 31.244136 -14.694329 0.000000 55.000000 14.247190 0.000000
-43.465436 31.290646 -15.388957 0.000000 39.000000 14.271204 0.000000
-44.224232 31.445794 -18.236213 0.000000 49.000000 14.382720 0.000000
-43.190472 31.405292 -17.813665 0.000000 37.000000 14.343520 0.000000
-43.379092 31.302309 -12.292825 0.000000 21.000000 14.334436 0.000000
-42.913892 31.726338 -13.148993 0.000000 60.000000 14.741389 30.000000
-44.841316 31.606782 -12.866778 0.000000 52.000000 14.637426 25.000000
-41.119535 31.723141 -12.583985 0.000000 70.000000 14.737611 29.000000
-42.206107 31.685202 -13.781437 0.000000 60.000000 14.685650 16.000000
-42.339708 31.580527 -13.847656 0.000000 60.000000 14.580629 16.000000
-41.151036 31.828605 -12.643487 0.000000 66.000000 14.842235 29.000000
-44.538313 31.569676 -12.903888 0.000000 45.000000 14.598000 25.000000
-42.098817 31.329036 -17.843347 0.000000 28.000000 14.260644 0.000000
-46.598883 31.340652 -13.553652 0.000000 60.000000 14.369665 0.000000
-40.892308 31.379527 -17.370589 0.000000 24.000000 14.312296 0.000000
-43.771155 31.308778 -14.494425 0.000000 50.000000 14.306091 0.000000
-41.189429 31.402961 -14.797383 0.000000 48.000000 14.380660 0.000000
-44.571025 31.339110 -13.896394 0.000000 53.000000 14.350967 0.000000
-42.973427 31.340320 -14.436453 0.000000 65.000000 14.334120 0.000000
-43.816069 31.480394 -17.345505 0.000000 26.000000 14.429996 23.000000
-43.405136 31.335724 -14.337511 0.000000 47.000000 14.333614 0.000000
-41.783185 31.302936 -13.959995 0.000000 38.000000 14.298066 0.000000
-40.397539 31.679283 -17.036832 0.000000 62.000000 14.614837 13.000000
-44.772292 31.621544 -14.445892 0.000000 70.000000 14.625248 4.000000
-42.503808 31.411775 -17.027626 0.000000 44.000000 14.359360 0.000000
-39.504517 31.420816 -16.509776 0.000000 24.000000 14.360254 0.000000
-42.436217 31.916125 -13.046677 0.000000 53.000000 14.930183 30.000000
-40.475085 31.421484 -16.725226 0.000000 34.000000 14.362753 0.000000
-44.224372 31.332040 -14.775755 0.000000 55.000000 14.327165 0.000000
-45.326424 31.339005 -17.341538 0.000000 42.000000 14.297182 0.000000
-39.922846 31.363287 -15.948753 0.000000 26.000000 14.314518 0.000000
-39.878149 31.374157 -15.848361 0.000000 26.000000 14.326823 0.000000
-39.840291 31.335538 -15.769848 0.000000 27.000000 14.289317 0.000000
-44.874212 31.345000 -17.231742 0.000000 33.000000 14.302482 0.000000
-39.774270 31.263215 -15.603332 0.000000 24.000000 14.219434 0.000000
-39.967590 31.407058 -16.748151 0.000000 49.000000 14.345093 0.000000
-45.016712 31.362039 -15.361794 0.000000 52.000000 14.351758 0.000000
-43.265462 31.445378 -12.261770 0.000000 46.000000 14.477366 28.000000
-46.302586 31.331586 -15.182612 0.000000 38.000000 14.331547 0.000000
-45.255198 31.413584 -18.133694 0.000000 44.000000 14.358031 0.000000
-46.011642 31.307504 -15.233583 0.000000 35.000000 14.304978 0.000000
-43.354159 31.153622 -13.737700 0.000000 34.000000 14.161339 0.000000
-42.606859 31.650561 -12.099258 0.000000 53.000000 14.681549 28.000000
-45.065655 31.506634 -17.933211 0.000000 45.000000 14.453372 21.000000
-45.713389 31.385294 -13.014332 0.000000 67.000000 14.418392 18.000000
-42.548187 31.699706 -12.216205 0.000000 55.000000 14.728390 28.000000
-45.251574 31.338260 -15.288969 0.000000 44.000000 14.330527 0.000000
-42.749969 31.162494 -13.429947 0.000000 42.000000 14.171989 0.000000
-43.074326 31.446622 -13.064473 0.000000 70.000000 14.464040 30.000000
-43.883626 31.321137 -14.599851 0.000000 41.000000 14.317307 0.000000
-40.319395 31.386464 -16.793133 0.000000 51.000000 14.325722 0.000000
-45.398817 31.349716 -15.662288 0.000000 43.000000 14.336532 0.000000
-44.128521 31.346945 -14.473740 0.000000 51.000000 14.346607 0.000000
-45.261859 31.316654 -15.666615 0.000000 39.000000 14.302633 0.000000
-42.673815 31.222944 -16.604053 0.000000 36.000000 14.178635 0.000000
-43.944949 31.295842 -15.289713 0.000000 30.000000 14.280762 0.000000
-44.053523 31.533778 -13.821710 0.000000 57.000000 14.543952 9.000000
-44.693698 31.278747 -15.627552 0.000000 43.000000 14.262196 0.000000
-44.603684 31.230491 -17.102154 0.000000 29.000000 14.188649 0.000000
-41.622992 31.350796 -15.579335 0.000000 35.000000 14.317792 0.000000
-39.374532 31.655351 -16.753163 0.000000 44.000000 14.589930 13.000000
-44.409685 31.273695 -15.589961 0.000000 43.000000 14.256181 0.000000
-46.313996 31.338759 -15.240253 0.000000 53.000000 14.337814 0.000000
-45.871734 31.705895 -13.214640 0.000000 48.000000 14.736465 18.000000
-44.151317 31.712116 -12.798347 0.000000 66.000000 14.740018 25.000000
-44.149902 31.200382 -15.569673 0.000000 38.000000 14.181761 0.000000
-43.187983 31.724488 -12.628773 0.000000 61.000000 14.749826 28.000000
-44.002309 31.225486 -15.532880 0.000000 45.000000 14.206651 0.000000
-41.904259 31.447455 -13.502570 0.000000 49.000000 14.450933 17.000000
-43.853774 31.262208 -15.489312 0.000000 44.000000 14.243265 0.000000
-43.450579 31.307463 -13.085857 0.000000 47.000000 14.326657 0.000000
-45.290335 31.360849 -17.844160 0.000000 31.000000 14.310369 0.000000
-41.839968 31.565699 -12.944573 0.000000 55.000000 14.578179 17.000000
-41.444672 32.092111 -12.523932 0.000000 76.000000 15.109359 29.000000
-42.544982 31.271931 -15.077861 0.000000 34.000000 14.252551 0.000000
-43.093768 31.398002 -13.032831 0.000000 67.000000 14.416069 30.000000
-41.492250 31.968907 -12.595315 0.000000 71.000000 14.985242 29.000000
-43.308899 31.289804 -15.339175 0.000000 36.000000 14.270320 0.000000
-41.446233 31.355915 -13.975207 0.000000 48.000000 14.348887 0.000000
-43.741601 31.420642 -13.415896 0.000000 74.000000 14.435905 10.000000
-42.140883 31.268560 -14.971798 0.000000 28.000000 14.248693 0.000000
-41.919292 31.330474 -13.943567 0.000000 49.000000 14.326640 0.000000
-42.298451 31.786580 -13.221033 0.000000 65.000000 14.796953 30.000000
-40.273906 31.225637 -14.264622 0.000000 33.000000 14.207177 0.000000
-40.995168 31.342801 -17.794021 0.000000 34.000000 14.269035 0.000000
-40.739994 31.452502 -17.086097 0.000000 47.000000 14.389187 13.000000
-42.762336 31.504900 -13.798424 0.000000 65.000000 14.508216 16.000000
-46.412101 31.341158 -13.307474 0.000000 36.000000 14.373260 0.000000
-44.920989 31.483142 -14.403652 0.000000 58.000000 14.488414 4.000000
-42.546667 31.276631 -15.077080 0.000000 39.000000 14.257273 0.000000
-41.310488 32.262652 -12.609698 0.000000 41.000000 15.277678 29.000000
-42.302514 31.567148 -13.600591 0.000000 46.000000 14.571197 16.000000
-43.050878 31.374866 -16.288588 0.000000 26.000000 14.337956 0.000000
-40.006874 31.378577 -15.129324 0.000000 51.000000 14.344054 0.000000
-41.541860 31.654311 -12.376617 0.000000 82.000000 14.674651 29.000000
-39.505700 31.320807 -17.222149 0.000000 31.000000 14.248291 0.000000
-46.716854 31.738573 -14.501915 0.000000 76.000000 14.752243 24.000000
-41.933788 31.689745 -13.025290 0.000000 51.000000 14.701375 30.000000
-43.166236 31.636719 -14.079554 0.000000 53.000000 14.637557 16.000000
-39.789416 31.405714 -16.571697 0.000000 34.000000 14.345714 0.000000
-43.368765 31.579170 -17.298331 0.000000 73.000000 14.527037 23.000000
-39.957768 31.249198 -15.591511 0.000000 20.000000 14.206649 0.000000
-41.689077 31.375631 -14.161571 0.000000 59.000000 14.366831 0.000000
-41.010968 31.482698 -12.884792 0.000000 57.000000 14.491538 29.000000
-45.429160 31.220240 -16.040585 0.000000 64.000000 14.200886 0.000000
-44.806144 31.561374 -17.801648 0.000000 56.000000 14.508857 21.000000
-40.714714 31.710131 -16.306758 0.000000 65.000000 14.659737 12.000000
-45.471020 31.285751 -16.180696 0.000000 49.000000 14.264267 0.000000
-43.019598 31.236714 -13.626689 0.000000 38.000000 14.244405 0.000000
-44.972953 31.545202 -18.631389 0.000000 61.000000 14.479675 19.000000
-42.554048 31.380879 -14.713560 0.000000 53.000000 14.367658 0.000000
-44.832542 31.407369 -15.150514 0.000000 70.000000 14.399599 6.000000
-44.306680 31.780142 -12.834989 0.000000 62.000000 14.808290 25.000000
-40.954952 31.264481 -15.819920 0.000000 33.000000 14.223692 0.000000
-42.474084 31.829373 -12.974942 0.000000 49.000000 14.844864 30.000000
-44.937333 31.526422 -13.371070 0.000000 56.000000 14.549140 25.000000
-46.606031 31.300542 -13.603152 0.000000 42.000000 14.328769 0.000000
-44.887951 31.883232 -13.264718 0.000000 51.000000 14.907404 25.000000
-46.283434 31.339652 -13.567921 0.000000 43.000000 14.366653 0.000000
-40.884146 31.355116 -13.580220 0.000000 42.000000 14.351571 0.000000
-43.065734 31.374501 -17.101549 0.000000 47.000000 14.324006 0.000000
-42.532869 31.714904 -14.713904 0.000000 42.000000 14.701505 8.000000
-45.137533 31.339374 -15.135417 0.000000 69.000000 14.333582 0.000000
-42.285231 31.348331 -15.913091 0.000000 49.000000 14.313437 0.000000
-45.066413 31.324639 -14.858395 0.000000 59.000000 14.323107 0.000000
-46.011526 31.305396 -13.706360 0.000000 42.000000 14.328547 0.000000
-45.815368 31.846173 -13.111437 0.000000 43.000000 14.878139 18.000000
-43.217634 31.173988 -13.570066 0.000000 33.000000 14.183753 0.000000
-41.922437 31.623695 -13.188667 0.000000 61.000000 14.632525 17.000000
-43.967640 31.326169 -13.127533 0.000000 34.000000 14.347565 0.000000
-41.724625 31.387596 -17.132944 0.000000 40.000000 14.329036 0.000000
-42.154513 31.256855 -13.460849 0.000000 58.000000 14.262470 0.000000
-40.969548 31.584677 -12.263567 0.000000 48.000000 14.603713 29.000000
-40.522131 31.475820 -16.569676 0.000000 24.000000 14.419960 12.000000
-45.458938 31.363642 -18.409257 0.000000 40.000000 14.304608 0.000000
-42.313288 31.773402 -14.547645 0.000000 45.000000 14.761556 8.000000
-43.298882 31.326269 -12.896286 0.000000 33.000000 14.347795 0.000000
-46.068955 31.323570 -15.247635 0.000000 43.000000 14.321127 0.000000
-42.341359 31.622101 -13.447207 0.000000 59.000000 14.628938 30.000000
-45.054913 31.192221 -17.532306 0.000000 33.000000 14.145689 0.000000
-42.659808 31.339920 -12.621004 0.000000 37.000000 14.362482 0.000000
-43.668906 31.567018 -17.338738 0.000000 52.000000 14.515894 23.000000
-46.343836 31.187018 -14.836463 0.000000 45.000000 14.193054 0.000000
-44.860345 31.456715 -15.471383 0.000000 55.000000 14.443698 6.000000
-41.762378 31.187844 -11.577400 0.000000 35.000000 14.222934 0.000000
-42.178378 31.322365 -17.951171 0.000000 25.000000 14.252608 0.000000
-44.331963 31.369746 -18.855562 0.000000 35.000000 14.296876 0.000000
-43.692248 31.395019 -18.035137 0.000000 37.000000 14.332344 0.000000
-43.567217 31.654509 -17.445822 0.000000 48.000000 14.600999 23.000000
-44.568863 31.346180 -18.824111 0.000000 44.000000 14.275173 0.000000
-43.496727 31.393299 -17.731609 0.000000 31.000000 14.334629 0.000000
-43.726467 31.594758 -12.444158 0.000000 63.000000 14.626246 28.000000
-44.952003 31.680392 -13.160909 0.000000 70.000000 14.706702 25.000000
-40.528336 31.590632 -15.429564 0.000000 47.000000 14.553958 2.000000
-43.833893 31.281932 -17.293996 0.000000 27.000000 14.232532 0.000000
-45.672491 31.579648 -15.709631 0.000000 68.000000 14.567169 5.000000
-43.714214 31.582099 -12.410317 0.000000 45.000000 14.614089 28.000000
-42.986210 31.248913 -15.174061 0.000000 54.000000 14.230398 0.000000
-40.583389 31.367626 -13.674157 0.000000 43.000000 14.360810 0.000000
-43.589875 31.545494 -13.473696 0.000000 65.000000 14.558913 10.000000
-44.081669 31.305946 -16.929260 0.000000 29.000000 14.264067 0.000000
-44.984280 31.344192 -14.873748 0.000000 49.000000 14.341938 0.000000
-42.035054 31.268835 -16.553774 0.000000 38.000000 14.221776 0.000000
-43.765969 31.369563 -16.390539 0.000000 46.000000 14.334957 0.000000
-45.413040 31.199679 -14.324961 0.000000 48.000000 14.209083 0.000000
-45.588134 31.345638 -16.911910 0.000000 35.000000 14.312508 0.000000
-42.235754 31.520026 -16.740342 0.000000 26.000000 14.470918 15.000000
-41.363207 31.586715 -13.578275 0.000000 59.000000 14.585858 17.000000
-40.805296 31.380945 -15.270073 0.000000 33.000000 14.348542 0.000000
-45.231252 31.896225 -13.261439 0.000000 66.000000 14.922379 25.000000
-44.873713 31.339815 -14.877049 0.000000 26.000000 14.336884 0.000000
-46.653543 31.243071 -14.835016 0.000000 34.000000 14.250862 0.000000
-45.051719 31.262541 -15.884619 0.000000 38.000000 14.243682 0.000000
-42.850491 31.777080 -13.085389 0.000000 77.000000 14.792837 30.000000
-45.231573 31.361018 -15.650225 0.000000 42.000000 14.347095 0.000000
-43.452405 31.292455 -15.945923 0.000000 41.000000 14.263575 0.000000
-44.568263 31.618791 -12.972400 0.000000 72.000000 14.646124 25.000000
-42.503707 31.316321 -14.978529 0.000000 35.000000 14.298372 0.000000
-41.896391 31.925111 -11.869372 0.000000 76.000000 14.955929 26.000000
-42.457278 31.980712 -13.046033 0.000000 53.000000 14.994889 30.000000
-43.790819 31.282895 -15.452680 0.000000 56.000000 14.264211 0.000000
-43.307689 31.693512 -17.920356 0.000000 69.000000 14.630560 22.000000
-42.753768 31.587410 -13.981397 0.000000 53.000000 14.587588 16.000000
-45.987474 31.685556 -13.096829 0.000000 56.000000 14.718760 18.000000
-42.740590 31.453933 -12.556206 0.000000 27.000000 14.478020 28.000000
-42.861840 31.933412 -13.251187 0.000000 75.000000 14.946420 30.000000
-42.750342 31.384148 -13.935237 0.000000 42.000000 14.385115 16.000000
-44.686743 31.559655 -14.549314 0.000000 65.000000 14.561150 4.000000
-40.562451 31.293436 -17.530137 0.000000 18.000000 14.221683 0.000000
-44.420772 31.317103 -14.319829 0.000000 21.000000 14.321000 0.000000
-40.372512 31.635897 -14.695492 0.000000 69.000000 14.610682 1.000000
-46.598283 31.245595 -14.046327 0.000000 45.000000 14.266336 0.000000
-41.663386 31.785401 -12.510998 0.000000 80.000000 14.804144 29.000000
-42.574122 31.260731 -15.077752 0.000000 26.000000 14.241518 0.000000
-41.251341 31.360555 -16.417463 0.000000 42.000000 14.311370 0.000000
-43.838163 31.305854 -13.064704 0.000000 37.000000 14.327582 0.000000
-42.038792 31.401099 -17.161553 0.000000 27.000000 14.343821 0.000000
-44.886096 31.310593 -14.897439 0.000000 61.000000 14.307394 0.000000
-46.338498 31.640674 -13.144304 0.000000 58.000000 14.675059 18.000000
-45.108441 31.538695 -14.667465 0.000000 75.000000 14.540576 4.000000
-45.284672 31.395177 -18.598417 0.000000 31.000000 14.331979 0.000000
-42.325266 31.384672 -17.555115 0.000000 49.000000 14.322389 0.000000
-45.014481 31.285276 -14.373472 0.000000 57.000000 14.291612 0.000000
-46.505444 31.320294 -13.343381 0.000000 30.000000 14.352320 0.000000
-45.703219 31.339056 -15.034088 0.000000 54.000000 14.338146 0.000000
-41.194127 31.723373 -13.308904 0.000000 54.000000 14.726074 27.000000
-44.455448 31.266627 -17.174873 0.000000 40.000000 14.222724 0.000000
-43.294622 31.372126 -16.227954 0.000000 31.000000 14.337605 0.000000
-43.406712 31.306247 -13.011686 0.000000 48.000000 14.326442 0.000000
-41.456719 31.358115 -15.098927 0.000000 47.000000 14.332253 0.000000
-45.598679 31.359236 -15.441583 0.000000 56.000000 14.350884 0.000000
-41.309141 31.683281 -13.029846 0.000000 43.000000 14.691326 29.000000
-43.262096 31.516182 -17.990570 0.000000 59.000000 14.451821 22.000000
-42.415825 31.347994 -15.711502 0.000000 54.000000 14.317223 0.000000
-42.759580 31.381933 -16.108735 0.000000 39.000000 14.346409 0.000000
-41.701777 31.368709 -15.600639 0.000000 27.000000 14.335786 0.000000
-42.845908 31.366182 -16.018592 0.000000 36.000000 14.332661 0.000000
-41.787180 31.380271 -15.499312 0.000000 31.000000 14.349530 0.000000
-44.869834 31.319445 -14.021489 0.000000 29.000000 14.330881 0.000000
-41.425698 32.057500 -12.524503 0.000000 71.000000 15.074638 29.000000
-41.827110 31.500558 -12.872294 0.000000 34.000000 14.514191 17.000000
-44.868836 31.621982 -15.414754 0.000000 76.000000 14.609939 6.000000
-43.556643 31.506413 -12.838681 0.000000 39.000000 14.530328 28.000000
-43.202296 31.368504 -15.642985 0.000000 42.000000 14.343300 0.000000
-41.022687 31.355899 -16.381934 0.000000 34.000000 14.306027 0.000000
-43.297305 31.366117 -15.553463 0.000000 37.000000 14.342953 0.000000
-44.746518 31.339226 -16.404927 0.000000 48.000000 14.309892 0.000000
-41.791106 31.769983 -13.412953 0.000000 34.000000 14.774281 17.000000
-42.352914 31.701112 -14.434456 0.000000 44.000000 14.691403 8.000000
-44.046716 31.268665 -12.487812 0.000000 32.000000 14.301270 0.000000
-44.658774 31.707211 -18.458650 0.000000 46.000000 14.642797 19.000000
-43.693603 31.361708 -15.215474 0.000000 40.000000 14.346454 0.000000
-45.154841 31.398842 -16.247813 0.000000 38.000000 14.374435 0.000000
-44.002410 31.381646 -14.969242 0.000000 51.000000 14.372263 0.000000
-43.122127 31.214308 -16.873687 0.000000 20.000000 14.167986 0.000000
-41.862957 31.344596 -15.623733 0.000000 42.000000 14.312195 0.000000
-43.105204 31.367661 -14.395558 0.000000 36.000000 14.362885 0.000000
-44.230851 31.339609 -14.834019 0.000000 48.000000 14.333790 0.000000
-46.046107 31.332686 -15.501909 0.000000 60.000000 14.325838 0.000000
-43.898296 31.762508 -12.563233 0.000000 77.000000 14.792933 28.000000
-45.636903 31.277216 -13.948641 0.000000 43.000000 14.294193 0.000000
-44.003071 31.254234 -16.949804 0.000000 40.000000 14.211576 0.000000
-40.397967 31.390255 -14.146829 0.000000 31.000000 14.374447 0.000000
-43.045235 31.905587 -12.399576 0.000000 63.000000 14.933948 28.000000
-45.683221 31.278307 -13.587712 0.000000 41.000000 14.301612 0.000000
-41.863761 31.382241 -15.448193 0.000000 30.000000 14.352790 0.000000
-42.002553 31.587884 -14.362516 0.000000 83.000000 14.577434 8.000000
-45.447841 31.249112 -14.208726 0.000000 42.000000 14.260658 0.000000
-44.083896 31.317891 -13.053146 0.000000 43.000000 14.341192 0.000000
-45.560125 31.293715 -14.138076 0.000000 44.000000 14.307073 0.000000
-44.497760 31.558594 -14.603459 0.000000 55.000000 14.558117 4.000000
-45.687993 31.295282 -14.083689 0.000000 44.000000 14.310272 0.000000
-44.688870 31.336422 -13.584980 0.000000 41.000000 14.354177 0.000000
-45.818687 31.290829 -14.032425 0.000000 44.000000 14.307416 0.000000
-43.355601 31.552202 -12.351580 0.000000 81.000000 14.583170 28.000000
-42.664363 31.213141 -13.427529 0.000000 38.000000 14.222188 0.000000
-41.028761 31.383339 -13.860151 0.000000 32.000000 14.375896 0.000000
-40.566830 31.297056 -14.542309 0.000000 40.000000 14.275562 0.000000
-46.214189 31.530443 -13.519661 0.000000 52.000000 14.557836 18.000000
-43.636123 31.717684 -12.520842 0.000000 50.000000 14.747356 28.000000
-43.133543 31.568589 -13.275438 0.000000 66.000000 14.582773 30.000000
-43.717536 31.373104 -14.780665 0.000000 56.000000 14.365293 0.000000
-41.168521 31.387870 -15.172520 0.000000 46.000000 14.359146 0.000000
-44.928790 31.304575 -13.895087 0.000000 68.000000 14.318469 0.000000
-40.571426 31.301722 -17.641195 0.000000 22.000000 14.228151 0.000000
-40.707977 31.305071 -16.049337 0.000000 38.000000 14.259031 0.000000
-43.584677 31.458072 -12.322431 0.000000 63.000000 14.490832 28.000000
-44.901259 31.261010 -17.500891 0.000000 42.000000 14.214132 0.000000
-44.089757 31.315763 -14.243483 0.000000 50.000000 14.319084 0.000000
-44.633719 31.711932 -13.014005 0.000000 49.000000 14.738918 25.000000
-40.333968 31.440358 -16.850106 0.000000 52.000000 14.378732 0.000000
-40.317948 31.430198 -16.750043 0.000000 34.000000 14.370166 0.000000
-45.923664 31.277390 -14.145378 0.000000 52.000000 14.292670 0.000000
-43.069802 31.357910 -15.999269 0.000000 53.000000 14.325973 0.000000
-40.300725 31.386464 -16.133580 0.000000 28.000000 14.336706 0.000000
-40.313978 31.329994 -16.051208 0.000000 26.000000 14.281705 0.000000
-45.946364 31.301990 -13.981524 0.000000 40.000000 14.320149 0.000000
-40.348933 31.262041 -15.869757 0.000000 23.000000 14.217010 0.000000
-40.371073 31.256270 -15.766541 0.000000 26.000000 14.213099 0.000000
-42.394258 31.650879 -12.043349 0.000000 63.000000 14.681612 28.000000
-43.524988 31.713942 -12.537600 0.000000 63.000000 14.742708 28.000000
-40.559346 31.380730 -15.103704 0.000000 36.000000 14.349742 0.000000
-42.785056 31.346059 -15.959071 0.000000 41.000000 14.313200 0.000000
-43.342572 31.404283 -14.055383 0.000000 55.000000 14.406554 16.000000
-43.643768 31.309352 -13.914130 0.000000 57.000000 14.315705 0.000000
-44.788005 31.535524 -14.447603 0.000000 38.000000 14.539301 4.000000
-46.065607 31.547896 -13.378527 0.000000 55.000000 14.576824 18.000000
-45.802568 31.540940 -16.401319 0.000000 46.000000 14.517569 7.000000
-40.935844 31.310883 -14.464816 0.000000 29.000000 14.292763 0.000000
-43.764597 31.311370 -13.209585 0.000000 48.000000 14.330248 0.000000
-44.332605 31.393319 -14.589909 0.000000 63.000000 14.392168 4.000000
-40.830481 31.273554 -13.006357 0.000000 35.000000 14.279369 0.000000
-40.686873 31.715852 -16.334559 0.000000 66.000000 14.664833 12.000000
-41.079251 31.656280 -17.291365 0.000000 57.000000 14.591388 14.000000
-42.888098 31.317760 -12.835367 0.000000 38.000000 14.338004 0.000000
-46.330506 31.288767 -14.100198 0.000000 62.000000 14.307091 0.000000
-42.607784 31.308334 -12.068688 0.000000 29.000000 14.339895 0.000000
-41.608669 31.543809 -12.095560 0.000000 68.000000 14.569267 26.000000
-41.168670 31.371154 -13.656814 0.000000 48.000000 14.367918 0.000000
-41.024515 31.697357 -13.235140 0.000000 76.000000 14.700349 27.000000
-43.040144 31.474116 -12.905983 0.000000 37.000000 14.494002 30.000000
-42.526992 31.790059 -13.130130 0.000000 72.000000 14.803244 30.000000
-44.675996 31.358746 -18.249202 0.000000 25.000000 14.298005 0.000000
-44.277547 31.647111 -13.658051 0.000000 67.000000 14.661278 9.000000
-43.488517 31.316503 -14.403216 0.000000 45.000000 14.313760 0.000000
-45.809169 31.314976 -17.016854 0.000000 35.000000 14.281328 0.000000
-41.739123 31.469718 -12.834492 0.000000 41.000000 14.483497 29.000000
-44.411416 31.196502 -13.951893 0.000000 39.000000 14.206551 0.000000
-44.456586 31.360089 -15.735210 0.000000 50.000000 14.340383 0.000000
-42.215470 31.377655 -17.194683 0.000000 33.000000 14.320816 0.000000
-44.443628 31.361987 -16.580470 0.000000 37.000000 14.327997 0.000000
-40.472316 31.378942 -14.202107 0.000000 45.000000 14.362624 0.000000
-42.143499 31.442010 -13.709178 0.000000 35.000000 14.443359 16.000000
-44.090913 31.344667 -14.320421 0.000000 54.000000 14.346696 0.000000
-45.044089 31.383616 -16.956143 0.000000 49.000000 14.346680 0.000000
-44.008231 31.349747 -16.569423 0.000000 37.000000 14.313498 0.000000
-44.671879 31.631650 -17.557465 0.000000 65.000000 14.582473 21.000000
-44.593454 31.570612 -12.900413 0.000000 64.000000 14.599304 25.000000
-44.755007 31.386121 -16.927260 0.000000 44.000000 14.348046 0.000000
-41.898356 31.625055 -11.760287 0.000000 47.000000 14.657765 26.000000
-44.881947 31.590467 -12.877404 0.000000 37.000000 14.621164 25.000000
-42.445725 31.389732 -16.762863 0.000000 32.000000 14.341445 0.000000
-40.884700 31.424915 -12.996339 0.000000 45.000000 14.431179 27.000000
-41.479550 31.352463 -15.012157 0.000000 49.000000 14.328189 0.000000
-40.873334 31.819701 -13.161532 0.000000 51.000000 14.823062 27.000000
-45.523599 31.725646 -13.268841 0.000000 66.000000 14.753345 25.000000
-43.151098 31.340105 -16.476856 0.000000 31.000000 14.300598 0.000000
-44.073688 31.282914 -16.864873 0.000000 30.000000 14.242076 0.000000
-44.399165 31.435197 -13.550271 0.000000 69.000000 14.451893 9.000000
-42.217230 31.627754 -13.819923 0.000000 36.000000 14.627626 16.000000
-40.154184 31.397843 -16.728336 0.000000 41.000000 14.337261 0.000000
-45.937261 31.361083 -14.648999 0.000000 56.000000 14.367959 0.000000
-46.769602 31.327845 -13.694836 0.000000 55.000000 14.355445 0.000000
-43.675387 31.232280 -16.792851 0.000000 26.000000 14.190423 0.000000
-44.867278 31.469540 -14.756122 0.000000 71.000000 14.468586 4.000000
-42.323026 31.247231 -14.916505 0.000000 35.000000 14.229321 0.000000
-40.677933 31.258025 -14.554605 0.000000 38.000000 14.236955 0.000000
-39.895301 31.475322 -16.029242 0.000000 50.000000 14.425027 12.000000
-44.227668 31.335631 -18.130066 0.000000 35.000000 14.274378 0.000000
-40.586602 31.511209 -13.381856 0.000000 45.000000 14.509303 27.000000
-42.407650 31.394432 -17.483439 0.000000 25.000000 14.333816 0.000000
-46.235491 31.798023 -13.161749 0.000000 48.000000 14.831511 18.000000
-40.347869 31.236694 -14.411444 0.000000 31.000000 14.216179 0.000000
-43.023622 31.210252 -16.599140 0.000000 25.000000 14.167993 0.000000
-42.921274 31.359515 -15.746258 0.000000 49.000000 14.330997 0.000000
-42.900047 31.205231 -16.553806 0.000000 24.000000 14.163041 0.000000
-41.924697 31.890527 -12.044173 0.000000 68.000000 14.918570 26.000000
-44.610991 31.371182 -16.817560 0.000000 49.000000 14.334144 0.000000
-40.579688 31.502449 -15.393147 0.000000 70.000000 14.466690 2.000000
-42.728780 31.556110 -12.528611 0.000000 52.000000 14.580579 28.000000
-44.001253 31.340490 -16.398153 0.000000 36.000000 14.307083 0.000000
-44.165490 31.363245 -15.051792 0.000000 50.000000 14.353394 0.000000
-45.272264 31.743880 -13.089572 0.000000 50.000000 14.773178 25.000000
-42.865741 31.707280 -13.125799 0.000000 62.000000 14.722454 30.000000
-41.318408 31.281705 -15.949117 0.000000 24.000000 14.240783 0.000000
-42.391706 31.359857 -17.364793 0.000000 34.000000 14.301151 0.000000
-42.012170 31.324231 -12.404086 0.000000 50.000000 14.346804 0.000000
-45.597567 31.339381 -16.965043 0.000000 25.000000 14.305412 0.000000
-42.487374 31.334522 -14.013391 0.000000 50.000000 14.332705 0.000000
-41.675485 31.714414 -16.766110 0.000000 53.000000 14.661694 15.000000
-41.526612 31.382839 -15.948760 0.000000 40.000000 14.343077 0.000000
-43.345312 31.290354 -16.654561 0.000000 41.000000 14.248958 0.000000
-40.851733 31.327121 -15.693977 0.000000 24.000000 14.287860 0.000000
-43.151402 31.380228 -14.679554 0.000000 62.000000 14.370935 0.000000
-42.383784 31.438940 -12.822886 0.000000 43.000000 14.456541 30.000000
-44.588048 31.620366 -12.991259 0.000000 76.000000 14.647492 25.000000
-41.626578 31.396997 -15.818311 0.000000 36.000000 14.359988 0.000000
-44.764004 31.348798 -16.436792 0.000000 24.000000 14.319025 0.000000
-44.208722 31.764085 -13.629404 0.000000 69.000000 14.778328 9.000000
-43.679513 31.341584 -14.272111 0.000000 37.000000 14.342114 0.000000
-43.726921 31.359962 -16.457558 0.000000 40.000000 14.324012 0.000000
-45.677813 31.267167 -16.191665 0.000000 51.000000 14.246663 0.000000
-43.330508 31.390807 -16.343490 0.000000 31.000000 14.354542 0.000000
-44.917002 31.265116 -17.454311 0.000000 25.000000 14.219109 0.000000
-41.081957 31.371848 -15.382007 0.000000 35.000000 14.339118 0.000000
-40.155312 31.400847 -15.955641 0.000000 40.000000 14.353262 0.000000
-40.999347 31.372417 -15.300707 0.000000 38.000000 14.340590 0.000000
-41.595290 31.676901 -17.451535 0.000000 55.000000 14.612212 14.000000
-44.838800 31.745672 -14.562483 0.000000 76.000000 14.747770 4.000000
-41.819847 31.347826 -13.772882 0.000000 48.000000 14.346300 0.000000
-40.704994 31.384591 -14.964216 0.000000 33.000000 14.356766 0.000000
-41.477774 31.363488 -14.323370 0.000000 49.000000 14.350783 0.000000
-44.418711 31.535805 -13.567344 0.000000 56.000000 14.552307 9.000000
-43.660542 31.353901 -18.602760 0.000000 22.000000 14.281511 0.000000
-43.604833 31.317125 -14.395735 0.000000 44.000000 14.315161 0.000000
-43.489981 31.321130 -13.010687 0.000000 25.000000 14.341807 0.000000
-41.294798 31.388302 -16.903424 0.000000 51.000000 14.331186 0.000000
-42.919619 31.364711 -16.059591 0.000000 34.000000 14.330915 0.000000
-41.258714 31.371586 -17.854067 0.000000 44.000000 14.298286 0.000000
-44.897330 31.351181 -16.132612 0.000000 41.000000 14.327271 0.000000
-46.319023 31.193120 -14.540746 0.000000 32.000000 14.203987 0.000000
-41.126428 31.930294 -12.488830 0.000000 55.000000 14.946370 29.000000
-46.627334 31.195470 -14.842511 0.000000 37.000000 14.202996 0.000000
-45.124991 31.221480 -14.088956 0.000000 42.000000 14.233230 0.000000
-44.403674 31.572736 -13.544554 0.000000 66.000000 14.589531 9.000000
-41.459870 31.348299 -15.186379 0.000000 48.000000 14.320986 0.000000
-44.539142 31.309937 -13.366648 0.000000 46.000000 14.330526 0.000000
-44.952367 31.243395 -17.396892 0.000000 37.000000 14.198555 0.000000
-45.040520 31.357978 -18.376590 0.000000 42.000000 14.297144 0.000000
-44.924661 31.313706 -14.373118 0.000000 35.000000 14.319538 0.000000
-45.615373 31.720927 -13.303845 0.000000 79.000000 14.748554 25.000000
-44.149584 31.259005 -17.400862 0.000000 31.000000 14.209585 0.000000
-45.701823 31.268301 -14.677746 0.000000 52.000000 14.273385 0.000000
-44.635106 31.312412 -14.324117 0.000000 32.000000 14.317442 0.000000
-43.535322 31.171051 -13.829277 0.000000 35.000000 14.178244 0.000000
-44.492173 31.308461 -14.296582 0.000000 31.000000 14.313151 0.000000
-45.420010 31.244434 -14.624222 0.000000 40.000000 14.248839 0.000000
-39.912687 31.396493 -15.269863 0.000000 60.000000 14.359075 0.000000
-44.830586 31.278711 -13.543273 0.000000 42.000000 14.297973 0.000000
-44.086423 31.334236 -14.722084 0.000000 28.000000 14.329488 0.000000
-44.070072 31.299052 -14.203527 0.000000 36.000000 14.302937 0.000000
-42.482792 31.484963 -12.598115 0.000000 50.000000 14.506892 28.000000
-43.186976 31.413741 -17.850224 0.000000 35.000000 14.351333 0.000000
-42.945314 31.354532 -14.833098 0.000000 53.000000 14.341503 0.000000
-43.025785 31.329373 -15.026220 0.000000 28.000000 14.313553 0.000000
-44.175142 31.292710 -14.238474 0.000000 40.000000 14.296598 0.000000
-45.784285 31.301608 -13.748627 0.000000 44.000000 14.322772 0.000000
-40.481557 31.229596 -14.475094 0.000000 23.000000 14.208763 0.000000
-42.852435 31.339524 -13.805860 0.000000 30.000000 14.343247 0.000000
-40.351233 31.398702 -15.008812 0.000000 38.000000 14.368137 0.000000
-40.630317 31.282529 -15.634899 0.000000 35.000000 14.243024 0.000000
-42.595974 31.355556 -13.695990 0.000000 37.000000 14.359683 0.000000
-42.761456 31.789388 -13.204588 0.000000 67.000000 14.802638 30.000000
-40.866565 31.322731 -14.448842 0.000000 46.000000 14.304488 0.000000
-43.271717 31.396969 -14.041117 0.000000 50.000000 14.399083 16.000000
-42.356532 31.316806 -13.594567 0.000000 29.000000 14.321299 0.000000
-42.411066 31.388090 -16.043162 0.000000 52.000000 14.351709 0.000000
-40.120593 31.369448 -16.014691 0.000000 41.000000 14.320680 0.000000
-45.266351 31.365500 -18.381692 0.000000 48.000000 14.305847 0.000000
-40.706422 31.638755 -16.513130 0.000000 46.000000 14.584856 12.000000
-44.090202 31.243942 -14.027805 0.000000 39.000000 14.250903 0.000000
-41.902868 31.374168 -15.863810 0.000000 58.000000 14.337950 0.000000
-45.262858 31.262200 -14.445798 0.000000 44.000000 14.268719 0.000000
-42.085488 31.329361 -12.552696 0.000000 35.000000 14.349846 0.000000
-40.928199 31.340690 -12.697874 0.000000 25.000000 14.352230 0.000000
-42.657278 31.379055 -14.374693 0.000000 45.000000 14.372111 0.000000
-42.686666 31.673952 -13.205079 0.000000 62.000000 14.686792 30.000000
-41.062078 31.328965 -11.921263 0.000000 35.000000 14.354316 0.000000
-41.006343 31.337855 -11.830900 0.000000 36.000000 14.364411 0.000000
-45.040056 31.296190 -19.048686 0.000000 43.000000 14.224063 0.000000
-44.985437 31.398663 -17.118115 0.000000 36.000000 14.358672 0.000000
-46.062980 31.611929 -13.372498 0.000000 69.000000 14.640934 18.000000
-45.904857 31.619558 -12.976846 0.000000 73.000000 14.654325 18.000000
-44.053026 31.516254 -12.360751 0.000000 43.000000 14.550992 28.000000
-41.464909 31.595185 -11.957508 0.000000 34.000000 14.622149 26.000000
-45.081838 31.304905 -13.588605 0.000000 45.000000 14.324812 0.000000
-45.512833 31.224887 -14.460169 0.000000 38.000000 14.232574 0.000000
-41.860225 31.322756 -16.269335 0.000000 47.000000 14.279488 0.000000
-43.389457 31.287978 -18.424646 0.000000 36.000000 14.217070 0.000000
-40.931404 31.485693 -12.295376 0.000000 45.000000 14.503996 29.000000
-45.570756 31.628942 -13.095843 0.000000 74.000000 14.659830 18.000000
-43.932823 31.332688 -18.454237 0.000000 35.000000 14.264328 0.000000
-43.553291 31.393818 -17.996235 0.000000 35.000000 14.331017 0.000000
-45.540015 31.485969 -15.625136 0.000000 49.000000 14.474181 5.000000
-45.726579 31.351958 -16.789306 0.000000 37.000000 14.321666 0.000000
-47.057618 31.205194 -13.520434 0.000000 40.000000 14.237364 0.000000
-43.313452 31.206440 -13.822384 0.000000 47.000000 14.212496 0.000000
-42.595486 31.413283 -17.193084 0.000000 32.000000 14.358601 0.000000
-42.194507 31.355643 -15.707010 0.000000 39.000000 14.323703 0.000000
-42.754595 31.374766 -16.984068 0.000000 28.000000 14.324498 0.000000
-42.992965 31.571541 -13.864765 0.000000 57.000000 14.575027 16.000000
-44.020217 31.280759 -17.356217 0.000000 27.000000 14.231360 0.000000
-41.374439 31.383955 -15.144657 0.000000 62.000000 14.356857 0.000000
-43.231633 31.650116 -17.209965 0.000000 68.000000 14.598687 23.000000
-40.210346 31.628073 -17.046254 0.000000 44.000000 14.562425 13.000000
-44.210372 31.190816 -17.179242 0.000000 25.000000 14.145475 0.000000
-46.300698 31.293677 -15.513242 0.000000 46.000000 14.288075 0.000000
-43.110608 31.705049 -13.313605 0.000000 79.000000 14.718441 30.000000
-43.127561 31.822587 -12.604333 0.000000 88.000000 14.847981 28.000000
-44.266870 31.376931 -17.967596 0.000000 28.000000 14.318623 0.000000
-43.261567 31.395629 -16.325231 0.000000 39.000000 14.359283 0.000000
-41.380140 31.721659 -12.246067 0.000000 89.000000 14.743275 29.000000
-40.308633 31.557947 -14.784581 0.000000 70.000000 14.530888 1.000000
-46.444834 31.209947 -14.832998 0.000000 37.000000 14.216605 0.000000
-46.000210 31.506226 -15.653830 0.000000 62.000000 14.496538 5.000000
-40.052937 31.684494 -16.847754 0.000000 46.000000 14.621290 13.000000
-41.599076 31.697471 -13.623122 0.000000 71.000000 14.697168 17.000000
-44.801113 31.349290 -16.389604 0.000000 40.000000 14.320519 0.000000
-44.886098 31.395058 -16.272956 0.000000 45.000000 14.368719 0.000000
-39.311233 31.317361 -17.208983 0.000000 41.000000 14.243974 0.000000
-44.989442 31.387025 -16.183094 0.000000 45.000000 14.362779 0.000000
-43.970434 31.291144 -15.686650 0.000000 31.000000 14.269534 0.000000
-45.099735 31.359786 -16.103153 0.000000 42.000000 14.337508 0.000000
-44.090160 31.238821 -15.616475 0.000000 38.000000 14.219072 0.000000
-45.223920 31.295633 -16.038823 0.000000 41.000000 14.275144 0.000000
-43.717605 31.364789 -17.930925 0.000000 36.000000 14.304014 0.000000
-44.491223 31.324710 -13.678148 0.000000 41.000000 14.339790 0.000000
-40.874226 31.359113 -13.709042 0.000000 40.000000 14.353346 0.000000
-45.450212 31.262003 -15.876377 0.000000 34.000000 14.245522 0.000000
-41.340926 31.327925 -16.159688 0.000000 40.000000 14.283582 0.000000
-45.131868 31.337982 -16.149124 0.000000 27.000000 14.315115 0.000000
-45.459899 31.456732 -12.875544 0.000000 53.000000 14.490728 25.000000
-39.666388 31.774052 -16.845614 0.000000 56.000000 14.708698 13.000000
-45.867823 31.334498 -15.519200 0.000000 45.000000 14.326357 0.000000
-43.957362 31.374253 -17.772420 0.000000 36.000000 14.317488 0.000000
-41.236544 31.423694 -14.892428 0.000000 57.000000 14.400056 3.000000
-41.036650 31.366736 -14.812277 0.000000 47.000000 14.343332 0.000000
-40.507053 31.607979 -15.476652 0.000000 50.000000 14.570391 2.000000
-45.073512 31.341035 -14.841291 0.000000 49.000000 14.339828 0.000000
-45.329622 31.386356 -18.146296 0.000000 34.000000 14.331013 0.000000
-46.343628 31.327344 -15.217140 0.000000 42.000000 14.326956 0.000000
-42.173595 31.274502 -14.953127 0.000000 40.000000 14.255132 0.000000
-45.215069 31.288343 -14.817376 0.000000 45.000000 14.288342 0.000000
-41.552811 31.348989 -15.247605 0.000000 44.000000 14.321168 0.000000
-45.614300 31.188868 -14.607936 0.000000 30.000000 14.194647 0.000000
-41.263659 31.445226 -15.137268 0.000000 43.000000 14.417621 3.000000
-44.772241 31.361888 -18.233724 0.000000 42.000000 14.301948 0.000000
-42.456672 31.663491 -12.136843 0.000000 67.000000 14.693001 28.000000
-42.999843 31.244657 -16.649897 0.000000 29.000000 14.201406 0.000000
-42.188631 31.257231 -13.451694 0.000000 39.000000 14.263192 0.000000
-42.173077 31.626331 -12.853789 0.000000 66.000000 14.642199 30.000000
-45.660929 31.289558 -16.034053 0.000000 36.000000 14.271605 0.000000
-39.771217 31.630506 -16.246341 0.000000 42.000000 14.575839 12.000000
-44.947113 31.637939 -17.878748 0.000000 55.000000 14.584906 21.000000
-43.708535 31.906613 -12.729087 0.000000 72.000000 14.933161 28.000000
-42.152575 31.662568 -13.746782 0.000000 61.000000 14.663301 16.000000
-45.991167 31.291085 -13.890110 0.000000 40.000000 14.311034 0.000000
-40.993153 31.323905 -17.621646 0.000000 29.000000 14.253029 0.000000
-44.628917 31.342248 -17.981230 0.000000 31.000000 14.285751 0.000000
-43.062764 31.545198 -13.243153 0.000000 66.000000 14.559531 30.000000
-43.043381 31.493939 -13.335674 0.000000 77.000000 14.506616 30.000000
-43.815217 31.243920 -17.276835 0.000000 41.000000 14.194709 0.000000
-43.232005 31.369236 -17.609861 0.000000 43.000000 14.311130 0.000000
-42.636906 31.302050 -15.741682 0.000000 40.000000 14.272021 0.000000
-41.104920 31.409335 -16.898720 0.000000 33.000000 14.351228 0.000000
-39.953774 31.414743 -16.418156 0.000000 24.000000 14.358247 0.000000
-45.767209 31.329578 -14.996446 0.000000 49.000000 14.329662 0.000000
-43.083151 31.530355 -12.693372 0.000000 49.000000 14.554049 28.000000
-45.317389 31.290046 -15.019772 0.000000 62.000000 14.287216 0.000000
-41.126777 31.340686 -13.709290 0.000000 24.000000 14.336337 0.000000
-45.502234 31.182162 -14.488395 0.000000 33.000000 14.189322 0.000000
-44.939518 31.518089 -18.489545 0.000000 52.000000 14.454763 19.000000
-44.308322 31.220135 -14.115729 0.000000 42.000000 14.226847 0.000000
-41.994860 31.360069 -15.087636 0.000000 43.000000 14.337420 0.000000
-43.824612 31.142403 -12.321375 0.000000 49.000000 14.176578 0.000000
-46.139968 31.510074 -15.722006 0.000000 50.000000 14.500025 5.000000
-40.282999 31.261878 -15.711319 0.000000 21.000000 14.219140 0.000000
-41.134877 31.709153 -13.368219 0.000000 56.000000 14.710526 27.000000
-41.517997 31.321925 -15.966078 0.000000 26.000000 14.281833 0.000000
-40.192140 31.306590 -15.622161 0.000000 51.000000 14.264833 0.000000
-45.387348 31.574215 -13.033531 0.000000 63.000000 14.605129 25.000000
-41.631067 31.393442 -15.735214 0.000000 39.000000 14.357856 0.000000
-44.473109 31.263408 -13.869140 0.000000 21.000000 14.275185 0.000000
-42.359554 31.338336 -14.104547 0.000000 50.000000 14.334268 0.000000
-40.597352 31.378975 -15.152782 0.000000 32.000000 14.347376 0.000000
-41.621713 32.007702 -13.288356 0.000000 70.000000 15.013106 17.000000
-40.670242 31.380678 -15.053721 0.000000 28.000000 14.351153 0.000000
-43.829340 31.390598 -17.370724 0.000000 20.000000 14.339865 0.000000
-43.103743 31.712073 -17.273117 0.000000 65.000000 14.658854 23.000000
-44.322593 31.580465 -13.687963 0.000000 73.000000 14.594392 9.000000
-40.821735 31.387053 -14.859577 0.000000 30.000000 14.361643 0.000000
-43.036834 31.677354 -17.906219 0.000000 58.000000 14.613120 22.000000
-40.893423 31.360161 -13.576457 0.000000 32.000000 14.356731 0.000000
-40.564262 31.254436 -15.723113 0.000000 25.000000 14.213081 0.000000
-41.220078 32.184354 -12.563658 0.000000 46.000000 15.199658 29.000000
-42.149574 31.303271 -15.106840 0.000000 28.000000 14.281177 0.000000
-43.706070 31.360836 -16.594878 0.000000 49.000000 14.322460 0.000000
-40.606505 31.364640 -13.558463 0.000000 51.000000 14.359900 0.000000
-42.855754 31.826671 -12.207166 0.000000 53.000000 14.857215 28.000000
-40.991802 31.556695 -12.838375 0.000000 69.000000 14.566196 29.000000
-41.500109 31.404411 -11.786904 0.000000 26.000000 14.434471 26.000000
-45.486706 31.343789 -15.304780 0.000000 31.000000 14.337110 0.000000
-40.921381 31.410713 -13.522244 0.000000 29.000000 14.408344 27.000000
-41.525004 31.389052 -14.154691 0.000000 42.000000 14.379444 0.000000
-43.396894 31.634540 -13.230488 0.000000 52.000000 14.650949 10.000000
-41.725311 31.358998 -14.005684 0.000000 39.000000 14.353025 0.000000
-40.909769 31.541871 -13.104240 0.000000 51.000000 14.546444 27.000000
-43.455875 31.666103 -12.484889 0.000000 62.000000 14.695375 28.000000
-43.606040 31.304381 -13.576988 0.000000 32.000000 14.316192 0.000000
-45.920412 31.339527 -16.976484 0.000000 27.000000 14.307179 0.000000
-43.395614 31.313866 -16.660055 0.000000 22.000000 14.272657 0.000000
-42.030097 31.372883 -13.778203 0.000000 38.000000 14.372445 0.000000
-43.179942 31.240481 -16.936618 0.000000 34.000000 14.193422 0.000000
-45.771997 31.620897 -16.518582 0.000000 55.000000 14.595370 7.000000
-43.475557 31.345716 -13.998674 0.000000 38.000000 14.349697 0.000000
-43.890399 31.323374 -14.627488 0.000000 44.000000 14.319117 0.000000
-39.818579 31.552236 -16.229897 0.000000 38.000000 14.498124 12.000000
-41.472102 31.348855 -15.239331 0.000000 50.000000 14.320720 0.000000
