-4.614373 -18.743369 30.728805 0.000000 40.000000 14.353278 0.000000
-3.949626 -18.418094 30.009946 0.000000 35.000000 14.235123 0.000000
-4.220526 -19.242989 30.495138 0.000000 72.000000 14.940378 29.000000
-3.437961 -18.326893 30.093408 0.000000 46.000000 14.348077 0.000000
-3.355462 -18.313330 29.965506 0.000000 41.000000 14.354742 0.000000
-3.279194 -18.287257 29.841678 0.000000 44.000000 14.347895 0.000000
0.014731 -16.701914 31.361871 0.000000 28.000000 14.239969 0.000000
-2.684847 -17.590633 34.796948 0.000000 49.000000 14.366236 0.000000
-0.338635 -16.752065 32.571853 0.000000 41.000000 14.263111 0.000000
-2.265116 -17.627605 32.316551 0.000000 33.000000 14.334984 0.000000
-0.694168 -17.104189 31.150919 0.000000 36.000000 14.330023 0.000000
-5.797074 -19.292654 32.985425 0.000000 75.000000 14.623446 25.000000
-5.130914 -19.204689 31.666324 0.000000 68.000000 14.671661 28.000000
-1.201595 -17.186438 32.351630 0.000000 48.000000 14.324856 0.000000
-4.550912 -19.080495 31.024040 0.000000 58.000000 14.714765 30.000000
-2.783878 -17.845663 31.105688 0.000000 20.000000 14.236147 0.000000
-2.501378 -17.766147 31.966151 0.000000 36.000000 14.344159 0.000000
-2.292951 -17.420054 34.338770 0.000000 23.000000 14.313096 0.000000
-1.443908 -17.059748 35.241577 0.000000 29.000000 14.375508 0.000000
-4.630088 -18.450067 32.461059 0.000000 43.000000 14.230770 0.000000
-4.082418 -19.285572 30.165395 0.000000 74.000000 15.001577 29.000000
-0.584359 -17.074985 31.534535 0.000000 44.000000 14.377966 0.000000
-0.237016 -17.211636 30.828289 0.000000 63.000000 14.570170 13.000000
-1.967303 -17.610138 31.026961 0.000000 39.000000 14.314348 0.000000
-4.226651 -19.262243 30.940967 0.000000 54.000000 14.995651 30.000000
-4.534189 -19.091237 31.031100 0.000000 44.000000 14.731528 30.000000
-3.752286 -18.284007 31.696233 0.000000 24.000000 14.334727 0.000000
-2.238073 -17.761396 31.006316 0.000000 45.000000 14.351874 0.000000
-5.368179 -18.727723 33.342517 0.000000 50.000000 14.292195 0.000000
-2.199707 -17.933656 30.101496 0.000000 46.000000 14.444668 1.000000
-3.966458 -18.731692 32.161400 0.000000 55.000000 14.710565 16.000000
-2.765498 -17.813944 32.263500 0.000000 44.000000 14.316869 0.000000
-2.650440 -17.947829 31.009915 0.000000 45.000000 14.371548 0.000000
-2.910115 -17.851144 32.280486 0.000000 44.000000 14.299120 0.000000
-2.048928 -18.181462 30.249962 0.000000 66.000000 14.742900 1.000000
-5.267836 -19.380311 30.233664 0.000000 69.000000 14.655476 26.000000
-1.957288 -17.078946 36.369194 0.000000 34.000000 14.303334 0.000000
-3.397547 -18.270953 30.818767 0.000000 53.000000 14.376030 0.000000
-1.374371 -17.207812 31.506881 0.000000 29.000000 14.205205 0.000000
-5.493297 -19.431790 32.124003 0.000000 65.000000 14.787951 28.000000
-3.036905 -17.903061 31.341459 0.000000 23.000000 14.216356 0.000000
-4.342259 -18.647572 32.276711 0.000000 58.000000 14.503676 16.000000
-5.701526 -18.745855 34.944279 0.000000 61.000000 14.328095 0.000000
-0.381792 -17.071193 30.509951 0.000000 52.000000 14.358262 0.000000
-3.728745 -18.240181 32.334426 0.000000 60.000000 14.359846 0.000000
-1.098419 -16.772796 35.092290 0.000000 39.000000 14.225120 0.000000
-3.871220 -18.273383 32.368546 0.000000 55.000000 14.340724 0.000000
-3.754193 -18.336500 31.164280 0.000000 51.000000 14.335115 0.000000
-5.247355 -18.631665 34.035790 0.000000 40.000000 14.310034 0.000000
-6.120506 -19.513378 34.376399 0.000000 72.000000 14.831499 18.000000
-4.427507 -18.468146 32.492300 0.000000 49.000000 14.325419 0.000000
-4.834098 -18.958856 32.370930 0.000000 66.000000 14.617353 10.000000
-4.137335 -19.164261 30.737720 0.000000 52.000000 14.920095 17.000000
-5.108606 -18.742477 32.678101 0.000000 59.000000 14.342893 0.000000
-4.350523 -18.199413 35.111878 0.000000 41.000000 14.339119 0.000000
-5.622707 -18.709549 34.874804 0.000000 49.000000 14.317581 0.000000
-5.383697 -18.839575 32.774497 0.000000 51.000000 14.339188 0.000000
-5.256464 -19.339806 31.791472 0.000000 70.000000 14.761138 28.000000
-4.513640 -19.037099 30.968357 0.000000 54.000000 14.683514 30.000000
-5.999906 -19.208960 34.389991 0.000000 65.000000 14.596060 18.000000
-5.256415 -18.795057 32.646287 0.000000 49.000000 14.333826 0.000000
-1.250074 -17.257216 31.854729 0.000000 37.000000 14.327995 0.000000
-2.288339 -17.785046 31.245889 0.000000 37.000000 14.376447 0.000000
-5.390978 -18.697148 33.865112 0.000000 53.000000 14.302066 0.000000
-5.495294 -19.023647 30.430776 0.000000 46.000000 14.258985 0.000000
-5.227191 -19.013845 29.333707 0.000000 33.000000 14.251575 0.000000
-3.077870 -17.867226 31.904017 0.000000 43.000000 14.218189 0.000000
-1.715772 -17.057901 35.635810 0.000000 54.000000 14.308093 0.000000
-5.060096 -19.058264 29.534131 0.000000 44.000000 14.372491 0.000000
-4.866707 -18.943130 32.492236 0.000000 73.000000 14.601535 10.000000
-1.867956 -17.389958 31.926190 0.000000 44.000000 14.227848 0.000000
-6.028474 -18.802815 35.297461 0.000000 43.000000 14.290945 0.000000
-5.899321 -18.751233 35.398664 0.000000 53.000000 14.300200 0.000000
-4.266583 -18.449293 31.429690 0.000000 32.000000 14.272955 0.000000
-4.263511 -18.273936 34.097428 0.000000 58.000000 14.349841 0.000000
-3.848767 -17.835152 35.644225 0.000000 49.000000 14.236012 0.000000
-3.567667 -18.082540 33.230133 0.000000 48.000000 14.353742 0.000000
-4.664829 -18.766165 30.756196 0.000000 46.000000 14.358073 0.000000
-4.789061 -18.797821 30.838241 0.000000 53.000000 14.348562 0.000000
-4.624519 -18.409625 32.761553 0.000000 33.000000 14.222244 0.000000
-4.772592 -18.909682 29.794565 0.000000 44.000000 14.365024 0.000000
-3.876618 -18.140331 33.930417 0.000000 28.000000 14.354981 0.000000
-2.645281 -17.866537 30.068004 0.000000 37.000000 14.214344 0.000000
-6.269330 -18.909299 35.253215 0.000000 49.000000 14.296078 0.000000
-5.358231 -18.605728 34.433019 0.000000 45.000000 14.280341 0.000000
-6.360148 -19.063936 33.834255 0.000000 39.000000 14.278820 0.000000
-4.429199 -18.847078 33.939231 0.000000 40.000000 14.804058 4.000000
-2.125271 -17.188378 34.298499 0.000000 31.000000 14.157560 0.000000
-2.349545 -17.955518 31.094076 0.000000 27.000000 14.497783 3.000000
-2.212776 -17.458584 35.951958 0.000000 60.000000 14.522276 21.000000
-4.736450 -18.534688 32.340078 0.000000 23.000000 14.258746 0.000000
-4.186323 -19.011722 30.615631 0.000000 80.000000 14.750036 17.000000
-3.748554 -18.690424 31.441220 0.000000 64.000000 14.689049 16.000000
-5.192451 -18.519069 35.401993 0.000000 57.000000 14.348125 0.000000
-0.929761 -17.264491 33.994388 0.000000 54.000000 14.644306 22.000000
-3.657905 -18.249466 31.853720 0.000000 39.000000 14.351852 0.000000
-5.120466 -18.414201 35.518890 0.000000 42.000000 14.288317 0.000000
-5.373220 -18.441586 35.639075 0.000000 42.000000 14.230580 0.000000
-2.113192 -17.528015 32.491438 0.000000 43.000000 14.314880 0.000000
-5.198959 -18.440252 35.631752 0.000000 57.000000 14.293340 0.000000
-4.787843 -18.966037 31.748694 0.000000 79.000000 14.585676 30.000000
-4.060132 -18.542438 32.099941 0.000000 54.000000 14.495398 16.000000
-5.579193 -19.412071 32.267284 0.000000 58.000000 14.750633 28.000000
-4.743894 -18.261602 35.723235 0.000000 44.000000 14.305178 0.000000
-4.588883 -18.203252 35.747918 0.000000 45.000000 14.310947 0.000000
-3.251175 -17.835950 32.933502 0.000000 44.000000 14.216770 0.000000
-4.422867 -18.184927 35.740379 0.000000 60.000000 14.354924 0.000000
-4.210962 -18.251908 34.352497 0.000000 56.000000 14.371715 0.000000
-4.134448 -18.011995 35.818964 0.000000 36.000000 14.309076 0.000000
-4.739137 -18.993855 29.959788 0.000000 40.000000 14.469971 29.000000
-4.145128 -17.929525 35.742792 0.000000 52.000000 14.222092 0.000000
-3.658213 -17.888877 34.495979 0.000000 49.000000 14.253993 0.000000
-3.479235 -17.939906 34.434036 0.000000 47.000000 14.362036 0.000000
-3.283657 -18.316486 31.451411 0.000000 64.000000 14.516771 8.000000
-4.077302 -18.346059 35.544483 0.000000 45.000000 14.614598 5.000000
-3.046595 -17.593987 35.870330 0.000000 47.000000 14.330834 0.000000
-1.671644 -17.824612 30.854605 0.000000 71.000000 14.606913 2.000000
-4.073166 -18.586225 31.812466 0.000000 64.000000 14.505407 16.000000
-3.912550 -18.424144 31.135847 0.000000 29.000000 14.354848 0.000000
-2.593165 -17.577628 34.437286 0.000000 58.000000 14.356162 0.000000
-2.598161 -17.339124 35.903580 0.000000 38.000000 14.264572 0.000000
-2.462598 -17.425575 34.487535 0.000000 35.000000 14.268528 0.000000
-4.141473 -19.031705 30.525714 0.000000 79.000000 14.777130 17.000000
-2.818896 -18.034268 30.214265 0.000000 47.000000 14.318020 0.000000
-2.280554 -17.258837 35.851023 0.000000 37.000000 14.303497 0.000000
-2.188391 -17.188215 34.537748 0.000000 26.000000 14.155323 0.000000
-4.980629 -18.938145 32.202134 0.000000 53.000000 14.528801 10.000000
-2.460411 -17.589817 32.780036 0.000000 36.000000 14.268927 0.000000
-1.661963 -17.027488 35.760489 0.000000 39.000000 14.311058 0.000000
-1.550871 -17.199505 34.299267 0.000000 35.000000 14.381001 0.000000
-4.493426 -18.490287 33.486590 0.000000 50.000000 14.410076 4.000000
-1.082984 -16.712813 35.297874 0.000000 19.000000 14.193730 0.000000
-4.069171 -18.982417 30.484017 0.000000 60.000000 14.754675 17.000000
-1.048583 -16.826692 35.608789 0.000000 41.000000 14.339475 0.000000
-3.423474 -18.875244 29.975161 0.000000 51.000000 14.849780 27.000000
-3.555817 -18.293399 30.795185 0.000000 41.000000 14.335961 0.000000
-3.875904 -18.283823 32.354211 0.000000 59.000000 14.347359 0.000000
-4.857093 -18.960180 29.545642 0.000000 34.000000 14.358161 0.000000
-4.362905 -18.197976 35.301478 0.000000 54.000000 14.350101 0.000000
-2.109748 -17.544781 32.470181 0.000000 37.000000 14.329760 0.000000
-4.487047 -19.121677 31.634987 0.000000 49.000000 14.830992 30.000000
-2.308124 -17.613908 32.370817 0.000000 50.000000 14.311207 0.000000
-5.465845 -18.690875 34.380560 0.000000 36.000000 14.314448 0.000000
-5.015919 -18.403627 34.788782 0.000000 56.000000 14.252235 0.000000
-5.153804 -18.433062 34.704058 0.000000 52.000000 14.220738 0.000000
-5.269492 -18.516402 34.583410 0.000000 44.000000 14.244100 0.000000
-5.296929 -19.285555 30.699239 0.000000 67.000000 14.598603 28.000000
-5.492985 -18.709578 34.332462 0.000000 41.000000 14.317380 0.000000
-2.731175 -17.865557 32.218089 0.000000 35.000000 14.373262 0.000000
-4.834238 -19.526560 29.990083 0.000000 61.000000 14.929799 26.000000
-0.769778 -16.996104 32.976697 0.000000 54.000000 14.364840 0.000000
-6.046201 -18.811974 35.425146 0.000000 44.000000 14.304218 0.000000
-6.165504 -18.896811 35.313316 0.000000 59.000000 14.328409 0.000000
-3.253989 -18.180012 31.023469 0.000000 68.000000 14.363474 0.000000
-4.460390 -19.227067 29.780951 0.000000 76.000000 14.773005 29.000000
-4.518768 -18.683806 34.280694 0.000000 72.000000 14.650352 4.000000
-5.029350 -19.440599 30.195901 0.000000 66.000000 14.796309 26.000000
-2.436206 -17.848630 30.536490 0.000000 44.000000 14.317120 0.000000
-5.501738 -19.278783 33.655212 0.000000 47.000000 14.779900 25.000000
-5.040355 -18.793202 31.287965 0.000000 38.000000 14.291164 0.000000
-1.996367 -17.488221 35.669727 0.000000 70.000000 14.604791 21.000000
-4.864890 -18.982394 29.501930 0.000000 30.000000 14.371905 0.000000
-5.368527 -19.543592 32.085255 0.000000 75.000000 14.934128 28.000000
-4.894663 -18.477402 33.716127 0.000000 50.000000 14.269781 0.000000
-0.841446 -17.371295 31.151918 0.000000 43.000000 14.522377 12.000000
-2.891314 -17.794052 31.337148 0.000000 37.000000 14.169219 0.000000
-1.924020 -17.453084 34.999318 0.000000 66.000000 14.539382 23.000000
-5.075429 -19.396249 31.547369 0.000000 56.000000 14.858708 28.000000
-4.048523 -18.564692 32.051488 0.000000 64.000000 14.515955 16.000000
-0.892219 -17.611741 31.038309 0.000000 33.000000 14.715669 12.000000
-2.592183 -17.432384 35.542275 0.000000 32.000000 14.320783 0.000000
-5.285683 -19.427510 31.252524 0.000000 69.000000 14.783319 28.000000
-5.201043 -18.602249 33.937357 0.000000 51.000000 14.291248 0.000000
-3.532295 -17.998594 33.599453 0.000000 45.000000 14.322194 0.000000
-0.437086 -17.091164 31.323885 0.000000 42.000000 14.428775 13.000000
-3.243772 -17.958196 33.452868 0.000000 49.000000 14.378818 0.000000
-1.742139 -17.277115 34.356829 0.000000 50.000000 14.386917 23.000000
-4.349338 -18.990274 30.879103 0.000000 63.000000 14.693226 30.000000
-2.961246 -17.860266 32.227670 0.000000 34.000000 14.283875 0.000000
-0.222033 -17.216339 30.703532 0.000000 46.000000 14.568953 13.000000
-1.420101 -17.235892 35.720269 0.000000 65.000000 14.589836 19.000000
-2.720129 -17.718782 33.230459 0.000000 44.000000 14.331944 0.000000
-3.471883 -18.238097 32.099244 0.000000 59.000000 14.432242 8.000000
-2.590520 -17.667665 33.166420 0.000000 48.000000 14.327066 0.000000
-4.663397 -19.066298 30.288116 0.000000 61.000000 14.594303 29.000000
-4.753716 -18.286558 35.503234 0.000000 42.000000 14.304988 0.000000
-3.968985 -18.485775 31.843228 0.000000 53.000000 14.453947 16.000000
-2.761753 -17.878744 30.679276 0.000000 37.000000 14.236917 0.000000
-2.174041 -17.629225 31.820421 0.000000 30.000000 14.326036 0.000000
-4.312787 -18.350188 33.552863 0.000000 51.000000 14.353495 0.000000
-4.126066 -18.314902 32.780715 0.000000 44.000000 14.321307 0.000000
-2.183823 -17.318358 33.483299 0.000000 30.000000 14.183308 0.000000
-1.304463 -17.265396 31.126446 0.000000 44.000000 14.250450 0.000000
-3.960105 -18.525015 31.738106 0.000000 31.000000 14.484141 16.000000
-3.998050 -19.504077 30.192768 0.000000 64.000000 15.237291 29.000000
-1.987644 -17.571742 31.989138 0.000000 50.000000 14.357092 0.000000
-1.113430 -17.274733 31.091818 0.000000 37.000000 14.326862 0.000000
-3.850707 -18.613725 31.231239 0.000000 48.000000 14.561535 16.000000
-4.131373 -18.652061 32.348903 0.000000 34.000000 14.592495 16.000000
-1.463419 -17.244194 31.424344 0.000000 27.000000 14.198442 0.000000
-5.055201 -19.059370 29.754727 0.000000 32.000000 14.394996 26.000000
-4.086259 -18.964037 30.973584 0.000000 58.000000 14.774993 30.000000
-4.694670 -19.004915 31.584799 0.000000 54.000000 14.641566 30.000000
-1.220893 -17.245034 32.258110 0.000000 38.000000 14.363523 0.000000
-5.958146 -19.000652 31.996565 0.000000 43.000000 14.205619 0.000000
-4.204677 -18.404213 31.191925 0.000000 42.000000 14.233053 0.000000
-4.520812 -18.402865 33.316744 0.000000 47.000000 14.303965 0.000000
-0.775811 -17.095063 31.880662 0.000000 41.000000 14.356360 0.000000
-1.981279 -17.646805 30.925803 0.000000 58.000000 14.334038 0.000000
-1.355302 -17.176195 33.691903 0.000000 48.000000 14.377857 0.000000
-0.563901 -17.040891 31.675076 0.000000 44.000000 14.366570 0.000000
-0.592450 -16.852220 33.468850 0.000000 32.000000 14.341502 0.000000
-2.004489 -17.463924 32.040694 0.000000 45.000000 14.255777 0.000000
-4.965134 -18.414876 34.855054 0.000000 57.000000 14.287381 0.000000
-4.756007 -18.386857 34.409021 0.000000 49.000000 14.299297 0.000000
-4.866096 -18.443181 33.392748 0.000000 43.000000 14.219916 0.000000
-1.753880 -17.454527 34.648598 0.000000 50.000000 14.572565 23.000000
-0.934938 -16.735583 35.322259 0.000000 35.000000 14.271872 0.000000
-1.362372 -17.065449 34.304382 0.000000 45.000000 14.327470 0.000000
-3.191308 -18.416488 32.138013 0.000000 58.000000 14.704681 8.000000
-1.515604 -17.423588 30.460722 0.000000 33.000000 14.258996 0.000000
-6.025786 -19.431228 34.185048 0.000000 38.000000 14.773642 18.000000
-1.490731 -17.037974 34.854754 0.000000 35.000000 14.303524 0.000000
-3.115587 -18.433736 31.722752 0.000000 63.000000 14.711692 8.000000
-1.625361 -17.129885 34.735866 0.000000 34.000000 14.327939 0.000000
-1.826430 -17.047711 36.092521 0.000000 42.000000 14.298340 0.000000
-1.967425 -17.136899 35.972163 0.000000 37.000000 14.317745 0.000000
-2.877361 -17.904272 32.247202 0.000000 62.000000 14.357412 0.000000
-3.211638 -18.019235 32.261412 0.000000 24.000000 14.340938 0.000000
-3.974439 -18.657955 31.681328 0.000000 67.000000 14.596645 16.000000
-4.249782 -18.391593 32.755797 0.000000 52.000000 14.344080 0.000000
-2.530510 -17.468095 35.536358 0.000000 43.000000 14.376144 0.000000
-4.546077 -18.428605 33.216799 0.000000 52.000000 14.309474 0.000000
-2.680282 -17.496815 35.473216 0.000000 49.000000 14.341501 0.000000
-4.049394 -19.261176 30.297705 0.000000 80.000000 15.003073 29.000000
-2.926748 -17.908392 31.823040 0.000000 52.000000 14.305084 0.000000
-5.710622 -19.376781 32.181937 0.000000 69.000000 14.661647 28.000000
-4.013540 -18.279009 34.182293 0.000000 67.000000 14.454830 6.000000
-2.878472 -17.702839 33.947730 0.000000 53.000000 14.322414 0.000000
-5.613144 -19.533154 32.319500 0.000000 63.000000 14.854617 28.000000
-3.309163 -17.843577 33.763286 0.000000 41.000000 14.276286 0.000000
-2.933076 -17.823005 32.731100 0.000000 52.000000 14.304766 0.000000
-4.034183 -18.814100 29.661464 0.000000 48.000000 14.538736 29.000000
-3.209982 -17.812624 34.551147 0.000000 55.000000 14.354709 0.000000
-5.265418 -19.295241 32.147491 0.000000 67.000000 14.748363 28.000000
-3.830800 -17.993959 34.876483 0.000000 51.000000 14.321024 0.000000
-4.118663 -18.119574 34.757339 0.000000 49.000000 14.319725 0.000000
-4.657762 -18.639045 34.277771 0.000000 69.000000 14.557153 4.000000
-1.261675 -17.320338 30.581479 0.000000 35.000000 14.268523 0.000000
-4.458244 -18.252145 35.310250 0.000000 55.000000 14.365586 0.000000
-5.219388 -19.176736 32.212416 0.000000 65.000000 14.661687 28.000000
-1.670056 -17.377702 34.536559 0.000000 48.000000 14.522660 23.000000
-4.407886 -18.393200 33.274490 0.000000 51.000000 14.333156 0.000000
-5.178634 -19.332919 29.695042 0.000000 49.000000 14.596740 26.000000
-4.485544 -18.443083 32.232405 0.000000 44.000000 14.257551 0.000000
-4.730823 -18.390481 33.259949 0.000000 41.000000 14.209546 0.000000
-5.530737 -19.171576 33.154981 0.000000 69.000000 14.625448 25.000000
-4.702032 -18.290099 35.352249 0.000000 55.000000 14.313974 0.000000
-4.550850 -18.223056 35.309895 0.000000 45.000000 14.304311 0.000000
-5.707025 -19.304442 32.351234 0.000000 38.000000 14.611207 28.000000
-5.555073 -18.719503 34.304834 0.000000 44.000000 14.301058 0.000000
-4.742101 -18.395629 32.964704 0.000000 36.000000 14.183798 0.000000
-5.890521 -18.760359 35.039897 0.000000 40.000000 14.279915 0.000000
-1.379502 -17.186211 33.275814 0.000000 48.000000 14.341042 0.000000
-3.219066 -18.379106 31.643659 0.000000 70.000000 14.615755 8.000000
-5.232519 -18.777722 32.673989 0.000000 52.000000 14.329136 0.000000
-3.919250 -18.200001 33.480851 0.000000 30.000000 14.354241 0.000000
-5.105043 -18.738117 32.587132 0.000000 54.000000 14.332074 0.000000
-1.409751 -17.433404 33.886250 0.000000 40.000000 14.612737 23.000000
-1.880500 -17.079687 36.159202 0.000000 29.000000 14.313784 0.000000
-2.308886 -17.750784 31.322686 0.000000 26.000000 14.344001 0.000000
-4.830821 -19.095672 32.948597 0.000000 69.000000 14.796536 9.000000
-5.425533 -18.703599 34.242476 0.000000 43.000000 14.328854 0.000000
-5.282705 -18.641277 34.000004 0.000000 43.000000 14.302615 0.000000
-3.775810 -18.989000 30.502185 0.000000 65.000000 14.871209 17.000000
-3.593757 -18.254422 31.358415 0.000000 48.000000 14.336072 0.000000
-3.181433 -17.947276 32.199412 0.000000 35.000000 14.280100 0.000000
-3.487162 -18.225760 31.252193 0.000000 51.000000 14.339652 0.000000
-3.273578 -18.268805 30.140740 0.000000 45.000000 14.359585 0.000000
-3.380689 -18.200284 31.142694 0.000000 59.000000 14.345840 0.000000
-5.361840 -18.488497 35.161205 0.000000 34.000000 14.235560 0.000000
-1.896736 -17.310982 32.537850 0.000000 34.000000 14.198702 0.000000
-4.311066 -19.011778 31.310995 0.000000 55.000000 14.765806 30.000000
-5.199330 -19.001137 29.673378 0.000000 19.000000 14.280447 0.000000
-5.867821 -18.890265 34.304428 0.000000 36.000000 14.342845 0.000000
-2.710553 -17.963112 30.387462 0.000000 43.000000 14.307880 0.000000
-0.979784 -17.466701 30.732783 0.000000 35.000000 14.521878 12.000000
-4.443036 -18.207822 35.342510 0.000000 48.000000 14.333134 0.000000
-6.026752 -18.881927 34.561858 0.000000 50.000000 14.299129 0.000000
-0.271558 -16.768266 32.365168 0.000000 30.000000 14.284544 0.000000
-4.496081 -18.161844 35.582329 0.000000 51.000000 14.292336 0.000000
-4.511983 -18.463376 32.588710 0.000000 44.000000 14.298267 0.000000
-4.305929 -18.448417 31.549244 0.000000 48.000000 14.268208 0.000000
-0.904723 -16.998648 33.412725 0.000000 50.000000 14.356004 0.000000
-5.487191 -18.682967 34.280200 0.000000 43.000000 14.290272 0.000000
-5.226810 -19.538574 31.339771 0.000000 55.000000 14.915600 28.000000
-2.580150 -17.794816 30.087423 0.000000 27.000000 14.173942 0.000000
-5.055430 -19.435978 30.942096 0.000000 68.000000 14.848888 28.000000
-2.957359 -17.814545 32.795346 0.000000 44.000000 14.293665 0.000000
-3.882700 -18.311023 32.043577 0.000000 48.000000 14.342286 0.000000
-4.298924 -18.724736 30.201591 0.000000 47.000000 14.406075 29.000000
-4.165996 -18.230787 33.771794 0.000000 54.000000 14.317101 0.000000
-1.708929 -17.365752 31.927042 0.000000 39.000000 14.264544 0.000000
-4.745320 -18.430976 33.565637 0.000000 37.000000 14.268852 0.000000
-2.612132 -17.747343 32.431624 0.000000 46.000000 14.327190 0.000000
-3.343699 -18.503293 32.014987 0.000000 78.000000 14.717418 8.000000
-5.330060 -19.318476 33.307498 0.000000 17.000000 14.849279 25.000000
-3.582081 -18.279537 30.849268 0.000000 40.000000 14.318227 0.000000
-5.080808 -18.963242 32.942339 0.000000 73.000000 14.580828 9.000000
-5.206366 -19.264920 30.605266 0.000000 51.000000 14.604747 28.000000
-5.603536 -18.653882 35.201634 0.000000 25.000000 14.302376 0.000000
-2.505029 -17.631001 33.022846 0.000000 41.000000 14.312091 0.000000
-2.608656 -17.694544 32.638029 0.000000 49.000000 14.298076 0.000000
-0.841727 -17.528569 31.131908 0.000000 44.000000 14.665865 12.000000
-4.712225 -18.414105 33.490141 0.000000 40.000000 14.258804 0.000000
-2.685078 -17.846337 31.730598 0.000000 36.000000 14.329135 0.000000
-4.891867 -18.803386 32.559976 0.000000 54.000000 14.469067 10.000000
-2.825727 -17.901316 31.719108 0.000000 48.000000 14.326754 0.000000
-2.751682 -17.500243 35.911313 0.000000 52.000000 14.357240 0.000000
-3.998736 -18.066643 35.509878 0.000000 56.000000 14.382380 0.000000
-4.305422 -18.448628 32.656920 0.000000 51.000000 14.367344 0.000000
-4.643934 -19.034670 31.159057 0.000000 72.000000 14.649935 30.000000
-3.681336 -18.742229 30.688311 0.000000 50.000000 14.694746 17.000000
-3.864800 -18.183584 34.492353 0.000000 51.000000 14.449445 6.000000
-6.532791 -18.970376 35.309070 0.000000 30.000000 14.259777 0.000000
-1.487819 -17.445739 30.654738 0.000000 27.000000 14.307076 0.000000
-5.820823 -19.233761 34.242804 0.000000 36.000000 14.672298 18.000000
-4.203145 -19.044186 29.747330 0.000000 71.000000 14.696392 29.000000
-4.067581 -18.269025 32.918322 0.000000 45.000000 14.312865 0.000000
-5.031509 -18.939183 33.089640 0.000000 47.000000 14.590010 9.000000
-4.880435 -18.360586 35.601876 0.000000 44.000000 14.335201 0.000000
-4.213038 -18.474094 31.703065 0.000000 48.000000 14.340116 0.000000
-1.803591 -17.391086 31.686074 0.000000 30.000000 14.231361 0.000000
-0.857779 -17.131237 31.321940 0.000000 29.000000 14.309577 0.000000
-4.770551 -18.554239 32.960578 0.000000 47.000000 14.319487 0.000000
-1.063816 -16.780935 35.572777 0.000000 48.000000 14.288318 0.000000
-4.346512 -18.391614 33.346042 0.000000 35.000000 14.360838 0.000000
-5.662600 -18.759864 34.479057 0.000000 36.000000 14.314009 0.000000
-2.283978 -17.571981 32.980817 0.000000 42.000000 14.335792 0.000000
-2.135651 -17.688276 31.069816 0.000000 51.000000 14.327943 0.000000
-5.720379 -19.049025 31.522818 0.000000 45.000000 14.296302 0.000000
-1.702876 -17.418683 34.637747 0.000000 57.000000 14.557386 23.000000
-4.885901 -18.952833 29.659255 0.000000 37.000000 14.350812 0.000000
-3.956434 -18.715995 29.877971 0.000000 48.000000 14.496198 29.000000
-1.715296 -17.008620 36.455006 0.000000 47.000000 14.335751 0.000000
-1.534677 -17.083225 34.619802 0.000000 33.000000 14.308102 0.000000
-3.763662 -18.420398 31.067570 0.000000 43.000000 14.400532 16.000000
-2.220050 -17.185330 35.081209 0.000000 34.000000 14.189364 0.000000
-2.736245 -17.709310 33.054337 0.000000 51.000000 14.301508 0.000000
-3.748270 -18.264998 31.806262 0.000000 44.000000 14.328455 0.000000
-5.312671 -18.514553 35.353768 0.000000 45.000000 14.295053 0.000000
-0.366120 -17.069282 30.549424 0.000000 46.000000 14.365829 0.000000
-0.507464 -17.074792 30.554715 0.000000 31.000000 14.318959 0.000000
-3.581321 -18.027756 33.737777 0.000000 48.000000 14.343295 0.000000
-5.458619 -19.293896 31.630683 0.000000 59.000000 14.629372 28.000000
-4.712562 -19.337453 29.931458 0.000000 37.000000 14.794909 26.000000
-1.392547 -17.654472 33.026625 0.000000 73.000000 14.746825 15.000000
-2.675626 -17.749775 32.587209 0.000000 23.000000 14.319754 0.000000
-2.395779 -17.845930 30.723382 0.000000 57.000000 14.346284 0.000000
-5.496031 -18.758093 33.943977 0.000000 26.000000 14.326460 0.000000
-3.326749 -17.694684 35.525064 0.000000 40.000000 14.289202 0.000000
-1.530059 -17.026328 34.952373 0.000000 41.000000 14.286872 0.000000
-2.636609 -17.434557 35.633259 0.000000 34.000000 14.314422 0.000000
-0.946202 -17.061575 32.523496 0.000000 48.000000 14.319505 0.000000
-3.413263 -17.963510 32.774029 0.000000 55.000000 14.260332 0.000000
-0.537864 -17.280413 32.419543 0.000000 46.000000 14.664004 14.000000
-2.801387 -17.963565 30.688423 0.000000 43.000000 14.301434 0.000000
-5.620108 -18.985103 33.806637 0.000000 47.000000 14.478024 25.000000
-3.723030 -18.673276 30.394793 0.000000 39.000000 14.589374 27.000000
-4.212025 -18.464460 35.562332 0.000000 80.000000 14.675655 5.000000
-4.121018 -18.855323 30.949843 0.000000 57.000000 14.659491 30.000000
-4.097472 -18.458145 30.819740 0.000000 55.000000 14.289494 0.000000
-5.278712 -18.828098 32.808705 0.000000 49.000000 14.370576 0.000000
-5.197556 -18.671469 33.755796 0.000000 52.000000 14.340338 0.000000
-0.821496 -17.340820 31.168062 0.000000 43.000000 14.503047 12.000000
-4.032654 -18.965690 30.521452 0.000000 34.000000 14.756097 17.000000
-3.385441 -17.910572 33.511389 0.000000 46.000000 14.287459 0.000000
-5.610603 -19.071559 30.771844 0.000000 47.000000 14.290903 0.000000
-5.506230 -18.780155 33.835856 0.000000 26.000000 14.333430 0.000000
-2.719838 -17.665267 33.325756 0.000000 40.000000 14.291082 0.000000
-5.493648 -18.770509 34.105186 0.000000 26.000000 14.353193 0.000000
-6.303441 -19.006128 34.934398 0.000000 43.000000 14.344504 0.000000
-5.527638 -18.698676 34.445325 0.000000 40.000000 14.304510 0.000000
-3.839269 -17.973511 34.902860 0.000000 49.000000 14.301333 0.000000
-4.077659 -19.184788 30.315353 0.000000 83.000000 14.923551 29.000000
-5.154200 -18.422967 34.702844 0.000000 51.000000 14.211152 0.000000
-5.007568 -18.381000 34.750810 0.000000 45.000000 14.231032 0.000000
-1.535134 -17.259355 31.977554 0.000000 34.000000 14.235173 0.000000
-5.028217 -18.923239 33.031616 0.000000 52.000000 14.571320 9.000000
-5.164553 -18.697856 33.285790 0.000000 41.000000 14.335070 0.000000
-1.657426 -17.323412 31.778697 0.000000 43.000000 14.231288 0.000000
-0.847213 -17.076379 32.704790 0.000000 53.000000 14.386075 14.000000
-4.315927 -18.287263 34.065246 0.000000 52.000000 14.339846 0.000000
-2.650413 -17.941248 30.940946 0.000000 38.000000 14.359326 0.000000
-2.591939 -17.617714 33.614251 0.000000 50.000000 14.320293 0.000000
-4.686449 -19.447843 30.070478 0.000000 49.000000 14.919030 26.000000
-3.553469 -17.837477 35.473897 0.000000 27.000000 14.332524 0.000000
-4.168630 -18.228273 33.656459 0.000000 46.000000 14.303517 0.000000
-2.935651 -17.606333 35.288919 0.000000 37.000000 14.331568 0.000000
-0.989750 -17.036007 33.618968 0.000000 40.000000 14.377382 0.000000
-2.639455 -17.459574 35.347987 0.000000 36.000000 14.311058 0.000000
-5.887807 -19.240479 34.245236 0.000000 68.000000 14.653875 18.000000
-5.988599 -19.504371 33.567605 0.000000 75.000000 14.800000 25.000000
-4.545766 -19.087809 31.557078 0.000000 53.000000 14.770957 30.000000
-0.579648 -16.729458 33.206820 0.000000 22.000000 14.209415 0.000000
-0.928938 -16.718677 34.655370 0.000000 33.000000 14.199015 0.000000
-3.191300 -17.822095 34.107234 0.000000 41.000000 14.330818 0.000000
-6.034573 -18.810770 35.154635 0.000000 46.000000 14.283302 0.000000
-5.957158 -19.191257 34.032996 0.000000 67.000000 14.563727 18.000000
-1.107505 -16.808377 35.424938 0.000000 36.000000 14.284296 0.000000
0.072581 -16.777682 30.781282 0.000000 41.000000 14.279705 0.000000
-3.105153 -18.444459 31.835355 0.000000 70.000000 14.735514 8.000000
-4.518900 -18.772620 30.814127 0.000000 46.000000 14.423341 30.000000
-4.951542 -18.959701 29.735438 0.000000 43.000000 14.339602 0.000000
-5.490989 -18.760261 33.871400 0.000000 35.000000 14.323864 0.000000
-2.577022 -17.803705 30.199773 0.000000 35.000000 14.193335 0.000000
-3.088213 -17.585713 35.518216 0.000000 41.000000 14.276354 0.000000
-4.930907 -18.415609 35.496568 0.000000 57.000000 14.357949 0.000000
-5.321174 -18.757320 32.738913 0.000000 42.000000 14.283177 0.000000
-3.921545 -18.068864 34.664186 0.000000 28.000000 14.337672 0.000000
-4.719872 -19.104136 29.810052 0.000000 67.000000 14.565706 29.000000
-5.713539 -18.776523 34.594810 0.000000 45.000000 14.320830 0.000000
-1.236958 -17.152865 33.072228 0.000000 41.000000 14.344948 0.000000
-4.117029 -18.645033 31.507822 0.000000 54.000000 14.516335 16.000000
-1.834702 -17.064738 36.192935 0.000000 45.000000 14.319963 0.000000
-5.327374 -18.636984 34.930891 0.000000 62.000000 14.365067 0.000000
-3.047827 -18.237580 31.652906 0.000000 50.000000 14.549285 8.000000
-5.139839 -18.509955 34.218309 0.000000 48.000000 14.253689 0.000000
-4.298383 -18.270368 34.043843 0.000000 56.000000 14.328830 0.000000
-5.386552 -18.635913 34.499786 0.000000 56.000000 14.303689 0.000000
-5.167258 -18.406558 34.613432 0.000000 33.000000 14.183168 0.000000
-4.077390 -18.266960 35.126943 0.000000 59.000000 14.504225 5.000000
-3.826050 -18.837918 31.623344 0.000000 69.000000 14.812873 16.000000
-5.108565 -18.422616 35.534548 0.000000 35.000000 14.301906 0.000000
-1.549510 -17.086525 34.512842 0.000000 43.000000 14.296114 0.000000
-4.429948 -18.399587 33.217582 0.000000 46.000000 14.325802 0.000000
-0.460385 -16.754156 32.623398 0.000000 36.000000 14.224473 0.000000
-3.238037 -18.413632 31.616069 0.000000 61.000000 14.638172 8.000000
-5.745433 -18.785982 34.668350 0.000000 26.000000 14.324298 0.000000
-3.528834 -18.317546 30.580960 0.000000 47.000000 14.349193 0.000000
-4.206175 -18.186887 34.457647 0.000000 59.000000 14.322763 0.000000
-3.819384 -18.787398 30.336786 0.000000 57.000000 14.653946 17.000000
-2.338410 -18.052529 30.261648 0.000000 31.000000 14.517372 1.000000
-2.745990 -17.588953 34.792031 0.000000 61.000000 14.341562 0.000000
-5.997869 -19.365134 34.136192 0.000000 65.000000 14.718549 18.000000
-3.459289 -17.961977 33.142783 0.000000 42.000000 14.274716 0.000000
-0.729109 -16.901854 33.350385 0.000000 31.000000 14.326123 0.000000
-2.807401 -17.678767 34.007816 0.000000 32.000000 14.331885 0.000000
-4.527848 -18.418613 33.209680 0.000000 49.000000 14.306366 0.000000
-3.177834 -17.838923 34.273558 0.000000 55.000000 14.366196 0.000000
-2.516502 -17.795362 31.689765 0.000000 44.000000 14.340913 0.000000
-4.362886 -18.882902 31.492634 0.000000 65.000000 14.643649 30.000000
-2.801272 -17.602038 34.523973 0.000000 43.000000 14.309251 0.000000
-1.266629 -17.441838 33.028018 0.000000 56.000000 14.597112 15.000000
-6.301936 -19.314335 33.996880 0.000000 67.000000 14.546371 18.000000
-5.803934 -19.344881 32.020933 0.000000 56.000000 14.583189 28.000000
-4.180784 -19.006927 30.634119 0.000000 84.000000 14.749307 17.000000
-4.302669 -18.196706 35.695542 0.000000 50.000000 14.406405 5.000000
-4.446576 -18.397760 31.957392 0.000000 36.000000 14.205594 0.000000
-3.441746 -18.828844 29.820024 0.000000 74.000000 14.786280 27.000000
-5.624585 -18.686339 35.148828 0.000000 49.000000 14.319861 0.000000
-4.643103 -18.948540 31.877312 0.000000 74.000000 14.634664 30.000000
-5.822629 -18.854080 34.267801 0.000000 38.000000 14.322897 0.000000
-2.228262 -17.257742 34.122037 0.000000 33.000000 14.167738 0.000000
-0.753803 -17.131188 32.644206 0.000000 51.000000 14.465989 14.000000
-2.348626 -17.340119 34.016261 0.000000 35.000000 14.189801 0.000000
-0.726951 -16.695836 34.390679 0.000000 38.000000 14.229236 0.000000
-1.937416 -17.215443 33.981625 0.000000 42.000000 14.224017 0.000000
-3.208210 -17.837783 33.119643 0.000000 44.000000 14.250998 0.000000
-2.906370 -18.039706 30.602774 0.000000 49.000000 14.325233 0.000000
-1.673450 -17.239802 32.662963 0.000000 28.000000 14.226894 0.000000
-2.963998 -17.864741 31.315007 0.000000 39.000000 14.205623 0.000000
-2.882132 -18.118297 30.254399 0.000000 43.000000 14.375812 0.000000
-1.372852 -17.115418 33.688885 0.000000 44.000000 14.314898 0.000000
-4.133275 -18.737620 32.151374 0.000000 55.000000 14.653266 16.000000
-1.128130 -17.165109 32.365444 0.000000 32.000000 14.333626 0.000000
-1.979949 -17.565168 32.064185 0.000000 33.000000 14.360561 0.000000
-0.998539 -17.119101 32.301268 0.000000 35.000000 14.333452 0.000000
-0.973102 -17.027358 33.458853 0.000000 54.000000 14.361288 0.000000
-0.870957 -17.082707 32.229785 0.000000 40.000000 14.340767 0.000000
-2.456701 -17.722311 32.350164 0.000000 34.000000 14.354450 0.000000
-4.932097 -18.992874 30.427490 0.000000 37.000000 14.439178 26.000000
-0.728488 -16.845902 33.363881 0.000000 33.000000 14.275837 0.000000
-5.047172 -18.504627 34.900112 0.000000 42.000000 14.343926 0.000000
-4.675879 -18.912055 29.674625 0.000000 38.000000 14.392402 29.000000
-3.866413 -18.624411 30.079037 0.000000 52.000000 14.462863 27.000000
-1.380200 -17.248212 31.683508 0.000000 32.000000 14.256134 0.000000
-1.248002 -17.726570 32.722785 0.000000 6.000000 14.840003 15.000000
-2.817289 -17.417747 36.285570 0.000000 51.000000 14.290012 0.000000
-2.091892 -17.757949 30.433849 0.000000 35.000000 14.351880 0.000000
-1.807318 -17.044825 36.014168 0.000000 45.000000 14.295777 0.000000
-3.558928 -18.221370 31.480471 0.000000 56.000000 14.329323 0.000000
-2.829845 -17.835589 32.152661 0.000000 24.000000 14.303124 0.000000
-1.337910 -17.307977 30.215094 0.000000 36.000000 14.196152 0.000000
-2.611304 -17.319626 35.330392 0.000000 35.000000 14.190571 0.000000
-2.708908 -17.532610 35.115290 0.000000 43.000000 14.332058 0.000000
-2.838598 -17.601523 35.000352 0.000000 58.000000 14.337399 0.000000
-2.181639 -17.709163 30.952006 0.000000 48.000000 14.319686 0.000000
-3.111501 -17.688327 34.812230 0.000000 43.000000 14.299625 0.000000
-4.004730 -19.268126 30.313130 0.000000 77.000000 15.027442 29.000000
-3.453214 -18.681261 29.889245 0.000000 53.000000 14.651778 27.000000
-5.550180 -18.752154 34.098745 0.000000 44.000000 14.314680 0.000000
-3.653056 -17.886559 34.448523 0.000000 47.000000 14.249533 0.000000
-3.907955 -17.824484 35.755323 0.000000 44.000000 14.214099 0.000000
-3.413667 -18.551953 29.835066 0.000000 48.000000 14.542092 27.000000
-4.021971 -17.965451 35.603985 0.000000 44.000000 14.288613 0.000000
-6.074648 -19.451584 33.501843 0.000000 56.000000 14.713422 25.000000
-4.420587 -18.185387 35.310567 0.000000 55.000000 14.317876 0.000000
-4.294357 -18.259278 33.971974 0.000000 53.000000 14.313665 0.000000
-4.552979 -18.259663 35.217276 0.000000 50.000000 14.329102 0.000000
-4.278841 -19.227070 29.778937 0.000000 45.000000 14.840178 29.000000
-4.932109 -18.854022 31.612935 0.000000 43.000000 14.416512 30.000000
-0.132683 -17.311508 31.090802 0.000000 56.000000 14.724596 13.000000
-5.940032 -19.072007 32.082370 0.000000 26.000000 14.285946 0.000000
-1.213821 -17.372315 31.521518 0.000000 48.000000 14.418129 12.000000
-0.683249 -17.060610 31.711677 0.000000 33.000000 14.343785 0.000000
-3.948159 -18.854857 30.862289 0.000000 75.000000 14.715381 17.000000
-5.168993 -19.328743 29.870628 0.000000 62.000000 14.612111 26.000000
-4.178896 -19.151655 30.259748 0.000000 67.000000 14.850411 29.000000
-5.854380 -19.229152 34.325666 0.000000 38.000000 14.662976 18.000000
-5.354999 -18.756792 33.401062 0.000000 52.000000 14.329174 0.000000
-2.528338 -17.704914 32.484356 0.000000 28.000000 14.323757 0.000000
-2.044342 -17.473365 32.566928 0.000000 37.000000 14.296635 0.000000
-5.507211 -19.131659 31.090743 0.000000 28.000000 14.413243 28.000000
-6.188726 -19.071191 33.482294 0.000000 51.000000 14.317741 0.000000
-6.034140 -18.847789 35.040186 0.000000 46.000000 14.307478 0.000000
-1.122344 -17.279109 30.914995 0.000000 37.000000 14.311835 0.000000
-5.110256 -18.782170 32.001910 0.000000 36.000000 14.318686 0.000000
-6.191874 -19.545623 34.281536 0.000000 82.000000 14.826371 18.000000
-5.727864 -19.272366 32.914243 0.000000 59.000000 14.624022 25.000000
-4.560872 -18.467836 32.827809 0.000000 51.000000 14.305569 0.000000
-4.207768 -18.465685 31.588202 0.000000 46.000000 14.324058 0.000000
-4.287292 -18.422148 32.664604 0.000000 55.000000 14.350279 0.000000
-4.599271 -18.216373 35.619130 0.000000 49.000000 14.307740 0.000000
-3.592259 -17.879597 35.209034 0.000000 57.000000 14.333454 0.000000
-4.077289 -19.017351 29.787773 0.000000 77.000000 14.721882 29.000000
-3.740038 -18.837398 30.806376 0.000000 56.000000 14.771465 17.000000
-3.583401 -18.273708 31.227880 0.000000 49.000000 14.346103 0.000000
-2.238484 -18.072986 30.108211 0.000000 51.000000 14.559672 1.000000
-5.334720 -18.843509 32.647379 0.000000 41.000000 14.349660 0.000000
-1.727410 -17.461195 34.551588 0.000000 43.000000 14.579899 23.000000
-2.150536 -17.432957 35.915336 0.000000 44.000000 14.518412 21.000000
-2.722457 -17.925278 30.597633 0.000000 44.000000 14.287230 0.000000
-4.400110 -18.483109 31.534990 0.000000 42.000000 14.264066 0.000000
-2.903393 -17.937011 30.792750 0.000000 35.000000 14.248348 0.000000
-0.484528 -17.220059 32.481956 0.000000 58.000000 14.633566 14.000000
-4.139015 -18.654624 32.362300 0.000000 54.000000 14.593224 16.000000
-2.846309 -17.885739 31.710066 0.000000 48.000000 14.303913 0.000000
-2.683798 -17.824432 30.634364 0.000000 31.000000 14.211629 0.000000
-2.732940 -17.855021 31.614312 0.000000 38.000000 14.309039 0.000000
-4.710750 -18.886461 31.839485 0.000000 41.000000 14.548813 30.000000
-4.372212 -18.766762 33.838558 0.000000 70.000000 14.741983 4.000000
-4.739866 -18.891519 31.194592 0.000000 50.000000 14.485193 30.000000
-4.403769 -18.569581 33.553231 0.000000 55.000000 14.522573 4.000000
-3.737493 -18.497953 29.584656 0.000000 42.000000 14.349721 0.000000
-2.088009 -17.672372 31.017641 0.000000 45.000000 14.326264 0.000000
-3.633954 -18.774025 30.818025 0.000000 47.000000 14.753279 17.000000
-3.554960 -18.284295 30.811779 0.000000 41.000000 14.329343 0.000000
-5.802540 -18.724938 35.221320 0.000000 55.000000 14.295986 0.000000
-2.546144 -17.628814 33.397641 0.000000 31.000000 14.328231 0.000000
-4.523571 -18.485479 32.839261 0.000000 50.000000 14.336736 0.000000
-5.403085 -18.770179 33.141749 0.000000 41.000000 14.300591 0.000000
-3.409775 -18.854149 30.135491 0.000000 74.000000 14.849656 27.000000
-0.251816 -17.217239 30.864986 0.000000 67.000000 14.573131 13.000000
-3.534393 -18.280136 30.658905 0.000000 43.000000 14.319499 0.000000
-4.537274 -18.806709 34.170646 0.000000 70.000000 14.747281 4.000000
-0.876320 -16.726460 34.757949 0.000000 48.000000 14.234874 0.000000
-5.303527 -18.713127 33.626723 0.000000 30.000000 14.328025 0.000000
-2.549084 -17.282798 35.132117 0.000000 30.000000 14.161934 0.000000
-4.420309 -19.321694 29.838891 0.000000 40.000000 14.880508 29.000000
-1.234869 -17.127882 33.128531 0.000000 36.000000 14.327649 0.000000
-3.957925 -18.053493 35.012343 0.000000 56.000000 14.341007 0.000000
-3.592444 -18.002832 35.983101 0.000000 56.000000 14.516309 7.000000
-4.503506 -18.469167 33.423411 0.000000 44.000000 14.381181 0.000000
-1.819790 -17.266329 32.938426 0.000000 29.000000 14.221684 0.000000
-3.573545 -18.155967 32.701870 0.000000 51.000000 14.372337 0.000000
-5.515819 -19.401071 32.685215 0.000000 61.000000 14.801235 25.000000
-5.673398 -19.091090 31.005639 0.000000 44.000000 14.306505 0.000000
-4.089342 -18.264972 33.059943 0.000000 46.000000 14.313672 0.000000
-4.016746 -18.227546 34.591744 0.000000 38.000000 14.442575 6.000000
-1.998092 -17.499714 32.239979 0.000000 41.000000 14.309000 0.000000
-4.737372 -18.975071 30.182899 0.000000 48.000000 14.473153 26.000000
-1.281466 -16.740216 36.135897 0.000000 31.000000 14.220141 0.000000
-2.604095 -17.587636 33.909528 0.000000 47.000000 14.314306 0.000000
-2.514529 -17.659273 32.638762 0.000000 35.000000 14.300457 0.000000
-3.978007 -18.483473 30.891948 0.000000 44.000000 14.363662 0.000000
-2.651611 -17.743742 32.584490 0.000000 38.000000 14.322844 0.000000
-2.891234 -17.728877 33.806177 0.000000 55.000000 14.329127 0.000000
-1.667849 -17.132373 34.796184 0.000000 38.000000 14.319854 0.000000
-2.630564 -17.580232 34.846436 0.000000 27.000000 14.381172 0.000000
-4.688325 -19.231447 30.945251 0.000000 65.000000 14.796297 30.000000
-4.289981 -18.446536 31.430261 0.000000 47.000000 14.261778 0.000000
-5.624894 -18.769912 34.507175 0.000000 22.000000 14.339792 0.000000
-3.473915 -17.931176 33.676087 0.000000 53.000000 14.288366 0.000000
-5.397742 -19.372726 33.332238 0.000000 64.000000 14.876523 25.000000
-1.776584 -17.450394 31.318606 0.000000 39.000000 14.263441 0.000000
-1.585696 -17.371288 30.840771 0.000000 33.000000 14.218533 0.000000
-4.064705 -18.605510 31.017401 0.000000 64.000000 14.455489 30.000000
-4.080768 -18.267782 32.941004 0.000000 40.000000 14.308846 0.000000
-1.597512 -17.048293 35.730346 0.000000 25.000000 14.351512 0.000000
-5.628002 -19.403419 34.076174 0.000000 45.000000 14.885798 25.000000
-5.160573 -19.283579 29.860680 0.000000 34.000000 14.572600 26.000000
-1.918275 -17.690903 30.110395 0.000000 51.000000 14.325476 0.000000
-4.496743 -19.066431 31.251306 0.000000 77.000000 14.742122 30.000000
-2.891415 -17.861397 31.810910 0.000000 31.000000 14.273670 0.000000
-3.426046 -18.313488 30.148424 0.000000 39.000000 14.345011 0.000000
-1.294471 -17.427359 32.536238 0.000000 53.000000 14.529556 15.000000
-5.213309 -18.781863 32.831221 0.000000 26.000000 14.354108 0.000000
-4.697813 -18.223428 35.735248 0.000000 46.000000 14.288057 0.000000
-4.383643 -18.471089 32.738700 0.000000 52.000000 14.366379 0.000000
-5.295438 -18.877877 32.200735 0.000000 45.000000 14.356181 0.000000
-5.678493 -18.711282 35.093449 0.000000 40.000000 14.317981 0.000000
-4.593654 -18.870415 31.896800 0.000000 80.000000 14.582530 30.000000
-2.380753 -17.407713 34.119519 0.000000 37.000000 14.249569 0.000000
-0.368930 -16.778910 32.265867 0.000000 42.000000 14.249407 0.000000
-5.450372 -19.056125 30.972211 0.000000 44.000000 14.353941 0.000000
-5.717431 -19.425212 33.009363 0.000000 72.000000 14.777656 25.000000
-3.633273 -18.720091 30.755427 0.000000 54.000000 14.698097 17.000000
-4.110040 -18.672679 29.618011 0.000000 31.000000 14.375998 0.000000
-2.659151 -17.815715 31.626485 0.000000 44.000000 14.301165 0.000000
-3.705757 -18.700900 30.260717 0.000000 67.000000 14.609363 27.000000
-1.550381 -17.155626 36.046715 0.000000 55.000000 14.496415 19.000000
-1.434524 -17.331529 32.642277 0.000000 51.000000 14.398473 15.000000
-4.309555 -19.143309 29.613568 0.000000 63.000000 14.736616 29.000000
-0.433592 -17.073530 30.529257 0.000000 33.000000 14.342927 0.000000
-0.655806 -17.054974 31.719508 0.000000 42.000000 14.349454 0.000000
-5.578899 -19.035923 30.591634 0.000000 39.000000 14.253657 0.000000
-4.029238 -18.652164 31.796439 0.000000 74.000000 14.581226 16.000000
-3.910791 -18.340765 31.857288 0.000000 51.000000 14.342748 0.000000
-1.130401 -17.332544 30.439456 0.000000 31.000000 14.315843 0.000000
-1.366100 -17.268850 31.648276 0.000000 33.000000 14.277300 0.000000
-3.994149 -18.204899 33.029066 0.000000 44.000000 14.290705 0.000000
-0.915337 -17.346479 31.573743 0.000000 34.000000 14.509633 12.000000
-1.936494 -17.563436 31.622960 0.000000 24.000000 14.335744 0.000000
-1.661284 -17.297981 31.662052 0.000000 39.000000 14.195950 0.000000
-1.547983 -17.495653 30.412189 0.000000 33.000000 14.309271 0.000000
-5.337966 -19.192669 30.528831 0.000000 58.000000 14.482327 28.000000
-1.673749 -17.625221 30.377637 0.000000 50.000000 14.379301 0.000000
-2.731170 -17.808727 32.501201 0.000000 43.000000 14.345973 0.000000
-6.315883 -19.012705 35.011216 0.000000 49.000000 14.352816 0.000000
-0.799186 -16.645236 34.680734 0.000000 38.000000 14.181526 0.000000
-3.683751 -18.593902 30.895501 0.000000 70.000000 14.575215 17.000000
-1.529515 -17.295626 32.616459 0.000000 37.000000 14.327745 0.000000
-3.894766 -19.428439 30.041087 0.000000 75.000000 15.192168 29.000000
-3.599346 -18.256730 31.453930 0.000000 53.000000 14.344647 0.000000
-3.094161 -17.893476 33.182075 0.000000 44.000000 14.350353 0.000000
-1.900034 -17.394765 32.129905 0.000000 19.000000 14.238554 0.000000
-4.140134 -17.911098 35.883847 0.000000 40.000000 14.219487 0.000000
-2.656482 -17.860855 30.463896 0.000000 46.000000 14.240232 0.000000
-4.174259 -18.570465 32.303342 0.000000 52.000000 14.497100 16.000000
-2.802060 -17.865395 30.496654 0.000000 45.000000 14.193343 0.000000
-0.843358 -17.044170 32.723740 0.000000 49.000000 14.359422 0.000000
-3.537548 -18.703416 29.726232 0.000000 58.000000 14.626438 27.000000
-5.868594 -19.141888 34.270733 0.000000 45.000000 14.572143 18.000000
-2.260723 -17.824278 30.481807 0.000000 50.000000 14.354835 0.000000
-3.691785 -18.253480 31.709471 0.000000 48.000000 14.330133 0.000000
-3.818345 -18.329110 31.723495 0.000000 48.000000 14.354342 0.000000
-2.128004 -17.604414 31.985215 0.000000 51.000000 14.334873 0.000000
-1.624944 -17.339929 34.197108 0.000000 40.000000 14.474216 23.000000
-3.821040 -18.195303 33.848540 0.000000 55.000000 14.419113 11.000000
-3.451339 -18.358878 31.998377 0.000000 75.000000 14.542515 8.000000
-5.468055 -19.456746 32.171750 0.000000 79.000000 14.824640 28.000000
-1.686370 -16.997749 36.483112 0.000000 41.000000 14.338939 0.000000
-1.680430 -17.379634 31.316127 0.000000 38.000000 14.233483 0.000000
-5.378653 -18.423224 35.317545 0.000000 38.000000 14.182926 0.000000
-3.387226 -18.391903 31.593131 0.000000 55.000000 14.560697 8.000000
-1.705694 -17.114209 35.131187 0.000000 30.000000 14.318891 0.000000
-5.647336 -19.133335 31.222051 0.000000 47.000000 14.374516 0.000000
-0.792931 -16.650365 34.649478 0.000000 33.000000 14.185800 0.000000
-5.614781 -19.070156 34.066906 0.000000 55.000000 14.581823 25.000000
-5.314649 -19.014411 29.518670 0.000000 41.000000 14.236144 0.000000
-1.884478 -17.385674 34.777162 0.000000 43.000000 14.471934 23.000000
-0.870916 -17.071632 32.642049 0.000000 69.000000 14.367300 0.000000
-4.148855 -19.375036 29.909236 0.000000 48.000000 15.036789 29.000000
-4.388346 -18.856091 31.627088 0.000000 41.000000 14.621408 30.000000
-5.192025 -19.331918 30.002851 0.000000 57.000000 14.618290 26.000000
-4.670968 -18.240031 35.522744 0.000000 51.000000 14.294418 0.000000
-4.929029 -18.452591 34.254880 0.000000 44.000000 14.282130 0.000000
-4.118774 -17.984106 35.825273 0.000000 34.000000 14.289674 0.000000
-0.659748 -16.781918 33.290502 0.000000 31.000000 14.235652 0.000000
-1.447035 -17.094775 34.289677 0.000000 37.000000 14.321859 0.000000
-1.355798 -17.441294 32.690872 0.000000 45.000000 14.533473 15.000000
-3.239634 -17.615209 36.197026 0.000000 49.000000 14.307964 0.000000
-3.649199 -18.289539 31.210396 0.000000 50.000000 14.334768 0.000000
-4.321512 -19.285407 30.057540 0.000000 80.000000 14.903111 29.000000
-4.871400 -19.053539 32.401309 0.000000 66.000000 14.693744 10.000000
-5.005309 -18.543453 33.885333 0.000000 63.000000 14.304874 0.000000
-4.346284 -18.518269 32.416390 0.000000 56.000000 14.395114 16.000000
-4.289297 -18.250917 34.523673 0.000000 44.000000 14.356999 0.000000
-3.013391 -17.617436 35.186109 0.000000 33.000000 14.303825 0.000000
-4.733604 -18.546470 33.913068 0.000000 27.000000 14.410931 4.000000
-5.227656 -19.037996 29.721292 0.000000 41.000000 14.308281 0.000000
