41.738352 -22.306464 33.941540 0.000000 65.000000 14.380237 24.000000
44.090638 -21.548150 34.445386 0.000000 40.000000 13.979925 0.000000
44.092561 -21.692052 34.489515 0.000000 43.000000 14.100405 0.000000
44.101376 -21.737831 34.683794 0.000000 56.000000 14.084299 0.000000
40.094522 -22.224385 32.608076 0.000000 72.000000 14.395981 25.000000
44.778283 -20.229783 30.583901 0.000000 35.000000 14.089478 0.000000
46.219143 -20.532619 32.259130 0.000000 36.000000 14.132938 0.000000
41.200984 -22.113802 33.188260 0.000000 50.000000 14.329849 24.000000
44.178814 -21.921235 35.109205 0.000000 53.000000 14.137779 0.000000
45.429201 -20.966191 33.082852 0.000000 44.000000 14.125025 0.000000
43.695336 -21.430277 33.057944 0.000000 38.000000 14.224143 0.000000
43.675419 -21.992617 35.595175 0.000000 43.000000 13.954285 0.000000
41.692235 -22.421243 33.584968 0.000000 73.000000 14.588797 24.000000
43.351543 -21.947762 35.280542 0.000000 36.000000 13.946852 0.000000
42.307373 -21.568518 33.058709 0.000000 30.000000 14.080127 0.000000
43.399885 -21.983253 35.436804 0.000000 38.000000 13.940756 0.000000
43.629530 -20.160555 29.463253 0.000000 56.000000 14.148141 0.000000
41.992939 -21.288805 31.837758 0.000000 48.000000 14.137940 0.000000
44.577556 -22.051136 36.330766 0.000000 40.000000 13.956999 0.000000
44.401403 -22.007295 35.860785 0.000000 27.000000 14.027796 0.000000
41.621406 -21.430166 32.687827 0.000000 23.000000 13.932188 0.000000
41.182970 -21.964791 33.332233 0.000000 46.000000 14.142974 0.000000
44.630614 -20.203044 29.886035 0.000000 35.000000 14.252625 29.000000
45.946448 -19.945580 30.564475 0.000000 44.000000 14.060430 0.000000
44.317461 -22.070223 36.187087 0.000000 41.000000 13.968389 0.000000
41.768375 -20.941093 30.815784 0.000000 42.000000 14.088283 0.000000
43.239440 -22.165325 35.506578 0.000000 65.000000 14.056899 0.000000
40.151219 -22.676964 33.369412 0.000000 77.000000 14.591262 23.000000
43.171816 -22.080657 35.399128 0.000000 50.000000 13.998302 0.000000
41.510720 -22.221678 33.965232 0.000000 61.000000 14.249359 24.000000
43.043265 -21.030218 31.316073 0.000000 28.000000 14.265761 4.000000
41.753660 -21.835190 32.181679 0.000000 74.000000 14.492170 10.000000
42.780833 -21.636874 32.871399 0.000000 63.000000 14.294834 19.000000
42.432949 -21.643638 32.721757 0.000000 50.000000 14.279393 19.000000
43.001676 -20.300175 29.004156 0.000000 45.000000 14.297537 27.000000
40.560320 -21.555030 31.877724 0.000000 46.000000 14.091993 0.000000
45.393497 -21.201658 33.762379 0.000000 45.000000 14.125708 0.000000
45.651655 -20.154525 30.850391 0.000000 39.000000 14.107998 0.000000
43.683008 -21.455594 33.525257 0.000000 38.000000 14.099966 0.000000
43.642953 -21.995197 35.205436 0.000000 50.000000 14.071496 0.000000
42.309031 -21.828195 32.473421 0.000000 66.000000 14.503925 19.000000
42.681744 -21.539073 31.908260 0.000000 66.000000 14.483910 6.000000
41.399487 -22.396787 34.183842 0.000000 37.000000 14.322405 14.000000
41.673628 -21.286427 31.547170 0.000000 36.000000 14.163428 0.000000
39.950251 -22.388983 33.023858 0.000000 56.000000 14.391463 23.000000
41.240980 -21.545711 32.543307 0.000000 28.000000 14.009931 0.000000
43.059127 -21.270405 32.348540 0.000000 48.000000 14.171211 0.000000
41.334765 -21.676190 31.800034 0.000000 57.000000 14.380779 10.000000
43.104090 -21.900610 34.521558 0.000000 52.000000 14.090440 0.000000
42.076733 -21.916429 33.854803 0.000000 44.000000 14.110885 0.000000
40.778131 -22.543683 33.419150 0.000000 52.000000 14.574860 24.000000
44.723691 -20.947401 32.912120 0.000000 41.000000 14.022206 0.000000
42.879982 -21.876370 34.256375 0.000000 54.000000 14.106379 0.000000
41.868397 -21.888449 33.601110 0.000000 39.000000 14.122867 0.000000
41.767557 -21.867152 33.482879 0.000000 44.000000 14.120037 0.000000
42.706280 -20.499853 30.371946 0.000000 37.000000 13.999980 0.000000
43.337737 -21.270544 32.568356 0.000000 52.000000 14.157660 0.000000
47.040303 -20.200354 31.703625 0.000000 42.000000 14.157792 0.000000
44.372057 -20.860777 32.014465 0.000000 45.000000 14.151763 0.000000
41.238325 -21.787968 32.902754 0.000000 43.000000 14.122936 0.000000
44.822041 -21.365955 34.006938 0.000000 45.000000 14.090329 0.000000
46.185129 -20.938349 33.756897 0.000000 38.000000 14.037875 0.000000
41.776050 -21.416755 32.603843 0.000000 33.000000 13.976173 0.000000
41.557007 -20.979585 30.780161 0.000000 44.000000 14.093682 0.000000
44.349245 -21.348013 33.660442 0.000000 29.000000 14.088611 0.000000
45.127092 -20.715970 32.041202 0.000000 37.000000 14.156933 0.000000
44.802184 -21.522194 34.266268 0.000000 41.000000 14.151095 0.000000
44.291996 -20.203872 30.033507 0.000000 48.000000 14.141100 0.000000
42.662551 -20.659093 30.417180 0.000000 31.000000 14.125422 0.000000
43.080777 -21.908508 34.388922 0.000000 55.000000 14.134451 0.000000
39.874792 -22.401120 33.187625 0.000000 34.000000 14.337023 23.000000
41.322309 -21.916002 32.382634 0.000000 55.000000 14.420202 7.000000
42.001039 -21.297878 31.930628 0.000000 46.000000 14.119091 0.000000
40.608331 -21.501910 32.177997 0.000000 27.000000 13.958650 0.000000
40.910219 -22.408194 33.068722 0.000000 71.000000 14.583737 24.000000
44.100634 -21.341910 33.425053 0.000000 37.000000 14.107345 0.000000
41.523498 -20.968612 30.572747 0.000000 39.000000 14.141394 0.000000
44.338847 -22.000325 36.040173 0.000000 43.000000 13.953263 0.000000
44.443214 -22.031865 35.919391 0.000000 49.000000 14.040627 0.000000
44.538649 -22.082255 35.783070 0.000000 60.000000 14.148599 0.000000
45.112057 -21.854762 35.515033 0.000000 48.000000 14.132892 0.000000
43.365778 -20.401053 30.636422 0.000000 29.000000 13.955269 0.000000
43.161783 -21.965973 35.131337 0.000000 35.000000 13.972946 0.000000
40.057306 -22.170333 32.696213 0.000000 59.000000 14.311008 25.000000
43.109513 -21.911568 33.120521 0.000000 52.000000 14.537320 18.000000
45.067867 -20.712102 32.105016 0.000000 33.000000 14.121873 0.000000
41.906317 -20.732037 30.209572 0.000000 37.000000 14.109426 0.000000
41.415582 -21.169579 31.077182 0.000000 53.000000 14.150266 0.000000
44.195462 -20.962793 32.464773 0.000000 26.000000 14.071969 0.000000
40.837558 -22.399494 33.418575 0.000000 61.000000 14.452609 24.000000
46.030990 -20.665047 32.649212 0.000000 41.000000 14.097884 0.000000
41.463701 -20.811056 30.229163 0.000000 23.000000 14.089971 0.000000
44.375200 -20.252403 30.361344 0.000000 35.000000 14.100623 0.000000
42.719014 -20.959449 31.623237 0.000000 34.000000 14.040819 0.000000
43.899825 -20.931799 31.950408 0.000000 48.000000 14.145069 0.000000
41.042180 -21.040256 30.843331 0.000000 34.000000 14.029446 0.000000
42.091046 -20.996656 31.451528 0.000000 39.000000 14.005594 0.000000
42.100104 -21.098961 31.561361 0.000000 43.000000 14.068361 0.000000
42.120557 -21.165723 31.684634 0.000000 50.000000 14.096130 0.000000
44.605463 -21.242005 32.879798 0.000000 41.000000 14.283028 0.000000
44.259340 -21.480864 34.018752 0.000000 37.000000 14.083107 0.000000
43.866033 -20.633564 31.155204 0.000000 46.000000 14.108346 0.000000
41.352692 -22.489323 34.020068 0.000000 57.000000 14.450200 14.000000
40.892436 -22.332287 32.964121 0.000000 62.000000 14.542181 24.000000
43.141789 -21.652222 33.898099 0.000000 34.000000 14.060699 0.000000
42.565973 -22.208632 33.756084 0.000000 50.000000 14.509311 8.000000
40.344306 -22.430921 32.996432 0.000000 53.000000 14.516309 23.000000
41.356027 -22.221346 33.372937 0.000000 70.000000 14.402860 24.000000
41.238774 -22.507987 33.510123 0.000000 69.000000 14.603762 24.000000
42.291402 -20.979041 31.230114 0.000000 43.000000 14.097370 0.000000
41.265068 -21.696503 31.966991 0.000000 38.000000 14.334082 10.000000
43.444154 -20.950144 32.084681 0.000000 29.000000 14.030971 0.000000
44.136101 -21.844773 34.967440 0.000000 55.000000 14.102370 0.000000
45.570199 -20.349754 31.365404 0.000000 37.000000 14.113437 0.000000
44.076908 -20.533844 30.318550 0.000000 51.000000 14.317128 30.000000
41.698616 -21.716504 32.964863 0.000000 45.000000 14.127481 0.000000
43.735512 -20.192105 29.609446 0.000000 45.000000 14.152821 0.000000
43.152291 -21.951149 34.684404 0.000000 35.000000 14.096263 0.000000
42.991972 -20.709402 30.761311 0.000000 46.000000 14.129843 0.000000
44.488099 -21.493232 34.059694 0.000000 33.000000 14.126764 0.000000
43.620195 -21.233395 32.860274 0.000000 42.000000 14.087769 0.000000
43.021515 -20.262245 29.561397 0.000000 33.000000 14.092892 0.000000
41.004022 -22.182289 34.029216 0.000000 51.000000 14.093413 0.000000
42.099371 -21.884516 33.799873 0.000000 52.000000 14.102728 0.000000
43.139166 -21.387084 33.390744 0.000000 38.000000 13.971369 0.000000
44.637693 -20.832175 32.321689 0.000000 39.000000 14.081760 0.000000
43.260824 -21.889311 34.606985 0.000000 51.000000 14.084124 0.000000
43.216766 -22.017953 35.000147 0.000000 37.000000 14.072865 0.000000
42.187300 -21.465956 32.819274 0.000000 43.000000 14.035636 0.000000
41.543517 -21.269524 31.431549 0.000000 50.000000 14.158130 0.000000
43.506964 -21.974037 35.041087 0.000000 52.000000 14.076236 0.000000
43.201249 -20.629671 30.708252 0.000000 39.000000 14.113257 0.000000
43.603848 -21.983430 35.202872 0.000000 49.000000 14.053677 0.000000
44.443733 -20.370691 30.807998 0.000000 33.000000 14.085194 0.000000
42.355540 -22.028762 34.515438 0.000000 44.000000 14.064644 0.000000
42.699707 -21.971931 34.846353 0.000000 41.000000 13.976432 0.000000
45.740471 -20.276634 31.256582 0.000000 34.000000 14.112684 0.000000
44.604497 -20.196145 29.871311 0.000000 53.000000 14.245662 29.000000
42.642425 -20.943732 31.182529 0.000000 36.000000 14.148205 0.000000
44.802019 -20.874794 32.901735 0.000000 34.000000 13.973283 0.000000
44.020966 -21.993061 35.859799 0.000000 44.000000 13.940219 0.000000
43.761581 -21.877925 34.809671 0.000000 56.000000 14.108769 0.000000
43.316601 -21.269064 32.530583 0.000000 45.000000 14.163881 0.000000
43.327297 -20.307402 30.186493 0.000000 35.000000 14.000523 0.000000
45.294398 -21.356084 33.682433 0.000000 64.000000 14.274731 1.000000
40.870683 -21.391903 32.025191 0.000000 27.000000 13.955337 0.000000
44.674139 -22.058396 34.895838 0.000000 66.000000 14.428864 9.000000
43.467885 -20.296301 29.431526 0.000000 54.000000 14.252528 0.000000
42.591631 -21.974765 34.630910 0.000000 42.000000 14.024849 0.000000
40.329006 -21.996403 32.434729 0.000000 67.000000 14.283875 7.000000
44.543050 -21.266298 32.976800 0.000000 51.000000 14.263212 0.000000
44.187675 -21.330844 33.287109 0.000000 25.000000 14.157023 0.000000
43.314992 -22.145692 35.613003 0.000000 50.000000 14.020374 0.000000
42.851850 -20.597410 29.585669 0.000000 39.000000 14.363744 16.000000
43.170354 -22.144558 35.496241 0.000000 68.000000 14.027245 0.000000
43.284930 -21.713427 34.076619 0.000000 44.000000 14.090196 0.000000
42.903051 -22.089242 35.304753 0.000000 41.000000 13.982895 0.000000
41.838302 -22.132817 34.592966 0.000000 38.000000 14.035816 0.000000
43.243169 -21.171525 32.225760 0.000000 48.000000 14.153544 0.000000
42.883675 -22.034589 34.761518 0.000000 38.000000 14.097176 0.000000
45.194526 -21.421032 34.718324 0.000000 32.000000 13.993443 0.000000
41.588917 -22.065622 34.425650 0.000000 37.000000 13.976418 0.000000
45.550019 -20.091818 30.554693 0.000000 46.000000 14.121682 0.000000
41.212427 -22.480549 33.345096 0.000000 63.000000 14.624388 24.000000
41.327978 -22.040834 34.241605 0.000000 35.000000 13.959392 0.000000
42.119670 -20.776108 30.474641 0.000000 38.000000 14.109854 0.000000
42.037394 -22.124291 34.664451 0.000000 48.000000 14.044724 0.000000
41.247096 -22.378489 33.492332 0.000000 54.000000 14.490499 24.000000
41.917621 -22.051402 34.612833 0.000000 46.000000 13.969489 0.000000
40.463948 -22.208846 33.358735 0.000000 72.000000 14.220613 24.000000
43.704515 -21.447270 33.432905 0.000000 45.000000 14.125160 0.000000
43.234796 -22.114938 32.621760 0.000000 52.000000 14.906108 18.000000
41.503252 -22.039727 34.355594 0.000000 40.000000 13.957311 0.000000
44.346022 -21.546221 34.157787 0.000000 36.000000 14.117664 0.000000
41.365480 -22.032005 34.275217 0.000000 42.000000 13.948088 0.000000
40.999827 -21.521363 31.555538 0.000000 49.000000 14.247098 10.000000
42.598300 -21.492052 33.303482 0.000000 25.000000 13.989993 0.000000
40.865391 -22.388726 33.755542 0.000000 56.000000 14.343283 24.000000
44.838925 -20.213315 30.615151 0.000000 28.000000 14.076345 0.000000
41.078678 -21.943927 32.768863 0.000000 69.000000 14.278277 7.000000
43.400584 -21.646033 34.045741 0.000000 35.000000 14.059816 0.000000
41.408249 -22.435320 33.736874 0.000000 69.000000 14.498934 24.000000
42.280116 -22.204139 34.742609 0.000000 47.000000 14.142303 0.000000
45.083911 -21.536549 34.562674 0.000000 38.000000 14.127561 0.000000
44.957156 -21.582165 34.881224 0.000000 40.000000 14.046065 0.000000
45.080046 -21.446821 34.811503 0.000000 37.000000 13.965991 0.000000
45.147786 -21.420416 34.672234 0.000000 33.000000 13.998030 0.000000
41.762144 -21.600369 32.088179 0.000000 55.000000 14.304533 10.000000
41.789211 -21.499802 32.845102 0.000000 33.000000 13.980970 0.000000
41.856541 -21.355205 31.924452 0.000000 46.000000 14.145970 0.000000
41.525335 -20.763953 30.095154 0.000000 36.000000 14.099928 0.000000
44.087083 -20.707192 31.515754 0.000000 43.000000 14.108084 0.000000
43.327187 -20.729050 30.957763 0.000000 62.000000 14.152806 0.000000
44.678109 -21.451141 34.385441 0.000000 38.000000 14.023619 0.000000
45.798547 -20.920522 33.612254 0.000000 35.000000 13.990418 0.000000
43.519360 -20.894551 32.158474 0.000000 29.000000 13.971084 0.000000
44.766953 -20.546869 30.762569 0.000000 67.000000 14.326578 30.000000
45.792714 -20.129852 30.802700 0.000000 41.000000 14.127559 0.000000
43.223728 -21.902475 34.457577 0.000000 26.000000 14.135543 0.000000
42.203925 -21.776664 32.396703 0.000000 49.000000 14.459234 19.000000
46.053984 -20.701162 32.810732 0.000000 40.000000 14.085760 0.000000
40.293462 -21.988172 32.856301 0.000000 46.000000 14.138166 0.000000
41.654880 -22.485836 33.747494 0.000000 73.000000 14.591002 24.000000
44.222635 -22.348389 35.396478 0.000000 33.000000 14.454290 21.000000
43.045873 -20.686107 29.817253 0.000000 52.000000 14.412292 16.000000
46.320640 -20.355652 32.139910 0.000000 35.000000 14.025351 0.000000
40.099977 -22.585045 33.200478 0.000000 69.000000 14.548254 23.000000
43.595138 -21.525716 34.138970 0.000000 32.000000 13.957113 0.000000
46.414980 -20.704528 32.977522 0.000000 60.000000 14.107862 0.000000
43.752816 -20.738342 31.473684 0.000000 42.000000 14.084545 0.000000
41.395787 -21.967712 32.631073 0.000000 57.000000 14.405460 7.000000
42.715640 -21.382745 32.127371 0.000000 63.000000 14.277054 6.000000
42.588752 -21.813479 32.852478 0.000000 57.000000 14.427264 19.000000
42.885167 -20.939704 31.560772 0.000000 36.000000 14.074481 0.000000
40.572788 -21.586568 32.280384 0.000000 35.000000 13.998569 0.000000
40.609082 -21.752831 32.334351 0.000000 40.000000 14.143528 0.000000
41.152943 -22.463369 33.321387 0.000000 56.000000 14.604112 24.000000
41.091665 -21.366632 30.834480 0.000000 55.000000 14.345424 2.000000
40.812473 -22.155539 32.498422 0.000000 68.000000 14.506923 7.000000
40.325278 -22.393185 33.072159 0.000000 71.000000 14.453937 23.000000
45.147022 -21.698928 35.133990 0.000000 39.000000 14.113311 0.000000
44.622831 -20.759430 32.101136 0.000000 43.000000 14.079771 0.000000
44.579476 -22.325996 35.411209 0.000000 40.000000 14.498902 21.000000
40.229883 -21.933207 32.746830 0.000000 46.000000 14.108614 0.000000
42.301306 -22.036481 34.737821 0.000000 34.000000 13.992035 0.000000
43.997419 -21.855454 34.827430 0.000000 44.000000 14.128625 0.000000
45.273355 -21.314984 33.998368 0.000000 41.000000 14.134147 0.000000
42.049931 -22.003648 34.356091 0.000000 46.000000 14.030870 0.000000
42.788124 -21.284906 32.294540 0.000000 37.000000 14.148312 0.000000
42.852979 -22.131507 33.910057 0.000000 59.000000 14.446028 8.000000
41.337826 -21.990721 34.145341 0.000000 40.000000 13.944653 0.000000
43.091665 -20.885843 31.610973 0.000000 38.000000 14.049301 0.000000
42.888821 -21.000796 31.153678 0.000000 59.000000 14.258589 4.000000
42.590024 -21.979828 32.426357 0.000000 54.000000 14.714705 19.000000
40.904670 -22.401221 33.605107 0.000000 67.000000 14.409385 24.000000
40.812426 -22.034255 32.637970 0.000000 66.000000 14.350735 7.000000
43.678694 -21.976469 35.073814 0.000000 41.000000 14.102018 0.000000
42.542240 -20.749144 30.596953 0.000000 40.000000 14.129662 0.000000
40.232677 -21.587590 31.981655 0.000000 36.000000 14.025669 0.000000
42.873049 -22.048643 35.261760 0.000000 39.000000 13.952620 0.000000
41.025876 -21.917354 33.127276 0.000000 42.000000 14.131763 0.000000
43.072921 -22.210549 35.420230 0.000000 64.000000 14.093131 0.000000
43.392669 -21.419742 33.390960 0.000000 31.000000 14.051413 0.000000
46.414478 -20.857677 33.768685 0.000000 38.000000 14.004189 0.000000
42.777437 -21.252992 31.739206 0.000000 51.000000 14.289207 6.000000
40.358753 -22.326316 32.926161 0.000000 66.000000 14.443715 23.000000
40.932035 -21.393859 31.460921 0.000000 42.000000 14.144643 0.000000
41.480121 -22.406573 33.773962 0.000000 66.000000 14.474771 24.000000
43.762654 -20.974262 31.994022 0.000000 37.000000 14.144083 0.000000
45.321055 -21.477676 34.447484 0.000000 61.000000 14.155159 0.000000
47.185557 -20.345599 31.394032 0.000000 53.000000 14.417626 28.000000
46.852442 -20.308681 32.442766 0.000000 29.000000 13.991849 0.000000
41.113308 -21.443462 32.287864 0.000000 27.000000 13.969218 0.000000
44.026185 -20.700647 31.386496 0.000000 39.000000 14.130238 0.000000
44.580622 -21.828153 35.203145 0.000000 53.000000 14.100847 0.000000
46.348339 -20.511314 30.708118 0.000000 38.000000 14.620733 20.000000
44.151833 -22.242726 35.401954 0.000000 56.000000 14.340433 21.000000
43.439091 -21.717429 33.139585 0.000000 63.000000 14.415519 18.000000
44.009562 -21.994434 35.856270 0.000000 42.000000 13.940356 0.000000
41.636016 -21.652472 32.189091 0.000000 62.000000 14.296862 10.000000
42.914183 -22.049812 35.095149 0.000000 42.000000 14.013583 0.000000
40.855479 -21.407308 31.991173 0.000000 26.000000 13.977257 0.000000
45.842617 -20.364695 32.136623 0.000000 31.000000 13.940988 0.000000
42.907734 -22.062777 32.710432 0.000000 41.000000 14.765856 19.000000
42.953985 -21.363800 31.898583 0.000000 53.000000 14.377340 6.000000
45.443652 -21.563897 35.250670 0.000000 42.000000 14.009661 0.000000
44.357464 -21.509110 34.600373 0.000000 30.000000 13.947784 0.000000
45.570621 -20.982497 33.541470 0.000000 43.000000 14.025339 0.000000
42.859727 -21.875500 34.279380 0.000000 53.000000 14.094442 0.000000
42.438825 -20.700665 30.499314 0.000000 25.000000 14.094646 0.000000
44.863239 -21.808757 35.312909 0.000000 32.000000 14.104134 0.000000
41.251969 -22.336178 33.707899 0.000000 58.000000 14.385081 24.000000
46.375110 -20.845971 33.234911 0.000000 36.000000 14.151545 0.000000
45.499481 -21.433358 34.603728 0.000000 55.000000 14.100374 0.000000
43.360057 -21.775563 34.322772 0.000000 53.000000 14.086185 0.000000
43.910828 -21.485503 34.230451 0.000000 34.000000 13.953215 0.000000
44.905673 -21.865032 35.550627 0.000000 47.000000 14.090879 0.000000
42.333498 -22.049594 34.617487 0.000000 38.000000 14.047961 0.000000
43.064724 -21.069170 31.482699 0.000000 54.000000 14.254386 4.000000
43.922356 -20.256124 29.900614 0.000000 47.000000 14.158484 0.000000
41.995088 -20.929076 30.679710 0.000000 53.000000 14.163901 0.000000
41.678726 -21.882372 33.368334 0.000000 32.000000 14.152377 0.000000
42.052066 -21.577920 33.093432 0.000000 24.000000 14.027979 0.000000
46.045068 -21.255592 34.238576 0.000000 48.000000 14.155647 0.000000
44.762332 -21.447185 34.470891 0.000000 36.000000 14.009897 0.000000
41.521081 -22.204426 33.278704 0.000000 71.000000 14.448811 24.000000
43.061832 -20.037764 28.767842 0.000000 36.000000 14.138786 0.000000
40.799728 -21.382704 31.423419 0.000000 26.000000 14.119969 0.000000
41.390660 -21.701842 31.862324 0.000000 60.000000 14.396234 10.000000
42.280813 -21.835614 32.391272 0.000000 62.000000 14.530830 19.000000
46.457326 -20.160972 31.277801 0.000000 36.000000 14.139182 0.000000
41.559894 -21.705776 32.883472 0.000000 53.000000 14.115592 0.000000
41.332578 -21.764956 32.852453 0.000000 50.000000 14.135669 0.000000
41.884859 -21.566259 32.220280 0.000000 59.000000 14.255816 10.000000
43.936245 -21.273154 33.174041 0.000000 41.000000 14.089196 0.000000
42.451168 -22.205811 33.404927 0.000000 75.000000 14.593347 8.000000
45.063790 -21.460615 34.531185 0.000000 30.000000 14.062789 0.000000
46.834657 -20.148895 31.536277 0.000000 42.000000 14.121620 0.000000
43.504071 -20.338596 30.355975 0.000000 41.000000 14.011521 0.000000
41.201089 -21.993090 32.547220 0.000000 39.000000 14.416931 7.000000
44.711190 -22.710146 35.982892 0.000000 36.000000 14.704236 22.000000
44.911904 -22.107304 36.061943 0.000000 28.000000 14.158421 0.000000
44.539070 -22.239488 35.541601 0.000000 40.000000 14.369982 21.000000
43.315173 -21.881135 34.524349 0.000000 51.000000 14.112879 0.000000
45.522741 -20.460328 31.952621 0.000000 39.000000 14.024370 0.000000
44.444941 -20.456092 31.406688 0.000000 31.000000 13.978700 0.000000
43.647884 -20.884886 31.658794 0.000000 41.000000 14.142680 0.000000
44.450821 -20.348825 31.288247 0.000000 27.000000 13.916927 0.000000
45.483951 -20.348647 31.666996 0.000000 38.000000 14.001710 0.000000
41.953399 -21.988466 34.389102 0.000000 37.000000 13.987547 0.000000
40.584006 -21.868926 32.588126 0.000000 34.000000 14.167665 0.000000
41.369047 -21.496840 32.566697 0.000000 40.000000 13.982339 0.000000
41.562544 -21.426090 31.863388 0.000000 44.000000 14.173191 0.000000
45.399577 -21.462811 34.634120 0.000000 38.000000 14.098711 0.000000
42.348443 -20.714898 29.950057 0.000000 56.000000 14.260929 0.000000
45.323863 -20.249331 31.052788 0.000000 37.000000 14.068915 0.000000
45.285912 -20.211958 30.908878 0.000000 36.000000 14.071459 0.000000
43.800316 -21.543456 34.297038 0.000000 37.000000 13.964721 0.000000
45.248393 -20.164748 30.766017 0.000000 42.000000 14.064614 0.000000
42.040503 -21.932432 33.765067 0.000000 40.000000 14.146560 0.000000
45.197380 -20.146725 30.615147 0.000000 40.000000 14.084754 0.000000
42.765024 -20.612135 29.570348 0.000000 45.000000 14.365166 17.000000
43.357464 -20.959241 31.842612 0.000000 38.000000 14.097688 0.000000
40.004852 -21.978248 32.560022 0.000000 54.000000 14.164430 0.000000
44.030063 -20.139294 29.800415 0.000000 33.000000 14.102126 0.000000
42.728419 -21.885849 34.112631 0.000000 53.000000 14.130149 0.000000
40.331151 -21.943800 32.759593 0.000000 53.000000 14.134367 0.000000
47.019263 -20.350224 32.312978 0.000000 40.000000 14.103570 0.000000
40.647337 -21.540251 31.762520 0.000000 53.000000 14.131143 0.000000
43.091306 -20.225016 29.484342 0.000000 33.000000 14.095924 0.000000
44.608151 -22.323546 35.345069 0.000000 52.000000 14.522815 21.000000
42.511306 -20.911831 31.575528 0.000000 33.000000 13.970616 0.000000
41.559984 -22.391567 33.774385 0.000000 63.000000 14.476355 24.000000
45.722963 -20.049699 30.675119 0.000000 46.000000 14.079003 0.000000
46.133972 -20.271911 31.601386 0.000000 38.000000 14.078292 0.000000
41.101909 -22.074610 33.238456 0.000000 74.000000 14.258354 24.000000
46.784931 -20.535312 31.966899 0.000000 56.000000 14.337322 11.000000
41.753372 -21.933685 33.641856 0.000000 48.000000 14.129696 0.000000
41.161695 -22.371437 33.380614 0.000000 76.000000 14.501921 24.000000
44.497290 -20.922085 32.478374 0.000000 36.000000 14.089105 0.000000
44.848222 -20.932220 32.975282 0.000000 32.000000 14.012884 0.000000
43.014087 -21.986894 32.652737 0.000000 49.000000 14.734095 19.000000
41.464985 -20.837869 30.275890 0.000000 31.000000 14.100629 0.000000
46.921309 -20.396839 32.769748 0.000000 37.000000 13.985676 0.000000
41.506431 -21.878233 33.291024 0.000000 40.000000 14.138760 0.000000
45.722811 -20.952954 33.673426 0.000000 37.000000 13.986698 0.000000
41.719124 -21.510919 32.240482 0.000000 27.000000 14.165552 0.000000
46.653070 -20.650867 32.949796 0.000000 48.000000 14.113297 0.000000
45.431365 -20.728509 32.409715 0.000000 48.000000 14.113714 0.000000
40.684719 -22.180245 33.694139 0.000000 53.000000 14.133046 0.000000
42.455525 -21.785769 33.192275 0.000000 40.000000 14.269701 8.000000
43.571481 -21.479493 33.620331 0.000000 24.000000 14.070746 0.000000
42.386223 -21.835875 32.423336 0.000000 55.000000 14.541786 19.000000
43.211295 -21.409132 33.336703 0.000000 35.000000 14.022829 0.000000
43.546177 -21.285499 32.765472 0.000000 52.000000 14.151177 0.000000
41.845947 -21.863705 33.378559 0.000000 32.000000 14.164649 0.000000
42.570441 -20.208147 28.582721 0.000000 55.000000 14.258377 0.000000
46.236595 -20.906204 33.591180 0.000000 48.000000 14.069606 0.000000
41.356596 -21.386069 31.703223 0.000000 36.000000 14.145363 0.000000
41.562652 -21.304771 31.506460 0.000000 36.000000 14.171370 0.000000
44.159448 -21.294479 33.164919 0.000000 56.000000 14.155659 0.000000
45.095486 -20.882512 32.733003 0.000000 35.000000 14.090506 0.000000
46.658335 -20.171709 31.420516 0.000000 39.000000 14.144233 0.000000
46.034481 -21.020708 34.007088 0.000000 55.000000 14.007114 0.000000
44.807489 -21.197526 32.387431 0.000000 53.000000 14.434396 5.000000
42.064285 -20.838808 29.852513 0.000000 58.000000 14.350734 3.000000
41.996938 -21.866427 33.565894 0.000000 48.000000 14.138559 0.000000
45.469172 -20.203343 30.833258 0.000000 35.000000 14.122918 0.000000
42.228000 -20.898910 30.812399 0.000000 46.000000 14.140291 0.000000
41.718181 -22.648701 34.393622 0.000000 72.000000 14.553979 13.000000
43.593501 -21.998751 35.228746 0.000000 26.000000 14.057850 0.000000
46.367063 -20.308736 32.259039 0.000000 27.000000 13.953789 0.000000
42.889490 -22.013233 33.416100 0.000000 70.000000 14.496788 8.000000
42.875236 -20.412856 30.262981 0.000000 35.000000 13.986109 0.000000
45.578011 -21.462190 34.738284 0.000000 53.000000 14.100757 0.000000
45.533675 -20.293135 31.200808 0.000000 28.000000 14.104795 0.000000
44.148118 -21.712665 34.080575 0.000000 23.000000 14.257626 0.000000
40.982279 -22.386162 33.597022 0.000000 73.000000 14.413123 24.000000
43.329465 -21.895589 32.983338 0.000000 46.000000 14.608272 18.000000
46.093520 -20.142451 30.967014 0.000000 41.000000 14.147208 0.000000
45.438431 -21.569425 35.187393 0.000000 46.000000 14.033452 0.000000
44.290975 -21.597118 34.622889 0.000000 38.000000 14.009581 0.000000
44.204379 -21.736503 34.709864 0.000000 55.000000 14.095169 0.000000
41.581567 -21.563793 32.013128 0.000000 38.000000 14.258423 10.000000
44.157090 -21.789673 34.848076 0.000000 52.000000 14.092362 0.000000
45.260162 -21.790740 35.575248 0.000000 53.000000 14.083691 0.000000
45.526999 -20.367588 31.816165 0.000000 28.000000 13.981390 0.000000
40.235472 -22.450078 33.290655 0.000000 56.000000 14.421287 23.000000
43.439513 -22.173235 35.620297 0.000000 36.000000 14.068153 0.000000
39.845141 -22.435879 33.108949 0.000000 52.000000 14.387992 23.000000
43.485699 -21.942583 34.750808 0.000000 44.000000 14.133069 0.000000
43.022783 -20.966071 31.842257 0.000000 38.000000 14.038481 0.000000
42.624040 -22.192551 33.700921 0.000000 71.000000 14.522902 8.000000
43.433395 -21.392282 33.512329 0.000000 30.000000 13.996130 0.000000
43.784563 -21.972885 35.468508 0.000000 34.000000 13.996735 0.000000
41.036423 -22.212688 32.469959 0.000000 13.000000 14.612861 7.000000
42.529241 -22.142378 33.819364 0.000000 52.000000 14.420815 8.000000
43.708176 -21.985099 35.097019 0.000000 50.000000 14.108613 0.000000
43.693318 -21.933038 34.952756 0.000000 50.000000 14.102139 0.000000
42.320612 -20.968035 31.246244 0.000000 38.000000 14.087851 0.000000
45.040773 -21.852418 35.598871 0.000000 36.000000 14.090657 0.000000
43.626549 -21.794229 34.505750 0.000000 58.000000 14.098939 0.000000
41.392974 -21.908021 32.548137 0.000000 67.000000 14.375186 7.000000
43.416480 -20.353626 29.939164 0.000000 35.000000 14.137911 0.000000
45.387188 -20.926864 32.952930 0.000000 34.000000 14.120605 0.000000
44.671164 -20.916771 32.532095 0.000000 41.000000 14.101577 0.000000
43.586855 -21.551463 34.126364 0.000000 34.000000 13.983351 0.000000
42.766245 -20.478605 30.134491 0.000000 38.000000 14.065818 0.000000
42.092825 -21.895602 33.774162 0.000000 49.000000 14.119748 0.000000
41.610390 -22.269090 33.996911 0.000000 62.000000 14.303156 24.000000
45.174359 -21.309422 33.476341 0.000000 54.000000 14.271864 1.000000
44.514417 -21.484956 34.287010 0.000000 41.000000 14.053553 0.000000
43.855040 -21.263504 32.905154 0.000000 55.000000 14.147894 0.000000
44.449564 -21.491355 34.109935 0.000000 51.000000 14.101836 0.000000
43.406636 -21.480163 33.484282 0.000000 38.000000 14.081326 0.000000
44.851864 -20.699929 31.874051 0.000000 31.000000 14.139984 0.000000
44.362573 -21.403322 33.813919 0.000000 48.000000 14.094941 0.000000
44.308422 -21.377748 33.657068 0.000000 52.000000 14.109303 0.000000
43.646683 -21.057897 32.303303 0.000000 39.000000 14.102940 0.000000
44.189192 -21.345060 33.344461 0.000000 56.000000 14.152709 0.000000
44.061215 -22.018508 35.881608 0.000000 38.000000 13.965000 0.000000
43.203781 -21.904957 33.077572 0.000000 67.000000 14.563023 18.000000
46.360677 -20.356207 31.110901 0.000000 34.000000 14.353673 20.000000
39.754421 -22.062452 32.760155 0.000000 45.000000 14.131371 0.000000
41.702198 -21.125350 31.220566 0.000000 48.000000 14.120790 0.000000
45.842700 -20.233515 31.269153 0.000000 31.000000 14.088735 0.000000
44.437027 -20.844871 32.017271 0.000000 46.000000 14.148846 0.000000
43.216609 -20.798416 31.338553 0.000000 22.000000 14.077217 0.000000
43.092004 -21.385291 33.345994 0.000000 33.000000 13.974362 0.000000
43.827256 -20.377023 30.527885 0.000000 28.000000 14.057218 0.000000
42.263345 -22.152583 33.170766 0.000000 48.000000 14.579802 8.000000
42.794158 -21.075051 31.792238 0.000000 37.000000 14.110521 0.000000
46.019691 -19.909204 30.644879 0.000000 34.000000 14.015973 0.000000
41.906133 -22.080114 33.663785 0.000000 36.000000 14.289024 24.000000
43.674337 -20.963593 32.111357 0.000000 37.000000 14.080349 0.000000
42.648808 -21.074072 31.500578 0.000000 41.000000 14.171777 0.000000
44.422675 -21.341017 33.484538 0.000000 51.000000 14.151207 0.000000
43.115125 -21.664518 33.925070 0.000000 37.000000 14.058516 0.000000
40.856719 -21.609779 31.802488 0.000000 51.000000 14.224458 10.000000
42.064806 -22.414300 33.790230 0.000000 76.000000 14.591622 24.000000
43.449994 -20.906013 31.694796 0.000000 46.000000 14.112304 0.000000
40.105427 -21.915735 32.500416 0.000000 49.000000 14.144563 0.000000
43.377811 -20.868232 31.565349 0.000000 50.000000 14.103255 0.000000
42.396330 -20.896622 31.001023 0.000000 38.000000 14.112543 0.000000
43.309568 -20.820291 31.443069 0.000000 41.000000 14.083303 0.000000
42.329607 -20.855198 30.879179 0.000000 38.000000 14.098814 0.000000
43.228132 -20.804315 31.309141 0.000000 45.000000 14.094109 0.000000
43.680588 -21.229503 32.634078 0.000000 49.000000 14.166330 0.000000
43.109934 -21.573094 32.677251 0.000000 36.000000 14.360462 18.000000
42.621562 -22.332289 34.815933 0.000000 25.000000 14.305675 0.000000
43.072036 -20.744991 31.059472 0.000000 40.000000 14.085942 0.000000
42.107602 -20.766156 30.506519 0.000000 34.000000 14.088320 0.000000
42.617832 -21.466062 33.431230 0.000000 25.000000 13.929935 0.000000
42.025772 -20.750941 30.380849 0.000000 35.000000 14.097189 0.000000
42.898423 -20.722982 30.804380 0.000000 47.000000 14.110725 0.000000
41.939290 -20.752933 30.250617 0.000000 32.000000 14.122565 0.000000
42.883292 -21.309873 32.138612 0.000000 52.000000 14.238686 6.000000
44.720203 -21.243660 33.090157 0.000000 65.000000 14.241673 0.000000
40.082346 -21.976290 32.614833 0.000000 43.000000 14.160773 0.000000
41.954636 -20.909846 30.585884 0.000000 56.000000 14.167254 0.000000
41.689409 -20.688331 29.892350 0.000000 41.000000 14.124855 0.000000
42.571787 -20.573628 30.348330 0.000000 29.000000 14.049542 0.000000
45.773914 -20.306301 31.444417 0.000000 38.000000 14.088432 0.000000
43.133432 -20.951444 31.890147 0.000000 33.000000 14.031699 0.000000
43.171706 -20.050831 28.818005 0.000000 38.000000 14.156899 0.000000
41.060915 -22.253229 32.467373 0.000000 67.000000 14.656172 7.000000
45.483667 -20.766682 32.580931 0.000000 29.000000 14.106239 0.000000
41.070364 -22.326001 32.492573 0.000000 65.000000 14.717866 7.000000
41.833403 -20.371457 29.492975 0.000000 35.000000 13.982606 0.000000
42.745379 -20.984833 31.340913 0.000000 43.000000 14.157382 0.000000
45.599603 -20.040367 30.523525 0.000000 47.000000 14.093255 0.000000
41.364503 -21.035443 30.904770 0.000000 47.000000 14.069111 0.000000
40.673406 -22.018670 32.688702 0.000000 64.000000 14.293190 0.000000
40.327668 -22.099190 33.566330 0.000000 28.000000 14.027350 0.000000
40.363437 -22.352431 32.976867 0.000000 63.000000 14.453154 23.000000
44.307404 -20.233806 30.294909 0.000000 40.000000 14.090683 0.000000
41.112750 -22.046317 33.839649 0.000000 51.000000 14.047241 0.000000
45.351715 -20.264536 31.051252 0.000000 37.000000 14.088998 0.000000
40.221824 -21.906403 32.620628 0.000000 50.000000 14.121346 0.000000
42.408820 -21.892632 33.989577 0.000000 48.000000 14.112009 0.000000
42.476957 -22.198140 33.085775 0.000000 68.000000 14.690508 8.000000
44.111087 -20.413413 30.837299 0.000000 34.000000 14.050544 0.000000
41.377713 -21.141139 31.141166 0.000000 25.000000 14.096493 0.000000
43.234723 -21.898288 33.035802 0.000000 64.000000 14.575880 18.000000
45.217703 -20.325279 31.654554 0.000000 31.000000 13.931606 0.000000
44.004985 -20.552965 31.093726 0.000000 42.000000 14.079772 0.000000
44.050432 -21.410347 34.167537 0.000000 32.000000 13.930277 0.000000
43.949378 -20.639880 31.212395 0.000000 40.000000 14.112791 0.000000
43.537692 -20.210711 29.509256 0.000000 29.000000 14.162461 0.000000
46.881336 -20.343590 32.348501 0.000000 23.000000 14.059292 0.000000
42.935621 -21.443991 33.496794 0.000000 20.000000 13.951378 0.000000
41.038853 -21.374826 31.498871 0.000000 51.000000 14.136102 0.000000
44.000222 -20.954782 32.444882 0.000000 21.000000 14.032395 0.000000
43.844018 -20.773580 31.626259 0.000000 45.000000 14.087770 0.000000
45.879524 -20.184077 30.976346 0.000000 35.000000 14.141028 0.000000
45.291371 -21.418619 34.774781 0.000000 20.000000 13.992648 0.000000
41.658486 -20.772069 30.094090 0.000000 29.000000 14.133932 0.000000
44.834303 -20.925142 32.679940 0.000000 41.000000 14.095402 0.000000
43.272046 -21.999445 35.079168 0.000000 40.000000 14.041930 0.000000
42.559855 -22.047808 33.871012 0.000000 73.000000 14.322817 8.000000
40.878907 -21.645459 31.498290 0.000000 60.000000 14.356577 10.000000
44.721402 -21.166320 33.222510 0.000000 48.000000 14.128833 0.000000
44.074666 -20.397603 31.037687 0.000000 38.000000 13.966388 0.000000
42.869495 -21.990287 34.910936 0.000000 39.000000 14.006736 0.000000
41.252695 -22.407978 33.738943 0.000000 58.000000 14.442342 24.000000
44.146521 -21.013045 32.774323 0.000000 34.000000 14.012849 0.000000
44.714557 -20.171921 30.371617 0.000000 22.000000 14.089170 0.000000
44.675151 -21.311804 33.656060 0.000000 69.000000 14.120248 0.000000
45.326950 -20.771650 32.533605 0.000000 42.000000 14.094824 0.000000
42.583828 -22.001872 34.471752 0.000000 31.000000 14.098014 0.000000
44.828962 -20.217242 30.118314 0.000000 44.000000 14.232524 29.000000
44.631809 -21.492022 34.076524 0.000000 52.000000 14.148604 0.000000
43.088112 -21.308616 31.412297 0.000000 68.000000 14.503540 4.000000
44.638732 -21.516135 34.239020 0.000000 51.000000 14.121861 0.000000
41.668620 -22.395250 33.881562 0.000000 48.000000 14.467771 24.000000
41.437316 -22.245951 33.434387 0.000000 54.000000 14.422584 24.000000
43.609866 -21.445148 33.943350 0.000000 28.000000 13.945902 0.000000
41.393658 -22.183407 34.353394 0.000000 41.000000 14.070108 0.000000
45.026789 -21.492147 34.298382 0.000000 42.000000 14.157238 0.000000
43.081859 -20.812088 31.257231 0.000000 35.000000 14.088777 0.000000
43.577849 -21.627045 34.187955 0.000000 38.000000 14.032721 0.000000
41.989026 -20.443414 29.275215 0.000000 55.000000 14.147767 0.000000
44.884682 -21.491050 33.764527 0.000000 37.000000 14.294326 0.000000
43.559758 -21.790339 34.443500 0.000000 62.000000 14.101572 0.000000
44.627438 -21.861977 35.104254 0.000000 70.000000 14.172236 0.000000
42.745642 -21.992940 34.799980 0.000000 22.000000 14.019401 0.000000
44.647029 -21.891430 35.270836 0.000000 55.000000 14.151675 0.000000
44.014244 -21.482300 33.759551 0.000000 44.000000 14.116945 0.000000
43.518982 -21.921192 34.774007 0.000000 43.000000 14.112494 0.000000
42.318499 -22.210007 33.216503 0.000000 76.000000 14.629805 8.000000
45.499381 -21.047014 33.653531 0.000000 32.000000 14.036516 0.000000
43.796661 -20.498684 30.249420 0.000000 52.000000 14.250937 0.000000
41.826549 -21.731481 32.137584 0.000000 66.000000 14.423737 10.000000
44.753501 -22.084799 36.082519 0.000000 55.000000 14.100014 0.000000
42.735468 -21.406604 33.180172 0.000000 33.000000 13.975785 0.000000
40.935462 -21.668032 31.579608 0.000000 63.000000 14.363381 10.000000
43.739936 -22.032293 35.744719 0.000000 41.000000 13.957343 0.000000
41.503025 -21.448520 32.575133 0.000000 26.000000 13.961068 0.000000
43.613188 -22.126210 35.792160 0.000000 52.000000 14.005061 0.000000
43.456325 -21.249433 32.836719 0.000000 43.000000 14.077854 0.000000
43.571179 -22.032362 35.679574 0.000000 38.000000 13.944550 0.000000
40.242841 -21.605655 32.004764 0.000000 38.000000 14.037278 0.000000
46.975613 -20.510723 32.784125 0.000000 42.000000 14.097768 0.000000
41.257620 -21.766791 31.882811 0.000000 58.000000 14.424159 10.000000
43.358552 -21.404613 33.686341 0.000000 26.000000 13.938807 0.000000
44.413723 -22.049137 35.866566 0.000000 51.000000 14.067327 0.000000
42.893797 -22.151185 33.409161 0.000000 66.000000 14.628081 8.000000
43.247555 -22.017550 35.006970 0.000000 49.000000 14.076410 0.000000
41.905453 -21.148322 31.374048 0.000000 35.000000 14.134312 0.000000
45.966775 -20.691391 32.718476 0.000000 40.000000 14.088247 0.000000
43.014077 -21.951850 34.555447 0.000000 48.000000 14.109892 0.000000
44.081004 -20.876411 31.915367 0.000000 41.000000 14.140006 0.000000
42.940180 -21.914288 34.418452 0.000000 51.000000 14.103058 0.000000
42.070102 -22.347021 34.023338 0.000000 65.000000 14.457614 24.000000
42.861970 -21.885782 34.278370 0.000000 48.000000 14.104758 0.000000
43.828970 -21.846268 34.808816 0.000000 59.000000 14.092818 0.000000
40.988376 -22.389756 33.106470 0.000000 72.000000 14.570189 24.000000
47.401302 -20.158534 32.094442 0.000000 37.000000 14.068217 0.000000
43.845546 -20.403338 30.265563 0.000000 51.000000 14.166842 0.000000
40.512223 -21.531811 32.077072 0.000000 29.000000 13.998979 0.000000
43.401332 -21.661069 34.139768 0.000000 39.000000 14.044710 0.000000
46.650651 -20.745519 33.208383 0.000000 37.000000 14.120442 0.000000
43.780550 -21.921331 34.819842 0.000000 49.000000 14.149695 0.000000
42.802508 -20.817624 31.030769 0.000000 28.000000 14.109527 0.000000
44.854256 -22.007127 34.773747 0.000000 72.000000 14.454489 9.000000
46.233101 -20.384222 31.752550 0.000000 45.000000 14.155185 0.000000
41.150937 -21.868627 33.019890 0.000000 52.000000 14.144377 0.000000
43.429418 -20.430023 30.667526 0.000000 31.000000 13.985026 0.000000
41.015563 -22.116599 32.380340 0.000000 57.000000 14.547275 7.000000
46.251462 -20.921689 33.552396 0.000000 44.000000 14.098983 0.000000
42.867457 -21.414555 33.413303 0.000000 36.000000 13.936589 0.000000
41.881227 -21.427906 32.790826 0.000000 27.000000 13.949041 0.000000
41.408369 -21.854923 33.185834 0.000000 51.000000 14.130548 0.000000
46.819777 -20.198628 31.841775 0.000000 35.000000 14.069961 0.000000
40.702271 -21.917290 32.528437 0.000000 74.000000 14.254406 7.000000
44.649488 -22.082226 36.022869 0.000000 44.000000 14.095759 0.000000
42.587375 -21.478853 31.756285 0.000000 66.000000 14.456645 6.000000
42.685644 -20.586759 29.753766 0.000000 50.000000 14.268961 0.000000
40.837365 -21.877876 32.868213 0.000000 42.000000 14.138613 0.000000
44.962013 -21.918893 35.301863 0.000000 49.000000 14.229371 9.000000
41.453918 -21.382754 31.839237 0.000000 50.000000 14.119086 0.000000
41.717485 -22.170666 33.957796 0.000000 47.000000 14.244802 24.000000
44.052076 -20.642441 31.299720 0.000000 43.000000 14.108171 0.000000
41.126130 -21.342225 31.544057 0.000000 46.000000 14.108860 0.000000
41.017093 -21.323900 31.450994 0.000000 46.000000 14.099360 0.000000
41.717692 -21.772670 33.111503 0.000000 42.000000 14.137861 0.000000
43.689999 -21.244513 32.764541 0.000000 52.000000 14.141571 0.000000
46.732948 -20.692627 33.240418 0.000000 41.000000 14.077442 0.000000
44.585276 -22.008253 36.267855 0.000000 36.000000 13.938195 0.000000
45.357748 -21.683532 35.315689 0.000000 50.000000 14.083845 0.000000
44.458982 -21.355070 33.306332 0.000000 57.000000 14.226810 0.000000
42.715163 -21.979109 34.463045 0.000000 54.000000 14.105322 0.000000
42.805261 -20.258943 29.194076 0.000000 64.000000 14.161602 0.000000
40.740002 -22.476179 33.336256 0.000000 72.000000 14.530377 24.000000
46.340606 -20.857034 33.665029 0.000000 26.000000 14.021327 0.000000
45.775604 -21.120148 33.885838 0.000000 31.000000 14.086494 0.000000
43.215038 -20.297914 29.703454 0.000000 45.000000 14.119865 0.000000
42.120525 -20.427620 29.219686 0.000000 37.000000 14.176147 0.000000
44.235743 -22.131213 35.076918 0.000000 72.000000 14.354258 21.000000
42.074770 -21.083603 31.410485 0.000000 52.000000 14.096019 0.000000
44.981868 -21.372893 34.115440 0.000000 38.000000 14.094405 0.000000
44.351338 -21.631439 34.724406 0.000000 34.000000 14.021777 0.000000
41.255443 -21.248923 31.269990 0.000000 48.000000 14.132682 0.000000
42.116895 -20.407260 29.211558 0.000000 45.000000 14.159028 0.000000
42.487973 -22.033724 34.761877 0.000000 42.000000 14.018618 0.000000
42.110668 -20.442754 29.805860 0.000000 35.000000 14.006027 0.000000
42.813043 -20.434444 30.324064 0.000000 31.000000 13.974989 0.000000
42.103747 -20.478145 29.944434 0.000000 33.000000 13.994494 0.000000
42.669450 -21.601807 31.946469 0.000000 54.000000 14.527958 6.000000
42.071682 -21.531901 32.234381 0.000000 52.000000 14.256137 0.000000
43.941705 -22.376603 35.883370 0.000000 48.000000 14.274016 0.000000
44.535618 -21.360078 33.653324 0.000000 53.000000 14.138613 0.000000
45.066496 -20.721868 32.065101 0.000000 40.000000 14.143097 0.000000
41.660304 -20.999691 30.967382 0.000000 43.000000 14.074435 0.000000
40.717718 -21.945018 32.950452 0.000000 27.000000 14.152005 0.000000
42.051914 -20.816636 30.581869 0.000000 40.000000 14.100909 0.000000
44.119945 -22.171078 35.113599 0.000000 69.000000 14.357205 21.000000
40.161675 -22.410851 33.253444 0.000000 52.000000 14.381898 23.000000
44.345141 -21.353114 33.541942 0.000000 36.000000 14.129395 0.000000
42.064457 -20.955621 30.988999 0.000000 36.000000 14.106031 0.000000
43.115889 -20.943389 31.595072 0.000000 44.000000 14.112514 0.000000
42.078177 -20.983601 31.131132 0.000000 33.000000 14.090549 0.000000
42.125876 -21.029628 31.038820 0.000000 54.000000 14.171414 0.000000
44.914346 -20.221340 30.532806 0.000000 42.000000 14.124210 0.000000
42.985792 -21.936821 34.382842 0.000000 44.000000 14.144035 0.000000
42.417207 -20.697235 30.402405 0.000000 48.000000 14.117347 0.000000
44.358211 -22.221659 35.661580 0.000000 56.000000 14.280610 21.000000
44.492766 -21.301854 33.142587 0.000000 45.000000 14.234863 0.000000
43.210213 -21.251343 32.561517 0.000000 46.000000 14.116908 0.000000
42.193326 -20.297293 29.041791 0.000000 38.000000 14.124545 0.000000
41.386792 -22.269685 33.250604 0.000000 65.000000 14.491886 24.000000
43.272182 -20.909058 31.542899 0.000000 31.000000 14.127476 0.000000
41.690183 -22.141940 33.505905 0.000000 59.000000 14.353238 24.000000
41.963729 -22.434565 33.744656 0.000000 61.000000 14.604805 24.000000
42.221433 -21.329150 32.227227 0.000000 44.000000 14.099195 0.000000
44.637141 -22.307819 35.326649 0.000000 56.000000 14.519605 21.000000
43.466691 -21.475676 33.592348 0.000000 43.000000 14.055336 0.000000
46.789741 -20.312482 32.383524 0.000000 37.000000 14.001501 0.000000
42.972922 -20.840001 31.146370 0.000000 33.000000 14.127830 0.000000
45.237405 -21.398261 34.665845 0.000000 38.000000 13.996998 0.000000
40.895781 -21.932335 33.118433 0.000000 49.000000 14.122918 0.000000
43.942900 -20.683501 31.357242 0.000000 53.000000 14.107048 0.000000
41.379924 -21.786371 31.852633 0.000000 41.000000 14.475749 10.000000
42.714164 -21.890425 34.171161 0.000000 58.000000 14.113409 0.000000
46.275419 -20.711556 32.885253 0.000000 47.000000 14.115704 0.000000
40.331437 -21.949810 32.136007 0.000000 76.000000 14.333904 7.000000
40.946229 -21.361299 30.870034 0.000000 40.000000 14.300873 2.000000
43.085373 -21.270230 32.647408 0.000000 26.000000 14.083271 0.000000
46.508963 -20.353499 31.017347 0.000000 42.000000 14.409339 20.000000
42.433770 -21.373196 31.759110 0.000000 56.000000 14.327371 6.000000
45.768687 -20.267969 31.332243 0.000000 29.000000 14.086637 0.000000
44.572971 -21.928922 34.984974 0.000000 81.000000 14.260893 9.000000
45.589232 -20.730910 32.331529 0.000000 39.000000 14.171233 0.000000
40.387448 -22.282008 33.011527 0.000000 52.000000 14.381598 23.000000
43.117828 -22.008448 34.959861 0.000000 62.000000 14.057139 0.000000
43.221460 -21.955638 35.164789 0.000000 38.000000 13.964644 0.000000
46.098505 -20.964088 33.587245 0.000000 31.000000 14.097564 0.000000
44.851566 -20.477022 31.740429 0.000000 25.000000 13.974179 0.000000
42.604755 -21.395579 33.081173 0.000000 29.000000 13.970666 0.000000
43.378227 -21.991119 35.484133 0.000000 39.000000 13.929105 0.000000
40.245233 -22.268588 32.905623 0.000000 62.000000 14.374142 23.000000
45.423312 -20.551103 31.948507 0.000000 31.000000 14.090557 0.000000
44.582350 -22.060664 36.352620 0.000000 39.000000 13.960005 0.000000
46.533434 -19.917490 31.062987 0.000000 25.000000 13.994479 0.000000
40.357953 -21.879514 32.508901 0.000000 54.000000 14.157790 0.000000
44.688819 -22.074116 36.040986 0.000000 51.000000 14.090302 0.000000
41.195960 -22.515672 34.074638 0.000000 40.000000 14.426983 14.000000
45.069998 -22.384008 35.568915 0.000000 56.000000 14.600062 21.000000
41.790435 -22.256862 34.062196 0.000000 64.000000 14.306813 24.000000
42.504697 -21.996122 34.823351 0.000000 36.000000 13.967817 0.000000
43.745127 -20.449326 30.356359 0.000000 52.000000 14.161674 0.000000
42.155386 -21.831744 32.470118 0.000000 58.000000 14.478105 19.000000
44.273087 -21.482645 33.786615 0.000000 44.000000 14.159639 0.000000
41.414955 -22.260226 33.363903 0.000000 68.000000 14.453388 24.000000
43.107601 -20.611142 30.633563 0.000000 40.000000 14.100874 0.000000
45.751183 -20.827291 32.943975 0.000000 40.000000 14.102212 0.000000
40.507821 -21.867525 32.610354 0.000000 35.000000 14.144502 0.000000
42.645415 -21.999000 34.960621 0.000000 40.000000 13.955423 0.000000
44.570055 -21.320883 33.024599 0.000000 50.000000 14.304410 0.000000
42.517633 -22.012203 34.819922 0.000000 40.000000 13.986376 0.000000
41.926607 -22.392366 34.036131 0.000000 72.000000 14.467649 24.000000
42.855486 -21.662512 32.835358 0.000000 65.000000 14.344531 19.000000
41.980291 -20.983714 30.866676 0.000000 50.000000 14.153676 0.000000
41.667723 -20.964884 30.557353 0.000000 49.000000 14.171012 0.000000
45.761579 -20.354744 31.523021 0.000000 35.000000 14.106621 0.000000
40.326701 -21.979197 32.338522 0.000000 52.000000 14.297335 7.000000
42.533555 -22.154625 33.706367 0.000000 62.000000 14.468185 8.000000
42.030827 -22.002917 34.326305 0.000000 39.000000 14.035703 0.000000
42.249010 -20.981801 31.483040 0.000000 41.000000 14.012976 0.000000
42.796205 -22.006186 34.747120 0.000000 46.000000 14.058076 0.000000
42.667340 -21.999719 34.632596 0.000000 47.000000 14.062386 0.000000
43.281491 -20.988471 32.122016 0.000000 35.000000 14.023088 0.000000
42.714559 -21.785839 32.762797 0.000000 52.000000 14.454130 19.000000
