10.903175 -22.031802 -11.366644 0.000000 56.000000 14.863770 21.000000
7.273050 -21.681790 -10.988583 0.000000 52.000000 14.484881 0.000000
6.451075 -21.788900 -11.032758 0.000000 50.000000 14.595157 7.000000
7.259277 -21.662286 -11.155565 0.000000 48.000000 14.478680 0.000000
8.774382 -21.664015 -10.994694 0.000000 50.000000 14.467647 0.000000
6.033392 -22.004016 -10.570010 0.000000 47.000000 14.772901 6.000000
5.382746 -21.899219 -12.236019 0.000000 57.000000 14.800544 28.000000
9.342815 -22.390242 -9.309431 0.000000 62.000000 15.057950 18.000000
8.268787 -21.762881 -12.721063 0.000000 55.000000 14.703098 23.000000
5.624369 -22.187373 -9.198937 0.000000 60.000000 14.846957 5.000000
8.542097 -21.552121 -12.211130 0.000000 45.000000 14.452565 0.000000
6.087814 -21.963889 -11.329625 0.000000 71.000000 14.793136 7.000000
7.685732 -22.704509 -8.442222 0.000000 1.000000 15.302459 14.000000
7.362574 -21.669034 -10.946480 0.000000 47.000000 14.468827 0.000000
9.835566 -21.861346 -9.423344 0.000000 43.000000 14.539752 18.000000
7.581013 -21.883853 -9.046425 0.000000 52.000000 14.532299 14.000000
9.629864 -22.306205 -9.263579 0.000000 50.000000 14.970541 18.000000
9.270542 -22.416620 -7.952648 0.000000 52.000000 14.976655 11.000000
5.893335 -21.790950 -10.872759 0.000000 30.000000 14.584513 0.000000
10.783396 -21.842016 -8.414395 0.000000 42.000000 14.440476 0.000000
11.021505 -22.398756 -7.845317 0.000000 42.000000 14.950336 10.000000
7.542931 -21.668219 -10.825766 0.000000 35.000000 14.458442 0.000000
5.525896 -22.090513 -6.909005 0.000000 49.000000 14.568817 4.000000
10.374228 -21.547676 -10.053756 0.000000 31.000000 14.277060 0.000000
8.775585 -22.179635 -9.349041 0.000000 54.000000 14.851147 18.000000
9.900885 -21.641082 -10.839237 0.000000 34.000000 14.432459 0.000000
9.823706 -21.615182 -11.012900 0.000000 39.000000 14.420411 0.000000
8.103209 -21.876500 -9.813912 0.000000 56.000000 14.585829 0.000000
8.965731 -22.162226 -9.058673 0.000000 50.000000 14.810767 18.000000
6.618778 -22.232618 -8.384134 0.000000 55.000000 14.827448 9.000000
5.617977 -21.756235 -10.798440 0.000000 59.000000 14.544014 6.000000
11.263800 -22.048072 -12.005625 0.000000 52.000000 14.930658 26.000000
5.624210 -21.482998 -12.694176 0.000000 51.000000 14.421964 0.000000
11.159311 -22.057666 -10.607548 0.000000 52.000000 14.829358 19.000000
5.561810 -22.001298 -10.540036 0.000000 54.000000 14.767814 6.000000
6.118025 -21.794820 -10.927260 0.000000 51.000000 14.592692 0.000000
6.943411 -22.626150 -6.648518 0.000000 37.000000 15.082111 3.000000
5.283894 -21.640632 -11.021767 0.000000 44.000000 14.446484 0.000000
7.916298 -21.968903 -12.336675 0.000000 43.000000 14.877990 23.000000
5.254793 -21.667083 -10.709009 0.000000 41.000000 14.448051 0.000000
5.234240 -21.694409 -10.555809 0.000000 49.000000 14.463142 0.000000
5.248938 -21.675748 -10.384689 0.000000 49.000000 14.430971 0.000000
10.195189 -21.992106 -7.967378 0.000000 50.000000 14.554646 0.000000
5.278963 -21.649173 -10.041318 0.000000 48.000000 14.377251 0.000000
5.245554 -21.708747 -9.898817 0.000000 46.000000 14.425337 0.000000
5.820471 -21.817637 -12.176009 0.000000 56.000000 14.714460 22.000000
7.783737 -22.076830 -12.637957 0.000000 70.000000 15.009468 23.000000
9.518423 -21.874848 -10.551979 0.000000 75.000000 14.642709 0.000000
5.227579 -21.826080 -9.270394 0.000000 54.000000 14.492469 0.000000
5.349905 -21.805550 -8.559008 0.000000 40.000000 14.415592 0.000000
5.336153 -21.873988 -8.417162 0.000000 37.000000 14.472567 0.000000
5.360493 -21.892077 -8.244993 0.000000 45.000000 14.476946 0.000000
8.051867 -22.022741 -9.805513 0.000000 42.000000 14.730944 8.000000
5.777306 -21.844936 -10.730800 0.000000 46.000000 14.627072 6.000000
5.492733 -21.888189 -7.699461 0.000000 36.000000 14.429811 0.000000
10.958160 -22.092712 -11.108005 0.000000 79.000000 14.903979 21.000000
10.537762 -22.151121 -10.638906 0.000000 60.000000 14.925006 19.000000
6.930908 -22.000042 -11.882845 0.000000 50.000000 14.873044 25.000000
10.832436 -22.276457 -10.535572 0.000000 52.000000 15.041753 19.000000
7.383699 -22.016692 -6.926869 0.000000 28.000000 14.496645 0.000000
5.955948 -21.559719 -12.324623 0.000000 51.000000 14.469139 0.000000
7.553581 -21.483729 -11.420610 0.000000 36.000000 14.321702 0.000000
8.572790 -21.968179 -7.924014 0.000000 45.000000 14.527356 0.000000
7.062479 -21.973596 -11.934858 0.000000 60.000000 14.850805 25.000000
5.767746 -21.956543 -10.731828 0.000000 58.000000 14.738409 6.000000
7.619944 -21.664271 -10.785926 0.000000 43.000000 14.451347 0.000000
7.665730 -21.682663 -10.615701 0.000000 50.000000 14.456183 0.000000
6.270390 -21.731908 -10.708122 0.000000 43.000000 14.512601 0.000000
5.663685 -21.953113 -8.679260 0.000000 52.000000 14.572226 0.000000
6.092978 -21.954637 -10.539431 0.000000 51.000000 14.721252 6.000000
7.889143 -21.658327 -10.066152 0.000000 46.000000 14.388346 0.000000
10.951481 -21.939595 -8.608866 0.000000 45.000000 14.553169 0.000000
7.183983 -21.955697 -12.033106 0.000000 50.000000 14.840754 25.000000
6.608582 -21.716873 -9.830858 0.000000 43.000000 14.428049 0.000000
6.634888 -21.778211 -9.680258 0.000000 43.000000 14.477252 0.000000
9.894247 -22.235945 -7.393412 0.000000 44.000000 14.752203 11.000000
6.718737 -21.748466 -11.715785 0.000000 35.000000 14.609012 22.000000
10.565510 -22.290579 -7.828842 0.000000 30.000000 14.841193 10.000000
5.753952 -22.043140 -9.192743 0.000000 48.000000 14.702688 5.000000
7.008533 -22.332979 -7.507349 0.000000 36.000000 14.857966 1.000000
7.016973 -21.825666 -8.803960 0.000000 41.000000 14.455069 0.000000
8.529594 -21.834401 -8.467069 0.000000 49.000000 14.437062 0.000000
10.734295 -22.263229 -11.829686 0.000000 21.000000 15.131186 26.000000
8.598886 -21.876394 -8.296696 0.000000 36.000000 14.465412 0.000000
7.192499 -21.845793 -8.445843 0.000000 39.000000 14.446735 0.000000
7.835348 -21.737743 -11.434303 0.000000 43.000000 14.576002 25.000000
7.258217 -21.886936 -8.282434 0.000000 35.000000 14.474790 0.000000
8.771200 -21.934884 -7.937711 0.000000 58.000000 14.495252 0.000000
7.330957 -21.927143 -8.119934 0.000000 63.000000 14.501985 0.000000
10.477163 -22.101749 -6.790076 0.000000 59.000000 14.570587 2.000000
5.803593 -21.990257 -11.820849 0.000000 70.000000 14.858373 22.000000
5.559818 -21.765426 -10.637579 0.000000 35.000000 14.540420 6.000000
10.855944 -21.689913 -12.434131 0.000000 34.000000 14.607607 0.000000
10.745321 -21.866858 -10.680314 0.000000 53.000000 14.644921 19.000000
8.858795 -21.661532 -12.472749 0.000000 35.000000 14.582377 0.000000
9.350071 -22.058303 -12.701404 0.000000 57.000000 14.996031 24.000000
9.473333 -22.012742 -6.781978 0.000000 44.000000 14.481218 0.000000
6.339911 -22.205833 -11.911807 0.000000 21.000000 15.080483 22.000000
8.084108 -22.025281 -6.850304 0.000000 54.000000 14.499135 0.000000
7.482239 -22.178384 -7.769643 0.000000 44.000000 14.724657 1.000000
5.417456 -21.679452 -11.773892 0.000000 29.000000 14.544823 28.000000
5.267202 -21.782390 -9.636043 0.000000 45.000000 14.477911 0.000000
5.368433 -21.769130 -9.756037 0.000000 38.000000 14.474208 0.000000
6.371389 -22.050306 -11.877675 0.000000 56.000000 14.922739 22.000000
7.339756 -22.125844 -8.486834 0.000000 44.000000 14.729154 14.000000
7.508434 -21.954001 -9.047042 0.000000 38.000000 14.602276 14.000000
8.580437 -22.017876 -12.020433 0.000000 54.000000 14.901732 25.000000
7.607485 -22.072830 -9.734078 0.000000 44.000000 14.775211 8.000000
5.968437 -22.255732 -10.574698 0.000000 11.000000 15.024196 6.000000
5.312325 -21.797041 -12.010547 0.000000 42.000000 14.680808 28.000000
9.167700 -21.934852 -8.476828 0.000000 46.000000 14.537970 0.000000
6.695675 -21.585839 -11.252016 0.000000 31.000000 14.410122 0.000000
6.811981 -21.541761 -12.226010 0.000000 45.000000 14.443418 0.000000
5.507360 -21.581110 -12.470237 0.000000 45.000000 14.502010 0.000000
9.378775 -22.170533 -8.118428 0.000000 54.000000 14.744489 11.000000
7.120718 -21.968436 -12.634729 0.000000 68.000000 14.901160 23.000000
9.154396 -21.810183 -12.113703 0.000000 56.000000 14.702089 27.000000
8.897066 -21.514610 -12.624853 0.000000 58.000000 14.447980 0.000000
8.889000 -22.095764 -9.781610 0.000000 49.000000 14.801842 17.000000
8.854187 -22.042744 -9.547040 0.000000 47.000000 14.730388 17.000000
9.873693 -21.616431 -11.123958 0.000000 53.000000 14.430463 0.000000
8.438459 -21.607892 -11.219052 0.000000 50.000000 14.429491 0.000000
9.987240 -21.642153 -10.958126 0.000000 49.000000 14.442954 0.000000
8.536179 -21.643187 -11.064080 0.000000 57.000000 14.452386 0.000000
10.102520 -21.670599 -10.791508 0.000000 54.000000 14.458098 0.000000
7.199276 -22.015213 -12.583497 0.000000 51.000000 14.943727 23.000000
6.174963 -22.126747 -11.280236 0.000000 63.000000 14.951564 7.000000
8.919104 -21.667897 -10.570209 0.000000 42.000000 14.437856 0.000000
9.019581 -21.713984 -10.419118 0.000000 51.000000 14.471817 0.000000
9.032869 -21.878052 -9.337148 0.000000 43.000000 14.549570 18.000000
9.269089 -21.599729 -10.203340 0.000000 36.000000 14.340811 0.000000
7.598846 -22.235188 -8.499989 0.000000 46.000000 14.839197 14.000000
11.002014 -22.023920 -7.997803 0.000000 44.000000 14.588772 10.000000
10.895206 -21.817330 -9.780505 0.000000 78.000000 14.524197 0.000000
7.118393 -22.463152 -6.540816 0.000000 57.000000 14.911086 29.000000
8.980797 -21.892201 -9.559561 0.000000 43.000000 14.581312 17.000000
6.453846 -22.232853 -7.782485 0.000000 47.000000 14.779973 12.000000
11.052101 -21.906342 -8.259047 0.000000 52.000000 14.492281 0.000000
6.301626 -22.848034 -8.600582 0.000000 1.000000 15.458090 9.000000
7.227594 -22.048133 -6.580557 0.000000 42.000000 14.500525 0.000000
5.867931 -21.998796 -7.057278 0.000000 37.000000 14.489146 0.000000
10.765621 -22.080011 -10.952256 0.000000 51.000000 14.878967 21.000000
7.054625 -21.806066 -12.474054 0.000000 52.000000 14.726560 23.000000
7.408470 -22.016849 -6.861422 0.000000 44.000000 14.491611 0.000000
6.637808 -22.061705 -9.165535 0.000000 55.000000 14.719037 13.000000
7.440586 -21.729988 -12.329085 0.000000 46.000000 14.639226 23.000000
9.990793 -22.146447 -12.461739 0.000000 45.000000 15.064892 24.000000
6.218966 -21.907715 -7.598659 0.000000 48.000000 14.441282 0.000000
7.105883 -22.254880 -8.247360 0.000000 33.000000 14.838794 14.000000
6.721153 -21.752823 -8.619020 0.000000 31.000000 14.367790 0.000000
9.649393 -22.150404 -9.432366 0.000000 50.000000 14.828615 18.000000
6.456177 -21.911262 -9.527672 0.000000 53.000000 14.597784 13.000000
8.318256 -21.781033 -8.850234 0.000000 43.000000 14.414246 0.000000
8.344152 -21.788076 -9.025317 0.000000 42.000000 14.435150 0.000000
8.377296 -21.784737 -9.194514 0.000000 54.000000 14.445239 0.000000
6.095364 -21.880524 -11.761228 0.000000 50.000000 14.744258 22.000000
5.626492 -21.652989 -10.947403 0.000000 24.000000 14.452905 0.000000
6.769897 -22.210819 -9.164328 0.000000 42.000000 14.867585 13.000000
10.528429 -22.303188 -7.861328 0.000000 46.000000 14.856339 10.000000
8.927704 -21.858802 -10.086752 0.000000 37.000000 14.589823 17.000000
7.124489 -21.598084 -10.029004 0.000000 33.000000 14.325346 0.000000
6.724276 -22.034831 -7.626811 0.000000 53.000000 14.570230 12.000000
7.125019 -21.619535 -10.204335 0.000000 33.000000 14.360633 0.000000
8.646818 -21.590390 -9.983586 0.000000 36.000000 14.314075 0.000000
7.075106 -21.699849 -10.405680 0.000000 46.000000 14.456660 0.000000
6.397354 -22.240975 -8.302876 0.000000 43.000000 14.829335 9.000000
8.266249 -22.509892 -11.874764 0.000000 63.000000 15.380647 25.000000
8.565744 -21.704498 -10.386442 0.000000 50.000000 14.459769 0.000000
6.605257 -21.674758 -10.967526 0.000000 36.000000 14.476201 0.000000
9.999701 -22.142483 -12.630204 0.000000 42.000000 15.074300 24.000000
7.122547 -21.672862 -10.899012 0.000000 58.000000 14.468878 0.000000
8.800133 -21.974545 -12.066774 0.000000 53.000000 14.862212 27.000000
7.126652 -21.670889 -11.067408 0.000000 62.000000 14.480265 0.000000
7.473263 -22.190117 -12.010145 0.000000 66.000000 15.072615 25.000000
7.169411 -21.618125 -11.215497 0.000000 38.000000 14.439410 0.000000
8.607122 -21.659019 -11.072938 0.000000 54.000000 14.468871 0.000000
8.262037 -21.659169 -10.203716 0.000000 26.000000 14.400093 0.000000
8.665834 -21.584196 -11.223196 0.000000 41.000000 14.406199 0.000000
9.991611 -22.339792 -7.688225 0.000000 57.000000 14.879101 11.000000
8.143133 -21.724943 -12.143124 0.000000 53.000000 14.619450 25.000000
7.737322 -22.124648 -6.514484 0.000000 58.000000 14.571560 29.000000
9.152411 -22.202017 -10.030352 0.000000 61.000000 14.927485 17.000000
6.684677 -22.133238 -8.268409 0.000000 56.000000 14.719204 9.000000
7.562082 -22.226259 -8.820964 0.000000 54.000000 14.855749 14.000000
7.359007 -22.148826 -8.899347 0.000000 48.000000 14.784775 14.000000
8.123945 -22.011846 -7.638792 0.000000 28.000000 14.548268 0.000000
11.316721 -21.791937 -9.894148 0.000000 51.000000 14.507895 0.000000
9.489378 -21.750307 -10.495502 0.000000 62.000000 14.514082 0.000000
8.304546 -22.149880 -11.923195 0.000000 62.000000 15.025609 25.000000
10.283075 -21.860064 -10.696485 0.000000 53.000000 14.639431 20.000000
11.134872 -21.673408 -10.628662 0.000000 44.000000 14.447985 0.000000
9.330721 -21.705794 -11.023219 0.000000 53.000000 14.511556 0.000000
8.891541 -21.583407 -12.211801 0.000000 36.000000 14.483806 0.000000
8.836599 -21.547103 -12.370587 0.000000 39.000000 14.460208 0.000000
9.466394 -21.993186 -12.462895 0.000000 52.000000 14.912206 24.000000
5.369459 -21.516084 -12.726547 0.000000 51.000000 14.457513 0.000000
7.310028 -22.651455 -6.652785 0.000000 46.000000 15.107675 29.000000
5.207569 -21.595365 -12.463593 0.000000 56.000000 14.515693 0.000000
5.156126 -21.597350 -12.320456 0.000000 55.000000 14.506321 0.000000
5.110231 -21.592514 -12.173741 0.000000 57.000000 14.489866 0.000000
5.619686 -21.522067 -12.601810 0.000000 47.000000 14.453586 0.000000
6.888691 -21.588594 -12.443614 0.000000 49.000000 14.507359 0.000000
10.823551 -22.272735 -9.154027 0.000000 46.000000 14.928489 16.000000
6.920517 -21.559357 -12.107195 0.000000 49.000000 14.451537 0.000000
5.687946 -21.472487 -11.612716 0.000000 41.000000 14.325729 0.000000
6.022690 -21.911240 -10.577891 0.000000 55.000000 14.681042 6.000000
11.233873 -22.055592 -10.196971 0.000000 43.000000 14.794733 19.000000
9.570955 -22.186442 -12.110291 0.000000 77.000000 15.076893 27.000000
5.626667 -21.605434 -11.328581 0.000000 41.000000 14.435726 0.000000
8.073488 -22.059500 -12.075431 0.000000 67.000000 14.947586 25.000000
5.606853 -21.661530 -11.183651 0.000000 50.000000 14.480153 0.000000
9.681465 -22.237357 -7.973295 0.000000 45.000000 14.799594 11.000000
5.625368 -21.665369 -11.017410 0.000000 43.000000 14.470798 0.000000
6.877472 -21.987030 -12.337447 0.000000 46.000000 14.896121 23.000000
9.947319 -22.093182 -12.169666 0.000000 48.000000 14.988635 27.000000
5.414091 -22.035998 -7.110220 0.000000 49.000000 14.530429 4.000000
11.079748 -21.794249 -10.791745 0.000000 40.000000 14.581377 0.000000
7.117937 -21.611771 -10.250270 0.000000 37.000000 14.356536 0.000000
7.171768 -21.591324 -10.065958 0.000000 36.000000 14.321538 0.000000
9.616781 -21.883362 -12.241965 0.000000 76.000000 14.785208 27.000000
5.808338 -21.666108 -10.001962 0.000000 33.000000 14.391012 0.000000
6.890970 -22.224821 -6.857661 0.000000 41.000000 14.698630 3.000000
7.137234 -21.922249 -12.053814 0.000000 59.000000 14.809053 25.000000
5.816874 -21.771080 -9.702386 0.000000 38.000000 14.471898 0.000000
9.971443 -22.273606 -10.506357 0.000000 49.000000 15.036594 20.000000
5.871254 -21.827544 -9.376762 0.000000 46.000000 14.502363 0.000000
7.472569 -21.820992 -8.534863 0.000000 45.000000 14.429071 0.000000
7.366405 -22.061512 -12.609807 0.000000 53.000000 14.991966 23.000000
6.127289 -21.871311 -8.508001 0.000000 50.000000 14.477101 0.000000
7.623516 -21.905914 -8.009664 0.000000 38.000000 14.472078 0.000000
5.488966 -22.006964 -9.333117 0.000000 43.000000 14.677757 5.000000
6.291950 -21.933112 -7.991961 0.000000 41.000000 14.497787 0.000000
10.740128 -22.259278 -7.784826 0.000000 47.000000 14.806501 10.000000
6.415720 -21.953956 -9.387092 0.000000 47.000000 14.629196 13.000000
10.009567 -22.174672 -12.527026 0.000000 58.000000 15.098206 24.000000
6.670954 -21.750078 -12.126457 0.000000 48.000000 14.643185 22.000000
8.161343 -22.023766 -6.713811 0.000000 50.000000 14.486801 0.000000
8.242064 -22.054905 -6.531543 0.000000 43.000000 14.503389 0.000000
7.109219 -22.031560 -7.959168 0.000000 36.000000 14.593325 0.000000
5.283627 -21.746768 -11.081932 0.000000 36.000000 14.557057 0.000000
6.361584 -21.822592 -12.111630 0.000000 54.000000 14.714295 22.000000
5.530123 -21.606967 -11.229705 0.000000 46.000000 14.429414 0.000000
6.643534 -22.142880 -9.540589 0.000000 40.000000 14.829697 13.000000
8.831408 -21.977741 -11.768469 0.000000 36.000000 14.841743 27.000000
9.165567 -22.182865 -12.596244 0.000000 65.000000 15.111862 24.000000
6.270521 -21.557864 -12.254204 0.000000 62.000000 14.461706 0.000000
6.371868 -21.527745 -12.381966 0.000000 42.000000 14.441813 0.000000
9.877151 -22.054196 -7.088567 0.000000 63.000000 14.546853 0.000000
10.934458 -22.317610 -12.016720 0.000000 46.000000 15.200228 26.000000
5.261362 -21.496677 -12.711484 0.000000 44.000000 14.436973 0.000000
8.563747 -21.588180 -12.424845 0.000000 41.000000 14.505458 0.000000
8.691109 -21.526590 -12.237089 0.000000 41.000000 14.429173 0.000000
9.367233 -21.886160 -9.463312 0.000000 39.000000 14.567657 18.000000
7.649574 -22.152552 -11.971600 0.000000 62.000000 15.032111 25.000000
5.206953 -21.938892 -7.924848 0.000000 35.000000 14.498227 0.000000
7.446199 -21.971621 -12.696936 0.000000 65.000000 14.909267 23.000000
6.637438 -22.655138 -7.688499 0.000000 3.000000 15.193476 12.000000
7.804543 -21.630326 -11.125625 0.000000 46.000000 14.444446 0.000000
6.516739 -22.905381 -6.852860 0.000000 1.000000 15.376666 3.000000
7.848320 -21.689894 -10.975789 0.000000 54.000000 14.491945 0.000000
9.842140 -22.215106 -12.216564 0.000000 55.000000 15.113893 27.000000
9.240906 -22.189355 -9.754838 0.000000 59.000000 14.893015 17.000000
6.892553 -22.484032 -6.748129 0.000000 51.000000 14.948339 3.000000
8.048155 -21.684270 -10.631814 0.000000 41.000000 14.459062 0.000000
8.627682 -21.927519 -12.116506 0.000000 46.000000 14.819278 25.000000
9.788532 -21.578754 -10.124159 0.000000 36.000000 14.313623 0.000000
10.821817 -22.134779 -9.656639 0.000000 48.000000 14.830824 15.000000
8.378660 -21.746223 -12.074373 0.000000 46.000000 14.635212 25.000000
8.446136 -21.585955 -10.071346 0.000000 35.000000 14.316613 0.000000
11.237619 -22.151658 -12.152970 0.000000 46.000000 15.045602 26.000000
8.538990 -21.610270 -9.905542 0.000000 36.000000 14.327704 0.000000
10.010645 -21.733817 -9.639424 0.000000 46.000000 14.429759 0.000000
6.498745 -22.372793 -8.322500 0.000000 37.000000 14.962294 9.000000
11.076187 -22.119007 -12.011412 0.000000 55.000000 15.001829 26.000000
8.648918 -21.755175 -9.616874 0.000000 42.000000 14.449262 0.000000
11.181469 -21.969849 -10.887548 0.000000 61.000000 14.764021 21.000000
10.839800 -21.748401 -8.508058 0.000000 34.000000 14.354583 0.000000
10.479410 -22.010509 -12.573330 0.000000 63.000000 14.938231 24.000000
9.448750 -21.751644 -8.532297 0.000000 37.000000 14.359738 0.000000
10.963310 -21.942357 -8.220229 0.000000 57.000000 14.525104 0.000000
9.754913 -21.818585 -10.668370 0.000000 37.000000 14.595853 20.000000
5.485949 -21.713442 -12.421798 0.000000 58.000000 14.630084 28.000000
9.771671 -21.891406 -8.054093 0.000000 48.000000 14.461139 0.000000
10.573759 -21.933275 -7.141592 0.000000 43.000000 14.430517 0.000000
10.670517 -22.018500 -7.003672 0.000000 46.000000 14.504537 0.000000
5.828062 -22.200968 -9.057721 0.000000 55.000000 14.849312 5.000000
11.038252 -22.026965 -6.628257 0.000000 35.000000 14.483206 0.000000
6.648516 -21.716787 -12.290398 0.000000 37.000000 14.622999 0.000000
6.073473 -22.026942 -10.530674 0.000000 50.000000 14.792635 6.000000
6.022678 -21.858666 -7.292242 0.000000 49.000000 14.368089 0.000000
10.571802 -22.164178 -12.011668 0.000000 65.000000 15.046878 26.000000
6.366959 -21.903920 -11.155037 0.000000 61.000000 14.719511 7.000000
8.503351 -21.855778 -11.645636 0.000000 48.000000 14.710424 25.000000
9.426277 -22.177612 -12.289226 0.000000 54.000000 15.082279 27.000000
6.594954 -21.646429 -10.990587 0.000000 39.000000 14.449790 0.000000
5.894356 -21.733755 -10.880111 0.000000 57.000000 14.528081 0.000000
6.588261 -22.164675 -6.832848 0.000000 44.000000 14.636706 3.000000
5.448254 -21.905866 -11.867136 0.000000 44.000000 14.777918 28.000000
9.154110 -22.473558 -9.162458 0.000000 60.000000 15.129349 18.000000
7.218092 -21.730437 -12.551361 0.000000 52.000000 14.657299 23.000000
6.086220 -21.552373 -12.428748 0.000000 30.000000 14.470073 0.000000
7.227102 -21.819995 -9.220769 0.000000 51.000000 14.482468 0.000000
9.478943 -21.987384 -8.471988 0.000000 46.000000 14.589953 0.000000
7.323683 -21.778551 -9.351640 0.000000 41.000000 14.451532 0.000000
10.855579 -21.678398 -12.438165 0.000000 44.000000 14.596448 0.000000
7.388781 -21.770714 -9.501301 0.000000 38.000000 14.455587 0.000000
7.781221 -21.911940 -8.634464 0.000000 31.000000 14.527631 14.000000
6.218739 -21.626017 -9.950467 0.000000 36.000000 14.346964 0.000000
7.603848 -21.709911 -9.941265 0.000000 46.000000 14.429864 0.000000
11.019026 -22.209165 -7.979483 0.000000 68.000000 14.771981 10.000000
7.779976 -21.613709 -10.216042 0.000000 40.000000 14.355754 0.000000
6.157650 -22.208948 -6.637539 0.000000 39.000000 14.665352 3.000000
7.755209 -21.698418 -10.411381 0.000000 52.000000 14.455686 0.000000
10.439070 -22.219412 -7.880082 0.000000 44.000000 14.774314 10.000000
7.364012 -22.356660 -7.564118 0.000000 41.000000 14.886074 1.000000
10.438496 -21.904616 -11.399241 0.000000 45.000000 14.739570 26.000000
5.815638 -21.686774 -12.215082 0.000000 53.000000 14.587108 28.000000
8.069365 -21.941247 -9.627876 0.000000 53.000000 14.635620 0.000000
11.055922 -22.192271 -11.940135 0.000000 62.000000 15.069210 26.000000
10.009331 -22.115979 -12.171998 0.000000 60.000000 15.011545 27.000000
6.301729 -21.906008 -11.988628 0.000000 52.000000 14.787694 22.000000
6.736031 -22.187256 -7.874390 0.000000 53.000000 14.741808 12.000000
10.069199 -21.973181 -12.289978 0.000000 64.000000 14.878552 27.000000
6.783142 -21.539097 -12.104645 0.000000 39.000000 14.431138 0.000000
6.796299 -21.543088 -12.262404 0.000000 39.000000 14.447627 0.000000
8.418894 -21.721098 -12.094826 0.000000 34.000000 14.611788 25.000000
8.943760 -21.510655 -12.724294 0.000000 44.000000 14.451922 0.000000
10.887909 -21.996865 -10.806861 0.000000 62.000000 14.784554 21.000000
10.954033 -22.235466 -9.043642 0.000000 47.000000 14.882585 16.000000
10.365076 -21.671137 -11.246320 0.000000 55.000000 14.494699 0.000000
10.512459 -21.704138 -11.104058 0.000000 50.000000 14.516316 0.000000
11.050701 -21.724662 -10.646738 0.000000 50.000000 14.500511 0.000000
8.386490 -22.059424 -6.556464 0.000000 44.000000 14.509870 0.000000
6.100946 -21.911126 -12.258782 0.000000 74.000000 14.814218 22.000000
8.520874 -22.005717 -6.866843 0.000000 35.000000 14.480944 0.000000
8.589767 -21.968975 -7.018240 0.000000 39.000000 14.456323 0.000000
10.221989 -22.051212 -6.634219 0.000000 53.000000 14.507850 0.000000
10.531046 -21.882133 -9.370722 0.000000 55.000000 14.556301 0.000000
8.768023 -21.840195 -7.294499 0.000000 34.000000 14.349856 0.000000
9.331774 -22.072163 -10.037600 0.000000 70.000000 14.798614 17.000000
10.583948 -21.804668 -7.421306 0.000000 35.000000 14.324496 0.000000
8.809464 -21.895196 -8.036989 0.000000 38.000000 14.463561 0.000000
5.302401 -21.699200 -9.836011 0.000000 31.000000 14.410840 0.000000
10.488249 -21.925214 -7.870404 0.000000 44.000000 14.480275 0.000000
8.850765 -21.876759 -8.386504 0.000000 36.000000 14.472898 0.000000
10.509933 -21.908437 -8.053591 0.000000 44.000000 14.478077 0.000000
9.702967 -21.872191 -10.625132 0.000000 44.000000 14.645862 20.000000
7.505953 -21.778336 -11.666343 0.000000 44.000000 14.634868 25.000000
8.990931 -21.730502 -8.676533 0.000000 34.000000 14.350100 0.000000
10.562464 -21.855897 -8.412425 0.000000 42.000000 14.454157 0.000000
6.921854 -21.838053 -9.592178 0.000000 42.000000 14.529921 13.000000
8.922947 -21.792086 -9.428856 0.000000 36.000000 14.471147 0.000000
10.604277 -21.730221 -9.502778 0.000000 43.000000 14.415339 0.000000
10.608122 -21.701016 -9.679013 0.000000 39.000000 14.400201 0.000000
7.530436 -22.289626 -12.667662 0.000000 6.000000 15.223950 23.000000
7.914244 -21.936252 -12.346889 0.000000 63.000000 14.846252 23.000000
5.477394 -22.021979 -12.152637 0.000000 56.000000 14.916305 28.000000
5.608541 -21.757450 -10.679906 0.000000 38.000000 14.535826 6.000000
9.055294 -22.383864 -9.220086 0.000000 49.000000 15.044507 18.000000
8.890066 -21.666342 -10.636770 0.000000 35.000000 14.441584 0.000000
6.188974 -22.147197 -11.240276 0.000000 53.000000 14.968781 7.000000
5.651224 -21.808563 -11.946336 0.000000 63.000000 14.687202 28.000000
10.423223 -21.669213 -10.808463 0.000000 41.000000 14.458061 0.000000
11.222769 -22.218235 -11.921475 0.000000 52.000000 15.093613 26.000000
7.751249 -21.965801 -12.134910 0.000000 50.000000 14.858899 25.000000
10.359913 -21.636648 -11.170179 0.000000 56.000000 14.454281 0.000000
5.669699 -21.490110 -12.548100 0.000000 35.000000 14.417470 0.000000
10.010826 -22.107574 -11.909459 0.000000 60.000000 14.982347 26.000000
9.689600 -22.034716 -9.400030 0.000000 55.000000 14.710727 18.000000
5.269423 -21.796783 -9.258428 0.000000 35.000000 14.462315 0.000000
5.422894 -21.519677 -12.724769 0.000000 45.000000 14.460954 0.000000
6.682892 -21.556566 -12.561127 0.000000 52.000000 14.484750 0.000000
10.121126 -22.052528 -11.568983 0.000000 52.000000 14.900476 26.000000
6.664953 -21.545268 -12.400841 0.000000 51.000000 14.460777 0.000000
10.278069 -21.913383 -12.184238 0.000000 66.000000 14.810557 26.000000
10.774885 -21.933665 -12.198397 0.000000 59.000000 14.831898 26.000000
8.160063 -21.976615 -12.201562 0.000000 60.000000 14.874964 25.000000
6.512009 -21.586084 -11.301420 0.000000 44.000000 14.414284 0.000000
5.221962 -21.546070 -11.337609 0.000000 37.000000 14.377265 0.000000
5.116693 -21.680101 -10.903298 0.000000 42.000000 14.476434 0.000000
9.774029 -22.017159 -10.300293 0.000000 48.000000 14.764614 20.000000
9.219715 -21.940693 -11.659340 0.000000 73.000000 14.796158 27.000000
11.253450 -21.684402 -12.657932 0.000000 39.000000 14.619860 0.000000
10.673344 -22.049825 -7.042158 0.000000 36.000000 14.538815 0.000000
6.023373 -21.864638 -10.639069 0.000000 58.000000 14.639438 6.000000
11.116312 -21.921986 -8.734385 0.000000 58.000000 14.545568 0.000000
7.681774 -21.951828 -12.179907 0.000000 63.000000 14.848538 25.000000
5.096777 -21.736531 -10.108246 0.000000 40.000000 14.469641 0.000000
8.875658 -21.637453 -10.130733 0.000000 26.000000 14.372658 0.000000
5.931620 -21.862372 -10.647908 0.000000 51.000000 14.637880 6.000000
10.344549 -22.360116 -6.722793 0.000000 37.000000 14.822805 2.000000
10.647427 -22.038930 -10.607986 0.000000 57.000000 14.810716 19.000000
10.980942 -21.881068 -10.624329 0.000000 54.000000 14.654647 19.000000
9.695848 -21.660187 -12.566363 0.000000 28.000000 14.588460 24.000000
5.126026 -21.813936 -9.301478 0.000000 48.000000 14.482828 0.000000
8.410713 -22.064645 -11.905098 0.000000 52.000000 14.939208 25.000000
6.589108 -21.756774 -8.638594 0.000000 33.000000 14.373281 0.000000
11.252863 -22.257135 -11.870575 0.000000 33.000000 15.128354 26.000000
10.784397 -22.023716 -11.065657 0.000000 72.000000 14.831842 21.000000
7.429703 -22.010719 -12.593286 0.000000 56.000000 14.940023 23.000000
6.966940 -21.862274 -12.562268 0.000000 41.000000 14.789586 23.000000
6.844847 -21.961720 -7.276726 0.000000 42.000000 14.469589 0.000000
5.426714 -21.921660 -7.587425 0.000000 31.000000 14.454292 0.000000
5.148191 -21.779426 -9.762335 0.000000 33.000000 14.484971 0.000000
8.132753 -21.944152 -12.121360 0.000000 60.000000 14.836243 25.000000
6.055960 -22.443252 -8.285631 0.000000 27.000000 15.029608 9.000000
5.793156 -21.555630 -12.357924 0.000000 50.000000 14.467704 0.000000
7.252583 -21.940037 -12.079533 0.000000 67.000000 14.828824 25.000000
9.191507 -21.958914 -12.057284 0.000000 79.000000 14.845878 27.000000
6.345829 -21.736741 -9.745322 0.000000 29.000000 14.441072 0.000000
7.308649 -22.080636 -8.408027 0.000000 67.000000 14.677839 14.000000
6.886246 -21.572963 -12.201954 0.000000 51.000000 14.472614 0.000000
5.219612 -21.826906 -12.065069 0.000000 76.000000 14.714903 28.000000
10.873007 -22.380588 -11.999568 0.000000 66.000000 15.261647 26.000000
7.507252 -21.648888 -11.053884 0.000000 36.000000 14.457261 0.000000
5.216187 -22.025375 -9.161465 0.000000 61.000000 14.682498 5.000000
8.465248 -21.654196 -11.154367 0.000000 62.000000 14.470520 0.000000
7.115074 -21.637959 -11.211837 0.000000 44.000000 14.458892 0.000000
9.568762 -21.864394 -12.196196 0.000000 67.000000 14.762671 27.000000
5.555420 -21.818240 -10.596761 0.000000 45.000000 14.589831 6.000000
8.572681 -21.674838 -10.805334 0.000000 43.000000 14.463420 0.000000
7.197184 -21.682657 -10.885899 0.000000 58.000000 14.477603 0.000000
8.428764 -22.013191 -7.852369 0.000000 43.000000 14.566545 0.000000
8.964838 -22.007663 -8.767842 0.000000 46.000000 14.633629 0.000000
6.790159 -21.651463 -12.644072 0.000000 52.000000 14.585926 23.000000
6.459425 -21.603019 -12.233061 0.000000 37.000000 14.505042 0.000000
8.773018 -21.685835 -10.272457 0.000000 39.000000 14.432126 0.000000
11.333803 -22.363406 -7.959406 0.000000 69.000000 14.924145 10.000000
10.131388 -21.996579 -12.200664 0.000000 66.000000 14.894794 27.000000
9.482241 -22.013321 -11.649504 0.000000 65.000000 14.867777 27.000000
5.678358 -21.506176 -12.634797 0.000000 32.000000 14.440361 0.000000
6.630169 -21.834022 -11.763704 0.000000 30.000000 14.698099 22.000000
10.983707 -21.973124 -11.535241 0.000000 49.000000 14.818646 26.000000
7.841854 -21.823023 -9.180052 0.000000 44.000000 14.482257 0.000000
5.384813 -21.789359 -12.349529 0.000000 47.000000 14.700031 28.000000
8.390533 -22.170571 -9.049035 0.000000 36.000000 14.818322 18.000000
8.097507 -21.741911 -8.776005 0.000000 34.000000 14.369361 0.000000
9.502567 -21.908773 -8.504345 0.000000 68.000000 14.514155 0.000000
10.876331 -22.351008 -10.607778 0.000000 18.000000 15.121795 19.000000
5.553923 -21.777823 -12.318796 0.000000 60.000000 14.686094 28.000000
9.732220 -21.908216 -8.113776 0.000000 48.000000 14.482629 0.000000
7.796324 -22.059002 -8.844867 0.000000 55.000000 14.690914 14.000000
8.398399 -21.929419 -11.664381 0.000000 52.000000 14.785319 25.000000
10.422836 -22.013545 -6.977499 0.000000 44.000000 14.497522 0.000000
8.988798 -21.912752 -7.177292 0.000000 44.000000 14.412890 0.000000
5.539879 -22.453706 -7.171767 0.000000 48.000000 14.951702 4.000000
6.442802 -21.637525 -12.707099 0.000000 30.000000 14.577029 23.000000
11.292824 -22.170897 -11.606343 0.000000 77.000000 15.021435 26.000000
8.949253 -22.218841 -12.041491 0.000000 71.000000 15.103734 27.000000
5.113670 -21.855111 -8.436741 0.000000 38.000000 14.455302 0.000000
10.665134 -21.740461 -12.175025 0.000000 37.000000 14.637449 26.000000
5.326746 -21.862961 -8.661672 0.000000 52.000000 14.480963 0.000000
10.966867 -22.313921 -10.594528 0.000000 61.000000 15.083774 19.000000
8.200666 -22.018093 -7.749227 0.000000 33.000000 14.563252 0.000000
6.074551 -21.787717 -9.466425 0.000000 43.000000 14.469771 0.000000
7.666937 -22.585250 -8.348644 0.000000 6.000000 15.176155 14.000000
10.517479 -22.202338 -9.014113 0.000000 47.000000 14.847219 30.000000
11.319622 -22.264310 -11.600786 0.000000 73.000000 15.114113 26.000000
6.659456 -21.611069 -9.992405 0.000000 29.000000 14.335388 0.000000
9.444242 -21.665798 -12.136600 0.000000 51.000000 14.559974 27.000000
7.708132 -21.943225 -12.443022 0.000000 44.000000 14.860826 23.000000
7.936222 -21.959452 -12.443582 0.000000 41.000000 14.877047 23.000000
7.477901 -22.034841 -7.505985 0.000000 45.000000 14.560659 1.000000
5.934681 -21.807114 -11.277654 0.000000 43.000000 14.632733 7.000000
5.482342 -21.722093 -10.669157 0.000000 44.000000 14.499727 0.000000
6.811508 -21.687409 -10.497946 0.000000 45.000000 14.451576 0.000000
5.572018 -21.693135 -10.793682 0.000000 45.000000 14.480735 0.000000
10.216349 -22.068992 -10.653655 0.000000 58.000000 14.844305 20.000000
5.649529 -21.680523 -10.928598 0.000000 42.000000 14.478861 0.000000
9.682623 -22.543055 -7.676824 0.000000 52.000000 15.080820 11.000000
5.723616 -21.669017 -11.063620 0.000000 37.000000 14.478099 0.000000
6.874146 -22.073327 -6.686837 0.000000 41.000000 14.534067 3.000000
10.900345 -21.956229 -11.401169 0.000000 41.000000 14.791173 21.000000
7.608213 -22.023685 -12.658292 0.000000 71.000000 14.958103 23.000000
5.853388 -21.663804 -11.344205 0.000000 52.000000 14.495152 0.000000
5.859247 -22.107147 -10.535030 0.000000 43.000000 14.872933 6.000000
6.009260 -21.523541 -11.439506 0.000000 34.000000 14.362887 0.000000
9.390669 -22.280089 -7.665177 0.000000 47.000000 14.817758 11.000000
6.711576 -22.648665 -6.867978 0.000000 53.000000 15.121958 3.000000
7.580709 -22.226056 -9.030853 0.000000 56.000000 14.872190 14.000000
6.687126 -22.368292 -6.932742 0.000000 52.000000 14.847603 3.000000
6.479904 -21.760419 -11.022411 0.000000 36.000000 14.565945 7.000000
8.694448 -22.023282 -11.978403 0.000000 54.000000 14.903788 27.000000
9.466917 -21.676061 -10.959923 0.000000 45.000000 14.476897 0.000000
9.612484 -21.669756 -10.791037 0.000000 51.000000 14.457220 0.000000
5.109961 -21.958034 -7.837474 0.000000 49.000000 14.510380 0.000000
10.436996 -21.597757 -9.923767 0.000000 39.000000 14.316675 0.000000
10.528717 -21.674036 -9.785813 0.000000 40.000000 14.381775 0.000000
10.669762 -21.700144 -9.629551 0.000000 38.000000 14.395409 0.000000
10.817686 -21.993634 -9.228752 0.000000 39.000000 14.656193 16.000000
10.962816 -21.761539 -9.310662 0.000000 47.000000 14.431324 0.000000
9.778931 -22.169768 -11.969856 0.000000 60.000000 15.049135 27.000000
9.518179 -21.636275 -12.163977 0.000000 47.000000 14.532715 27.000000
8.918831 -21.804104 -9.903333 0.000000 33.000000 14.520752 0.000000
8.402054 -21.662797 -10.807134 0.000000 33.000000 14.451559 0.000000
11.088924 -22.411816 -10.592891 0.000000 55.000000 15.181231 19.000000
7.031527 -21.912257 -7.449761 0.000000 39.000000 14.434003 0.000000
7.487200 -21.935208 -12.200289 0.000000 60.000000 14.833586 25.000000
6.868153 -21.830819 -9.803692 0.000000 41.000000 14.539482 0.000000
8.671171 -21.836714 -7.210188 0.000000 36.000000 14.339700 0.000000
9.111153 -22.133291 -11.949801 0.000000 51.000000 15.011182 27.000000
10.281759 -21.999388 -11.535921 0.000000 57.000000 14.844881 26.000000
8.673952 -21.968328 -7.616783 0.000000 35.000000 14.503141 0.000000
7.259365 -21.916727 -8.080753 0.000000 57.000000 14.488495 0.000000
8.724072 -21.972339 -7.782324 0.000000 51.000000 14.520267 0.000000
7.332203 -21.887031 -8.222441 0.000000 33.000000 14.470128 0.000000
8.812084 -21.926650 -7.922663 0.000000 44.000000 14.485850 0.000000
8.888861 -21.892795 -8.075034 0.000000 46.000000 14.464184 0.000000
8.962486 -21.856622 -8.225236 0.000000 38.000000 14.440036 0.000000
8.995525 -21.865502 -8.400294 0.000000 43.000000 14.462770 0.000000
7.550137 -21.873528 -9.035669 0.000000 44.000000 14.521154 0.000000
7.632978 -21.808878 -9.170534 0.000000 47.000000 14.467402 0.000000
7.681097 -21.785505 -9.323905 0.000000 41.000000 14.456265 0.000000
6.579514 -22.407667 -9.358844 0.000000 47.000000 15.079238 13.000000
6.064718 -21.545211 -12.244771 0.000000 35.000000 14.448345 0.000000
7.957678 -21.915637 -9.899151 0.000000 66.000000 14.631602 8.000000
7.839363 -21.732514 -10.304936 0.000000 54.000000 14.481234 0.000000
9.473557 -21.580688 -10.026296 0.000000 36.000000 14.307790 0.000000
9.224609 -22.070866 -7.139621 0.000000 56.000000 14.567519 0.000000
9.459309 -21.603446 -10.214767 0.000000 35.000000 14.345422 0.000000
7.894281 -21.684120 -10.622831 0.000000 38.000000 14.458200 0.000000
11.284220 -22.439066 -10.412445 0.000000 21.000000 15.194086 19.000000
7.913574 -21.662894 -10.783566 0.000000 47.000000 14.449787 0.000000
9.415066 -21.654462 -10.591237 0.000000 44.000000 14.426131 0.000000
9.291786 -21.899554 -9.536958 0.000000 49.000000 14.586849 17.000000
7.045450 -21.638306 -11.140397 0.000000 29.000000 14.453572 0.000000
6.298315 -22.156150 -11.875742 0.000000 36.000000 15.028097 22.000000
6.364595 -21.975926 -8.614138 0.000000 36.000000 14.589803 9.000000
7.948317 -21.613727 -11.271065 0.000000 45.000000 14.439432 0.000000
7.651390 -21.635544 -9.943338 0.000000 23.000000 14.355895 0.000000
5.306417 -21.890383 -12.412917 0.000000 49.000000 14.805763 28.000000
10.880865 -22.102477 -10.641686 0.000000 59.000000 14.876735 19.000000
10.883188 -22.089481 -7.961106 0.000000 42.000000 14.651217 10.000000
10.935196 -21.969135 -6.991062 0.000000 45.000000 14.454328 0.000000
11.018970 -21.874065 -7.132584 0.000000 45.000000 14.370780 0.000000
10.917032 -21.961338 -7.385848 0.000000 49.000000 14.477861 0.000000
10.896412 -21.859776 -8.312054 0.000000 47.000000 14.450065 0.000000
10.900881 -21.819301 -8.486432 0.000000 44.000000 14.423545 0.000000
9.032244 -21.859563 -11.614164 0.000000 60.000000 14.711701 27.000000
10.374443 -21.762008 -11.125249 0.000000 40.000000 14.575684 0.000000
10.724356 -21.716213 -9.604094 0.000000 43.000000 14.409409 0.000000
10.704168 -21.677829 -9.779788 0.000000 67.000000 14.385078 0.000000
7.214098 -21.789172 -12.307539 0.000000 48.000000 14.696515 23.000000
10.396339 -21.658955 -10.710229 0.000000 35.000000 14.440045 0.000000
7.003048 -21.929492 -8.926329 0.000000 42.000000 14.568271 14.000000
7.646084 -22.014025 -12.169852 0.000000 63.000000 14.909742 25.000000
11.276873 -21.544852 -12.334285 0.000000 47.000000 14.455085 0.000000
11.033512 -22.206137 -7.945330 0.000000 50.000000 14.766255 10.000000
7.595974 -21.979194 -9.065537 0.000000 50.000000 14.628856 14.000000
6.078421 -21.580937 -12.247003 0.000000 55.000000 14.484135 0.000000
8.828539 -21.849776 -9.862126 0.000000 74.000000 14.563013 17.000000
5.805521 -21.638885 -11.370740 0.000000 52.000000 14.472415 0.000000
10.043041 -22.186863 -8.888435 0.000000 65.000000 14.821827 30.000000
5.727295 -21.666658 -11.073536 0.000000 45.000000 14.476533 0.000000
5.681295 -21.694535 -10.929589 0.000000 45.000000 14.492908 0.000000
7.657362 -21.825523 -12.221885 0.000000 56.000000 14.725959 25.000000
5.551912 -21.717651 -9.830888 0.000000 37.000000 14.428827 0.000000
9.134098 -22.298435 -9.266054 0.000000 63.000000 14.962992 18.000000
5.267380 -21.506641 -11.443020 0.000000 25.000000 14.346319 0.000000
5.488075 -21.799790 -9.373318 0.000000 47.000000 14.474423 0.000000
8.104725 -21.739996 -10.079445 0.000000 28.000000 14.470811 0.000000
5.465000 -21.935175 -8.253544 0.000000 54.000000 14.520586 0.000000
8.926695 -21.953443 -11.656031 0.000000 71.000000 14.808606 27.000000
5.610188 -21.872048 -7.511269 0.000000 33.000000 14.398798 0.000000
11.209541 -21.844235 -9.865608 0.000000 62.000000 14.557765 15.000000
8.983500 -21.962756 -8.365081 0.000000 34.000000 14.556925 0.000000
5.137390 -21.525903 -12.532804 0.000000 49.000000 14.451938 0.000000
5.264359 -21.527215 -12.625269 0.000000 49.000000 14.460578 0.000000
11.175220 -22.473962 -10.504393 0.000000 29.000000 15.236163 19.000000
6.553389 -21.531056 -12.463047 0.000000 46.000000 14.451543 0.000000
6.739180 -21.951306 -8.288104 0.000000 35.000000 14.539407 9.000000
6.502022 -21.621124 -12.167413 0.000000 45.000000 14.517884 0.000000
7.317476 -22.225426 -6.647295 0.000000 48.000000 14.682552 29.000000
8.124710 -21.736114 -12.126466 0.000000 52.000000 14.629265 25.000000
6.082619 -21.743850 -9.759863 0.000000 26.000000 14.449311 0.000000
9.970310 -22.076712 -12.067877 0.000000 46.000000 14.964145 27.000000
6.604725 -21.612596 -11.177703 0.000000 50.000000 14.430902 0.000000
7.944832 -21.656865 -10.961970 0.000000 53.000000 14.457924 0.000000
5.455353 -21.736419 -10.138344 0.000000 30.000000 14.471916 0.000000
10.853285 -22.125362 -10.263876 0.000000 55.000000 14.869589 19.000000
6.630411 -21.651132 -10.854432 0.000000 51.000000 14.443682 0.000000
8.743401 -22.099359 -9.849090 0.000000 49.000000 14.810776 17.000000
9.444454 -22.411020 -9.227229 0.000000 46.000000 15.072144 18.000000
10.554453 -21.936431 -10.875912 0.000000 32.000000 14.729786 21.000000
6.649446 -21.712104 -10.536971 0.000000 42.000000 14.479288 0.000000
7.739861 -21.914652 -12.451752 0.000000 61.000000 14.833035 23.000000
5.531609 -21.947936 -10.383627 0.000000 48.000000 14.702217 6.000000
9.520294 -21.981606 -11.382503 0.000000 37.000000 14.814990 27.000000
7.414289 -22.172321 -8.918351 0.000000 39.000000 14.809703 14.000000
8.163288 -21.668103 -9.907772 0.000000 39.000000 14.385532 0.000000
6.920885 -22.543334 -6.605683 0.000000 67.000000 14.996159 3.000000
6.815018 -21.703595 -9.842815 0.000000 41.000000 14.415761 0.000000
9.276228 -22.236144 -9.367065 0.000000 72.000000 14.908907 18.000000
6.622873 -22.065997 -7.115073 0.000000 53.000000 14.560719 0.000000
8.231609 -21.774516 -9.410898 0.000000 45.000000 14.452209 0.000000
8.282412 -21.782738 -9.230575 0.000000 55.000000 14.446106 0.000000
6.207832 -22.068201 -7.781364 0.000000 60.000000 14.615751 0.000000
5.981756 -22.090548 -8.945345 0.000000 54.000000 14.730328 5.000000
6.425362 -21.907106 -11.221100 0.000000 56.000000 14.727926 7.000000
8.525658 -21.806332 -8.497243 0.000000 48.000000 14.411474 0.000000
7.084875 -21.865792 -8.672600 0.000000 34.000000 14.484652 0.000000
9.868856 -21.856519 -12.203138 0.000000 53.000000 14.755371 27.000000
7.179678 -21.831467 -8.470590 0.000000 37.000000 14.434416 0.000000
11.349195 -22.251780 -11.658815 0.000000 72.000000 15.106224 26.000000
6.339483 -21.984060 -9.229961 0.000000 65.000000 14.646745 13.000000
11.052830 -22.246960 -11.790700 0.000000 42.000000 15.111877 26.000000
6.295195 -21.896854 -11.298459 0.000000 58.000000 14.723840 7.000000
8.709761 -21.968181 -7.816250 0.000000 58.000000 14.518812 0.000000
10.126894 -22.159429 -7.805999 0.000000 39.000000 14.708645 11.000000
9.021004 -22.002981 -9.984382 0.000000 61.000000 14.725430 17.000000
9.031263 -21.805354 -7.329705 0.000000 31.000000 14.317916 0.000000
10.042173 -22.237599 -10.530041 0.000000 69.000000 15.002579 20.000000
6.847830 -22.127828 -9.165329 0.000000 41.000000 14.784935 13.000000
7.729279 -21.859834 -7.173577 0.000000 33.000000 14.359844 0.000000
5.880466 -22.117373 -6.808349 0.000000 34.000000 14.587610 0.000000
7.037163 -22.105510 -12.034395 0.000000 47.000000 14.990197 25.000000
9.265537 -22.008679 -6.648584 0.000000 38.000000 14.466590 0.000000
6.637169 -21.636213 -12.251929 0.000000 51.000000 14.539628 0.000000
8.967464 -22.346825 -9.285479 0.000000 54.000000 15.012770 18.000000
8.886341 -22.147383 -9.969547 0.000000 69.000000 14.868201 17.000000
6.982981 -21.654456 -12.395205 0.000000 42.000000 14.569175 23.000000
6.214663 -22.046265 -8.253000 0.000000 67.000000 14.631283 9.000000
5.496063 -21.631721 -10.090785 0.000000 38.000000 14.363777 0.000000
9.089180 -22.097785 -12.044139 0.000000 48.000000 14.983269 27.000000
6.229612 -21.911407 -11.393853 0.000000 66.000000 14.745912 7.000000
5.329912 -21.517447 -11.345080 0.000000 33.000000 14.349325 0.000000
9.753256 -22.146707 -12.748534 0.000000 25.000000 15.087894 24.000000
5.405260 -21.535829 -11.476416 0.000000 32.000000 14.378064 0.000000
10.649466 -22.005789 -11.080170 0.000000 70.000000 14.815122 21.000000
5.504063 -21.517443 -11.596682 0.000000 37.000000 14.369272 0.000000
5.874390 -21.563821 -12.260872 0.000000 44.000000 14.468173 0.000000
5.965870 -21.536643 -12.385517 0.000000 50.000000 14.450964 0.000000
6.012753 -21.572184 -12.530433 0.000000 60.000000 14.497885 0.000000
10.007341 -21.622905 -11.252320 0.000000 48.000000 14.447095 0.000000
10.139187 -22.310832 -6.552175 0.000000 62.000000 14.760146 2.000000
6.374847 -22.475531 -8.437949 0.000000 54.000000 15.073864 9.000000
8.686012 -21.630446 -11.166288 0.000000 50.000000 14.447790 0.000000
10.152864 -21.689858 -10.920479 0.000000 64.000000 14.487523 0.000000
8.760742 -21.658745 -11.004462 0.000000 51.000000 14.463168 0.000000
8.851946 -21.669964 -10.836172 0.000000 45.000000 14.461006 0.000000
9.852270 -21.940261 -10.596997 0.000000 58.000000 14.711486 20.000000
9.168688 -22.097560 -11.952011 0.000000 64.000000 14.975739 27.000000
6.207767 -22.081003 -11.160397 0.000000 60.000000 14.896461 7.000000
9.768991 -22.070306 -10.503017 0.000000 56.000000 14.833669 20.000000
5.832493 -21.807965 -7.357276 0.000000 23.000000 14.322705 0.000000
9.337725 -21.614163 -10.114177 0.000000 38.000000 14.348129 0.000000
9.904655 -21.641421 -10.925751 0.000000 30.000000 14.439657 0.000000
6.448195 -21.608045 -12.509781 0.000000 42.000000 14.531995 0.000000
7.285563 -21.820609 -12.235120 0.000000 50.000000 14.722110 25.000000
10.422838 -21.742997 -8.550833 0.000000 38.000000 14.352588 0.000000
10.462448 -21.864073 -8.431634 0.000000 43.000000 14.463830 0.000000
10.619102 -21.864879 -8.246041 0.000000 44.000000 14.449917 0.000000
5.846895 -22.031687 -11.775918 0.000000 37.000000 14.896110 22.000000
5.379099 -21.880517 -7.253842 0.000000 29.000000 14.386827 0.000000
7.129473 -22.452152 -6.566654 0.000000 47.000000 14.902169 29.000000
6.708414 -22.083532 -7.054552 0.000000 55.000000 14.573399 0.000000
9.241531 -22.244330 -12.653002 0.000000 74.000000 15.177634 24.000000
5.647856 -21.916335 -7.649092 0.000000 33.000000 14.453874 0.000000
5.624273 -22.304578 -9.175602 0.000000 48.000000 14.961943 5.000000
9.671202 -22.262486 -7.560474 0.000000 48.000000 14.791908 11.000000
10.328218 -22.135543 -6.668526 0.000000 50.000000 14.594636 2.000000
5.900393 -21.939732 -8.053503 0.000000 33.000000 14.509266 0.000000
6.309343 -22.038496 -6.702458 0.000000 31.000000 14.500585 0.000000
5.818731 -21.634077 -11.204144 0.000000 36.000000 14.454412 0.000000
10.509954 -21.734016 -12.497388 0.000000 42.000000 14.656587 24.000000
6.470387 -21.795390 -8.809655 0.000000 30.000000 14.425340 0.000000
10.604622 -22.174898 -6.672642 0.000000 46.000000 14.634193 2.000000
7.286846 -22.160188 -9.006551 0.000000 49.000000 14.804602 14.000000
8.733091 -21.951800 -9.321916 0.000000 53.000000 14.621878 18.000000
5.410852 -21.774264 -10.557657 0.000000 35.000000 14.542892 6.000000
7.491009 -22.040913 -12.644409 0.000000 53.000000 14.974176 23.000000
7.558348 -22.023389 -12.075777 0.000000 49.000000 14.911616 25.000000
9.370487 -22.445425 -8.056655 0.000000 71.000000 15.013617 11.000000
6.717007 -22.096092 -9.114852 0.000000 61.000000 14.749296 13.000000
9.170111 -22.013124 -10.030433 0.000000 57.000000 14.739193 17.000000
9.175537 -22.139794 -9.462095 0.000000 54.000000 14.820396 18.000000
10.279205 -21.750944 -10.741394 0.000000 46.000000 14.534216 0.000000
10.133015 -21.984095 -12.670501 0.000000 59.000000 14.919606 24.000000
11.154121 -21.883278 -10.733750 0.000000 46.000000 14.665527 19.000000
7.155375 -21.641516 -10.244520 0.000000 35.000000 14.385732 0.000000
8.609270 -21.594716 -10.023456 0.000000 36.000000 14.321549 0.000000
9.878212 -22.250162 -7.307582 0.000000 44.000000 14.759569 11.000000
8.595385 -21.664654 -10.216703 0.000000 41.000000 14.406591 0.000000
7.187017 -21.709700 -10.583816 0.000000 57.000000 14.480606 0.000000
9.277012 -22.096019 -9.798183 0.000000 73.000000 14.803410 17.000000
11.336033 -21.765851 -10.638276 0.000000 34.000000 14.540899 19.000000
8.635584 -21.707023 -10.562928 0.000000 43.000000 14.476281 0.000000
6.850372 -21.641396 -12.729767 0.000000 58.000000 14.582686 23.000000
10.897585 -22.099609 -8.883557 0.000000 60.000000 14.734461 16.000000
10.252234 -22.194872 -10.651186 0.000000 66.000000 14.969593 20.000000
8.719269 -21.685131 -10.881713 0.000000 54.000000 14.479737 0.000000
9.698050 -22.176430 -9.244621 0.000000 58.000000 14.839672 18.000000
8.606682 -21.661578 -12.079695 0.000000 48.000000 14.551255 25.000000
7.468512 -21.549030 -11.314736 0.000000 36.000000 14.378402 0.000000
