-16.116616 -12.975404 19.157661 0.000000 52.000000 14.240773 0.000000
-18.153934 -15.584480 20.818885 0.000000 54.000000 14.230448 0.000000
-16.428082 -12.507579 18.830099 0.000000 58.000000 14.691329 10.000000
-14.606814 -11.907716 17.849094 0.000000 32.000000 14.308664 0.000000
-18.636360 -13.836878 20.971212 0.000000 46.000000 14.415410 0.000000
-18.560395 -16.978803 21.159217 0.000000 30.000000 14.221464 0.000000
-18.279372 -14.318576 21.018168 0.000000 33.000000 14.154394 0.000000
-15.116112 -13.285725 18.003447 0.000000 60.000000 14.508951 9.000000
-17.468954 -16.211056 20.127023 0.000000 28.000000 14.337583 0.000000
-15.614957 -13.411636 18.673662 0.000000 25.000000 14.301587 0.000000
-16.761977 -12.082254 19.664489 0.000000 42.000000 14.252584 0.000000
-18.684373 -13.950059 21.046142 0.000000 37.000000 14.387348 0.000000
-18.932466 -15.513109 21.283216 0.000000 31.000000 14.359050 0.000000
-14.180449 -16.449304 17.533905 0.000000 44.000000 14.285581 0.000000
-17.844393 -17.250331 20.729282 0.000000 30.000000 14.105444 0.000000
-18.111312 -12.361812 20.206358 0.000000 71.000000 14.679876 23.000000
-16.390173 -13.549843 19.334235 0.000000 42.000000 14.275527 0.000000
-16.996658 -12.352120 19.385045 0.000000 77.000000 14.617438 10.000000
-14.390315 -12.079273 17.661839 0.000000 45.000000 14.318097 0.000000
-15.609415 -11.384540 18.859293 0.000000 41.000000 14.153775 0.000000
-18.997138 -13.783837 21.266651 0.000000 76.000000 14.412601 15.000000
-18.662668 -13.132994 21.075518 0.000000 35.000000 14.350858 0.000000
-16.062925 -13.625890 19.058664 0.000000 57.000000 14.283976 0.000000
-16.935244 -11.435439 19.402502 0.000000 55.000000 14.565243 30.000000
-14.355871 -11.739467 17.647020 0.000000 45.000000 14.307957 0.000000
-18.680113 -16.700378 21.201676 0.000000 41.000000 14.263743 0.000000
-15.289275 -15.128551 18.490832 0.000000 45.000000 14.238915 0.000000
-14.414651 -11.668538 17.707451 0.000000 56.000000 14.297939 0.000000
-14.646540 -13.516512 17.840864 0.000000 57.000000 14.340046 0.000000
-17.246747 -13.253644 19.917962 0.000000 35.000000 14.360381 0.000000
-17.192829 -13.076632 19.867909 0.000000 27.000000 14.365387 0.000000
-17.192166 -13.289419 19.937301 0.000000 49.000000 14.311019 0.000000
-15.211221 -16.108350 18.166192 0.000000 62.000000 14.442232 12.000000
-17.434258 -13.115506 20.090596 0.000000 33.000000 14.344084 0.000000
-15.252756 -13.013367 18.237347 0.000000 33.000000 14.413031 9.000000
-14.288106 -13.516126 17.549566 0.000000 60.000000 14.341110 0.000000
-16.386094 -12.811130 19.478248 0.000000 37.000000 14.160993 0.000000
-16.768169 -12.211280 19.651617 0.000000 42.000000 14.266485 0.000000
-18.851195 -13.746836 21.231562 0.000000 43.000000 14.348100 0.000000
-17.795229 -15.397733 20.445560 0.000000 49.000000 14.295116 0.000000
-18.762654 -14.558083 21.166924 0.000000 32.000000 14.342672 0.000000
-15.391801 -12.629604 18.246772 0.000000 60.000000 14.493147 21.000000
-18.251120 -15.105239 20.755519 0.000000 35.000000 14.340834 0.000000
-14.853983 -11.391934 18.054124 0.000000 38.000000 14.304698 0.000000
-16.577113 -16.210830 19.255404 0.000000 60.000000 14.454383 18.000000
-18.643607 -13.856428 21.031050 0.000000 44.000000 14.373444 0.000000
-17.869018 -11.712279 19.823683 0.000000 73.000000 14.825025 29.000000
-17.991620 -12.061522 20.272528 0.000000 47.000000 14.553156 29.000000
-18.250683 -11.559123 20.943890 0.000000 31.000000 14.194102 0.000000
-17.108867 -13.156256 19.624495 0.000000 57.000000 14.501836 24.000000
-16.897919 -14.722642 19.663197 0.000000 45.000000 14.339082 16.000000
-18.735005 -12.946255 21.414481 0.000000 41.000000 14.132810 0.000000
-18.105834 -17.340421 20.865461 0.000000 41.000000 14.163985 0.000000
-18.767050 -13.105219 21.149984 0.000000 31.000000 14.358607 0.000000
-14.368957 -15.207576 17.708082 0.000000 40.000000 14.268712 0.000000
-18.271721 -16.103254 20.508275 0.000000 44.000000 14.546019 3.000000
-14.484401 -12.213485 17.787229 0.000000 55.000000 14.279778 0.000000
-17.056470 -12.395699 19.300875 0.000000 57.000000 14.720495 10.000000
-18.676664 -13.155419 21.094095 0.000000 24.000000 14.345217 0.000000
-16.584600 -14.604150 19.200383 0.000000 64.000000 14.501870 16.000000
-16.881120 -14.770257 19.592671 0.000000 49.000000 14.383350 16.000000
-16.450894 -11.877186 19.339235 0.000000 32.000000 14.309827 0.000000
-14.392962 -16.227107 17.676023 0.000000 27.000000 14.308734 0.000000
-18.857157 -13.747943 21.198374 0.000000 35.000000 14.377652 0.000000
-18.074324 -12.116731 20.653726 0.000000 40.000000 14.308790 0.000000
-19.184879 -12.621057 21.053342 0.000000 47.000000 14.696516 22.000000
-18.808931 -13.181759 21.198151 0.000000 25.000000 14.347496 0.000000
-15.612466 -16.833518 18.585798 0.000000 43.000000 14.368333 5.000000
-18.923240 -15.694313 21.218746 0.000000 19.000000 14.403372 0.000000
-18.602871 -14.212023 20.935391 0.000000 49.000000 14.422200 0.000000
-14.299737 -15.190794 17.592215 0.000000 40.000000 14.315265 0.000000
-14.726240 -13.915984 17.883575 0.000000 53.000000 14.356961 8.000000
-17.524090 -15.834705 20.326988 0.000000 40.000000 14.216787 0.000000
-15.169221 -13.136973 17.982488 0.000000 64.000000 14.558646 9.000000
-15.921917 -16.085102 18.917849 0.000000 33.000000 14.304779 0.000000
-15.368185 -17.373431 18.668868 0.000000 24.000000 14.150120 0.000000
-17.167860 -12.749836 20.126964 0.000000 41.000000 14.148272 0.000000
-15.420356 -14.295371 18.432456 0.000000 42.000000 14.366738 0.000000
-15.634490 -12.035751 18.661882 0.000000 47.000000 14.323029 0.000000
-14.417028 -12.078406 17.554502 0.000000 36.000000 14.418350 0.000000
-14.368739 -11.851171 17.527182 0.000000 34.000000 14.409223 0.000000
-15.870482 -14.632363 18.916176 0.000000 43.000000 14.273732 0.000000
-14.733869 -12.009514 17.846915 0.000000 32.000000 14.390262 0.000000
-14.241053 -11.990758 17.453479 0.000000 22.000000 14.386225 0.000000
-17.265834 -15.120351 20.042411 0.000000 46.000000 14.275626 0.000000
-15.067051 -14.897054 17.919463 0.000000 40.000000 14.543393 7.000000
-17.940295 -12.927040 20.709349 0.000000 43.000000 14.181254 0.000000
-15.593513 -13.891833 18.366741 0.000000 52.000000 14.526728 8.000000
-16.382424 -15.065143 19.270433 0.000000 49.000000 14.320259 0.000000
-16.496339 -16.769142 19.131664 0.000000 40.000000 14.499791 4.000000
-18.411654 -17.035975 21.061866 0.000000 43.000000 14.203611 0.000000
-15.380980 -13.042955 18.537013 0.000000 28.000000 14.260683 0.000000
-15.368153 -11.797376 17.916068 0.000000 68.000000 14.735394 28.000000
-15.199628 -11.590541 18.007470 0.000000 52.000000 14.558346 28.000000
-18.068129 -16.754230 20.511574 0.000000 35.000000 14.415416 0.000000
-17.520771 -12.281011 20.106910 0.000000 40.000000 14.385808 23.000000
-17.825247 -17.227301 20.607668 0.000000 30.000000 14.187957 0.000000
-14.615684 -15.062749 17.867579 0.000000 27.000000 14.299870 0.000000
-16.519874 -16.752996 19.329394 0.000000 53.000000 14.360859 4.000000
-18.761244 -14.488255 21.051976 0.000000 52.000000 14.431156 0.000000
-18.818321 -14.244845 21.133007 0.000000 53.000000 14.404050 0.000000
-14.141443 -13.510418 17.490461 0.000000 61.000000 14.294827 0.000000
-18.801286 -16.281136 21.255426 0.000000 46.000000 14.298158 0.000000
-18.692144 -12.881728 21.280305 0.000000 48.000000 14.210176 0.000000
-15.381965 -16.121404 18.498332 0.000000 34.000000 14.291376 0.000000
-18.715276 -12.683437 21.070409 0.000000 57.000000 14.387915 23.000000
-19.017841 -15.951281 21.380464 0.000000 49.000000 14.337132 0.000000
-18.666874 -12.371245 20.827339 0.000000 68.000000 14.546460 23.000000
-14.611176 -16.341291 17.726027 0.000000 33.000000 14.407090 0.000000
-17.249788 -16.110293 19.858246 0.000000 45.000000 14.408722 0.000000
-17.812773 -16.732481 20.371519 0.000000 38.000000 14.363716 0.000000
-14.894012 -13.075958 17.865229 0.000000 70.000000 14.476736 9.000000
-18.302799 -15.502454 20.779187 0.000000 54.000000 14.354933 0.000000
-19.107483 -11.608754 20.942572 0.000000 61.000000 14.733965 17.000000
-18.037146 -12.784869 20.873600 0.000000 43.000000 14.114460 0.000000
-18.546205 -15.014670 20.985016 0.000000 47.000000 14.347980 0.000000
-14.644895 -14.652005 17.719297 0.000000 64.000000 14.433528 7.000000
-15.406714 -12.387798 18.077705 0.000000 44.000000 14.633974 21.000000
-16.492878 -16.916578 18.907708 0.000000 42.000000 14.671738 4.000000
-14.641091 -13.004669 17.781401 0.000000 51.000000 14.382851 9.000000
-17.183636 -15.262247 19.936135 0.000000 44.000000 14.306561 0.000000
-18.108289 -15.298659 20.549083 0.000000 45.000000 14.411510 0.000000
-15.964218 -13.500871 18.963528 0.000000 51.000000 14.295867 0.000000
-17.161335 -12.346807 19.625154 0.000000 50.000000 14.534321 10.000000
-17.852748 -12.055498 20.130956 0.000000 57.000000 14.575891 29.000000
-15.959198 -15.903524 19.052991 0.000000 38.000000 14.223153 0.000000
-18.512877 -12.117234 21.065314 0.000000 39.000000 14.264589 0.000000
-15.738864 -14.965727 18.810522 0.000000 24.000000 14.273103 0.000000
-18.175465 -14.949559 20.714646 0.000000 40.000000 14.325033 0.000000
-17.193352 -14.384542 20.144278 0.000000 61.000000 14.150842 0.000000
-17.872104 -17.096397 20.650066 0.000000 50.000000 14.184461 0.000000
-14.480915 -13.373173 17.799150 0.000000 46.000000 14.268317 0.000000
-16.798244 -12.987392 19.646755 0.000000 46.000000 14.289180 0.000000
-16.672964 -13.577370 19.473801 0.000000 39.000000 14.344862 0.000000
-17.256311 -13.121959 19.894657 0.000000 49.000000 14.384515 0.000000
-14.088705 -15.955685 17.585001 0.000000 40.000000 14.188157 0.000000
-15.686044 -14.791811 18.741260 0.000000 55.000000 14.293736 0.000000
-17.067215 -15.294531 19.834512 0.000000 51.000000 14.312355 0.000000
-14.295708 -13.527629 17.561002 0.000000 56.000000 14.336999 0.000000
-14.238692 -11.899231 17.568523 0.000000 41.000000 14.295294 0.000000
-14.474429 -13.208210 17.447550 0.000000 69.000000 14.537604 6.000000
-18.234353 -14.318982 20.973109 0.000000 56.000000 14.161115 0.000000
-17.525716 -15.670038 20.424960 0.000000 33.000000 14.141637 0.000000
-18.148303 -14.794515 20.672470 0.000000 50.000000 14.340742 0.000000
-17.715158 -12.596608 19.931537 0.000000 37.000000 14.644408 23.000000
-18.502821 -12.649959 21.072347 0.000000 48.000000 14.252797 0.000000
-15.295286 -12.879408 18.578524 0.000000 40.000000 14.174516 0.000000
-17.001662 -15.078758 19.816766 0.000000 35.000000 14.284927 0.000000
-18.605041 -15.450569 21.154259 0.000000 25.000000 14.253397 0.000000
-18.136789 -16.269767 20.249560 0.000000 50.000000 14.662310 3.000000
-15.795670 -16.423926 18.835004 0.000000 33.000000 14.289794 0.000000
-14.838505 -12.884155 18.211595 0.000000 42.000000 14.172532 0.000000
-15.819804 -11.469298 18.699248 0.000000 51.000000 14.410521 27.000000
-14.547425 -15.309917 17.743899 0.000000 62.000000 14.353102 0.000000
-18.537993 -12.131903 20.940164 0.000000 54.000000 14.377687 0.000000
-16.723911 -14.926128 19.593056 0.000000 46.000000 14.284183 0.000000
-14.621617 -12.235751 17.875566 0.000000 35.000000 14.297391 0.000000
-14.438915 -16.863610 17.668865 0.000000 62.000000 14.343199 0.000000
-18.710112 -14.147581 21.102524 0.000000 54.000000 14.359699 0.000000
-14.298028 -11.408150 17.735751 0.000000 40.000000 14.202593 0.000000
-15.255384 -13.113711 18.224412 0.000000 59.000000 14.424740 9.000000
-17.777029 -15.719428 20.572470 0.000000 25.000000 14.184999 0.000000
-17.812966 -13.359295 20.526070 0.000000 51.000000 14.243675 0.000000
-15.807670 -16.078471 18.891907 0.000000 42.000000 14.253099 0.000000
-15.407760 -17.444863 18.356702 0.000000 63.000000 14.417714 0.000000
-17.179753 -11.355382 19.774546 0.000000 60.000000 14.429753 30.000000
-15.157804 -14.749158 17.734655 0.000000 66.000000 14.744154 7.000000
-17.688110 -12.343431 19.936614 0.000000 66.000000 14.623450 23.000000
-17.419219 -16.770637 20.000892 0.000000 59.000000 14.404370 0.000000
-19.058100 -16.078266 21.327441 0.000000 53.000000 14.403676 0.000000
-17.521449 -13.648684 20.050806 0.000000 70.000000 14.429855 26.000000
-14.348455 -14.857852 17.367399 0.000000 61.000000 14.520696 2.000000
-15.137025 -11.954648 18.293925 0.000000 25.000000 14.296259 0.000000
-16.575206 -14.984719 19.414475 0.000000 41.000000 14.329508 0.000000
-18.628560 -14.740276 21.007586 0.000000 54.000000 14.382225 0.000000
-16.057333 -14.699587 18.928327 0.000000 57.000000 14.381795 0.000000
-16.285209 -12.613173 18.973465 0.000000 31.000000 14.490011 10.000000
-17.390662 -12.069773 19.988792 0.000000 56.000000 14.395819 0.000000
-18.621859 -16.072130 21.031011 0.000000 52.000000 14.359797 0.000000
-18.957671 -13.738750 21.306956 0.000000 61.000000 14.356444 15.000000
-15.346778 -12.624295 18.298496 0.000000 46.000000 14.424618 21.000000
-14.598468 -12.446404 17.791166 0.000000 65.000000 14.348453 0.000000
-16.779196 -12.602261 19.162159 0.000000 60.000000 14.653969 10.000000
-17.235206 -16.773702 19.933334 0.000000 57.000000 14.341171 0.000000
-14.872922 -16.100326 18.023511 0.000000 68.000000 14.340410 12.000000
-17.821112 -12.712944 20.681552 0.000000 35.000000 14.127912 0.000000
-18.900922 -15.232014 21.256012 0.000000 51.000000 14.360363 0.000000
-15.176321 -13.591784 18.250223 0.000000 63.000000 14.354950 0.000000
-14.946989 -12.319769 18.043788 0.000000 37.000000 14.371225 21.000000
-14.911636 -15.808276 18.260502 0.000000 25.000000 14.180499 0.000000
-18.479061 -13.798609 20.890391 0.000000 55.000000 14.379323 0.000000
-16.897744 -12.017238 19.745209 0.000000 44.000000 14.275208 0.000000
-17.588756 -13.972898 19.635190 0.000000 62.000000 14.795321 26.000000
-14.675348 -16.439914 17.895381 0.000000 38.000000 14.315776 0.000000
-16.813714 -14.227886 19.518489 0.000000 55.000000 14.398634 0.000000
-14.317012 -13.833143 17.525664 0.000000 65.000000 14.377872 0.000000
-14.399565 -16.299466 17.545926 0.000000 59.000000 14.414036 13.000000
-17.033240 -12.616321 18.960197 0.000000 57.000000 14.970760 10.000000
-17.354700 -14.217299 19.694073 0.000000 57.000000 14.602343 26.000000
-14.316117 -14.617500 17.521779 0.000000 53.000000 14.380329 2.000000
-18.537114 -12.662331 21.056506 0.000000 35.000000 14.286680 0.000000
-16.594569 -13.564594 19.488881 0.000000 51.000000 14.283835 0.000000
-14.622432 -16.105937 17.774145 0.000000 66.000000 14.376758 0.000000
-16.089293 -15.582177 18.940089 0.000000 33.000000 14.392750 0.000000
-15.060158 -11.683511 17.747726 0.000000 61.000000 14.672582 28.000000
-17.043938 -11.587183 19.302530 0.000000 51.000000 14.711327 30.000000
-18.300796 -11.685353 20.038813 0.000000 70.000000 14.929307 29.000000
-14.760424 -15.252920 17.812046 0.000000 67.000000 14.434072 0.000000
-14.232814 -12.109337 17.541640 0.000000 31.000000 14.312499 0.000000
-15.274599 -14.283134 18.389379 0.000000 39.000000 14.308564 0.000000
-15.909835 -12.653311 18.868908 0.000000 50.000000 14.335232 0.000000
-16.225814 -15.418400 19.024773 0.000000 46.000000 14.412766 14.000000
-18.049379 -11.788487 20.016475 0.000000 49.000000 14.788559 29.000000
-17.846934 -15.154612 20.461046 0.000000 39.000000 14.315593 0.000000
-17.831049 -14.845535 20.479518 0.000000 36.000000 14.291241 0.000000
-14.669349 -16.317286 17.750347 0.000000 66.000000 14.424766 0.000000
-17.053982 -15.360159 19.842834 0.000000 36.000000 14.297563 0.000000
-16.590346 -15.344362 19.447093 0.000000 27.000000 14.313669 0.000000
-16.010187 -11.441921 19.098592 0.000000 37.000000 14.219766 0.000000
-17.341741 -11.437988 19.962466 0.000000 57.000000 14.385520 0.000000
-17.558454 -16.971105 20.112367 0.000000 58.000000 14.405264 0.000000
-14.974050 -12.618671 18.063470 0.000000 44.000000 14.372941 21.000000
-18.709793 -15.860785 21.453663 0.000000 32.000000 14.086491 0.000000
-15.779099 -14.795014 18.829965 0.000000 46.000000 14.283290 0.000000
-14.764667 -13.468852 17.987995 0.000000 52.000000 14.299942 0.000000
-18.709702 -12.053020 21.105288 0.000000 50.000000 14.357292 0.000000
-18.931683 -13.674978 21.325764 0.000000 58.000000 14.325477 0.000000
-16.921658 -13.268010 19.723980 0.000000 58.000000 14.306753 0.000000
-18.014520 -16.713773 20.623519 0.000000 38.000000 14.294666 0.000000
-16.097220 -15.428617 18.899881 0.000000 60.000000 14.428996 0.000000
-17.487485 -13.111916 20.098442 0.000000 55.000000 14.371458 0.000000
-18.203186 -12.379710 19.999376 0.000000 75.000000 14.898582 23.000000
-18.027396 -11.854702 19.797689 0.000000 56.000000 14.944838 29.000000
-15.112234 -16.776099 18.036094 0.000000 61.000000 14.481129 5.000000
-17.689615 -11.922139 19.655543 0.000000 87.000000 14.842926 29.000000
-15.899010 -13.563244 18.766854 0.000000 58.000000 14.407770 0.000000
-18.610855 -14.577411 21.083907 0.000000 33.000000 14.311751 0.000000
-17.262441 -11.423983 19.913384 0.000000 53.000000 14.373810 0.000000
-14.971291 -15.279794 18.140778 0.000000 43.000000 14.311100 0.000000
-15.020274 -14.237369 18.256310 0.000000 51.000000 14.252080 0.000000
-17.388952 -15.374243 20.055130 0.000000 55.000000 14.343166 0.000000
-18.030279 -11.476118 20.747351 0.000000 50.000000 14.208298 0.000000
-14.740813 -15.855151 17.997973 0.000000 41.000000 14.277183 0.000000
-15.416466 -14.950462 18.513481 0.000000 47.000000 14.301295 0.000000
-15.249300 -11.485495 18.336585 0.000000 39.000000 14.333700 0.000000
-15.682586 -14.685709 18.679504 0.000000 61.000000 14.339576 0.000000
-18.492859 -15.527327 21.058738 0.000000 27.000000 14.257113 0.000000
-14.558886 -13.291956 17.828177 0.000000 52.000000 14.294785 0.000000
-15.230823 -14.757339 17.912857 0.000000 48.000000 14.651525 7.000000
-16.402687 -16.406839 19.186246 0.000000 46.000000 14.398457 0.000000
-16.399923 -12.991130 19.424892 0.000000 28.000000 14.211174 0.000000
-19.268093 -12.294312 21.048748 0.000000 69.000000 14.752421 22.000000
-16.890831 -14.373734 19.574563 0.000000 56.000000 14.403536 0.000000
-18.783117 -14.700242 21.017098 0.000000 48.000000 14.472029 19.000000
-18.980527 -11.543783 21.293621 0.000000 60.000000 14.381186 17.000000
-14.882778 -13.720573 18.028758 0.000000 57.000000 14.342529 0.000000
-17.468364 -16.908516 20.113971 0.000000 51.000000 14.347359 0.000000
-18.176132 -16.456277 20.646914 0.000000 53.000000 14.378114 0.000000
-18.473658 -12.427662 20.507725 0.000000 64.000000 14.673444 23.000000
-15.967057 -16.395382 18.957542 0.000000 26.000000 14.302307 0.000000
-17.577902 -16.092016 20.194757 0.000000 54.000000 14.353437 0.000000
-18.849512 -14.383083 21.375775 0.000000 39.000000 14.234917 0.000000
-18.956816 -12.165650 21.127242 0.000000 62.000000 14.495632 22.000000
-15.836149 -13.771774 18.876885 0.000000 51.000000 14.282689 0.000000
-14.361169 -13.281802 17.525216 0.000000 34.000000 14.405990 6.000000
-16.797737 -16.857314 19.238752 0.000000 70.000000 14.606079 4.000000
-18.579559 -16.917899 21.149506 0.000000 41.000000 14.241066 0.000000
-18.284175 -12.280826 20.563459 0.000000 68.000000 14.510947 23.000000
-17.276459 -12.164755 19.909180 0.000000 53.000000 14.385894 0.000000
-17.862094 -12.993157 20.626088 0.000000 31.000000 14.196808 0.000000
-18.675553 -13.147185 21.031414 0.000000 50.000000 14.393252 0.000000
-17.493369 -11.503492 20.158619 0.000000 28.000000 14.328372 0.000000
-15.169104 -15.278198 18.301399 0.000000 33.000000 14.310622 0.000000
-14.595155 -13.394413 17.836826 0.000000 32.000000 14.310870 0.000000
-16.085217 -11.791307 19.043332 0.000000 47.000000 14.309916 0.000000
-16.412849 -13.585288 19.311472 0.000000 39.000000 14.307486 0.000000
-17.327364 -16.206783 19.974355 0.000000 53.000000 14.367235 0.000000
-19.014876 -14.711572 21.153402 0.000000 63.000000 14.511806 19.000000
-18.069466 -15.879589 20.909870 0.000000 28.000000 14.106586 0.000000
-15.196149 -12.127356 18.371493 0.000000 43.000000 14.273133 0.000000
-15.122394 -15.311707 17.974980 0.000000 75.000000 14.535034 11.000000
-16.147589 -14.958549 19.110647 0.000000 52.000000 14.296805 0.000000
-15.868684 -14.664176 18.730945 0.000000 57.000000 14.416617 0.000000
-16.612964 -14.322003 19.350691 0.000000 55.000000 14.402845 0.000000
-14.650211 -15.386557 17.793945 0.000000 61.000000 14.378833 0.000000
-17.783281 -16.049306 20.419692 0.000000 41.000000 14.307714 0.000000
-16.859940 -15.418438 19.614135 0.000000 53.000000 14.353342 0.000000
-14.142888 -11.664839 17.491513 0.000000 29.000000 14.294918 0.000000
-18.317213 -11.897124 20.891343 0.000000 55.000000 14.276797 0.000000
-16.516862 -13.077385 19.464052 0.000000 43.000000 14.254270 0.000000
-17.777391 -11.495261 20.164389 0.000000 58.000000 14.502506 29.000000
-15.918953 -13.142274 18.906459 0.000000 57.000000 14.311771 0.000000
-15.415055 -12.024764 18.543083 0.000000 38.000000 14.277393 0.000000
-19.044482 -13.831532 21.156307 0.000000 62.000000 14.528167 15.000000
-18.792643 -16.196489 21.152954 0.000000 47.000000 14.372393 0.000000
-16.612235 -17.108615 19.187727 0.000000 47.000000 14.529089 4.000000
-14.739387 -14.270473 18.081374 0.000000 61.000000 14.211443 0.000000
-18.868845 -14.273163 21.418759 0.000000 39.000000 14.213656 0.000000
-18.190593 -16.989354 20.876567 0.000000 31.000000 14.208655 0.000000
-18.633521 -16.078207 21.151179 0.000000 40.000000 14.273702 0.000000
-15.848166 -12.299678 18.754249 0.000000 65.000000 14.385595 21.000000
-15.247135 -13.013792 18.229490 0.000000 41.000000 14.415604 9.000000
-18.973572 -15.191127 21.455658 0.000000 29.000000 14.250829 0.000000
-16.283152 -14.607968 19.084015 0.000000 55.000000 14.402766 0.000000
-18.877837 -13.806480 21.196744 0.000000 63.000000 14.391925 15.000000
-16.617649 -14.774891 19.027401 0.000000 49.000000 14.657146 16.000000
-15.956623 -13.498370 18.951384 0.000000 49.000000 14.300533 0.000000
-17.732416 -16.485209 20.428292 0.000000 33.000000 14.269039 0.000000
-17.839607 -13.704840 20.482860 0.000000 41.000000 14.294025 0.000000
-14.344185 -14.670931 17.277150 0.000000 59.000000 14.588178 2.000000
-15.172239 -11.653856 17.938300 0.000000 80.000000 14.594900 28.000000
-17.434919 -14.300357 19.943200 0.000000 37.000000 14.459099 26.000000
-15.034482 -12.132226 18.206663 0.000000 26.000000 14.299616 0.000000
-14.565216 -12.750227 17.984422 0.000000 28.000000 14.177286 0.000000
-14.928406 -11.456821 18.048863 0.000000 50.000000 14.355593 28.000000
-14.136790 -12.069906 17.461888 0.000000 30.000000 14.314116 0.000000
-19.075153 -14.647407 21.316402 0.000000 43.000000 14.422983 0.000000
-16.391188 -12.833774 19.491150 0.000000 32.000000 14.154166 0.000000
-18.489812 -11.859642 20.526053 0.000000 72.000000 14.669353 29.000000
-18.104553 -17.441721 20.666027 0.000000 45.000000 14.318238 0.000000
-18.179292 -16.961699 20.830148 0.000000 26.000000 14.237638 0.000000
-14.660564 -17.430296 18.024479 0.000000 33.000000 14.206107 0.000000
-17.297885 -11.464813 19.895600 0.000000 47.000000 14.409927 0.000000
-14.988219 -12.071164 18.245854 0.000000 34.000000 14.240050 0.000000
-18.207555 -13.422554 20.779952 0.000000 31.000000 14.294440 0.000000
-16.292730 -13.959754 19.167690 0.000000 50.000000 14.343733 0.000000
-16.655702 -13.818954 19.462496 0.000000 49.000000 14.342795 0.000000
-14.165926 -11.822165 17.425862 0.000000 55.000000 14.360450 0.000000
-18.281241 -17.432648 20.808634 0.000000 44.000000 14.318480 0.000000
-19.289452 -11.895150 20.963396 0.000000 66.000000 14.832213 17.000000
-17.883196 -12.886754 20.574227 0.000000 38.000000 14.250401 0.000000
-15.657956 -14.691772 18.672855 0.000000 59.000000 14.329256 0.000000
-18.733053 -17.004586 21.322504 0.000000 38.000000 14.203094 0.000000
-18.830662 -14.411361 21.392491 0.000000 38.000000 14.210066 0.000000
-17.299912 -15.635158 20.246101 0.000000 24.000000 14.138691 0.000000
-14.376599 -16.919798 17.521225 0.000000 55.000000 14.418797 0.000000
-17.693852 -13.933599 19.869245 0.000000 60.000000 14.679440 26.000000
-18.535252 -13.870325 20.911952 0.000000 43.000000 14.397898 0.000000
-18.163477 -11.354558 20.964996 0.000000 39.000000 14.122849 0.000000
-15.924425 -13.246563 18.818425 0.000000 49.000000 14.383657 0.000000
-17.280667 -12.700102 19.944727 0.000000 49.000000 14.360903 0.000000
-14.922814 -12.588445 17.961255 0.000000 54.000000 14.420190 21.000000
-16.552582 -13.638653 19.433898 0.000000 61.000000 14.300179 0.000000
-15.526509 -15.217877 18.635242 0.000000 32.000000 14.275833 0.000000
-17.972287 -11.564491 20.586218 0.000000 42.000000 14.297107 0.000000
-15.957383 -13.079034 18.900196 0.000000 51.000000 14.340809 0.000000
-18.497598 -13.666923 20.935786 0.000000 42.000000 14.355687 0.000000
-18.805403 -13.871192 21.119213 0.000000 39.000000 14.406651 15.000000
-16.053604 -12.167389 19.027035 0.000000 31.000000 14.302705 0.000000
-15.372591 -12.906827 18.617273 0.000000 40.000000 14.193005 0.000000
-15.860302 -14.552092 18.862695 0.000000 39.000000 14.308911 0.000000
-16.872773 -16.872169 19.353623 0.000000 31.000000 14.563958 4.000000
-15.821146 -16.237325 18.680143 0.000000 49.000000 14.426219 0.000000
-17.170090 -14.213217 19.789956 0.000000 37.000000 14.411695 26.000000
-16.572524 -13.954202 19.275260 0.000000 46.000000 14.436059 0.000000
-18.803680 -14.643881 21.013519 0.000000 47.000000 14.487744 19.000000
-14.261999 -13.735202 17.495792 0.000000 51.000000 14.366500 0.000000
-15.991254 -11.407081 19.113293 0.000000 29.000000 14.196429 0.000000
-18.969937 -15.443042 21.292102 0.000000 52.000000 14.375707 0.000000
-17.281290 -14.315770 20.198371 0.000000 48.000000 14.164089 0.000000
-15.975870 -16.389291 18.839795 0.000000 47.000000 14.399396 0.000000
-15.993444 -15.641934 18.863548 0.000000 49.000000 14.391981 0.000000
-16.800493 -15.696832 19.861982 0.000000 27.000000 14.123257 0.000000
-18.007116 -16.962717 20.659240 0.000000 34.000000 14.262237 0.000000
-14.296217 -15.850265 17.754076 0.000000 32.000000 14.187206 0.000000
-17.145759 -11.458909 19.610587 0.000000 34.000000 14.535851 30.000000
-16.775394 -14.589145 19.511787 0.000000 42.000000 14.379746 16.000000
-17.391631 -13.265869 20.056234 0.000000 40.000000 14.343992 0.000000
-17.638028 -12.501537 19.855789 0.000000 79.000000 14.654794 23.000000
-18.726103 -12.794913 21.292707 0.000000 51.000000 14.221890 0.000000
-17.407702 -16.700670 20.213206 0.000000 39.000000 14.232055 0.000000
-17.042687 -12.276984 19.555787 0.000000 41.000000 14.513636 10.000000
-17.057183 -15.313046 19.788507 0.000000 41.000000 14.341815 0.000000
-17.879235 -12.114224 20.142017 0.000000 61.000000 14.583949 29.000000
-17.582474 -13.803900 19.767781 0.000000 49.000000 14.688282 26.000000
-16.044710 -11.521743 19.139782 0.000000 28.000000 14.209452 0.000000
-15.527858 -11.783776 18.166829 0.000000 68.000000 14.640868 28.000000
-15.426306 -15.747598 18.771542 0.000000 36.000000 14.106844 0.000000
-18.580321 -14.704620 20.912717 0.000000 38.000000 14.425647 0.000000
-17.081969 -11.789980 19.269094 0.000000 48.000000 14.761241 30.000000
-19.187698 -12.287996 20.995477 0.000000 74.000000 14.743278 22.000000
-16.940257 -12.573014 18.947958 0.000000 47.000000 14.921799 10.000000
-14.459278 -13.914360 17.664727 0.000000 46.000000 14.359222 0.000000
-16.188120 -13.315524 18.968116 0.000000 44.000000 14.433111 0.000000
-16.785472 -14.535964 19.612961 0.000000 37.000000 14.307422 0.000000
-17.267619 -12.331123 19.846302 0.000000 40.000000 14.429222 0.000000
-16.175204 -15.480397 19.003786 0.000000 46.000000 14.397255 14.000000
-18.613865 -16.978557 21.119535 0.000000 46.000000 14.285943 0.000000
-17.301803 -13.118752 19.989202 0.000000 46.000000 14.339617 0.000000
-14.685537 -11.513458 17.745973 0.000000 49.000000 14.438347 0.000000
-16.564107 -15.111504 19.495261 0.000000 48.000000 14.259717 0.000000
-16.004090 -16.861363 18.928247 0.000000 29.000000 14.348373 4.000000
-15.696162 -12.476016 18.107944 0.000000 75.000000 14.792496 21.000000
-14.464313 -16.929614 17.601691 0.000000 46.000000 14.411399 0.000000
-18.183640 -12.901817 20.985567 0.000000 40.000000 14.119536 0.000000
-16.030329 -12.082917 18.947761 0.000000 42.000000 14.349702 0.000000
-14.920527 -13.727893 18.060866 0.000000 40.000000 14.341306 8.000000
-18.409432 -14.996515 21.032805 0.000000 52.000000 14.224808 0.000000
-19.108963 -11.421411 21.193129 0.000000 43.000000 14.540090 17.000000
-17.508920 -11.574358 19.876311 0.000000 73.000000 14.557643 29.000000
-18.611256 -16.979316 21.161721 0.000000 32.000000 14.251504 0.000000
-18.775008 -15.448589 21.130992 0.000000 42.000000 14.378378 0.000000
-17.666444 -14.311960 19.816153 0.000000 56.000000 14.703482 26.000000
-16.758973 -15.542803 19.485345 0.000000 40.000000 14.389977 0.000000
-16.193899 -14.499085 19.135665 0.000000 46.000000 14.306478 0.000000
-15.026100 -11.465436 18.090531 0.000000 45.000000 14.384636 28.000000
-18.516038 -12.877399 21.111563 0.000000 40.000000 14.230619 0.000000
-17.150797 -14.294684 19.854164 0.000000 46.000000 14.349640 26.000000
-17.884403 -12.864506 20.606442 0.000000 54.000000 14.226113 0.000000
-18.528316 -13.718943 20.959190 0.000000 44.000000 14.356809 0.000000
-14.505887 -13.853696 17.699220 0.000000 43.000000 14.361716 0.000000
-16.633481 -14.836867 19.207178 0.000000 67.000000 14.527328 16.000000
-18.286052 -16.866461 20.822547 0.000000 33.000000 14.310689 0.000000
-14.243274 -14.913775 17.365728 0.000000 52.000000 14.455847 2.000000
-15.524557 -14.647563 18.367409 0.000000 60.000000 14.482843 7.000000
-15.385862 -13.634627 18.381499 0.000000 54.000000 14.384664 8.000000
-18.519184 -11.397291 20.852083 0.000000 35.000000 14.434340 0.000000
-18.642234 -12.118412 20.999785 0.000000 34.000000 14.396889 0.000000
-15.386109 -12.790113 18.708536 0.000000 38.000000 14.130551 0.000000
-15.126571 -12.278904 17.935150 0.000000 47.000000 14.568629 21.000000
-18.116887 -12.624343 20.447656 0.000000 60.000000 14.495776 23.000000
-16.238831 -15.225554 19.137521 0.000000 45.000000 14.333292 0.000000
-16.872496 -12.191535 19.733059 0.000000 35.000000 14.268776 0.000000
-14.412523 -14.922812 17.463081 0.000000 72.000000 14.486596 2.000000
-15.406437 -14.203635 18.520050 0.000000 54.000000 14.289881 0.000000
-17.052198 -11.500159 19.350235 0.000000 45.000000 14.679432 30.000000
-16.319110 -12.336471 18.983834 0.000000 55.000000 14.503269 10.000000
-17.765821 -12.863508 20.566746 0.000000 44.000000 14.182401 0.000000
-16.154303 -13.124883 18.998828 0.000000 48.000000 14.387965 0.000000
-15.792926 -13.514949 18.846901 0.000000 53.000000 14.278819 0.000000
-17.808029 -14.474676 20.518684 0.000000 38.000000 14.246313 0.000000
-14.278740 -16.018408 17.691455 0.000000 32.000000 14.224902 0.000000
-15.274553 -11.582798 18.055294 0.000000 43.000000 14.568283 28.000000
-14.493004 -12.478342 17.585965 0.000000 49.000000 14.441669 1.000000
-18.583572 -14.690348 20.990131 0.000000 38.000000 14.367503 0.000000
-18.336938 -12.735918 20.944635 0.000000 46.000000 14.247768 0.000000
-15.072816 -14.685356 17.791968 0.000000 67.000000 14.646145 7.000000
-16.895497 -14.750762 19.687846 0.000000 59.000000 14.318394 0.000000
-16.622136 -14.884895 19.448122 0.000000 51.000000 14.332862 0.000000
-16.905609 -12.384731 18.994280 0.000000 68.000000 14.863994 10.000000
-18.910069 -14.596999 21.269985 0.000000 46.000000 14.355251 0.000000
-17.088539 -14.488555 19.932253 0.000000 57.000000 14.249773 0.000000
-17.643873 -12.162723 20.370258 0.000000 39.000000 14.258475 0.000000
-17.837736 -14.276069 20.327803 0.000000 49.000000 14.413404 26.000000
-18.661258 -14.879456 21.078880 0.000000 41.000000 14.347358 0.000000
-16.546984 -13.836418 19.375832 0.000000 55.000000 14.341803 0.000000
-16.729330 -16.119503 19.288499 0.000000 66.000000 14.524381 18.000000
-18.554147 -15.833410 21.306016 0.000000 21.000000 14.103400 0.000000
-15.409845 -14.305189 18.664428 0.000000 54.000000 14.179772 0.000000
-16.292342 -13.384006 19.179967 0.000000 44.000000 14.333943 0.000000
-16.001816 -14.391484 19.120842 0.000000 60.000000 14.197202 0.000000
-17.845493 -13.280496 20.469342 0.000000 38.000000 14.308237 0.000000
-18.808577 -15.347385 21.160660 0.000000 51.000000 14.376423 0.000000
-18.079569 -17.387872 20.635887 0.000000 46.000000 14.325959 0.000000
-16.806143 -15.739625 19.828538 0.000000 26.000000 14.152813 0.000000
-14.815854 -13.915376 17.915597 0.000000 60.000000 14.388422 8.000000
-18.868859 -15.280764 21.291302 0.000000 43.000000 14.312761 0.000000
-17.289365 -14.898448 20.065048 0.000000 47.000000 14.272825 0.000000
-17.530086 -14.265384 19.861402 0.000000 37.000000 14.582546 26.000000
-18.530892 -14.057071 20.969495 0.000000 43.000000 14.350417 0.000000
-15.716834 -11.848868 18.337367 0.000000 63.000000 14.627122 28.000000
-17.218588 -12.865857 20.168362 0.000000 42.000000 14.147988 0.000000
-18.622101 -14.743060 20.986825 0.000000 44.000000 14.394304 0.000000
-15.866177 -13.024017 18.909592 0.000000 44.000000 14.276144 0.000000
-17.387920 -13.198270 20.058158 0.000000 61.000000 14.340163 0.000000
-16.219180 -11.815053 18.513859 0.000000 66.000000 14.805825 27.000000
-18.473947 -11.966990 20.556737 0.000000 38.000000 14.635520 29.000000
-15.469359 -16.304199 18.352027 0.000000 35.000000 14.460088 12.000000
-15.116073 -13.472128 18.318882 0.000000 39.000000 14.263678 0.000000
-14.485092 -13.194161 17.467341 0.000000 73.000000 14.528922 6.000000
-16.936647 -15.529746 19.679190 0.000000 32.000000 14.351003 0.000000
-15.448687 -12.191742 18.370984 0.000000 57.000000 14.432349 21.000000
-18.619040 -11.504780 20.954429 0.000000 23.000000 14.417566 0.000000
-18.017988 -13.836209 20.620729 0.000000 54.000000 14.299016 0.000000
-15.095860 -14.533613 18.156240 0.000000 54.000000 14.377419 7.000000
-17.354414 -12.257758 19.916209 0.000000 40.000000 14.429455 0.000000
-18.323618 -13.778888 20.854758 0.000000 57.000000 14.309270 0.000000
-18.352990 -13.114858 20.956497 0.000000 48.000000 14.248641 0.000000
-19.308751 -12.471336 20.984016 0.000000 61.000000 14.828319 22.000000
-15.547730 -13.800162 18.402548 0.000000 67.000000 14.470096 8.000000
-16.668345 -14.809781 19.098101 0.000000 60.000000 14.634060 16.000000
-18.866337 -11.358004 21.290410 0.000000 33.000000 14.311868 0.000000
-17.930390 -12.065910 20.318917 0.000000 59.000000 14.478582 29.000000
-15.002984 -15.270606 18.105049 0.000000 44.000000 14.358810 11.000000
-18.605786 -14.718905 21.116847 0.000000 24.000000 14.282953 0.000000
-15.377897 -13.235147 18.146929 0.000000 65.000000 14.562030 9.000000
-16.992550 -14.329578 19.816476 0.000000 46.000000 14.279422 0.000000
-17.677674 -14.878010 20.348913 0.000000 29.000000 14.296328 0.000000
-18.558332 -14.368763 21.140768 0.000000 66.000000 14.234511 0.000000
-17.173831 -15.853799 20.117689 0.000000 27.000000 14.159238 0.000000
-17.038896 -12.479250 19.837161 0.000000 56.000000 14.292486 0.000000
-17.608543 -17.083771 20.212500 0.000000 32.000000 14.358912 0.000000
-15.539656 -15.574387 18.747720 0.000000 16.000000 14.196651 0.000000
-17.066072 -15.389524 19.801495 0.000000 50.000000 14.337307 0.000000
-15.329852 -17.095823 18.318881 0.000000 39.000000 14.398124 5.000000
-15.240206 -14.752280 17.798122 0.000000 64.000000 14.746631 7.000000
-16.897184 -12.478724 18.965239 0.000000 70.000000 14.881274 10.000000
-15.852474 -11.843620 18.479150 0.000000 77.000000 14.602191 27.000000
-16.514992 -16.357473 19.243292 0.000000 36.000000 14.424733 0.000000
-15.418288 -14.594086 18.414315 0.000000 50.000000 14.379542 7.000000
-14.509197 -14.140298 17.775887 0.000000 60.000000 14.304190 0.000000
-16.535599 -13.025615 19.502287 0.000000 44.000000 14.236326 0.000000
-16.303020 -11.833701 18.506606 0.000000 80.000000 14.864190 27.000000
-16.615498 -16.706211 19.518763 0.000000 34.000000 14.273764 0.000000
-18.822906 -15.497492 21.117706 0.000000 55.000000 14.418830 0.000000
-18.954883 -15.356359 21.253380 0.000000 58.000000 14.396345 0.000000
-14.301940 -13.281616 17.588098 0.000000 28.000000 14.319851 0.000000
-18.505483 -14.124675 21.065847 0.000000 37.000000 14.259525 0.000000
-17.936373 -11.789661 19.837557 0.000000 52.000000 14.856597 29.000000
-17.900040 -13.369293 20.630838 0.000000 42.000000 14.216980 0.000000
-14.564023 -11.569102 17.666392 0.000000 37.000000 14.423802 0.000000
-18.459376 -15.053922 20.999392 0.000000 53.000000 14.282196 0.000000
-15.442188 -16.425291 18.558309 0.000000 29.000000 14.282619 0.000000
-14.924551 -11.392207 18.159239 0.000000 34.000000 14.267352 0.000000
-17.835039 -13.711561 20.414808 0.000000 47.000000 14.344062 0.000000
-16.972512 -15.084714 19.788896 0.000000 47.000000 14.288263 0.000000
-18.858834 -14.230995 21.287864 0.000000 61.000000 14.309129 0.000000
-15.549322 -13.377919 18.497982 0.000000 62.000000 14.396898 9.000000
-15.323158 -16.836446 18.201632 0.000000 61.000000 14.485074 5.000000
-16.255990 -12.459412 18.792162 0.000000 70.000000 14.612596 10.000000
-16.175062 -13.295907 18.959480 0.000000 44.000000 14.431613 0.000000
-16.608193 -15.514733 19.412090 0.000000 44.000000 14.352107 0.000000
-17.348975 -13.694191 19.844716 0.000000 70.000000 14.481619 26.000000
-15.313394 -16.838727 18.201796 0.000000 67.000000 14.478806 5.000000
-18.462290 -13.269686 20.999920 0.000000 57.000000 14.283618 0.000000
-15.741395 -16.376091 18.770301 0.000000 37.000000 14.305967 0.000000
-15.418719 -12.462053 17.942848 0.000000 48.000000 14.746374 21.000000
-14.922473 -12.104057 18.119560 0.000000 42.000000 14.296895 0.000000
-14.615666 -16.197885 17.752473 0.000000 35.000000 14.389352 0.000000
-18.871131 -15.442222 21.161622 0.000000 58.000000 14.415014 0.000000
-17.004034 -16.177138 19.408257 0.000000 48.000000 14.604030 18.000000
-18.984591 -13.142734 21.322638 0.000000 49.000000 14.361181 0.000000
-17.298849 -13.330065 20.050195 0.000000 52.000000 14.290337 0.000000
-16.519505 -12.237084 19.100318 0.000000 55.000000 14.538731 10.000000
-14.871656 -12.859510 18.226384 0.000000 37.000000 14.181882 0.000000
-17.779245 -17.104328 20.381128 0.000000 33.000000 14.335159 20.000000
-14.528000 -14.570217 17.833307 0.000000 27.000000 14.271372 0.000000
-14.991696 -13.218583 17.826461 0.000000 40.000000 14.568311 9.000000
-14.791167 -11.976964 18.016091 0.000000 43.000000 14.294764 0.000000
-18.478314 -14.122720 21.041004 0.000000 36.000000 14.261753 0.000000
-15.863501 -14.628951 18.895261 0.000000 48.000000 14.285604 0.000000
-14.452384 -13.874973 17.665801 0.000000 50.000000 14.354052 0.000000
-14.611663 -12.725598 18.006766 0.000000 40.000000 14.189125 0.000000
-17.211729 -16.202993 19.908907 0.000000 70.000000 14.345398 0.000000
-14.704901 -11.459279 17.894918 0.000000 42.000000 14.334722 0.000000
-18.830783 -13.704494 21.152115 0.000000 62.000000 14.397032 0.000000
-17.814625 -15.286320 20.473311 0.000000 41.000000 14.285738 0.000000
-14.826578 -11.918080 17.888442 0.000000 49.000000 14.416279 28.000000
-18.337326 -11.861047 20.814525 0.000000 58.000000 14.349172 29.000000
-14.969280 -14.693283 17.673846 0.000000 54.000000 14.672870 7.000000
-16.753869 -15.525334 19.540801 0.000000 43.000000 14.343651 0.000000
-17.040255 -15.356199 19.688187 0.000000 59.000000 14.409166 0.000000
-19.061437 -14.786558 21.329819 0.000000 55.000000 14.403926 0.000000
-19.059952 -12.409725 20.932815 0.000000 78.000000 14.711659 22.000000
-17.061441 -13.950997 19.697389 0.000000 45.000000 14.415336 26.000000
-16.432805 -16.280190 19.123348 0.000000 55.000000 14.466301 18.000000
-15.312504 -14.753431 17.978757 0.000000 54.000000 14.651657 7.000000
-16.845947 -15.684319 19.897179 0.000000 26.000000 14.124478 0.000000
-18.139482 -12.784358 20.909886 0.000000 31.000000 14.150606 0.000000
-16.074376 -13.306016 18.981538 0.000000 46.000000 14.351142 0.000000
-18.710685 -12.445209 21.060994 0.000000 34.000000 14.392348 23.000000
-15.873981 -14.177620 19.008837 0.000000 30.000000 14.203890 0.000000
-18.004950 -13.843334 20.475197 0.000000 38.000000 14.403966 26.000000
-14.673545 -17.239329 18.024159 0.000000 32.000000 14.214519 0.000000
-16.592057 -13.489191 19.493709 0.000000 50.000000 14.278502 0.000000
-15.390697 -13.096121 18.108090 0.000000 35.000000 14.600277 9.000000
-15.590320 -11.415157 18.410077 0.000000 76.000000 14.491027 28.000000
-16.474786 -14.139216 19.304437 0.000000 45.000000 14.351907 0.000000
-18.413158 -13.848566 20.850000 0.000000 59.000000 14.369280 0.000000
-18.471943 -17.100787 21.082976 0.000000 33.000000 14.225114 0.000000
-18.194962 -13.448454 20.771852 0.000000 35.000000 14.292817 0.000000
-16.821345 -16.714343 19.662736 0.000000 34.000000 14.291283 0.000000
-18.984222 -14.072844 21.322421 0.000000 60.000000 14.361117 15.000000
-14.427018 -13.435020 17.700097 0.000000 51.000000 14.311434 0.000000
-18.826263 -14.527698 21.218554 0.000000 53.000000 14.342533 0.000000
-17.433156 -15.482545 20.018066 0.000000 47.000000 14.399783 0.000000
-17.272682 -16.911550 19.971971 0.000000 43.000000 14.334700 0.000000
-18.745737 -13.646450 21.138045 0.000000 42.000000 14.354486 0.000000
-18.071866 -11.583265 20.209123 0.000000 63.000000 14.652919 29.000000
-15.233731 -13.238442 17.911799 0.000000 65.000000 14.654176 9.000000
-18.000798 -12.006334 19.919064 0.000000 65.000000 14.833743 29.000000
-16.747563 -15.966028 19.759349 0.000000 39.000000 14.169766 0.000000
-15.520685 -16.248407 18.289222 0.000000 35.000000 14.541198 12.000000
-18.492517 -11.790390 20.579241 0.000000 72.000000 14.629702 29.000000
-18.713566 -11.553115 21.065354 0.000000 42.000000 14.390770 0.000000
-18.040700 -16.252775 20.321999 0.000000 53.000000 14.545559 3.000000
-17.876925 -16.033425 20.347710 0.000000 68.000000 14.422572 3.000000
-14.940510 -16.260554 17.888739 0.000000 56.000000 14.487700 12.000000
-17.509016 -14.357333 19.876193 0.000000 45.000000 14.557795 26.000000
-14.286367 -12.138516 17.641064 0.000000 48.000000 14.268877 0.000000
-15.575091 -14.280783 18.753609 0.000000 47.000000 14.214357 0.000000
-17.060453 -13.104341 19.741112 0.000000 64.000000 14.380720 0.000000
-18.084534 -11.982863 20.621712 0.000000 55.000000 14.340102 0.000000
-15.762013 -13.203039 18.324306 0.000000 60.000000 14.665690 9.000000
-16.522147 -13.267011 19.150649 0.000000 56.000000 14.501261 25.000000
-15.775792 -12.468323 18.223928 0.000000 67.000000 14.752399 21.000000
-17.612153 -13.161851 20.225816 0.000000 57.000000 14.350829 0.000000
-15.810656 -15.431788 18.867606 0.000000 44.000000 14.273871 0.000000
-17.499336 -12.207612 20.009535 0.000000 42.000000 14.448035 0.000000
-17.116033 -13.337262 19.927057 0.000000 56.000000 14.271104 0.000000
-17.662956 -13.828882 20.160236 0.000000 64.000000 14.433767 26.000000
-14.429310 -15.666305 17.755853 0.000000 51.000000 14.269526 0.000000
-16.022473 -15.695394 18.932845 0.000000 31.000000 14.356359 0.000000
-18.454185 -15.054302 20.978059 0.000000 35.000000 14.295518 0.000000
-16.232235 -16.042428 19.049863 0.000000 47.000000 14.397297 0.000000
-17.765979 -11.334457 20.569930 0.000000 38.000000 14.180025 0.000000
-17.949509 -15.631389 20.715422 0.000000 26.000000 14.182327 0.000000
-14.890167 -16.736959 18.065530 0.000000 44.000000 14.318586 0.000000
-17.905528 -11.885139 19.871365 0.000000 74.000000 14.810913 29.000000
-16.598527 -13.846891 19.415057 0.000000 70.000000 14.343722 0.000000
-14.434533 -12.541090 17.741219 0.000000 48.000000 14.284189 0.000000
-14.420630 -13.342630 17.736939 0.000000 55.000000 14.278773 0.000000
-16.617656 -17.434124 19.676812 0.000000 35.000000 14.152240 0.000000
-18.702948 -16.619846 21.229735 0.000000 38.000000 14.256288 0.000000
-18.127963 -14.426568 20.910365 0.000000 36.000000 14.142990 0.000000
-14.736141 -15.007264 17.942854 0.000000 46.000000 14.317099 0.000000
-15.103648 -14.284746 18.305298 0.000000 46.000000 14.266426 0.000000
-14.598255 -11.537571 17.855550 0.000000 22.000000 14.298261 0.000000
-16.005435 -13.288051 18.903327 0.000000 50.000000 14.368594 0.000000
-14.944083 -13.184214 17.817818 0.000000 66.000000 14.545087 9.000000
-16.782318 -13.402201 19.497124 0.000000 49.000000 14.395501 24.000000
-15.343339 -12.298237 18.090187 0.000000 47.000000 14.584413 21.000000
-15.001182 -16.002829 18.318425 0.000000 31.000000 14.191779 0.000000
-15.728059 -11.726693 18.140049 0.000000 62.000000 14.787594 28.000000
-16.814724 -17.213313 19.752529 0.000000 34.000000 14.217306 0.000000
-14.892107 -17.077885 18.014720 0.000000 35.000000 14.359310 5.000000
-14.504056 -16.904645 17.714944 0.000000 46.000000 14.348340 0.000000
-17.196385 -14.453171 20.016339 0.000000 33.000000 14.252221 0.000000
-17.993603 -11.845400 19.676972 0.000000 62.000000 15.017442 29.000000
-18.742233 -16.470600 21.274586 0.000000 28.000000 14.246123 0.000000
-16.791011 -11.882662 19.436730 0.000000 24.000000 14.447923 30.000000
-14.445182 -13.141752 17.641034 0.000000 57.000000 14.368778 0.000000
-14.484261 -15.025294 17.697355 0.000000 47.000000 14.349566 0.000000
-17.351343 -12.039597 20.054004 0.000000 44.000000 14.320389 0.000000
-16.009940 -17.343419 19.205720 0.000000 43.000000 14.136320 0.000000
-17.211083 -13.591725 19.877339 0.000000 46.000000 14.369536 0.000000
-17.509285 -11.768120 19.674780 0.000000 72.000000 14.714561 30.000000
-14.250241 -15.848772 17.703661 0.000000 27.000000 14.197489 0.000000
-17.100041 -13.324268 19.332262 0.000000 36.000000 14.723494 24.000000
-16.840981 -15.382786 19.518954 0.000000 50.000000 14.415421 0.000000
-15.545905 -13.125284 18.641160 0.000000 38.000000 14.283430 0.000000
-17.179113 -12.920160 20.163610 0.000000 42.000000 14.126857 0.000000
-15.853396 -16.042881 18.935105 0.000000 28.000000 14.248270 0.000000
-14.666420 -12.992758 17.800620 0.000000 51.000000 14.383838 9.000000
-18.930824 -13.331630 21.280696 0.000000 59.000000 14.359976 0.000000
-18.919094 -13.197261 21.286603 0.000000 55.000000 14.348007 0.000000
-18.488507 -11.415243 21.082557 0.000000 42.000000 14.235856 0.000000
-16.253933 -13.736357 19.132809 0.000000 62.000000 14.346453 0.000000
-14.561227 -13.895927 17.762490 0.000000 61.000000 14.347328 0.000000
-14.295918 -13.910964 17.553991 0.000000 48.000000 14.342582 0.000000
-15.925010 -12.934961 18.918423 0.000000 44.000000 14.306278 0.000000
-17.211898 -11.730580 19.486888 0.000000 72.000000 14.673620 30.000000
-14.303502 -17.288757 17.705291 0.000000 38.000000 14.229717 0.000000
-16.922550 -12.143027 19.489571 0.000000 41.000000 14.489564 30.000000
-17.564118 -12.954299 20.401983 0.000000 42.000000 14.183652 0.000000
-17.918804 -11.662083 19.789339 0.000000 62.000000 14.883037 29.000000
-15.944830 -15.165739 18.982250 0.000000 45.000000 14.269118 0.000000
-18.662618 -14.836788 21.015979 0.000000 55.000000 14.397118 0.000000
-17.851863 -11.678837 19.698835 0.000000 74.000000 14.911304 29.000000
-16.638159 -15.530042 19.455645 0.000000 44.000000 14.337089 0.000000
-15.554147 -14.556594 18.639317 0.000000 29.000000 14.290046 0.000000
-18.284491 -14.039326 20.947112 0.000000 32.000000 14.212859 0.000000
-18.542529 -13.888521 20.907813 0.000000 64.000000 14.405692 0.000000
-18.616842 -13.751439 21.014806 0.000000 55.000000 14.369242 0.000000
-19.004680 -12.147253 21.150552 0.000000 74.000000 14.507610 22.000000
-17.009560 -12.389411 19.201880 0.000000 47.000000 14.767961 10.000000
-16.194073 -11.670459 18.680265 0.000000 54.000000 14.660656 27.000000
-18.812653 -12.144524 21.285392 0.000000 23.000000 14.282008 0.000000
-15.720092 -11.586729 18.234631 0.000000 70.000000 14.709048 28.000000
-16.865854 -16.838195 19.373852 0.000000 46.000000 14.543879 4.000000
-15.918974 -13.932147 18.964100 0.000000 40.000000 14.266969 0.000000
-18.012794 -12.278863 20.074838 0.000000 50.000000 14.720174 23.000000
-14.279831 -13.841563 17.447180 0.000000 50.000000 14.415510 0.000000
-14.496190 -13.750512 17.641658 0.000000 63.000000 14.400372 0.000000
-16.541338 -13.060435 19.500366 0.000000 47.000000 14.241429 0.000000
-15.732096 -13.823301 18.771831 0.000000 62.000000 14.298929 0.000000
-17.241629 -13.244326 19.915027 0.000000 54.000000 14.359444 0.000000
-18.820726 -13.323298 21.276739 0.000000 40.000000 14.293813 0.000000
-17.442643 -13.176902 20.075438 0.000000 56.000000 14.361143 0.000000
-14.379541 -15.222637 17.652550 0.000000 47.000000 14.318544 0.000000
-15.575024 -15.570480 18.773042 0.000000 36.000000 14.199206 0.000000
-15.653569 -16.016580 18.815103 0.000000 33.000000 14.215900 0.000000
-18.904750 -15.050921 21.464241 0.000000 43.000000 14.200874 0.000000
