37.093845 24.549885 21.393421 0.000000 48.000000 14.352290 0.000000
32.170853 24.399004 21.439362 0.000000 44.000000 14.284470 0.000000
31.286175 24.236441 21.634870 0.000000 72.000000 14.319216 0.000000
36.722103 25.377119 20.970264 0.000000 65.000000 14.597651 23.000000
36.513538 23.316378 22.429786 0.000000 34.000000 14.285774 0.000000
35.345898 22.038481 23.564237 0.000000 27.000000 14.261753 0.000000
32.316185 24.873542 21.608999 0.000000 55.000000 14.729731 9.000000
36.108501 21.896364 23.733893 0.000000 38.000000 14.291198 0.000000
33.789104 25.544803 21.073906 0.000000 71.000000 14.787258 10.000000
31.177208 24.066243 21.859244 0.000000 45.000000 14.370130 0.000000
34.306484 25.648491 20.730524 0.000000 73.000000 14.603616 30.000000
33.986115 25.327108 20.580318 0.000000 46.000000 14.275981 0.000000
31.820946 22.717043 23.058779 0.000000 53.000000 14.346087 0.000000
35.424191 24.701923 21.186664 0.000000 32.000000 14.302139 0.000000
30.986507 22.988058 22.825245 0.000000 59.000000 14.356394 0.000000
33.618999 25.812215 20.552655 0.000000 57.000000 14.582677 30.000000
36.963493 24.393041 21.423817 0.000000 43.000000 14.268970 0.000000
36.308952 25.431897 20.949952 0.000000 68.000000 14.619591 23.000000
31.165863 22.960913 22.804412 0.000000 44.000000 14.322705 0.000000
35.955292 23.823292 21.888698 0.000000 43.000000 14.228049 0.000000
34.949409 24.367628 21.507438 0.000000 53.000000 14.313581 0.000000
31.819748 22.522615 23.187143 0.000000 26.000000 14.309765 0.000000
34.087250 24.211002 21.715798 0.000000 64.000000 14.361821 0.000000
35.256321 23.009301 22.739980 0.000000 40.000000 14.307757 0.000000
35.057518 24.164953 22.232448 0.000000 64.000000 14.712277 26.000000
30.961914 24.893776 20.966369 0.000000 44.000000 14.268841 0.000000
34.616077 23.768180 22.002417 0.000000 43.000000 14.274858 0.000000
34.499752 24.316749 21.518899 0.000000 45.000000 14.287734 0.000000
31.459694 25.416627 20.505004 0.000000 37.000000 14.280732 0.000000
36.855057 21.420809 23.975605 0.000000 31.000000 14.149001 0.000000
35.399647 22.943274 22.898507 0.000000 43.000000 14.380293 0.000000
37.223221 22.711980 22.897692 0.000000 32.000000 14.223722 0.000000
31.984467 24.813325 20.973062 0.000000 42.000000 14.219532 0.000000
36.370224 23.976369 21.820638 0.000000 65.000000 14.281017 0.000000
36.004860 24.075174 21.779749 0.000000 59.000000 14.317451 0.000000
33.776760 25.426233 21.230917 0.000000 79.000000 14.823243 10.000000
34.134640 21.370246 24.076578 0.000000 39.000000 14.189466 0.000000
33.952980 26.015139 20.647086 0.000000 82.000000 14.789246 30.000000
31.250961 24.113082 21.845470 0.000000 47.000000 14.391544 0.000000
31.440495 25.273310 20.676562 0.000000 62.000000 14.310772 0.000000
33.187851 25.949715 20.816409 0.000000 61.000000 14.870161 27.000000
33.727161 24.728351 21.257444 0.000000 41.000000 14.372226 25.000000
33.141621 25.866919 20.764917 0.000000 73.000000 14.776306 27.000000
32.103996 25.937391 20.687848 0.000000 53.000000 14.766918 28.000000
32.984192 25.725670 20.527497 0.000000 48.000000 14.505740 27.000000
32.536758 22.311613 23.500013 0.000000 38.000000 14.398511 0.000000
34.698330 22.402373 23.215069 0.000000 43.000000 14.249303 0.000000
35.892250 23.876845 22.214552 0.000000 55.000000 14.504781 26.000000
32.460266 23.644385 22.037833 0.000000 36.000000 14.217531 0.000000
35.093365 22.121720 23.532554 0.000000 40.000000 14.294489 0.000000
31.473698 22.872684 22.855782 0.000000 32.000000 14.301143 0.000000
35.228661 26.027406 20.666348 0.000000 81.000000 14.811742 29.000000
36.840611 21.554059 23.907931 0.000000 21.000000 14.188884 0.000000
36.947594 24.139745 21.855754 0.000000 53.000000 14.417117 15.000000
34.373310 22.155257 23.451902 0.000000 38.000000 14.257548 0.000000
36.913647 25.579738 20.376897 0.000000 37.000000 14.296126 0.000000
33.321987 24.316667 21.523340 0.000000 52.000000 14.290958 0.000000
36.264950 22.561712 22.939429 0.000000 22.000000 14.153211 0.000000
34.812767 24.342988 21.583644 0.000000 43.000000 14.353238 0.000000
33.234631 24.535930 21.352199 0.000000 29.000000 14.312440 0.000000
36.891788 24.119843 21.841038 0.000000 40.000000 14.392830 15.000000
32.747711 25.305311 20.614934 0.000000 48.000000 14.286843 0.000000
31.295975 24.207850 21.814021 0.000000 63.000000 14.432226 0.000000
31.412338 24.108740 21.837438 0.000000 64.000000 14.382685 0.000000
31.546993 24.026744 21.879373 0.000000 60.000000 14.358358 0.000000
34.378010 22.533563 23.567808 0.000000 67.000000 14.598241 18.000000
32.105564 23.708990 21.994713 0.000000 46.000000 14.229256 0.000000
32.796009 23.426499 22.427490 0.000000 56.000000 14.358337 0.000000
31.615868 23.295355 22.600846 0.000000 45.000000 14.397912 0.000000
34.600796 22.213243 23.540540 0.000000 47.000000 14.362103 0.000000
34.101261 22.475607 23.219809 0.000000 47.000000 14.302187 0.000000
32.504700 24.367664 21.480588 0.000000 22.000000 14.293778 0.000000
35.386787 22.940149 22.762003 0.000000 29.000000 14.277388 0.000000
34.564041 25.757716 20.479620 0.000000 56.000000 14.491996 30.000000
34.539650 24.672358 21.199973 0.000000 44.000000 14.292030 0.000000
35.218548 24.748140 21.046152 0.000000 43.000000 14.229547 0.000000
36.926704 25.813746 19.989559 0.000000 31.000000 14.167905 0.000000
32.547527 24.312996 22.011177 0.000000 41.000000 14.648715 8.000000
35.668732 23.423838 22.347835 0.000000 33.000000 14.297723 0.000000
31.565132 23.061923 22.749681 0.000000 51.000000 14.350405 0.000000
32.238632 23.729491 22.618322 0.000000 65.000000 14.703570 7.000000
34.221214 25.396060 20.762389 0.000000 35.000000 14.456923 10.000000
31.182453 22.440307 23.128613 0.000000 40.000000 14.211042 0.000000
33.711617 24.776346 21.452999 0.000000 53.000000 14.548994 25.000000
31.576538 21.860699 23.878389 0.000000 53.000000 14.373847 0.000000
31.916569 25.849205 20.413756 0.000000 50.000000 14.505054 28.000000
36.379097 22.221438 23.407579 0.000000 42.000000 14.269447 0.000000
31.447548 24.768306 21.238511 0.000000 42.000000 14.385189 0.000000
37.002415 23.248533 22.471207 0.000000 36.000000 14.270610 0.000000
36.085625 25.564410 20.546473 0.000000 32.000000 14.411009 29.000000
34.767117 25.944998 20.770031 0.000000 71.000000 14.832734 30.000000
33.677582 24.150833 21.782164 0.000000 54.000000 14.370254 0.000000
36.069431 24.487341 21.324728 0.000000 59.000000 14.259389 0.000000
31.811039 24.811625 20.947052 0.000000 42.000000 14.199179 0.000000
36.900169 22.961871 22.921392 0.000000 43.000000 14.409733 0.000000
31.779263 23.645269 22.101867 0.000000 32.000000 14.265412 0.000000
31.720097 24.186462 21.740602 0.000000 57.000000 14.363589 0.000000
35.894547 22.745198 22.819653 0.000000 36.000000 14.188496 0.000000
34.660671 24.472333 21.362982 0.000000 44.000000 14.277517 0.000000
35.978477 23.842502 22.126474 0.000000 46.000000 14.416583 0.000000
37.127457 23.296523 22.428891 0.000000 38.000000 14.271724 0.000000
32.722267 23.575118 22.251536 0.000000 28.000000 14.328626 0.000000
32.873928 25.970639 20.376961 0.000000 55.000000 14.559771 28.000000
31.209240 24.230367 21.675801 0.000000 65.000000 14.345345 0.000000
34.044777 25.556429 20.994965 0.000000 71.000000 14.736806 10.000000
35.383835 26.160782 20.845032 0.000000 75.000000 15.033627 29.000000
36.773190 25.203252 20.765459 0.000000 37.000000 14.329173 0.000000
37.230526 22.339317 23.425322 0.000000 42.000000 14.362039 0.000000
34.105419 22.705265 23.106056 0.000000 42.000000 14.373055 0.000000
35.278049 21.404506 23.984695 0.000000 24.000000 14.144720 0.000000
31.724007 22.213936 23.508217 0.000000 37.000000 14.338702 0.000000
34.043514 24.774948 20.938324 0.000000 42.000000 14.168002 0.000000
32.763664 24.673553 21.168133 0.000000 34.000000 14.269324 0.000000
35.072689 23.512298 22.320482 0.000000 32.000000 14.337176 0.000000
34.203205 22.887796 22.790367 0.000000 23.000000 14.263029 0.000000
33.605625 22.498391 23.170900 0.000000 41.000000 14.281436 0.000000
32.583359 24.846314 21.512257 0.000000 72.000000 14.639934 9.000000
36.359783 24.560093 21.337411 0.000000 39.000000 14.317814 0.000000
32.368576 25.824500 20.588483 0.000000 71.000000 14.617418 28.000000
33.301403 22.130151 23.530735 0.000000 42.000000 14.298831 0.000000
34.721756 25.261602 21.042004 0.000000 55.000000 14.572729 10.000000
31.249638 22.488749 23.121551 0.000000 48.000000 14.238493 0.000000
33.981476 25.804611 20.630814 0.000000 42.000000 14.635265 30.000000
33.161777 22.540233 23.133170 0.000000 24.000000 14.281790 0.000000
31.446304 25.529879 20.445526 0.000000 38.000000 14.313182 0.000000
31.061005 23.640744 22.021106 0.000000 38.000000 14.202724 0.000000
33.161945 24.325454 21.703200 0.000000 48.000000 14.429697 0.000000
33.371536 24.345097 21.671557 0.000000 45.000000 14.419577 0.000000
32.644314 24.790700 21.473011 0.000000 70.000000 14.573451 9.000000
31.186474 24.275080 21.640886 0.000000 59.000000 14.349714 0.000000
33.752769 25.859120 20.097142 0.000000 27.000000 14.277944 0.000000
31.600029 24.391184 21.539109 0.000000 50.000000 14.352852 0.000000
31.448223 24.436212 21.549677 0.000000 49.000000 14.391020 0.000000
36.304054 23.576928 22.159025 0.000000 28.000000 14.261534 0.000000
33.648891 24.912237 20.885291 0.000000 24.000000 14.221419 0.000000
34.242203 23.609802 22.447249 0.000000 64.000000 14.496535 16.000000
34.203430 25.368284 20.828860 0.000000 55.000000 14.487277 10.000000
32.561298 25.860141 20.616455 0.000000 77.000000 14.662107 28.000000
36.089760 21.523378 24.206312 0.000000 47.000000 14.388527 0.000000
31.909958 22.699770 23.083820 0.000000 45.000000 14.352930 0.000000
35.077984 24.250131 22.346884 0.000000 64.000000 14.854218 26.000000
36.669186 25.868743 20.005486 0.000000 43.000000 14.216752 0.000000
31.529644 24.417957 21.567983 0.000000 50.000000 14.392227 0.000000
36.232067 25.354867 20.519670 0.000000 47.000000 14.249915 0.000000
33.575558 25.433576 20.615050 0.000000 40.000000 14.373423 10.000000
36.431042 23.757903 21.954829 0.000000 50.000000 14.232788 0.000000
32.074108 23.103979 22.950703 0.000000 41.000000 14.527205 11.000000
32.035107 25.423900 20.515646 0.000000 34.000000 14.293495 0.000000
34.942226 24.309102 21.925691 0.000000 73.000000 14.582964 26.000000
31.362099 24.140551 21.848163 0.000000 56.000000 14.412056 0.000000
32.784695 24.095847 21.835368 0.000000 40.000000 14.372462 8.000000
32.831299 24.688581 21.142640 0.000000 42.000000 14.260634 0.000000
33.897682 23.217626 22.532839 0.000000 50.000000 14.295279 0.000000
35.034084 25.312966 20.567608 0.000000 40.000000 14.257058 0.000000
32.799999 23.538662 22.327592 0.000000 52.000000 14.360205 0.000000
32.727768 26.095829 20.242521 0.000000 61.000000 14.544917 28.000000
31.423866 22.595873 22.933917 0.000000 21.000000 14.172177 0.000000
32.465405 23.037886 22.872943 0.000000 66.000000 14.425216 0.000000
33.703018 23.082547 22.726654 0.000000 54.000000 14.347309 0.000000
34.572540 23.850491 21.965198 0.000000 41.000000 14.302880 0.000000
31.192547 25.276747 20.759537 0.000000 68.000000 14.374360 1.000000
35.100418 26.030697 20.440462 0.000000 54.000000 14.647161 29.000000
31.013233 23.738106 21.937038 0.000000 45.000000 14.206301 0.000000
33.926937 21.462449 23.938654 0.000000 21.000000 14.149795 0.000000
34.770126 26.009955 20.395799 0.000000 62.000000 14.600193 30.000000
31.372612 21.861489 23.852236 0.000000 47.000000 14.355068 0.000000
37.023552 25.697357 20.728277 0.000000 54.000000 14.634909 17.000000
37.112659 25.863439 20.789196 0.000000 73.000000 14.791888 17.000000
31.358829 23.894181 21.960900 0.000000 45.000000 14.329168 0.000000
34.258156 23.767917 22.073188 0.000000 52.000000 14.326940 0.000000
31.614075 23.304755 22.464680 0.000000 37.000000 14.303703 0.000000
33.412388 24.569834 21.456343 0.000000 48.000000 14.412205 0.000000
34.638878 21.479144 24.064419 0.000000 26.000000 14.253921 0.000000
32.839817 24.208323 21.648119 0.000000 43.000000 14.310039 0.000000
30.976757 23.651317 21.980558 0.000000 27.000000 14.179912 0.000000
33.509892 22.001710 23.619117 0.000000 48.000000 14.277482 0.000000
31.622478 24.277972 21.629980 0.000000 63.000000 14.343611 0.000000
32.491871 25.382247 20.543520 0.000000 36.000000 14.285990 0.000000
37.197075 22.382534 23.183656 0.000000 43.000000 14.212729 0.000000
33.058830 23.576765 22.208306 0.000000 42.000000 14.297815 0.000000
32.609875 24.326791 21.866928 0.000000 56.000000 14.551500 8.000000
34.617165 25.378437 20.958003 0.000000 64.000000 14.589486 10.000000
32.369164 25.501657 21.103501 0.000000 68.000000 14.780017 21.000000
33.916302 25.344287 20.567401 0.000000 50.000000 14.278026 0.000000
33.714134 24.534432 21.483699 0.000000 53.000000 14.408533 25.000000
34.058723 24.281740 21.745522 0.000000 54.000000 14.431471 0.000000
31.458138 25.154811 20.776059 0.000000 41.000000 14.304335 0.000000
34.825592 25.429041 20.504726 0.000000 38.000000 14.288898 0.000000
31.728153 24.747230 21.192703 0.000000 58.000000 14.337150 0.000000
32.015812 24.270769 21.649974 0.000000 43.000000 14.353518 0.000000
34.809212 23.451626 22.362325 0.000000 43.000000 14.327161 0.000000
36.271740 22.464045 22.955432 0.000000 24.000000 14.099168 0.000000
30.962742 22.975821 22.859305 0.000000 56.000000 14.373293 0.000000
32.076191 25.277358 20.993748 0.000000 63.000000 14.547720 21.000000
31.209126 23.544722 22.492451 0.000000 56.000000 14.486027 2.000000
31.827850 22.097199 23.531744 0.000000 42.000000 14.277355 0.000000
34.596992 24.645681 21.546022 0.000000 57.000000 14.529573 24.000000
36.033329 23.274565 22.493803 0.000000 34.000000 14.304849 0.000000
34.877247 21.960994 23.907351 0.000000 54.000000 14.462866 4.000000
34.804943 23.584683 22.117066 0.000000 52.000000 14.235780 0.000000
37.084000 24.245739 21.678110 0.000000 60.000000 14.357416 15.000000
33.638783 22.055934 24.104137 0.000000 45.000000 14.672199 4.000000
37.150768 25.850320 20.717703 0.000000 63.000000 14.730249 17.000000
35.296700 24.767385 21.196684 0.000000 41.000000 14.353681 0.000000
31.479145 24.626230 21.340170 0.000000 47.000000 14.364450 0.000000
35.696609 23.172824 22.569605 0.000000 39.000000 14.292216 0.000000
35.452496 24.497883 21.335910 0.000000 59.000000 14.274755 0.000000
32.596832 23.520280 22.591606 0.000000 47.000000 14.542764 7.000000
33.653748 23.670797 22.033157 0.000000 31.000000 14.231889 0.000000
31.997669 24.262425 21.610698 0.000000 38.000000 14.318889 0.000000
36.854656 25.923822 20.560443 0.000000 67.000000 14.663688 17.000000
36.923698 23.105983 22.630509 0.000000 32.000000 14.292116 0.000000
34.208012 23.919350 21.950329 0.000000 54.000000 14.338334 0.000000
34.883648 23.698397 22.112053 0.000000 56.000000 14.308759 0.000000
33.515007 25.419045 20.489323 0.000000 40.000000 14.270783 0.000000
33.489796 23.009986 22.783345 0.000000 50.000000 14.340240 0.000000
36.390144 23.688068 21.917048 0.000000 43.000000 14.157798 0.000000
35.742058 25.416873 20.740230 0.000000 60.000000 14.454595 23.000000
37.162521 24.281822 21.964036 0.000000 73.000000 14.592883 15.000000
34.665924 25.105763 20.916534 0.000000 56.000000 14.374991 10.000000
31.018162 24.104366 21.813007 0.000000 49.000000 14.361694 0.000000
31.189671 23.058958 22.737702 0.000000 51.000000 14.339560 0.000000
32.322094 24.269121 22.147468 0.000000 46.000000 14.719769 8.000000
31.586857 22.419968 23.347429 0.000000 51.000000 14.358906 12.000000
30.983429 21.906016 23.882291 0.000000 45.000000 14.407287 0.000000
37.229061 24.679477 21.092966 0.000000 30.000000 14.217814 0.000000
31.249012 21.955022 23.780590 0.000000 50.000000 14.365235 0.000000
36.418388 23.681907 21.956445 0.000000 33.000000 14.182735 0.000000
37.132145 25.670654 20.710372 0.000000 55.000000 14.603681 17.000000
31.861771 22.377679 23.516582 0.000000 39.000000 14.455296 12.000000
33.955090 21.884954 24.104839 0.000000 39.000000 14.557420 4.000000
36.916332 23.743943 21.896533 0.000000 56.000000 14.180327 0.000000
31.927071 24.245390 21.799306 0.000000 63.000000 14.446675 8.000000
37.050735 25.749204 20.747013 0.000000 66.000000 14.683706 17.000000
33.267544 25.923198 20.286144 0.000000 62.000000 14.460718 27.000000
31.843239 22.474365 23.290649 0.000000 61.000000 14.353660 12.000000
33.358704 23.721370 21.950519 0.000000 43.000000 14.204970 0.000000
32.301029 24.310183 22.009794 0.000000 61.000000 14.645797 8.000000
31.571705 23.602961 22.309274 0.000000 29.000000 14.390037 7.000000
31.546989 24.755186 21.252683 0.000000 47.000000 14.386806 9.000000
35.979355 23.030434 22.698251 0.000000 24.000000 14.291193 0.000000
32.796749 24.803515 20.895487 0.000000 31.000000 14.155633 0.000000
32.510765 24.744946 20.921358 0.000000 32.000000 14.135242 0.000000
36.322193 21.907821 23.765176 0.000000 39.000000 14.322024 0.000000
33.298260 25.943324 20.772343 0.000000 65.000000 14.833312 27.000000
34.090641 24.202483 21.728084 0.000000 58.000000 14.365149 0.000000
35.130058 23.766637 22.006908 0.000000 48.000000 14.277134 0.000000
33.796116 24.198130 21.772748 0.000000 55.000000 14.395194 0.000000
32.281605 21.569479 23.966600 0.000000 34.000000 14.242605 0.000000
34.500214 24.754064 20.900582 0.000000 39.000000 14.126049 0.000000
34.425468 22.446725 23.088336 0.000000 27.000000 14.185628 0.000000
33.665981 24.395512 21.466065 0.000000 35.000000 14.301833 0.000000
37.020603 24.995404 20.960135 0.000000 27.000000 14.332768 0.000000
33.516186 24.147671 21.755224 0.000000 51.000000 14.348228 0.000000
33.652863 23.054638 22.711338 0.000000 50.000000 14.317179 0.000000
35.231335 26.087452 20.660418 0.000000 58.000000 14.847854 29.000000
31.325577 24.157584 21.799320 0.000000 64.000000 14.387474 0.000000
31.156841 24.174777 21.798328 0.000000 63.000000 14.398336 0.000000
32.380386 22.160251 23.505102 0.000000 35.000000 14.300200 0.000000
37.151703 23.613551 22.158256 0.000000 39.000000 14.285662 0.000000
31.729412 24.753043 21.453448 0.000000 53.000000 14.533611 9.000000
31.184082 24.307424 21.629270 0.000000 48.000000 14.362947 0.000000
32.639111 25.233583 21.030198 0.000000 36.000000 14.545117 21.000000
36.813816 23.204996 22.483730 0.000000 42.000000 14.250499 0.000000
33.982914 22.672025 22.955571 0.000000 42.000000 14.239518 0.000000
37.168236 23.036365 22.827479 0.000000 52.000000 14.390619 0.000000
32.602898 23.710408 21.968139 0.000000 36.000000 14.210589 0.000000
32.404236 24.229844 21.757996 0.000000 55.000000 14.405687 8.000000
31.361248 23.610093 22.289297 0.000000 44.000000 14.380095 0.000000
35.922916 25.400045 21.208943 0.000000 62.000000 14.789358 23.000000
32.537205 22.008971 23.711553 0.000000 52.000000 14.350636 0.000000
37.026043 25.286477 20.734125 0.000000 50.000000 14.362157 22.000000
33.461941 24.913031 21.081049 0.000000 43.000000 14.366507 0.000000
32.937359 21.954202 23.912965 0.000000 45.000000 14.462431 5.000000
31.922600 24.712314 21.456103 0.000000 56.000000 14.508107 9.000000
33.416233 21.472468 23.927407 0.000000 30.000000 14.148246 0.000000
36.670086 24.110374 21.794142 0.000000 46.000000 14.351816 0.000000
34.852882 21.925741 24.001275 0.000000 32.000000 14.508450 4.000000
35.347252 25.229294 21.020700 0.000000 75.000000 14.535211 23.000000
34.592758 21.447312 24.005801 0.000000 36.000000 14.189171 0.000000
33.050255 24.113635 21.710153 0.000000 50.000000 14.291995 0.000000
34.224064 26.170312 20.308885 0.000000 66.000000 14.644148 30.000000
34.995216 24.507163 21.365907 0.000000 58.000000 14.303164 0.000000
34.258457 25.494325 21.155746 0.000000 72.000000 14.813652 10.000000
34.486488 22.056742 24.135310 0.000000 44.000000 14.695763 4.000000
30.984928 23.712046 22.602785 0.000000 45.000000 14.680333 2.000000
36.977875 21.913692 23.681232 0.000000 45.000000 14.263996 0.000000
31.920139 23.569255 22.669999 0.000000 39.000000 14.633677 7.000000
31.143757 23.388067 22.539266 0.000000 48.000000 14.414959 2.000000
31.946392 24.792238 20.995405 0.000000 40.000000 14.221811 0.000000
34.257294 21.472465 23.953410 0.000000 33.000000 14.167445 0.000000
34.352512 24.864678 21.519873 0.000000 73.000000 14.657941 24.000000
32.357132 24.376895 21.443836 0.000000 45.000000 14.272864 0.000000
32.518154 24.978709 20.935433 0.000000 48.000000 14.303269 0.000000
32.774822 23.474778 22.365933 0.000000 62.000000 14.345437 0.000000
35.891315 23.985101 21.905392 0.000000 36.000000 14.349490 26.000000
34.655338 22.535869 23.408773 0.000000 44.000000 14.482360 18.000000
35.230000 21.853899 23.831218 0.000000 41.000000 14.334429 0.000000
33.310158 22.426224 23.424305 0.000000 44.000000 14.419892 0.000000
33.576523 22.983984 22.912637 0.000000 61.000000 14.418179 14.000000
35.208611 25.558443 20.657552 0.000000 56.000000 14.489009 29.000000
34.595490 24.664394 21.205778 0.000000 36.000000 14.290946 0.000000
35.524422 22.836256 22.816505 0.000000 44.000000 14.247575 0.000000
34.739372 24.253035 21.651244 0.000000 42.000000 14.342497 0.000000
36.733486 21.921411 23.704053 0.000000 32.000000 14.286053 0.000000
33.974609 24.021962 21.860676 0.000000 46.000000 14.341327 0.000000
31.475067 24.192945 21.684521 0.000000 43.000000 14.326549 0.000000
35.520718 25.885805 19.914756 0.000000 38.000000 14.161260 0.000000
31.270573 24.172205 21.811335 0.000000 60.000000 14.406206 0.000000
35.622166 23.833833 21.990596 0.000000 57.000000 14.310402 0.000000
34.090542 25.905270 20.721250 0.000000 80.000000 14.769923 30.000000
32.712975 23.656557 22.244580 0.000000 55.000000 14.378407 0.000000
32.217735 22.131628 23.506386 0.000000 53.000000 14.281847 0.000000
31.190933 24.721110 21.086259 0.000000 35.000000 14.240936 0.000000
36.036652 21.481688 24.132598 0.000000 32.000000 14.305982 0.000000
33.661091 21.799102 24.036174 0.000000 38.000000 14.448823 4.000000
36.764198 24.647366 21.292887 0.000000 37.000000 14.343787 0.000000
34.479580 23.565910 22.389206 0.000000 52.000000 14.424076 16.000000
36.973713 24.652427 21.282403 0.000000 51.000000 14.339459 0.000000
34.304829 24.064460 21.848213 0.000000 42.000000 14.360782 0.000000
34.167088 24.082580 21.875599 0.000000 49.000000 14.393223 0.000000
36.414299 23.066484 22.625479 0.000000 46.000000 14.261767 0.000000
35.092300 23.939062 22.061116 0.000000 47.000000 14.433435 26.000000
36.462162 21.977487 23.640217 0.000000 33.000000 14.276729 0.000000
36.293324 23.721804 21.907020 0.000000 65.000000 14.173142 0.000000
31.980782 22.499343 23.013242 0.000000 23.000000 14.165659 0.000000
35.677563 23.665078 22.104351 0.000000 54.000000 14.280604 0.000000
32.930000 24.505987 21.368766 0.000000 53.000000 14.304482 0.000000
34.537434 25.978151 20.689185 0.000000 49.000000 14.795391 30.000000
35.839111 24.601580 21.259150 0.000000 34.000000 14.288000 0.000000
30.963825 22.170658 23.493746 0.000000 45.000000 14.298832 0.000000
34.358341 24.768683 20.917651 0.000000 38.000000 14.148511 0.000000
34.129963 21.993120 24.058278 0.000000 62.000000 14.595978 4.000000
37.107330 23.232691 22.515558 0.000000 36.000000 14.292677 0.000000
33.931675 24.736329 20.884021 0.000000 39.000000 14.101860 0.000000
34.617218 22.501122 22.978665 0.000000 25.000000 14.141326 0.000000
34.374466 26.042332 20.756030 0.000000 51.000000 14.888031 30.000000
32.237812 24.245276 21.750255 0.000000 48.000000 14.410377 8.000000
36.393246 23.466792 22.255631 0.000000 41.000000 14.258602 0.000000
31.131828 24.400840 21.525595 0.000000 48.000000 14.349384 0.000000
35.051544 21.368908 24.056820 0.000000 25.000000 14.173974 0.000000
36.240143 25.330183 20.529187 0.000000 36.000000 14.240298 0.000000
32.340210 25.915116 20.641422 0.000000 58.000000 14.717615 28.000000
35.024960 25.758096 20.363898 0.000000 26.000000 14.406800 30.000000
31.505562 24.440400 21.502610 0.000000 46.000000 14.359088 0.000000
31.703564 23.333209 22.563370 0.000000 45.000000 14.395766 0.000000
33.181087 22.393725 23.431489 0.000000 51.000000 14.403282 0.000000
32.192131 21.994626 23.729187 0.000000 48.000000 14.353984 0.000000
36.839699 25.622640 20.364621 0.000000 34.000000 14.315991 0.000000
32.738895 23.521657 22.398988 0.000000 57.000000 14.401458 0.000000
33.847454 24.711116 21.381089 0.000000 64.000000 14.451907 25.000000
35.521931 23.180795 22.542985 0.000000 36.000000 14.277935 0.000000
32.315315 25.436421 21.050527 0.000000 44.000000 14.696909 21.000000
33.817841 24.205613 21.710953 0.000000 49.000000 14.354610 0.000000
33.963753 24.177578 21.752412 0.000000 53.000000 14.366319 0.000000
35.839237 24.085052 21.678737 0.000000 63.000000 14.249522 0.000000
34.382984 24.064266 21.861359 0.000000 47.000000 14.370358 0.000000
35.509972 25.065758 21.080402 0.000000 55.000000 14.469019 23.000000
31.981895 23.658925 22.137184 0.000000 41.000000 14.300700 0.000000
35.648617 24.932791 21.039448 0.000000 55.000000 14.349113 23.000000
34.716431 24.227725 21.723670 0.000000 63.000000 14.378911 26.000000
31.732418 24.802794 21.160101 0.000000 44.000000 14.350545 0.000000
36.510204 24.031522 21.835355 0.000000 52.000000 14.329076 0.000000
31.730579 22.998963 22.831282 0.000000 51.000000 14.368205 0.000000
35.055218 24.298757 22.138618 0.000000 71.000000 14.733219 26.000000
32.127033 21.607706 23.901778 0.000000 53.000000 14.220517 0.000000
34.222534 24.052222 21.873933 0.000000 47.000000 14.371522 0.000000
34.471565 23.990004 21.929489 0.000000 39.000000 14.370590 0.000000
34.322144 23.978064 21.937144 0.000000 37.000000 14.368191 0.000000
36.109978 22.641700 23.349669 0.000000 48.000000 14.510082 3.000000
31.603775 25.899525 20.487320 0.000000 68.000000 14.593308 28.000000
34.734264 24.218759 21.990313 0.000000 35.000000 14.569761 26.000000
32.953762 23.228522 22.521298 0.000000 37.000000 14.294104 0.000000
33.688656 22.521357 23.268362 0.000000 44.000000 14.368891 0.000000
32.847691 25.278704 20.634041 0.000000 34.000000 14.283010 0.000000
34.796902 22.012259 23.882250 0.000000 60.000000 14.478900 4.000000
32.244007 24.203056 21.790135 0.000000 49.000000 14.411355 8.000000
32.024315 24.325429 21.573978 0.000000 44.000000 14.334259 0.000000
35.411388 22.418196 23.221710 0.000000 38.000000 14.264877 0.000000
32.955723 25.368519 20.703347 0.000000 51.000000 14.394753 21.000000
31.097698 21.947248 23.745966 0.000000 42.000000 14.334425 0.000000
32.310650 25.384952 20.970243 0.000000 54.000000 14.602917 21.000000
33.799767 25.502401 21.222385 0.000000 72.000000 14.868306 10.000000
33.319199 24.638405 21.288250 0.000000 47.000000 14.334321 0.000000
36.035934 23.045253 22.701905 0.000000 47.000000 14.303885 0.000000
32.274105 25.978811 20.488143 0.000000 72.000000 14.647381 28.000000
32.565907 23.579995 22.344661 0.000000 56.000000 14.400681 7.000000
32.241917 23.760212 22.371725 0.000000 67.000000 14.542192 7.000000
31.058445 24.254091 21.663400 0.000000 56.000000 14.352185 0.000000
33.108566 24.548916 21.336714 0.000000 51.000000 14.309762 0.000000
34.200485 25.938288 20.157806 0.000000 59.000000 14.376126 30.000000
34.493317 24.106644 21.850523 0.000000 53.000000 14.390934 26.000000
35.065559 24.699106 21.259964 0.000000 42.000000 14.354366 0.000000
34.326210 26.086765 20.549738 0.000000 50.000000 14.765662 30.000000
33.508286 24.608855 21.379477 0.000000 48.000000 14.381759 0.000000
31.749317 24.460693 21.388754 0.000000 54.000000 14.288698 0.000000
36.385071 24.991410 20.965600 0.000000 40.000000 14.334111 0.000000
36.902985 24.375879 21.439777 0.000000 54.000000 14.269182 0.000000
31.029671 23.648963 22.499043 0.000000 43.000000 14.561188 2.000000
31.588428 23.009510 22.819817 0.000000 60.000000 14.366851 0.000000
31.088989 24.225226 21.651914 0.000000 61.000000 14.324239 0.000000
31.145496 24.856000 21.054207 0.000000 29.000000 14.308228 0.000000
32.177750 23.148354 22.588320 0.000000 30.000000 14.289535 0.000000
32.388538 24.825993 21.275255 0.000000 62.000000 14.451222 9.000000
35.540581 22.481462 23.143705 0.000000 24.000000 14.249938 0.000000
33.840065 23.237434 22.582957 0.000000 48.000000 14.345644 0.000000
33.131481 26.016494 20.697631 0.000000 52.000000 14.827484 27.000000
31.481808 21.951753 23.789309 0.000000 56.000000 14.369469 0.000000
31.438358 23.616583 22.064774 0.000000 55.000000 14.218678 0.000000
36.384548 25.323829 20.646819 0.000000 34.000000 14.322876 0.000000
31.156788 24.287747 21.649843 0.000000 57.000000 14.364870 0.000000
31.631306 24.205911 21.741634 0.000000 53.000000 14.377466 0.000000
36.163864 24.069146 21.799472 0.000000 48.000000 14.327950 0.000000
32.640793 23.928761 21.947390 0.000000 48.000000 14.342510 0.000000
35.253868 23.558929 22.292317 0.000000 42.000000 14.347823 0.000000
33.415627 22.491748 23.099090 0.000000 27.000000 14.223930 0.000000
33.813763 24.680251 21.147967 0.000000 33.000000 14.258950 0.000000
35.121990 22.992789 22.890634 0.000000 44.000000 14.407869 0.000000
36.537460 23.597766 22.165292 0.000000 42.000000 14.280214 0.000000
34.879211 24.453089 21.428190 0.000000 39.000000 14.312691 0.000000
32.046780 24.740161 21.052372 0.000000 41.000000 14.228759 0.000000
35.659992 24.175477 21.967374 0.000000 39.000000 14.523636 26.000000
32.428104 25.538635 20.534616 0.000000 26.000000 14.384873 28.000000
36.838367 25.879940 19.920840 0.000000 30.000000 14.161798 0.000000
31.612003 21.973138 23.725001 0.000000 66.000000 14.336403 0.000000
34.577900 21.443983 24.026619 0.000000 31.000000 14.202298 0.000000
31.349899 24.607284 21.310087 0.000000 48.000000 14.329459 0.000000
32.024693 23.061697 22.972755 0.000000 59.000000 14.514976 11.000000
31.072422 24.708313 21.270210 0.000000 56.000000 14.368141 6.000000
33.876755 24.228454 21.732819 0.000000 57.000000 14.386158 0.000000
34.006340 24.183950 21.760159 0.000000 57.000000 14.376336 0.000000
31.112797 23.646750 22.575695 0.000000 61.000000 14.616298 2.000000
36.285122 23.212078 22.619793 0.000000 48.000000 14.355747 0.000000
35.136879 24.397512 21.803631 0.000000 68.000000 14.552449 26.000000
31.092106 24.165521 21.832865 0.000000 53.000000 14.417597 0.000000
33.641369 24.644757 21.180065 0.000000 20.000000 14.258717 0.000000
35.587894 21.940724 23.757394 0.000000 38.000000 14.338465 20.000000
33.136616 25.359586 20.559202 0.000000 41.000000 14.282289 0.000000
36.600636 24.526793 21.313912 0.000000 45.000000 14.278006 0.000000
33.145889 24.254621 21.585486 0.000000 36.000000 14.295009 0.000000
32.688183 25.440849 20.835951 0.000000 68.000000 14.541446 21.000000
33.620270 22.033742 23.631218 0.000000 38.000000 14.308018 0.000000
33.663734 22.538243 23.293709 0.000000 47.000000 14.398995 0.000000
32.497299 23.596087 22.304912 0.000000 63.000000 14.382180 7.000000
31.654736 24.752885 21.189876 0.000000 26.000000 14.338876 0.000000
36.506905 21.502384 23.917052 0.000000 35.000000 14.160773 0.000000
33.313515 25.782716 20.740191 0.000000 48.000000 14.701267 27.000000
35.579639 23.406325 22.319113 0.000000 37.000000 14.264704 0.000000
36.414936 24.389871 21.430378 0.000000 50.000000 14.271677 0.000000
31.025833 24.217194 21.742091 0.000000 58.000000 14.385412 0.000000
32.504787 24.295909 22.001236 0.000000 69.000000 14.629852 8.000000
36.868862 22.446449 23.175636 0.000000 47.000000 14.249907 0.000000
33.921124 25.891237 19.952473 0.000000 27.000000 14.192774 0.000000
31.904770 24.826832 21.469885 0.000000 43.000000 14.595508 9.000000
35.843197 24.803145 20.827507 0.000000 36.000000 14.105185 0.000000
31.684402 22.770172 23.006525 0.000000 44.000000 14.343328 0.000000
34.775909 24.310622 22.176304 0.000000 59.000000 14.769048 26.000000
32.820988 25.213081 21.078404 0.000000 29.000000 14.566888 21.000000
31.447853 21.860327 23.831864 0.000000 51.000000 14.339241 0.000000
33.646648 24.340530 21.473084 0.000000 50.000000 14.269940 0.000000
33.556755 25.862475 20.743937 0.000000 38.000000 14.757817 27.000000
31.782185 25.558744 20.437691 0.000000 52.000000 14.326861 0.000000
35.946087 22.620031 23.441483 0.000000 56.000000 14.563267 3.000000
33.689091 23.088451 22.710603 0.000000 55.000000 14.339437 0.000000
35.763966 25.346569 20.610494 0.000000 40.000000 14.311387 0.000000
32.456860 23.536755 22.477941 0.000000 54.000000 14.469940 7.000000
31.328220 21.825400 23.892271 0.000000 41.000000 14.360295 0.000000
35.367580 21.441489 23.920488 0.000000 32.000000 14.122247 0.000000
36.619175 23.093518 22.619945 0.000000 33.000000 14.275910 0.000000
35.359623 24.266677 21.954905 0.000000 65.000000 14.575928 26.000000
36.791847 23.930476 21.952925 0.000000 38.000000 14.347754 0.000000
32.287380 23.849157 22.633519 0.000000 46.000000 14.795486 7.000000
31.285713 21.997187 23.627631 0.000000 34.000000 14.280719 0.000000
33.536739 23.109800 22.685143 0.000000 49.000000 14.335033 0.000000
35.323658 25.737578 20.661834 0.000000 52.000000 14.612968 29.000000
31.453545 25.873215 20.042811 0.000000 52.000000 14.247329 0.000000
31.969830 25.714505 20.538491 0.000000 65.000000 14.506329 28.000000
31.750393 23.959688 21.929282 0.000000 50.000000 14.349994 0.000000
32.008778 24.261062 21.844088 0.000000 71.000000 14.490311 8.000000
35.360806 24.261764 22.033767 0.000000 36.000000 14.630849 26.000000
31.162418 25.254233 21.086565 0.000000 65.000000 14.600665 1.000000
36.383064 21.524284 24.218873 0.000000 49.000000 14.398414 0.000000
31.192791 24.393565 21.502402 0.000000 34.000000 14.327352 0.000000
34.528179 22.081213 23.905195 0.000000 61.000000 14.542341 4.000000
36.355762 22.462468 23.030543 0.000000 25.000000 14.153568 0.000000
32.650345 24.707935 21.000395 0.000000 39.000000 14.168647 0.000000
33.893734 25.497218 20.976763 0.000000 67.000000 14.683437 10.000000
36.625484 21.687307 23.815710 0.000000 29.000000 14.210639 0.000000
32.694611 23.675312 22.229664 0.000000 52.000000 14.380040 0.000000
36.193310 25.366678 20.542224 0.000000 41.000000 14.274534 0.000000
31.395084 23.638163 22.279598 0.000000 49.000000 14.391861 0.000000
31.340107 21.893360 23.836913 0.000000 40.000000 14.365245 0.000000
33.370476 21.990317 23.643053 0.000000 44.000000 14.287474 0.000000
36.417252 22.463728 23.084446 0.000000 36.000000 14.194221 0.000000
37.044724 25.106694 21.130524 0.000000 63.000000 14.533634 22.000000
34.803490 24.593643 21.294532 0.000000 50.000000 14.308775 0.000000
31.707394 24.738358 21.364265 0.000000 58.000000 14.457854 9.000000
34.005070 23.978690 21.966395 0.000000 40.000000 14.390213 0.000000
36.090462 21.482456 23.855773 0.000000 26.000000 14.102085 0.000000
35.100887 23.607685 22.357452 0.000000 40.000000 14.428799 0.000000
34.581043 24.338686 21.484911 0.000000 47.000000 14.277430 0.000000
36.179623 25.876598 19.895125 0.000000 34.000000 14.140556 0.000000
35.308224 24.694360 21.275187 0.000000 50.000000 14.362407 0.000000
32.703796 22.473321 23.373662 0.000000 49.000000 14.414255 12.000000
33.816341 25.585321 20.357835 0.000000 24.000000 14.285815 0.000000
34.704876 24.301866 21.610874 0.000000 41.000000 14.345615 0.000000
33.036812 24.707985 21.133779 0.000000 50.000000 14.267175 0.000000
34.370113 24.046382 21.796444 0.000000 38.000000 14.310364 0.000000
33.858063 24.205924 21.736289 0.000000 48.000000 14.373528 0.000000
35.832310 25.962124 20.842233 0.000000 75.000000 14.897598 29.000000
35.968548 24.464695 21.355550 0.000000 53.000000 14.266878 0.000000
36.092693 25.249242 21.061165 0.000000 67.000000 14.578543 23.000000
33.272377 23.435095 22.339769 0.000000 35.000000 14.299357 0.000000
36.044315 23.341997 22.403604 0.000000 43.000000 14.283716 0.000000
31.273205 24.607705 21.365897 0.000000 53.000000 14.370955 6.000000
33.047951 23.018471 22.725547 0.000000 51.000000 14.303283 0.000000
31.274330 25.898127 19.931844 0.000000 44.000000 14.182187 0.000000
32.493645 24.711582 21.539733 0.000000 71.000000 14.569368 9.000000
35.545979 24.038537 21.820708 0.000000 31.000000 14.322990 0.000000
36.174988 25.892917 20.507352 0.000000 62.000000 14.603644 29.000000
31.236942 23.246931 22.535013 0.000000 46.000000 14.316646 0.000000
35.759754 22.484699 23.179186 0.000000 38.000000 14.278321 0.000000
34.173275 22.659818 22.945946 0.000000 19.000000 14.224179 0.000000
33.532116 25.450431 20.482415 0.000000 34.000000 14.286847 0.000000
32.580795 24.814096 20.887108 0.000000 41.000000 14.156581 0.000000
36.525433 23.410272 22.378836 0.000000 47.000000 14.311467 0.000000
34.604355 24.669028 21.198668 0.000000 59.000000 14.288821 0.000000
36.835861 24.247409 21.738014 0.000000 41.000000 14.402776 0.000000
31.651798 22.149703 23.510791 0.000000 37.000000 14.297288 0.000000
36.980289 24.608730 21.045221 0.000000 21.000000 14.134851 0.000000
33.539001 22.976828 22.837504 0.000000 43.000000 14.357874 14.000000
36.935337 25.211379 20.980154 0.000000 74.000000 14.493190 22.000000
35.414486 24.365941 21.484580 0.000000 43.000000 14.295564 0.000000
33.567150 24.968856 21.061547 0.000000 40.000000 14.389751 0.000000
35.765083 25.385943 20.465137 0.000000 32.000000 14.230602 0.000000
35.995331 25.973577 20.596638 0.000000 55.000000 14.723968 29.000000
31.224209 23.282672 22.549340 0.000000 52.000000 14.351327 0.000000
32.549988 22.012069 23.764889 0.000000 50.000000 14.392110 5.000000
36.843147 24.268112 21.691737 0.000000 45.000000 14.382565 0.000000
36.794090 24.964153 20.973012 0.000000 50.000000 14.321203 0.000000
34.821335 24.233721 21.638904 0.000000 52.000000 14.320361 0.000000
35.963123 23.977575 22.011499 0.000000 51.000000 14.422767 0.000000
35.227921 23.580415 22.280834 0.000000 38.000000 14.353833 0.000000
36.931236 22.301896 23.353262 0.000000 39.000000 14.283594 0.000000
36.618599 22.519150 22.919724 0.000000 26.000000 14.109959 0.000000
33.509342 23.455373 22.348107 0.000000 39.000000 14.319189 0.000000
31.360386 23.599770 22.273278 0.000000 43.000000 14.361305 0.000000
33.737041 24.453860 21.420387 0.000000 48.000000 14.307449 0.000000
35.127678 22.611040 22.845742 0.000000 22.000000 14.117293 0.000000
35.065815 21.955900 23.749852 0.000000 38.000000 14.343129 0.000000
35.047462 21.994228 23.749475 0.000000 48.000000 14.368697 0.000000
32.969002 21.981437 23.768359 0.000000 62.000000 14.374016 0.000000
32.525650 22.015749 23.725862 0.000000 54.000000 14.365773 0.000000
32.468067 24.031081 22.003674 0.000000 38.000000 14.453070 8.000000
32.231628 22.052860 23.692577 0.000000 46.000000 14.366219 0.000000
32.613552 26.063157 20.246573 0.000000 55.000000 14.525877 28.000000
33.722782 24.871737 20.981904 0.000000 24.000000 14.265450 0.000000
36.422447 25.694389 20.558965 0.000000 56.000000 14.507883 29.000000
31.217724 24.281571 21.628075 0.000000 54.000000 14.344631 0.000000
35.242748 22.128239 23.548326 0.000000 35.000000 14.310531 0.000000
37.159859 22.900802 22.782706 0.000000 29.000000 14.266142 0.000000
33.695248 24.170717 21.780144 0.000000 47.000000 14.382171 0.000000
34.406399 21.973982 24.125013 0.000000 47.000000 14.632352 4.000000
32.612850 24.372718 21.477676 0.000000 35.000000 14.295036 0.000000
34.350586 23.974377 21.928922 0.000000 36.000000 14.359633 0.000000
33.309971 25.254648 21.025790 0.000000 73.000000 14.556067 21.000000
36.085781 22.905154 22.739530 0.000000 40.000000 14.237195 0.000000
32.608234 24.665251 21.170354 0.000000 47.000000 14.265366 0.000000
36.481636 23.078205 22.636677 0.000000 46.000000 14.277939 0.000000
36.914337 25.007496 21.060420 0.000000 52.000000 14.414975 22.000000
35.376709 22.908970 22.878212 0.000000 39.000000 14.342175 0.000000
30.982285 24.751744 21.232965 0.000000 44.000000 14.369925 0.000000
31.342724 23.567754 22.293953 0.000000 44.000000 14.354982 0.000000
37.155571 23.532621 22.250008 0.000000 39.000000 14.298841 0.000000
33.069298 25.427570 20.997541 0.000000 57.000000 14.651814 21.000000
33.954979 22.986477 22.693194 0.000000 47.000000 14.257818 0.000000
31.616405 21.379871 24.044411 0.000000 50.000000 14.172204 0.000000
32.078602 21.913642 23.915067 0.000000 59.000000 14.436632 5.000000
32.726040 21.957992 24.071009 0.000000 35.000000 14.581691 5.000000
33.847584 23.620649 22.347269 0.000000 53.000000 14.430021 16.000000
33.630642 24.726754 20.988499 0.000000 42.000000 14.172553 0.000000
31.194942 24.745972 21.484001 0.000000 73.000000 14.551404 6.000000
31.350269 22.169675 23.505095 0.000000 39.000000 14.306550 0.000000
33.828579 22.143333 23.507085 0.000000 39.000000 14.290256 0.000000
31.454224 23.764369 21.941189 0.000000 38.000000 14.227076 0.000000
33.377110 22.444473 23.328218 0.000000 38.000000 14.361245 18.000000
33.863731 23.714214 22.490807 0.000000 68.000000 14.599107 16.000000
31.513187 21.965815 23.787698 0.000000 60.000000 14.377762 0.000000
31.600891 21.875556 23.860630 0.000000 52.000000 14.370752 0.000000
31.349358 24.605940 21.281856 0.000000 53.000000 14.307707 0.000000
35.749229 26.015882 20.847889 0.000000 72.000000 14.938025 29.000000
33.530437 24.479927 21.404120 0.000000 36.000000 14.313015 0.000000
31.571613 22.411326 23.312657 0.000000 25.000000 14.327402 0.000000
34.297421 24.321984 21.525332 0.000000 41.000000 14.296015 0.000000
34.043751 25.012189 21.087751 0.000000 63.000000 14.438322 10.000000
34.510574 26.004156 20.633356 0.000000 68.000000 14.771702 30.000000
31.063141 25.251774 20.887993 0.000000 53.000000 14.452376 1.000000
34.194614 24.209267 21.725031 0.000000 49.000000 14.367469 0.000000
32.590340 24.321658 21.515664 0.000000 39.000000 14.288656 0.000000
31.178169 22.457515 23.428982 0.000000 33.000000 14.444446 13.000000
37.049370 25.417943 21.256199 0.000000 64.000000 14.836322 22.000000
32.700836 23.588974 22.372900 0.000000 62.000000 14.427588 7.000000
31.656857 24.419979 21.460188 0.000000 50.000000 14.313992 0.000000
32.828041 21.961225 23.988096 0.000000 67.000000 14.522646 5.000000
36.217121 24.607170 21.242458 0.000000 36.000000 14.279444 0.000000
31.889767 25.742120 20.615317 0.000000 68.000000 14.581681 28.000000
35.138515 22.169655 23.519220 0.000000 36.000000 14.316967 0.000000
35.247757 22.280789 23.447788 0.000000 38.000000 14.339161 0.000000
34.070839 26.306899 20.381696 0.000000 75.000000 14.790019 30.000000
33.265728 24.616239 21.322082 0.000000 39.000000 14.344356 0.000000
31.630867 24.386279 21.562030 0.000000 51.000000 14.366470 0.000000
32.275570 22.029127 23.719852 0.000000 48.000000 14.370356 0.000000
35.931740 21.768934 23.765026 0.000000 30.000000 14.228257 0.000000
32.013985 25.468775 21.004421 0.000000 59.000000 14.684680 21.000000
32.012444 23.672220 22.607583 0.000000 61.000000 14.657020 7.000000
32.191635 24.223256 21.795287 0.000000 63.000000 14.428781 8.000000
32.198513 24.801116 21.386110 0.000000 63.000000 14.516305 9.000000
34.372478 23.484359 22.448877 0.000000 70.000000 14.413146 16.000000
34.176414 23.358581 22.465784 0.000000 40.000000 14.340815 0.000000
33.819740 22.464142 23.033742 0.000000 21.000000 14.157060 0.000000
31.488209 25.784391 20.118528 0.000000 26.000000 14.243344 0.000000
33.505299 21.708084 23.981278 0.000000 39.000000 14.346910 0.000000
36.934792 22.428986 23.190284 0.000000 36.000000 14.248947 0.000000
32.489017 24.682195 21.197803 0.000000 46.000000 14.297061 0.000000
36.109657 21.385097 24.030395 0.000000 28.000000 14.165378 0.000000
35.049732 24.493174 21.372257 0.000000 53.000000 14.298419 0.000000
36.379860 25.965862 20.527985 0.000000 65.000000 14.668070 29.000000
33.935783 24.953358 21.063695 0.000000 48.000000 14.380887 0.000000
33.527294 22.751733 22.899686 0.000000 30.000000 14.252001 0.000000
35.629471 23.794312 21.956448 0.000000 32.000000 14.258535 0.000000
35.152420 24.602565 21.350272 0.000000 47.000000 14.355951 0.000000
33.878201 25.866724 20.533447 0.000000 48.000000 14.605251 30.000000
31.075714 25.427427 21.059338 0.000000 50.000000 14.697350 1.000000
31.492649 24.291936 21.630075 0.000000 53.000000 14.353098 0.000000
36.685093 23.880114 21.944655 0.000000 34.000000 14.307686 0.000000
33.975521 24.931729 21.036300 0.000000 57.000000 14.346072 10.000000
35.450932 26.001362 20.374692 0.000000 79.000000 14.578813 29.000000
32.210007 22.070244 23.607249 0.000000 38.000000 14.314933 0.000000
34.471752 23.464466 22.355738 0.000000 59.000000 14.330956 0.000000
33.540783 23.245692 22.567261 0.000000 51.000000 14.339623 0.000000
33.202347 25.376313 20.957467 0.000000 76.000000 14.587658 21.000000
33.290993 25.300478 20.625559 0.000000 44.000000 14.291430 0.000000
37.050327 24.413306 21.405094 0.000000 45.000000 14.268810 0.000000
32.450085 26.038652 20.512785 0.000000 60.000000 14.705930 28.000000
36.013668 25.869204 20.575079 0.000000 64.000000 14.637665 29.000000
33.935444 24.279607 21.662369 0.000000 49.000000 14.368631 0.000000
37.061123 24.442538 21.396985 0.000000 48.000000 14.282534 0.000000
34.502544 26.062977 20.619299 0.000000 53.000000 14.800986 30.000000
34.503777 24.518847 21.493572 0.000000 41.000000 14.405314 24.000000
36.236877 22.333410 23.489372 0.000000 54.000000 14.405352 3.000000
34.873528 24.969707 20.852067 0.000000 38.000000 14.235640 0.000000
35.886219 24.197490 21.972615 0.000000 48.000000 14.542350 26.000000
34.391815 24.146958 21.714181 0.000000 45.000000 14.317440 0.000000
36.670887 25.639751 20.300449 0.000000 23.000000 14.280143 0.000000
35.243038 25.364782 20.573712 0.000000 23.000000 14.296507 0.000000
32.566170 24.745954 21.201900 0.000000 45.000000 14.343081 9.000000
35.582439 22.023024 23.586401 0.000000 28.000000 14.267696 0.000000
34.350258 24.746846 21.059457 0.000000 49.000000 14.238499 0.000000
34.092976 24.192547 21.744394 0.000000 48.000000 14.370492 0.000000
31.218861 24.727539 20.988812 0.000000 25.000000 14.173314 0.000000
34.893246 22.009594 23.644367 0.000000 31.000000 14.301444 0.000000
33.952026 21.924460 23.699818 0.000000 32.000000 14.284982 0.000000
31.614784 23.692987 22.051543 0.000000 65.000000 14.260429 0.000000
37.054150 25.434308 21.005482 0.000000 72.000000 14.662222 22.000000
31.621376 24.394204 21.549274 0.000000 47.000000 14.362395 0.000000
31.436176 24.309577 21.557844 0.000000 44.000000 14.311656 0.000000
31.149300 24.316053 21.599268 0.000000 46.000000 14.346612 0.000000
36.128689 25.359881 20.559249 0.000000 42.000000 14.282522 0.000000
31.216866 25.735825 20.186792 0.000000 33.000000 14.261002 0.000000
36.794434 24.210895 21.783634 0.000000 39.000000 14.411841 0.000000
35.833408 22.653372 22.962805 0.000000 34.000000 14.232282 0.000000
35.442165 24.716860 21.102725 0.000000 33.000000 14.250229 0.000000
33.959133 22.888768 22.905162 0.000000 32.000000 14.348452 14.000000
34.705982 25.297077 20.954084 0.000000 69.000000 14.531728 10.000000
35.232243 23.865802 21.961334 0.000000 44.000000 14.310351 0.000000
32.611164 22.203428 23.368514 0.000000 31.000000 14.228456 0.000000
31.111664 23.055358 22.741693 0.000000 47.000000 14.340080 0.000000
31.338539 23.109615 22.709761 0.000000 43.000000 14.353087 0.000000
36.187641 22.706913 22.868641 0.000000 56.000000 14.198853 0.000000
33.505680 24.759652 21.100289 0.000000 50.000000 14.277286 0.000000
36.954697 23.073076 22.747458 0.000000 40.000000 14.356285 0.000000
37.071480 26.194676 20.614890 0.000000 51.000000 14.886540 17.000000
32.498825 23.752598 22.580607 0.000000 56.000000 14.691302 7.000000
36.041809 25.138767 21.078612 0.000000 40.000000 14.516929 23.000000
35.179211 21.927438 23.786383 0.000000 36.000000 14.350912 0.000000
35.128979 24.133713 22.036887 0.000000 55.000000 14.546803 26.000000
33.696358 25.892734 20.638882 0.000000 52.000000 14.700646 30.000000
34.298374 24.750745 20.945300 0.000000 39.000000 14.156832 0.000000
32.946198 23.763941 21.976426 0.000000 50.000000 14.252807 0.000000
33.581856 23.727657 21.945390 0.000000 38.000000 14.205422 0.000000
33.780754 23.986556 21.871486 0.000000 48.000000 14.325434 0.000000
35.903446 22.703148 22.861615 0.000000 24.000000 14.191126 0.000000
34.076466 24.168066 21.770726 0.000000 50.000000 14.373428 0.000000
31.045773 23.225815 22.503362 0.000000 45.000000 14.279034 0.000000
31.626942 21.857926 23.840480 0.000000 42.000000 14.343984 5.000000
31.072193 25.551728 20.397827 0.000000 32.000000 14.292693 0.000000
35.152382 22.934625 22.944479 0.000000 38.000000 14.408408 0.000000
34.309986 25.481196 21.127756 0.000000 73.000000 14.784130 10.000000
37.179451 24.395112 21.414047 0.000000 39.000000 14.263152 0.000000
36.802307 25.208636 20.717651 0.000000 39.000000 14.297501 0.000000
35.778088 24.561120 21.287576 0.000000 51.000000 14.281707 0.000000
35.968021 24.516306 21.298902 0.000000 39.000000 14.259851 0.000000
36.860580 24.674715 21.321368 0.000000 26.000000 14.383261 0.000000
