-14.591107 -26.322346 -52.165255 0.000000 48.000000 14.416609 6.000000
-14.045509 -24.984819 -50.002427 0.000000 33.000000 13.972666 0.000000
-15.666265 -26.407959 -54.043690 0.000000 53.000000 14.260077 0.000000
-14.370114 -23.562992 -51.515279 0.000000 60.000000 14.334609 24.000000
-13.957206 -23.719277 -50.864569 0.000000 66.000000 14.425311 23.000000
-13.951216 -24.950078 -50.628139 0.000000 34.000000 14.328412 7.000000
-14.129896 -28.373215 -51.174936 0.000000 62.000000 14.403915 16.000000
-15.038528 -27.599000 -52.498024 0.000000 32.000000 14.157223 0.000000
-14.837483 -25.657903 -52.702708 0.000000 51.000000 14.427038 18.000000
-14.548464 -24.391664 -51.362566 0.000000 39.000000 14.107742 0.000000
-15.954448 -27.038154 -54.282033 0.000000 42.000000 14.103395 0.000000
-15.317956 -25.981443 -52.985112 0.000000 42.000000 14.116062 0.000000
-16.054442 -24.644932 -54.497752 0.000000 38.000000 14.106584 0.000000
-14.296411 -29.059686 -51.097278 0.000000 53.000000 14.220193 0.000000
-14.693123 -25.564324 -51.856535 0.000000 56.000000 14.191058 0.000000
-16.085458 -23.799615 -54.362834 0.000000 35.000000 14.020245 0.000000
-14.742412 -27.357933 -51.750860 0.000000 42.000000 14.100898 0.000000
-13.948139 -23.695999 -50.345806 0.000000 65.000000 14.209024 0.000000
-14.030435 -25.334040 -50.522130 0.000000 55.000000 14.211124 0.000000
-14.062653 -24.095095 -50.387717 0.000000 51.000000 14.123919 0.000000
-15.780373 -24.349205 -53.954085 0.000000 45.000000 14.118433 0.000000
-16.021373 -29.434693 -54.377250 0.000000 28.000000 14.084258 0.000000
-14.711947 -23.624421 -51.939066 0.000000 36.000000 14.209798 0.000000
-14.945052 -25.517004 -53.051598 0.000000 55.000000 14.481019 18.000000
-15.069303 -26.721126 -52.338036 0.000000 31.000000 14.060254 0.000000
-14.187516 -24.111079 -50.710444 0.000000 39.000000 14.150989 0.000000
-15.618788 -24.675483 -53.645217 0.000000 48.000000 14.130466 0.000000
-14.678902 -27.137504 -51.807515 0.000000 41.000000 14.182669 0.000000
-16.036767 -23.657390 -54.114182 0.000000 28.000000 13.956554 0.000000
-14.935666 -29.099453 -52.380560 0.000000 53.000000 14.199133 0.000000
-14.672607 -24.862338 -52.722523 0.000000 66.000000 14.584255 8.000000
-13.974576 -24.477193 -50.241815 0.000000 44.000000 14.140195 0.000000
-13.874727 -24.090160 -50.166428 0.000000 56.000000 14.197594 0.000000
-14.550280 -25.706767 -51.761373 0.000000 51.000000 14.278662 19.000000
-15.628585 -26.250753 -53.962636 0.000000 65.000000 14.258976 0.000000
-15.992474 -26.760907 -54.279218 0.000000 29.000000 14.067895 0.000000
-14.069260 -25.462584 -51.083403 0.000000 69.000000 14.418976 10.000000
-14.092330 -26.969316 -50.544537 0.000000 25.000000 14.165018 0.000000
-15.364978 -24.282044 -53.093959 0.000000 55.000000 14.120766 0.000000
-14.527597 -25.166668 -50.941658 0.000000 23.000000 13.944433 0.000000
-15.330961 -25.694644 -52.967649 0.000000 41.000000 14.096782 0.000000
-14.293839 -26.620458 -50.741705 0.000000 36.000000 14.068660 0.000000
-15.050886 -24.317408 -52.396399 0.000000 34.000000 14.102110 0.000000
-16.400875 -23.653747 -54.866744 0.000000 40.000000 13.953917 0.000000
-16.051023 -24.435553 -54.901230 0.000000 44.000000 14.284246 0.000000
-16.151335 -28.187656 -54.591577 0.000000 33.000000 14.059827 0.000000
-14.916965 -25.782568 -53.029213 0.000000 50.000000 14.496655 18.000000
-15.803293 -26.232931 -54.026086 0.000000 26.000000 14.128923 0.000000
-14.121939 -26.660136 -50.272564 0.000000 36.000000 14.020645 0.000000
-16.217537 -26.957841 -54.802324 0.000000 24.000000 14.091331 0.000000
-15.088606 -26.542468 -52.348262 0.000000 42.000000 14.047276 0.000000
-16.473608 -27.522297 -55.412082 0.000000 51.000000 14.124304 0.000000
-15.550094 -24.055214 -53.537767 0.000000 34.000000 14.145905 0.000000
-14.380313 -25.985342 -51.292999 0.000000 41.000000 14.229237 0.000000
-14.624809 -26.389506 -51.722388 0.000000 43.000000 14.194603 0.000000
-15.692711 -25.094437 -53.380572 0.000000 17.000000 13.949314 0.000000
-14.183691 -24.827432 -50.763215 0.000000 55.000000 14.177270 0.000000
-15.188726 -29.338604 -52.827403 0.000000 21.000000 14.164330 0.000000
-14.019701 -28.307082 -50.231456 0.000000 42.000000 14.095030 0.000000
-13.677869 -24.666146 -50.396935 0.000000 57.000000 14.474808 7.000000
-15.392656 -24.487531 -53.069564 0.000000 37.000000 14.085258 0.000000
-14.368112 -28.979313 -51.210783 0.000000 60.000000 14.204663 0.000000
-14.606403 -24.399559 -51.510764 0.000000 55.000000 14.119630 0.000000
-15.725008 -23.758479 -53.533367 0.000000 35.000000 13.986309 0.000000
-14.533102 -25.735807 -51.299504 0.000000 33.000000 14.094305 0.000000
-14.093875 -24.539737 -50.834341 0.000000 68.000000 14.289019 7.000000
-16.084353 -24.673384 -54.786536 0.000000 59.000000 14.204571 0.000000
-15.927954 -25.161654 -53.919238 0.000000 30.000000 13.970304 0.000000
-13.857895 -23.777166 -50.132964 0.000000 42.000000 14.198290 0.000000
-16.468741 -26.051489 -55.426791 0.000000 56.000000 14.135057 0.000000
-14.442538 -26.865713 -51.207882 0.000000 49.000000 14.136309 0.000000
-14.964139 -29.103548 -52.486860 0.000000 52.000000 14.219458 0.000000
-15.802247 -27.198813 -54.203887 0.000000 41.000000 14.206798 0.000000
-15.974687 -28.525033 -54.337092 0.000000 35.000000 14.108972 0.000000
-13.913541 -24.841327 -51.010627 0.000000 57.000000 14.527875 7.000000
-14.449223 -23.919705 -52.327201 0.000000 65.000000 14.614595 24.000000
-15.321150 -25.195027 -52.608035 0.000000 34.000000 13.950027 0.000000
-14.592408 -25.275901 -51.300703 0.000000 23.000000 14.041357 0.000000
-13.916277 -26.367155 -50.255070 0.000000 48.000000 14.198489 0.000000
-14.566925 -26.809637 -51.561733 0.000000 64.000000 14.177275 0.000000
-15.316440 -28.693986 -52.916912 0.000000 34.000000 14.087920 0.000000
-13.802278 -24.802056 -51.170367 0.000000 70.000000 14.697300 7.000000
-14.713470 -24.847597 -52.759569 0.000000 63.000000 14.563444 8.000000
-14.390978 -23.669433 -50.881481 0.000000 52.000000 14.041564 0.000000
-13.918950 -24.665678 -50.220157 0.000000 55.000000 14.180973 0.000000
-14.069844 -25.266949 -50.746718 0.000000 49.000000 14.272771 10.000000
-14.048050 -24.199967 -50.335623 0.000000 54.000000 14.114544 0.000000
-14.273178 -26.200710 -50.893326 0.000000 45.000000 14.152891 0.000000
-15.514803 -24.304858 -53.378336 0.000000 47.000000 14.108738 0.000000
-14.039734 -23.831670 -50.752258 0.000000 53.000000 14.302313 23.000000
-14.360998 -27.187193 -50.919091 0.000000 44.000000 14.084865 0.000000
-13.733507 -24.680620 -50.456128 0.000000 60.000000 14.450260 7.000000
-16.402527 -23.369757 -54.973393 0.000000 37.000000 13.998573 0.000000
-15.754387 -24.041617 -53.958958 0.000000 47.000000 14.143969 0.000000
-15.151245 -23.355065 -52.868470 0.000000 62.000000 14.215890 0.000000
-14.999440 -26.121675 -52.478685 0.000000 63.000000 14.184095 0.000000
-14.239606 -25.881325 -50.746949 0.000000 43.000000 14.119823 0.000000
-15.737932 -29.133767 -53.776710 0.000000 35.000000 14.079948 0.000000
-16.381358 -27.312392 -55.148420 0.000000 42.000000 14.093390 0.000000
-14.422883 -25.187223 -50.791487 0.000000 32.000000 13.973861 0.000000
-13.818411 -24.488250 -50.391083 0.000000 77.000000 14.345571 7.000000
-15.017605 -24.884539 -52.919059 0.000000 67.000000 14.358262 8.000000
-15.744867 -25.454860 -53.867416 0.000000 50.000000 14.112943 0.000000
-14.596823 -26.337346 -51.810426 0.000000 56.000000 14.257927 6.000000
-14.747102 -27.529430 -51.845006 0.000000 34.000000 14.137406 0.000000
-15.260770 -26.859646 -52.770612 0.000000 37.000000 14.074807 0.000000
-14.544046 -25.915648 -51.869784 0.000000 56.000000 14.331191 0.000000
-15.879286 -25.977497 -54.315076 0.000000 63.000000 14.185454 0.000000
-14.006161 -23.925064 -50.468770 0.000000 56.000000 14.209920 0.000000
-15.691283 -25.578464 -53.827388 0.000000 44.000000 14.143932 0.000000
-14.293404 -26.707857 -50.701641 0.000000 46.000000 14.051717 0.000000
-16.304728 -26.278315 -55.081193 0.000000 29.000000 14.133387 0.000000
-15.890169 -29.002415 -54.357845 0.000000 46.000000 14.194148 0.000000
-16.253270 -23.436299 -54.670896 0.000000 34.000000 14.002249 0.000000
-14.560498 -26.835884 -51.649714 0.000000 55.000000 14.221137 0.000000
-13.805863 -27.591622 -50.325427 0.000000 55.000000 14.328475 0.000000
-14.243561 -24.428791 -51.090375 0.000000 50.000000 14.264852 7.000000
-15.989975 -23.341232 -54.523590 0.000000 59.000000 14.175884 0.000000
-14.046837 -25.157679 -50.184150 0.000000 34.000000 14.050097 0.000000
-15.206416 -24.625602 -53.079671 0.000000 50.000000 14.257535 8.000000
-13.840230 -23.797934 -50.555989 0.000000 55.000000 14.397252 23.000000
-14.012285 -23.948929 -50.472991 0.000000 62.000000 14.206225 0.000000
-14.818582 -28.577048 -51.916787 0.000000 29.000000 14.104022 0.000000
-14.138812 -27.190918 -50.528111 0.000000 42.000000 14.116005 0.000000
-14.610940 -28.468791 -51.566064 0.000000 46.000000 14.139467 0.000000
-14.152713 -27.900309 -50.240227 0.000000 39.000000 13.978909 0.000000
-14.650022 -28.389413 -51.753819 0.000000 47.000000 14.185472 0.000000
-14.365159 -25.781791 -51.013965 0.000000 54.000000 14.122165 0.000000
-15.023976 -26.367350 -52.552475 0.000000 58.000000 14.193903 0.000000
-14.757467 -24.644668 -52.545548 0.000000 66.000000 14.431175 8.000000
-14.140057 -24.434004 -50.806202 0.000000 52.000000 14.235208 7.000000
-14.796239 -25.746478 -52.105487 0.000000 46.000000 14.205812 0.000000
-14.214115 -27.444204 -50.713764 0.000000 37.000000 14.128445 0.000000
-15.758458 -26.151497 -53.951706 0.000000 36.000000 14.137161 0.000000
-14.093722 -25.961425 -50.449172 0.000000 33.000000 14.122500 0.000000
-15.696114 -26.063637 -54.013675 0.000000 37.000000 14.220180 0.000000
-16.086521 -28.360302 -55.007595 0.000000 61.000000 14.298265 11.000000
-13.839077 -24.121073 -50.372093 0.000000 73.000000 14.318723 25.000000
-15.942383 -26.177857 -54.461864 0.000000 55.000000 14.192082 0.000000
-15.901164 -26.674810 -54.009190 0.000000 41.000000 14.033378 0.000000
-15.502237 -26.570941 -53.095615 0.000000 24.000000 13.997738 0.000000
-15.007184 -26.246250 -52.553933 0.000000 61.000000 14.209672 0.000000
-14.894100 -28.308043 -52.042035 0.000000 28.000000 14.090132 0.000000
-13.988210 -24.237319 -50.298436 0.000000 54.000000 14.152402 0.000000
-15.422334 -24.693468 -53.064139 0.000000 36.000000 14.056155 0.000000
-14.125895 -24.266752 -50.541655 0.000000 50.000000 14.133510 0.000000
-14.284188 -25.249000 -51.059901 0.000000 49.000000 14.215040 0.000000
-14.926701 -27.108736 -52.110802 0.000000 38.000000 14.090495 0.000000
-14.903421 -26.489781 -52.349314 0.000000 40.000000 14.214684 0.000000
-14.414906 -26.863998 -51.862133 0.000000 52.000000 14.444306 4.000000
-15.898876 -25.638032 -54.188933 0.000000 45.000000 14.113212 0.000000
-14.129432 -29.280396 -50.533204 0.000000 35.000000 14.126665 0.000000
-14.001718 -23.802268 -50.431823 0.000000 54.000000 14.197939 0.000000
-14.266998 -26.033068 -50.905306 0.000000 46.000000 14.163646 0.000000
-16.470118 -27.016269 -55.339845 0.000000 35.000000 14.096195 0.000000
-13.922418 -25.654472 -50.748478 0.000000 67.000000 14.406443 10.000000
-15.764505 -24.278193 -53.847279 0.000000 44.000000 14.086525 0.000000
-14.051063 -26.756171 -50.299760 0.000000 33.000000 14.096310 0.000000
-14.526193 -26.817453 -51.531903 0.000000 67.000000 14.201089 0.000000
-14.588177 -29.022314 -51.435664 0.000000 25.000000 14.103567 0.000000
-13.906443 -25.322143 -50.233344 0.000000 52.000000 14.197955 0.000000
-13.987199 -23.606861 -50.389691 0.000000 56.000000 14.192798 0.000000
-13.860169 -23.789805 -50.118907 0.000000 42.000000 14.190157 0.000000
-16.033141 -29.234099 -54.663704 0.000000 54.000000 14.197593 0.000000
-14.992433 -26.682867 -52.226512 0.000000 34.000000 14.081301 0.000000
-15.022483 -28.753455 -52.388239 0.000000 35.000000 14.124186 0.000000
-13.951885 -29.259222 -50.134178 0.000000 33.000000 14.114079 0.000000
-13.921666 -24.643377 -50.961444 0.000000 63.000000 14.499269 7.000000
-14.556288 -23.814412 -52.270358 0.000000 64.000000 14.493476 24.000000
-15.552417 -25.664329 -53.413081 0.000000 47.000000 14.089861 0.000000
-14.128035 -25.856189 -50.577457 0.000000 40.000000 14.147072 0.000000
-15.562552 -25.915214 -53.717211 0.000000 62.000000 14.212316 0.000000
-14.623483 -24.653683 -52.599976 0.000000 72.000000 14.575518 8.000000
-16.364300 -28.976067 -55.555270 0.000000 46.000000 14.284806 0.000000
-14.220838 -25.339961 -51.323500 0.000000 34.000000 14.386208 10.000000
-14.076154 -28.988554 -50.563073 0.000000 56.000000 14.187621 0.000000
-14.407000 -26.931382 -51.811081 0.000000 40.000000 14.429344 4.000000
-14.814294 -25.275705 -52.129055 0.000000 47.000000 14.199733 0.000000
-14.788000 -24.612504 -52.053842 0.000000 65.000000 14.190894 0.000000
-14.469413 -25.606899 -52.116744 0.000000 48.000000 14.505332 19.000000
-14.697257 -25.319118 -51.384117 0.000000 35.000000 13.982923 0.000000
-15.907508 -23.878938 -54.373828 0.000000 71.000000 14.185432 0.000000
-13.782102 -29.036317 -50.273396 0.000000 54.000000 14.327383 27.000000
-14.169372 -25.843923 -50.612032 0.000000 39.000000 14.124765 0.000000
-14.418826 -24.708106 -52.336847 0.000000 54.000000 14.646173 8.000000
-13.990715 -26.901886 -50.261370 0.000000 25.000000 14.134106 0.000000
-13.879871 -24.485687 -50.184328 0.000000 69.000000 14.200702 0.000000
-15.798646 -26.115042 -54.143763 0.000000 65.000000 14.184030 0.000000
-15.021702 -26.204352 -52.559575 0.000000 59.000000 14.199025 0.000000
-13.720806 -23.977114 -50.234631 0.000000 64.000000 14.365871 25.000000
-14.118135 -28.912956 -50.644688 0.000000 49.000000 14.185087 0.000000
-13.980406 -23.824157 -50.857886 0.000000 53.000000 14.401504 23.000000
-15.819727 -27.409657 -54.014678 0.000000 46.000000 14.109171 0.000000
-13.889380 -25.327755 -50.147683 0.000000 48.000000 14.176273 0.000000
-15.036610 -24.220206 -52.433411 0.000000 38.000000 14.130995 0.000000
-15.163203 -28.938046 -52.606035 0.000000 42.000000 14.091558 0.000000
-14.369684 -24.048963 -51.847735 0.000000 72.000000 14.478846 24.000000
-14.461024 -27.011795 -51.217585 0.000000 48.000000 14.123842 0.000000
-14.575276 -26.804004 -51.642012 0.000000 58.000000 14.204482 0.000000
-15.772587 -25.886234 -54.525754 0.000000 51.000000 14.372805 1.000000
-16.096629 -29.360467 -54.352268 0.000000 31.000000 14.005602 0.000000
-14.404953 -23.685948 -51.305654 0.000000 55.000000 14.212498 0.000000
-14.154459 -24.442153 -50.706972 0.000000 57.000000 14.179289 0.000000
-14.757403 -25.209141 -51.479971 0.000000 26.000000 13.970173 0.000000
-15.153265 -24.926262 -52.649580 0.000000 44.000000 14.119358 0.000000
-14.435087 -28.773913 -51.144044 0.000000 39.000000 14.115405 0.000000
-15.550221 -26.281355 -53.680648 0.000000 68.000000 14.207613 0.000000
-15.616463 -26.457335 -53.764192 0.000000 45.000000 14.184041 0.000000
-14.430113 -28.767722 -51.147228 0.000000 40.000000 14.121267 0.000000
-14.879069 -24.445082 -52.038983 0.000000 44.000000 14.102362 0.000000
-15.195451 -26.513010 -52.902708 0.000000 50.000000 14.190851 0.000000
-14.753005 -25.269692 -52.376466 0.000000 52.000000 14.362039 19.000000
-14.893510 -23.782186 -52.070701 0.000000 49.000000 14.103067 0.000000
-15.208635 -26.728271 -52.633778 0.000000 36.000000 14.062603 0.000000
-14.163467 -28.310921 -50.780233 0.000000 44.000000 14.202867 0.000000
-14.632445 -25.761662 -51.515732 0.000000 46.000000 14.098302 0.000000
-14.687131 -28.168263 -51.397998 0.000000 24.000000 13.998058 0.000000
-14.854841 -25.296452 -52.161860 0.000000 45.000000 14.177372 0.000000
-14.204853 -24.960346 -50.894799 0.000000 46.000000 14.215126 0.000000
-13.982661 -24.228338 -50.260724 0.000000 55.000000 14.141088 0.000000
-14.977956 -27.763078 -52.011072 0.000000 28.000000 14.001135 0.000000
-13.834016 -24.776438 -50.927060 0.000000 75.000000 14.563412 7.000000
-15.833413 -24.564818 -54.530480 0.000000 36.000000 14.320013 0.000000
-14.221586 -28.059241 -50.493283 0.000000 40.000000 14.026311 0.000000
-13.933999 -23.677761 -50.280110 0.000000 74.000000 14.193347 0.000000
-14.004655 -24.068944 -50.415493 0.000000 52.000000 14.188225 0.000000
-14.021365 -24.335014 -50.319040 0.000000 45.000000 14.131427 0.000000
-13.916579 -24.575038 -50.573922 0.000000 53.000000 14.336179 7.000000
-14.066941 -28.545208 -50.467983 0.000000 38.000000 14.154783 0.000000
-15.344429 -23.546812 -52.885411 0.000000 42.000000 14.049056 0.000000
-15.227320 -28.211370 -52.950510 0.000000 43.000000 14.182803 0.000000
-15.962953 -26.769536 -54.236916 0.000000 37.000000 14.076206 0.000000
-15.157221 -23.668365 -52.618257 0.000000 38.000000 14.102239 0.000000
-15.587554 -26.351688 -53.712337 0.000000 59.000000 14.187667 0.000000
-16.166636 -26.306812 -54.913495 0.000000 40.000000 14.185322 0.000000
-14.788441 -27.882270 -51.504171 0.000000 29.000000 13.952662 0.000000
-16.225408 -28.251783 -54.553961 0.000000 28.000000 13.976771 0.000000
-14.783705 -25.732301 -52.668797 0.000000 43.000000 14.460848 18.000000
-13.986585 -25.746903 -50.245327 0.000000 40.000000 14.130888 0.000000
-15.825342 -25.785317 -54.066143 0.000000 44.000000 14.126377 0.000000
-14.040870 -25.031035 -50.027588 0.000000 32.000000 13.987735 0.000000
-15.193717 -27.234262 -52.759186 0.000000 42.000000 14.130314 0.000000
-14.251546 -27.288200 -50.742260 0.000000 47.000000 14.107029 0.000000
-15.777709 -28.968709 -54.151848 0.000000 46.000000 14.206404 0.000000
-15.247441 -23.413214 -53.001268 0.000000 59.000000 14.186625 0.000000
-16.617281 -26.738873 -55.355009 0.000000 22.000000 13.970082 0.000000
-15.259661 -29.230404 -52.971928 0.000000 49.000000 14.162913 0.000000
-16.470254 -27.225694 -55.426462 0.000000 43.000000 14.133550 0.000000
-14.257303 -23.597877 -51.526059 0.000000 40.000000 14.440977 24.000000
-15.134749 -29.346957 -52.331684 0.000000 28.000000 13.998503 0.000000
-15.013791 -26.281281 -52.535564 0.000000 59.000000 14.195768 0.000000
-16.355870 -27.454950 -55.155034 0.000000 43.000000 14.119230 0.000000
-15.584540 -27.980112 -53.115192 0.000000 27.000000 13.932009 0.000000
-15.654157 -26.111310 -54.441395 0.000000 70.000000 14.443074 1.000000
-14.828928 -26.963058 -51.932436 0.000000 22.000000 14.101465 0.000000
-14.377865 -26.320617 -51.988240 0.000000 59.000000 14.532264 6.000000
-14.230995 -28.767487 -50.748086 0.000000 34.000000 14.128078 0.000000
-13.935666 -24.438585 -50.136115 0.000000 50.000000 14.129539 0.000000
-14.259931 -26.738701 -50.663028 0.000000 39.000000 14.065187 0.000000
-13.719342 -24.751362 -50.672510 0.000000 59.000000 14.556655 7.000000
-15.591399 -26.078959 -53.782517 0.000000 53.000000 14.214567 0.000000
-14.983639 -26.140086 -52.471882 0.000000 52.000000 14.195397 0.000000
-15.907345 -28.412745 -54.187923 0.000000 33.000000 14.105140 0.000000
-14.086611 -24.112435 -50.405695 0.000000 52.000000 14.110099 0.000000
-15.999214 -28.858063 -54.320150 0.000000 39.000000 14.079529 0.000000
-15.827921 -24.743278 -54.025479 0.000000 46.000000 14.106458 0.000000
-14.141805 -27.443997 -50.681937 0.000000 50.000000 14.179865 0.000000
-14.020992 -28.179613 -50.424975 0.000000 51.000000 14.177599 0.000000
-15.090180 -28.600017 -52.700056 0.000000 38.000000 14.198073 0.000000
-14.690405 -27.519594 -51.684365 0.000000 45.000000 14.119013 0.000000
-15.878919 -26.003320 -54.608744 0.000000 59.000000 14.312851 1.000000
-14.031963 -28.962375 -50.463352 0.000000 54.000000 14.184314 0.000000
-14.018926 -25.051219 -49.995492 0.000000 28.000000 13.993631 0.000000
-14.782463 -25.348242 -52.957112 0.000000 60.000000 14.586718 18.000000
-13.770342 -24.697970 -50.416243 0.000000 55.000000 14.399794 7.000000
-14.261342 -23.666690 -51.426742 0.000000 62.000000 14.394363 24.000000
-14.274219 -27.716866 -50.873753 0.000000 54.000000 14.143484 0.000000
-15.843196 -26.134437 -54.409847 0.000000 49.000000 14.258997 1.000000
-14.067574 -24.944530 -50.130446 0.000000 34.000000 14.008165 0.000000
-14.338133 -28.092238 -50.709546 0.000000 43.000000 14.014812 0.000000
-14.274561 -25.528193 -51.940922 0.000000 64.000000 14.604924 19.000000
-16.045962 -29.240525 -54.680485 0.000000 65.000000 14.193295 0.000000
-15.104249 -26.503944 -52.702258 0.000000 57.000000 14.186342 0.000000
-15.004153 -26.187956 -52.522375 0.000000 51.000000 14.198750 0.000000
-15.569266 -26.088278 -53.680443 0.000000 62.000000 14.190354 0.000000
-15.651740 -26.917932 -53.692551 0.000000 36.000000 14.121239 0.000000
-16.501549 -24.867987 -55.209120 0.000000 39.000000 14.011296 0.000000
-15.125123 -23.781000 -52.414548 0.000000 34.000000 14.043035 0.000000
-15.173661 -26.610940 -52.685109 0.000000 37.000000 14.116343 0.000000
-14.867326 -28.469108 -52.615903 0.000000 68.000000 14.362574 30.000000
-16.559713 -26.002480 -55.520520 0.000000 35.000000 14.093596 0.000000
-14.770711 -24.654547 -52.077305 0.000000 68.000000 14.216633 0.000000
-15.622100 -23.966641 -53.543626 0.000000 45.000000 14.083523 0.000000
-13.989896 -25.352407 -50.440746 0.000000 51.000000 14.212458 0.000000
-14.033875 -29.218938 -50.767154 0.000000 39.000000 14.314041 27.000000
-15.130089 -27.270684 -52.570348 0.000000 48.000000 14.105970 0.000000
-15.223979 -25.051294 -52.382422 0.000000 22.000000 13.940011 0.000000
-15.017993 -24.090469 -52.389082 0.000000 54.000000 14.128599 0.000000
-14.517815 -25.337742 -52.022267 0.000000 54.000000 14.420816 19.000000
-15.450367 -29.258258 -53.750930 0.000000 29.000000 14.328046 0.000000
-13.948962 -28.955885 -50.236058 0.000000 37.000000 14.160796 0.000000
-14.549892 -25.945041 -51.894024 0.000000 58.000000 14.336408 6.000000
-16.148567 -24.498908 -54.851377 0.000000 69.000000 14.174735 0.000000
-15.991844 -24.252772 -54.532832 0.000000 55.000000 14.178198 0.000000
-15.922943 -24.130655 -54.381763 0.000000 60.000000 14.174950 0.000000
-15.054058 -27.753307 -52.304969 0.000000 27.000000 14.059690 0.000000
-14.424165 -25.547767 -51.888374 0.000000 53.000000 14.447312 19.000000
-14.286134 -26.655459 -50.876979 0.000000 42.000000 14.134138 0.000000
-16.263088 -23.551277 -54.753289 0.000000 29.000000 14.029048 0.000000
-14.974116 -26.108850 -52.412028 0.000000 57.000000 14.178084 0.000000
-15.408529 -27.293553 -53.091531 0.000000 35.000000 14.080452 0.000000
-15.268941 -23.418395 -52.975133 0.000000 46.000000 14.155933 0.000000
-14.309258 -27.563535 -50.890025 0.000000 45.000000 14.118935 0.000000
-13.903525 -26.268775 -50.519206 0.000000 60.000000 14.324274 2.000000
-14.175449 -23.396354 -50.914505 0.000000 50.000000 14.250162 15.000000
-14.547896 -28.264977 -51.409273 0.000000 53.000000 14.128463 0.000000
-14.615251 -28.385916 -51.503327 0.000000 37.000000 14.108435 0.000000
-13.799966 -29.188890 -50.410928 0.000000 59.000000 14.370786 27.000000
-13.822128 -23.776625 -50.048460 0.000000 38.000000 14.193972 0.000000
-13.956235 -24.204545 -50.215261 0.000000 51.000000 14.145241 0.000000
-15.579082 -26.975501 -53.675918 0.000000 41.000000 14.179547 0.000000
-13.942235 -23.674979 -50.286109 0.000000 72.000000 14.188517 0.000000
-14.044034 -25.425555 -50.901759 0.000000 72.000000 14.363123 10.000000
-15.325333 -27.007266 -53.848655 0.000000 61.000000 14.483054 5.000000
-15.118600 -26.935671 -52.653786 0.000000 39.000000 14.152431 0.000000
-14.443794 -25.521614 -51.855301 0.000000 62.000000 14.415305 19.000000
-13.861084 -24.039481 -50.362783 0.000000 67.000000 14.294854 25.000000
-14.262931 -23.408088 -51.149965 0.000000 46.000000 14.273173 15.000000
-15.524167 -28.390639 -53.497666 0.000000 46.000000 14.151928 0.000000
-14.009877 -23.948181 -50.432502 0.000000 60.000000 14.190877 0.000000
-14.525205 -24.810477 -51.227979 0.000000 62.000000 14.070477 0.000000
-16.365328 -28.974251 -55.417133 0.000000 39.000000 14.224109 0.000000
-13.902774 -26.967973 -50.009629 0.000000 44.000000 14.104464 0.000000
-13.714929 -23.566143 -50.801177 0.000000 66.000000 14.616306 23.000000
-16.150145 -24.575657 -55.328883 0.000000 60.000000 14.379922 9.000000
-15.495314 -24.619079 -53.303377 0.000000 39.000000 14.093874 0.000000
-14.057732 -23.953482 -51.212582 0.000000 42.000000 14.485263 24.000000
-14.692933 -23.376449 -52.532447 0.000000 69.000000 14.483687 13.000000
-15.568520 -26.395199 -53.655786 0.000000 58.000000 14.180358 0.000000
-15.464082 -24.893921 -53.110296 0.000000 25.000000 14.038488 0.000000
-13.859002 -23.711926 -51.354327 0.000000 13.000000 14.725758 24.000000
-14.047747 -25.890689 -50.304178 0.000000 52.000000 14.101211 0.000000
-14.403394 -26.209020 -50.992357 0.000000 25.000000 14.078345 0.000000
-15.256346 -29.160149 -53.009865 0.000000 45.000000 14.182317 0.000000
-14.509124 -24.171832 -51.626684 0.000000 66.000000 14.257489 24.000000
-14.140708 -25.172147 -50.231103 0.000000 28.000000 13.985785 0.000000
-16.146473 -24.805956 -55.248508 0.000000 39.000000 14.348455 9.000000
-14.080640 -24.287839 -50.430275 0.000000 49.000000 14.126117 0.000000
-16.054972 -28.453476 -55.104875 0.000000 68.000000 14.368800 11.000000
-16.539200 -25.204122 -55.202855 0.000000 22.000000 13.974641 0.000000
-14.521005 -23.546439 -51.552782 0.000000 52.000000 14.214801 0.000000
-15.271359 -23.481309 -53.049349 0.000000 42.000000 14.185866 0.000000
-14.360310 -23.720107 -51.859935 0.000000 70.000000 14.492575 24.000000
-15.132746 -24.390132 -52.944321 0.000000 39.000000 14.265387 8.000000
-16.221123 -28.274362 -55.027011 0.000000 55.000000 14.185317 0.000000
-15.594903 -26.385987 -53.487675 0.000000 32.000000 14.083834 0.000000
-14.665177 -24.060355 -52.575455 0.000000 73.000000 14.527319 24.000000
-14.587002 -27.983297 -51.124746 0.000000 31.000000 13.970097 0.000000
-15.610794 -25.935717 -53.761581 0.000000 62.000000 14.188022 0.000000
-14.523948 -28.625244 -51.382617 0.000000 48.000000 14.138520 0.000000
-16.313059 -26.071569 -55.320773 0.000000 46.000000 14.229539 0.000000
-14.688975 -26.010075 -51.994435 0.000000 51.000000 14.254465 6.000000
-15.350101 -26.253794 -53.120792 0.000000 46.000000 14.145789 0.000000
-14.336680 -23.930162 -52.164911 0.000000 75.000000 14.645838 24.000000
-13.838662 -23.425243 -50.706631 0.000000 70.000000 14.463847 23.000000
-14.450163 -24.421051 -51.199348 0.000000 53.000000 14.125743 0.000000
-16.305538 -26.022882 -55.077326 0.000000 53.000000 14.130983 0.000000
-15.728026 -24.947883 -53.629747 0.000000 27.000000 14.025290 0.000000
-14.796790 -23.392177 -52.083626 0.000000 46.000000 14.195857 0.000000
-14.688417 -28.422760 -51.753214 0.000000 46.000000 14.150596 0.000000
-15.400245 -27.262794 -53.093883 0.000000 38.000000 14.088938 0.000000
-16.409445 -28.128083 -54.884558 0.000000 27.000000 13.953898 0.000000
-14.815274 -26.715489 -51.914330 0.000000 42.000000 14.105941 0.000000
-13.857467 -25.987166 -50.076242 0.000000 42.000000 14.174133 0.000000
-15.636927 -26.184870 -54.339489 0.000000 34.000000 14.414515 1.000000
-15.765027 -28.107356 -53.548485 0.000000 28.000000 13.956771 0.000000
-15.658727 -29.260392 -54.212074 0.000000 28.000000 14.339730 20.000000
-14.217358 -27.920345 -51.149597 0.000000 26.000000 14.314100 0.000000
-14.528214 -25.433340 -51.860728 0.000000 44.000000 14.341545 19.000000
-15.771624 -28.974287 -54.087761 0.000000 51.000000 14.184160 0.000000
-15.916343 -23.919032 -54.920120 0.000000 38.000000 14.413839 21.000000
-15.265144 -27.291616 -52.801196 0.000000 41.000000 14.084097 0.000000
-14.938089 -28.635737 -52.108916 0.000000 30.000000 14.079412 0.000000
-16.424919 -28.182503 -54.912818 0.000000 29.000000 13.952176 0.000000
-14.503403 -24.185340 -52.003856 0.000000 65.000000 14.425843 24.000000
-15.907398 -27.408757 -54.222044 0.000000 36.000000 14.119856 0.000000
-14.017587 -27.473097 -50.510449 0.000000 51.000000 14.217652 0.000000
-13.957441 -27.139448 -50.187780 0.000000 38.000000 14.132263 0.000000
-14.103263 -26.256840 -50.596411 0.000000 49.000000 14.177606 0.000000
-14.105850 -26.106030 -50.614718 0.000000 48.000000 14.183195 0.000000
-14.961885 -26.019439 -52.352093 0.000000 42.000000 14.163178 0.000000
-14.818905 -24.454730 -52.600900 0.000000 36.000000 14.399736 8.000000
-16.334110 -26.031856 -55.294971 0.000000 55.000000 14.199396 0.000000
-16.369025 -26.188798 -55.394803 0.000000 42.000000 14.211114 0.000000
-15.421695 -26.505271 -53.139932 0.000000 34.000000 14.089525 0.000000
-13.728570 -23.772285 -50.555114 0.000000 61.000000 14.497540 23.000000
-14.521243 -26.117932 -51.400417 0.000000 40.000000 14.148660 0.000000
-16.599528 -23.540766 -55.241965 0.000000 40.000000 13.937175 0.000000
-15.120518 -24.013513 -52.757446 0.000000 53.000000 14.195553 0.000000
-13.952873 -23.812629 -50.725789 0.000000 60.000000 14.369170 23.000000
-16.379408 -28.463668 -55.360489 0.000000 43.000000 14.186907 0.000000
-15.777196 -28.285288 -53.738536 0.000000 31.000000 14.028032 0.000000
-14.195046 -23.987712 -51.578628 0.000000 73.000000 14.519851 24.000000
-14.171558 -23.830006 -51.643925 0.000000 73.000000 14.569279 24.000000
-16.255468 -23.964770 -55.622092 0.000000 51.000000 14.411836 21.000000
-15.097605 -27.312875 -52.516452 0.000000 41.000000 14.111936 0.000000
-15.750747 -29.041951 -54.218051 0.000000 56.000000 14.259356 20.000000
-16.151634 -28.190219 -54.569252 0.000000 34.000000 14.049898 0.000000
-13.995601 -23.403329 -51.081376 0.000000 71.000000 14.484506 15.000000
-14.517429 -24.886756 -51.222629 0.000000 52.000000 14.075173 0.000000
-14.430110 -24.223156 -51.503368 0.000000 51.000000 14.275366 24.000000
-16.021265 -24.339115 -54.430421 0.000000 43.000000 14.107362 0.000000
-14.005376 -24.384348 -50.281989 0.000000 48.000000 14.129810 0.000000
-14.104895 -27.819886 -50.670946 0.000000 39.000000 14.208385 0.000000
-14.405105 -25.643176 -51.222386 0.000000 53.000000 14.176332 0.000000
-13.998562 -24.802502 -50.417774 0.000000 44.000000 14.194705 0.000000
-16.009246 -28.636978 -54.425500 0.000000 38.000000 14.116068 0.000000
-13.811869 -23.866313 -50.037153 0.000000 52.000000 14.198328 0.000000
-16.599029 -25.342658 -55.506356 0.000000 41.000000 14.052023 0.000000
-15.941455 -26.300957 -54.484617 0.000000 50.000000 14.202764 0.000000
-16.277322 -25.589135 -54.924579 0.000000 48.000000 14.090330 0.000000
-16.327245 -29.083990 -55.326277 0.000000 43.000000 14.219131 0.000000
-13.820162 -23.854626 -50.059999 0.000000 59.000000 14.200737 0.000000
-15.281522 -23.515807 -52.854181 0.000000 46.000000 14.092257 0.000000
-15.485555 -27.246881 -53.832614 0.000000 36.000000 14.331666 5.000000
-14.685352 -24.795556 -51.686476 0.000000 45.000000 14.124482 0.000000
-14.756080 -26.594531 -51.516640 0.000000 41.000000 13.987232 0.000000
-14.534413 -24.654085 -52.548155 0.000000 74.000000 14.633397 8.000000
-15.029252 -26.439221 -52.620191 0.000000 57.000000 14.218446 0.000000
-15.990379 -24.603192 -54.939552 0.000000 75.000000 14.355500 9.000000
-15.698127 -26.014265 -54.535807 0.000000 69.000000 14.444284 1.000000
-15.091508 -23.960337 -52.449122 0.000000 45.000000 14.088300 0.000000
-14.820925 -24.698843 -52.094950 0.000000 64.000000 14.178998 0.000000
-14.613259 -25.346774 -51.679560 0.000000 60.000000 14.186485 0.000000
-14.113295 -28.972594 -50.626675 0.000000 53.000000 14.181657 0.000000
-14.387281 -23.564879 -51.390020 0.000000 51.000000 14.264934 24.000000
-14.453849 -23.908885 -52.183807 0.000000 71.000000 14.548380 24.000000
-14.461011 -24.764447 -52.444530 0.000000 70.000000 14.654734 8.000000
-13.835216 -24.592635 -50.101154 0.000000 69.000000 14.204972 0.000000
-15.439641 -24.311998 -53.275165 0.000000 34.000000 14.131859 0.000000
-14.264182 -28.221884 -51.165866 0.000000 50.000000 14.278925 16.000000
-13.843623 -26.267941 -50.303107 0.000000 37.000000 14.284775 2.000000
-15.661675 -25.092519 -53.514688 0.000000 27.000000 14.035324 0.000000
-16.203295 -25.598856 -54.884155 0.000000 52.000000 14.139578 0.000000
-14.402255 -25.596187 -51.257697 0.000000 49.000000 14.194180 0.000000
-14.889725 -25.793641 -52.321259 0.000000 50.000000 14.214892 0.000000
-14.854986 -26.072309 -52.189150 0.000000 50.000000 14.189049 0.000000
-14.163424 -28.610782 -50.629519 0.000000 23.000000 14.137694 0.000000
-15.600498 -26.272035 -53.922979 0.000000 59.000000 14.267139 0.000000
-15.750884 -24.887765 -53.705610 0.000000 36.000000 14.037507 0.000000
-15.851393 -27.201917 -54.130472 0.000000 27.000000 14.130725 0.000000
-16.513470 -28.024348 -55.112704 0.000000 27.000000 13.958831 0.000000
-15.089108 -27.887786 -52.261761 0.000000 37.000000 14.009395 0.000000
-14.569991 -25.567601 -52.500513 0.000000 51.000000 14.580707 19.000000
-14.422445 -24.799036 -52.719556 0.000000 3.000000 14.808503 8.000000
-14.021517 -28.309663 -50.805971 0.000000 37.000000 14.341978 17.000000
-13.944769 -27.164836 -50.099944 0.000000 49.000000 14.105682 0.000000
-14.143094 -25.347738 -50.991835 0.000000 74.000000 14.312791 10.000000
-14.960568 -26.302124 -52.589355 0.000000 45.000000 14.267025 0.000000
-14.154784 -28.589352 -50.650430 0.000000 45.000000 14.154531 0.000000
-14.052586 -24.861208 -50.871591 0.000000 64.000000 14.342360 7.000000
-14.997198 -26.417191 -52.203221 0.000000 34.000000 14.066927 0.000000
-15.187147 -27.625725 -52.736537 0.000000 49.000000 14.126437 0.000000
-14.346173 -24.437000 -51.026284 0.000000 44.000000 14.144612 0.000000
-15.028531 -24.613417 -52.947277 0.000000 63.000000 14.360621 8.000000
-15.678936 -23.644153 -54.124917 0.000000 40.000000 14.283799 0.000000
-15.218469 -26.134294 -52.985495 0.000000 53.000000 14.205920 0.000000
-15.214000 -26.287762 -52.942330 0.000000 52.000000 14.191272 0.000000
-15.872064 -29.128083 -54.484206 0.000000 34.000000 14.265145 20.000000
-14.005256 -28.979249 -50.399575 0.000000 52.000000 14.180796 0.000000
-16.450056 -25.269989 -55.044567 0.000000 21.000000 13.986519 0.000000
-14.128428 -26.750182 -50.527475 0.000000 38.000000 14.125091 0.000000
-14.601789 -24.696084 -52.198853 0.000000 71.000000 14.421516 8.000000
-14.668537 -29.319372 -52.128246 0.000000 56.000000 14.330789 29.000000
-14.914652 -24.981690 -52.302982 0.000000 37.000000 14.184511 0.000000
-14.129910 -26.851565 -50.482241 0.000000 32.000000 14.104183 0.000000
-14.178914 -28.984184 -50.859815 0.000000 46.000000 14.223374 0.000000
-15.450056 -23.526504 -52.978361 0.000000 47.000000 13.994047 0.000000
-14.124166 -27.203494 -50.476282 0.000000 39.000000 14.106783 0.000000
-16.165599 -28.746122 -55.138090 0.000000 38.000000 14.283436 0.000000
-14.376371 -23.946608 -51.970500 0.000000 52.000000 14.525935 24.000000
-15.294584 -23.477284 -53.083831 0.000000 52.000000 14.179847 0.000000
-14.588255 -23.889035 -52.619160 0.000000 67.000000 14.615578 24.000000
-16.497754 -24.468311 -55.383239 0.000000 29.000000 14.090056 0.000000
-14.459046 -26.940241 -51.862756 0.000000 55.000000 14.404781 4.000000
-14.163034 -26.527852 -50.346362 0.000000 33.000000 14.015527 0.000000
-13.948985 -25.478158 -50.894790 0.000000 78.000000 14.445799 10.000000
-14.406552 -28.871769 -51.061401 0.000000 39.000000 14.105372 0.000000
-14.304275 -25.068438 -50.494024 0.000000 27.000000 13.952084 0.000000
-15.779869 -27.128052 -54.162210 0.000000 42.000000 14.208940 0.000000
-14.176492 -28.731657 -50.610942 0.000000 32.000000 14.117874 0.000000
-14.221873 -24.866145 -50.383039 0.000000 30.000000 13.978351 0.000000
-15.861483 -24.125632 -54.957510 0.000000 74.000000 14.479476 21.000000
-15.071048 -26.104456 -52.666461 0.000000 55.000000 14.200785 0.000000
-13.567988 -23.352068 -50.598798 0.000000 59.000000 14.661214 23.000000
-16.373594 -24.409234 -55.182349 0.000000 43.000000 14.115070 0.000000
-16.037358 -27.964144 -54.273984 0.000000 25.000000 14.025165 0.000000
-15.102317 -28.351227 -52.879368 0.000000 64.000000 14.264717 30.000000
-16.159810 -29.090261 -54.769506 0.000000 34.000000 14.129174 0.000000
-14.637257 -25.339737 -51.728643 0.000000 50.000000 14.186087 0.000000
-16.237850 -24.430158 -55.182201 0.000000 54.000000 14.237385 9.000000
-14.495611 -23.605499 -51.646761 0.000000 63.000000 14.278358 24.000000
-14.847967 -24.952709 -52.333590 0.000000 27.000000 14.257874 8.000000
-14.137313 -28.117053 -50.245257 0.000000 20.000000 13.994969 0.000000
-14.291684 -24.253750 -50.855968 0.000000 50.000000 14.120043 0.000000
-14.561591 -24.531986 -51.462852 0.000000 51.000000 14.139300 0.000000
-14.609900 -26.242625 -51.655233 0.000000 48.000000 14.178987 0.000000
-16.251999 -28.860059 -54.941809 0.000000 30.000000 14.120615 0.000000
-16.050962 -29.161798 -54.576830 0.000000 39.000000 14.143937 0.000000
-14.283510 -24.738329 -51.303145 0.000000 61.000000 14.320899 7.000000
-15.904580 -24.358513 -54.261529 0.000000 45.000000 14.139481 0.000000
-15.715729 -25.794475 -53.855827 0.000000 48.000000 14.134198 0.000000
-16.089365 -29.399369 -54.713924 0.000000 32.000000 14.168634 0.000000
-13.939617 -26.046295 -50.365061 0.000000 42.000000 14.225039 2.000000
-14.715210 -28.367117 -51.775467 0.000000 40.000000 14.136069 0.000000
-16.112408 -26.614867 -54.462240 0.000000 35.000000 14.038960 0.000000
-15.952315 -28.519136 -54.347490 0.000000 25.000000 14.133640 0.000000
-14.784937 -23.502668 -52.541267 0.000000 55.000000 14.404557 13.000000
-14.704461 -29.211505 -51.869931 0.000000 52.000000 14.186633 0.000000
-13.931050 -24.910731 -50.638799 0.000000 50.000000 14.351205 7.000000
-15.691873 -27.020958 -53.982613 0.000000 58.000000 14.210563 0.000000
-14.726967 -24.744355 -52.675328 0.000000 70.000000 14.514826 8.000000
-14.398060 -24.080281 -51.924446 0.000000 74.000000 14.486455 24.000000
-15.621951 -26.195611 -53.857152 0.000000 56.000000 14.219316 0.000000
-15.629829 -26.037427 -53.843723 0.000000 60.000000 14.206403 0.000000
-15.744152 -27.784449 -53.504250 0.000000 27.000000 13.956451 0.000000
-14.092694 -26.284621 -50.634531 0.000000 42.000000 14.203629 0.000000
-13.829474 -26.891405 -50.033103 0.000000 36.000000 14.180704 0.000000
-13.968136 -27.498075 -50.405441 0.000000 48.000000 14.216799 0.000000
-14.799991 -25.415259 -52.412274 0.000000 45.000000 14.335172 19.000000
-14.125536 -24.238207 -50.499142 0.000000 50.000000 14.115439 0.000000
-15.894316 -24.538345 -55.167509 0.000000 64.000000 14.540739 9.000000
-14.217367 -25.105346 -50.356522 0.000000 26.000000 13.970940 0.000000
-15.973247 -24.599578 -55.292438 0.000000 74.000000 14.523634 9.000000
-15.350053 -24.210515 -53.050119 0.000000 46.000000 14.115253 0.000000
-15.964025 -23.914912 -54.990248 0.000000 58.000000 14.401195 21.000000
-13.908425 -23.891167 -51.300878 0.000000 74.000000 14.658074 24.000000
-14.690103 -24.645758 -52.629399 0.000000 68.000000 14.528188 8.000000
-16.010044 -28.761649 -54.347127 0.000000 34.000000 14.081438 0.000000
-15.839393 -26.030155 -54.270821 0.000000 58.000000 14.202271 0.000000
-14.311756 -28.018930 -50.716959 0.000000 43.000000 14.041800 0.000000
-15.154185 -26.427782 -52.426607 0.000000 36.000000 14.022052 0.000000
-15.364599 -25.048856 -52.692220 0.000000 24.000000 13.947281 0.000000
-16.205279 -29.164279 -54.954644 0.000000 50.000000 14.168288 0.000000
-15.208981 -23.505197 -52.897899 0.000000 51.000000 14.176572 0.000000
-15.226918 -23.569050 -52.431710 0.000000 36.000000 13.958688 0.000000
-13.949607 -25.580820 -50.621785 0.000000 45.000000 14.327113 10.000000
-15.828930 -29.408608 -53.892987 0.000000 29.000000 14.048220 0.000000
-15.748711 -24.075686 -53.948327 0.000000 39.000000 14.144486 0.000000
-13.754528 -23.946187 -50.222119 0.000000 55.000000 14.330056 25.000000
-15.919623 -27.219966 -54.222304 0.000000 42.000000 14.108947 0.000000
-14.825624 -25.256919 -52.163231 0.000000 49.000000 14.204305 0.000000
-14.366272 -29.118632 -51.423417 0.000000 57.000000 14.298325 26.000000
-14.869092 -26.582764 -51.722261 0.000000 29.000000 13.974316 0.000000
-14.209819 -28.565555 -50.611264 0.000000 29.000000 14.087968 0.000000
-15.888482 -24.795057 -54.985283 0.000000 51.000000 14.467152 9.000000
-15.089257 -27.519922 -52.482300 0.000000 49.000000 14.104685 0.000000
-15.638334 -25.132079 -53.296073 0.000000 34.000000 13.961775 0.000000
-15.550359 -25.076930 -53.096960 0.000000 32.000000 13.954935 0.000000
-14.171937 -24.960267 -51.218473 0.000000 30.000000 14.384851 7.000000
-14.442604 -28.437016 -51.291587 0.000000 51.000000 14.172468 0.000000
-15.680164 -25.854563 -53.895618 0.000000 56.000000 14.183478 0.000000
-14.579141 -26.323607 -52.155562 0.000000 61.000000 14.423203 6.000000
-16.107653 -28.708020 -54.738592 0.000000 36.000000 14.162820 0.000000
-15.376575 -25.582249 -53.140887 0.000000 43.000000 14.130616 0.000000
-15.455955 -28.698361 -53.309471 0.000000 40.000000 14.131995 0.000000
-15.073675 -26.089058 -52.698501 0.000000 59.000000 14.212280 0.000000
-14.146363 -25.341216 -51.017245 0.000000 71.000000 14.320838 10.000000
-14.351512 -28.951697 -51.167154 0.000000 57.000000 14.200751 0.000000
-16.129083 -29.403653 -54.923504 0.000000 50.000000 14.223509 0.000000
-14.397332 -23.519527 -51.432942 0.000000 58.000000 14.274445 24.000000
-14.703857 -23.650920 -51.831395 0.000000 45.000000 14.170503 0.000000
-15.351050 -27.755448 -53.037191 0.000000 28.000000 14.108760 0.000000
-14.607868 -24.491187 -51.543411 0.000000 48.000000 14.132435 0.000000
-14.495171 -29.064023 -51.492199 0.000000 43.000000 14.211878 0.000000
-14.583549 -24.611251 -51.482474 0.000000 49.000000 14.127994 0.000000
-14.320856 -26.205090 -50.957068 0.000000 39.000000 14.137487 0.000000
-16.484374 -23.638436 -55.116082 0.000000 34.000000 13.986524 0.000000
-14.598647 -26.769963 -51.722843 0.000000 48.000000 14.218386 0.000000
-15.812280 -24.675591 -55.076396 0.000000 54.000000 14.575275 9.000000
-15.904039 -24.067797 -55.230856 0.000000 44.000000 14.559383 21.000000
-14.357754 -23.552333 -50.896708 0.000000 56.000000 14.078105 0.000000
-14.070465 -28.201963 -50.600153 0.000000 50.000000 14.208794 0.000000
-14.007685 -26.085198 -50.445859 0.000000 46.000000 14.198632 0.000000
-14.231059 -23.952197 -50.945014 0.000000 46.000000 14.213228 0.000000
-15.098306 -27.037362 -52.616422 0.000000 39.000000 14.154560 0.000000
-14.422527 -24.204020 -51.918086 0.000000 66.000000 14.461645 24.000000
-14.559612 -25.803108 -51.391489 0.000000 42.000000 14.110206 0.000000
-16.448442 -27.663094 -55.559637 0.000000 57.000000 14.210838 0.000000
-14.897328 -26.571890 -51.994347 0.000000 41.000000 14.066587 0.000000
-15.683614 -26.127251 -53.903779 0.000000 42.000000 14.183899 0.000000
-15.564608 -25.896114 -53.677322 0.000000 61.000000 14.193203 0.000000
-14.936968 -26.096522 -52.385860 0.000000 51.000000 14.200252 0.000000
-14.865038 -26.902699 -52.047655 0.000000 47.000000 14.118764 0.000000
-14.442815 -26.222612 -51.808356 0.000000 49.000000 14.395876 6.000000
-13.783881 -25.459726 -50.495674 0.000000 66.000000 14.421956 10.000000
-15.665948 -26.106745 -53.947640 0.000000 54.000000 14.218803 0.000000
-15.240331 -25.238703 -52.495766 0.000000 27.000000 13.974312 0.000000
-13.974574 -24.147153 -50.263573 0.000000 56.000000 14.149611 0.000000
-15.871518 -23.796958 -54.689906 0.000000 47.000000 14.354641 21.000000
-14.016443 -26.197262 -50.507773 0.000000 46.000000 14.217526 0.000000
-14.988614 -26.274196 -52.369814 0.000000 45.000000 14.146748 0.000000
-15.347489 -27.437355 -53.033586 0.000000 42.000000 14.110411 0.000000
-14.479392 -25.480656 -52.132578 0.000000 57.000000 14.503186 19.000000
-15.870974 -25.755155 -54.110565 0.000000 48.000000 14.104459 0.000000
-15.026209 -26.244442 -52.604286 0.000000 54.000000 14.214307 0.000000
-16.224410 -28.712150 -54.839909 0.000000 34.000000 14.101397 0.000000
-15.422709 -24.988620 -52.865528 0.000000 22.000000 13.969880 0.000000
-15.707312 -25.197322 -53.609654 0.000000 39.000000 14.035270 0.000000
-13.932189 -25.565262 -50.304352 0.000000 50.000000 14.205467 0.000000
-14.481170 -24.358539 -51.255805 0.000000 47.000000 14.122216 0.000000
-14.441093 -23.716370 -51.292778 0.000000 47.000000 14.174345 0.000000
-14.287456 -25.394035 -51.841569 0.000000 43.000000 14.550310 19.000000
-16.426371 -29.160154 -55.450281 0.000000 47.000000 14.183419 0.000000
-15.765992 -28.929976 -54.142873 0.000000 52.000000 14.213084 0.000000
-13.990949 -27.305325 -50.250222 0.000000 25.000000 14.129072 0.000000
-13.943305 -27.568787 -50.643513 0.000000 46.000000 14.342196 3.000000
-14.401244 -24.161038 -51.270005 0.000000 53.000000 14.200417 0.000000
-14.885737 -23.744367 -52.236668 0.000000 51.000000 14.181886 0.000000
-15.136164 -23.531520 -52.823815 0.000000 53.000000 14.210165 0.000000
-13.918852 -24.003510 -50.558750 0.000000 57.000000 14.327566 23.000000
-15.573349 -26.499617 -53.322878 0.000000 44.000000 14.031960 0.000000
-15.800194 -26.091372 -54.083206 0.000000 57.000000 14.156432 0.000000
-14.905740 -23.610849 -51.749990 0.000000 29.000000 13.953274 0.000000
-16.057437 -23.377369 -54.668749 0.000000 54.000000 14.177872 0.000000
-14.987457 -24.337528 -52.640808 0.000000 64.000000 14.265046 8.000000
-14.704360 -26.417158 -52.141628 0.000000 46.000000 14.304283 6.000000
-14.580204 -24.791838 -52.540819 0.000000 64.000000 14.588939 8.000000
-14.875658 -24.520815 -52.129825 0.000000 46.000000 14.144743 0.000000
-14.569596 -24.633069 -52.470144 0.000000 66.000000 14.567923 8.000000
-13.789760 -24.088333 -50.408819 0.000000 76.000000 14.379075 25.000000
-14.561323 -24.943280 -51.145304 0.000000 41.000000 14.002142 0.000000
-14.140334 -28.716348 -50.501137 0.000000 25.000000 14.102962 0.000000
-15.004380 -26.737284 -52.158714 0.000000 37.000000 14.041194 0.000000
-14.061407 -24.193778 -50.357884 0.000000 51.000000 14.112134 0.000000
-15.517075 -26.479211 -53.450405 0.000000 47.000000 14.137873 0.000000
-15.868459 -26.792752 -54.230493 0.000000 41.000000 14.158617 0.000000
-16.471392 -25.390903 -55.373457 0.000000 38.000000 14.109590 0.000000
-14.069720 -25.655118 -50.575199 0.000000 54.000000 14.198669 0.000000
-14.069110 -24.855370 -50.151846 0.000000 37.000000 14.016040 0.000000
-15.933683 -24.180842 -54.491732 0.000000 69.000000 14.212849 0.000000
-14.916335 -27.638350 -52.163675 0.000000 45.000000 14.122718 0.000000
-16.349776 -26.126345 -55.281775 0.000000 59.000000 14.179563 0.000000
-16.286589 -27.960579 -54.666245 0.000000 33.000000 13.970198 0.000000
-15.556955 -24.878471 -53.119198 0.000000 34.000000 13.958611 0.000000
-14.457547 -25.444023 -51.746209 0.000000 57.000000 14.355704 19.000000
-14.926871 -23.645792 -51.882857 0.000000 36.000000 13.991713 0.000000
-14.798613 -27.481840 -51.923130 0.000000 60.000000 14.124769 0.000000
-15.573246 -24.864258 -53.208580 0.000000 34.000000 13.982598 0.000000
-14.429700 -23.668778 -51.305321 0.000000 53.000000 14.190044 0.000000
-14.519508 -27.920269 -51.105602 0.000000 34.000000 14.022662 0.000000
-16.154233 -28.246160 -54.908988 0.000000 50.000000 14.194554 0.000000
-15.553409 -26.190366 -53.827923 0.000000 45.000000 14.268463 0.000000
-15.893726 -23.925439 -54.434027 0.000000 66.000000 14.223904 21.000000
-15.082440 -26.333070 -52.702079 0.000000 53.000000 14.205926 0.000000
-13.910464 -27.298461 -50.041058 0.000000 36.000000 14.111130 0.000000
-13.911786 -28.955542 -50.279152 0.000000 49.000000 14.212958 0.000000
-15.256266 -26.256291 -52.954982 0.000000 49.000000 14.158642 0.000000
-15.245874 -29.178599 -53.079283 0.000000 43.000000 14.221794 0.000000
-14.823430 -24.683080 -52.761522 0.000000 66.000000 14.465155 8.000000
-16.391948 -26.677747 -54.909762 0.000000 30.000000 13.980578 0.000000
-13.948474 -24.627288 -51.053980 0.000000 57.000000 14.515139 7.000000
-14.599923 -26.681838 -51.631004 0.000000 48.000000 14.177498 0.000000
-16.485681 -24.233678 -55.588690 0.000000 53.000000 14.189836 0.000000
-14.145844 -26.976383 -50.701713 0.000000 47.000000 14.184780 0.000000
-14.196108 -27.839889 -50.544828 0.000000 37.000000 14.071583 0.000000
-16.141561 -24.658026 -55.034570 0.000000 44.000000 14.260316 9.000000
-13.915848 -24.699492 -50.731355 0.000000 57.000000 14.404958 7.000000
-15.399658 -27.365026 -53.112308 0.000000 43.000000 14.097440 0.000000
-15.137290 -23.899798 -52.557896 0.000000 36.000000 14.094091 0.000000
-13.931922 -24.384202 -50.122324 0.000000 47.000000 14.126947 0.000000
-16.137732 -26.600314 -54.348095 0.000000 33.000000 13.966740 0.000000
-15.973606 -27.516925 -54.463923 0.000000 51.000000 14.164824 0.000000
-13.965321 -24.687740 -51.001830 0.000000 62.000000 14.477386 7.000000
