19.075226 13.047172 -2.261916 0.000000 42.000000 14.905159 26.000000
19.352624 13.056658 -1.920363 0.000000 50.000000 14.779884 26.000000
17.881803 11.551685 -1.081300 0.000000 71.000000 14.903830 8.000000
13.121248 9.600538 -1.224441 0.000000 59.000000 14.901610 11.000000
13.914479 12.598950 -3.467948 0.000000 26.000000 14.320975 0.000000
13.908509 12.497395 -3.450333 0.000000 24.000000 14.382584 0.000000
13.905271 12.394602 -3.432629 0.000000 28.000000 14.445911 0.000000
14.803967 11.947657 -2.682389 0.000000 61.000000 14.604328 13.000000
13.870468 12.252600 -3.293567 0.000000 31.000000 14.454446 0.000000
18.654799 13.012155 -1.918671 0.000000 42.000000 14.589493 15.000000
13.844828 12.119833 -3.138493 0.000000 30.000000 14.449468 0.000000
16.461598 11.183885 -1.664657 0.000000 52.000000 15.073637 18.000000
13.862366 11.653779 -2.431079 0.000000 30.000000 14.367583 0.000000
13.881244 11.599665 -2.345920 0.000000 28.000000 14.361603 0.000000
16.695035 12.106639 -2.508535 0.000000 44.000000 14.984344 25.000000
19.383962 12.653321 -1.316982 0.000000 50.000000 14.719499 10.000000
14.176566 11.178940 -1.880252 0.000000 40.000000 14.481124 0.000000
14.337501 11.049680 -1.633537 0.000000 36.000000 14.477488 0.000000
14.794679 12.412247 -4.191967 0.000000 64.000000 15.174988 23.000000
14.437012 9.782290 -0.684662 0.000000 47.000000 14.860807 12.000000
15.692767 11.823022 -2.737273 0.000000 58.000000 15.011112 20.000000
18.081493 12.899804 -2.822414 0.000000 71.000000 15.035769 21.000000
13.435532 11.248948 -2.792226 0.000000 56.000000 14.745887 30.000000
17.393960 11.488225 -0.770110 0.000000 55.000000 14.606884 0.000000
15.344779 9.827236 -0.103760 0.000000 39.000000 14.765317 14.000000
14.284566 12.311965 -4.494216 0.000000 55.000000 15.268808 23.000000
13.739137 10.871740 -1.449501 0.000000 20.000000 14.305892 0.000000
13.251587 9.800718 -0.953967 0.000000 43.000000 14.633312 12.000000
15.624406 11.880285 -2.992357 0.000000 55.000000 15.101816 20.000000
13.047817 9.207858 -0.747141 0.000000 28.000000 14.876377 9.000000
13.959722 10.776769 -1.412175 0.000000 30.000000 14.422803 0.000000
18.455997 12.891174 -2.637416 0.000000 55.000000 15.049268 16.000000
17.027668 12.565708 -2.919262 0.000000 49.000000 15.003250 27.000000
14.215068 10.765365 -1.105062 0.000000 24.000000 14.326598 0.000000
15.525310 10.727356 -0.359355 0.000000 27.000000 14.319986 0.000000
15.631152 10.714765 -0.307612 0.000000 27.000000 14.331541 0.000000
15.875616 12.970046 -4.049700 0.000000 67.000000 15.025308 22.000000
14.852898 10.726927 -0.699908 0.000000 24.000000 14.312453 0.000000
13.719718 11.887782 -3.231266 0.000000 80.000000 14.635242 7.000000
16.180837 10.710685 0.008442 0.000000 28.000000 14.318163 0.000000
16.295611 10.718311 0.067629 0.000000 27.000000 14.313293 0.000000
16.746653 13.257765 -3.418292 0.000000 43.000000 14.710319 21.000000
16.744268 10.795249 -1.519811 0.000000 30.000000 15.359710 18.000000
16.541269 10.722700 0.147275 0.000000 29.000000 14.340029 0.000000
16.665185 10.726525 0.176263 0.000000 37.000000 14.359104 0.000000
14.223054 9.729248 -0.733427 0.000000 40.000000 14.861003 12.000000
16.464129 10.896755 -0.106348 0.000000 25.000000 14.341774 0.000000
17.553756 12.396888 -2.772992 0.000000 59.000000 15.205338 27.000000
16.737450 10.932914 -0.096202 0.000000 27.000000 14.396134 0.000000
16.352449 12.469557 -3.172835 0.000000 49.000000 15.012125 27.000000
14.334332 10.482233 -1.171950 0.000000 54.000000 14.611715 0.000000
17.135441 11.024071 -0.041137 0.000000 29.000000 14.422806 0.000000
18.076296 10.960193 0.512517 0.000000 40.000000 14.433780 0.000000
16.982699 11.868743 -1.589516 0.000000 65.000000 14.693774 19.000000
18.204329 11.014994 0.586726 0.000000 34.000000 14.389594 0.000000
16.480741 12.501123 -3.174069 0.000000 51.000000 15.030609 27.000000
12.739812 9.790870 -1.726489 0.000000 46.000000 14.944949 11.000000
18.463967 11.497234 0.127994 0.000000 37.000000 14.397402 0.000000
18.596113 11.565448 0.161398 0.000000 35.000000 14.369404 0.000000
17.510913 12.772456 -2.432891 0.000000 46.000000 14.711801 27.000000
16.575573 13.020736 -2.772233 0.000000 38.000000 14.438327 0.000000
14.998048 12.609275 -2.886605 0.000000 25.000000 14.306395 0.000000
14.593798 12.036016 -2.646161 0.000000 28.000000 14.451077 0.000000
15.581458 11.984753 -2.028831 0.000000 34.000000 14.429214 0.000000
18.974892 12.574107 -1.687826 0.000000 69.000000 14.871541 15.000000
15.522364 11.894670 -1.975391 0.000000 34.000000 14.443892 0.000000
14.704498 10.097089 -0.570894 0.000000 57.000000 14.647178 12.000000
16.244531 12.882456 -3.117044 0.000000 54.000000 14.642566 0.000000
15.255043 11.465505 -1.634243 0.000000 32.000000 14.465989 0.000000
15.363898 10.691910 -0.903606 0.000000 45.000000 14.623669 14.000000
15.279803 10.851708 -1.193956 0.000000 49.000000 14.655823 0.000000
13.232679 9.787316 -1.556159 0.000000 54.000000 15.001243 11.000000
17.929491 11.135115 -0.647328 0.000000 64.000000 14.960752 4.000000
16.747113 11.350452 -1.190287 0.000000 51.000000 14.755922 18.000000
13.315642 10.668598 -2.232457 0.000000 52.000000 14.793054 5.000000
16.241590 11.828095 -2.411910 0.000000 41.000000 14.985146 25.000000
17.729618 10.721871 0.094624 0.000000 64.000000 14.750295 3.000000
15.617863 11.860215 -2.536104 0.000000 59.000000 14.838488 20.000000
13.895266 10.861826 -1.528781 0.000000 21.000000 14.410713 0.000000
14.944120 10.820833 -0.926325 0.000000 28.000000 14.409801 0.000000
13.832531 10.821546 -1.341233 0.000000 21.000000 14.306767 0.000000
16.421981 11.856617 -2.270477 0.000000 45.000000 14.936144 25.000000
14.880898 10.686846 -0.679217 0.000000 26.000000 14.338110 0.000000
15.629452 12.180417 -2.969154 0.000000 50.000000 14.870225 20.000000
15.038007 11.624201 -2.768817 0.000000 50.000000 14.967198 13.000000
14.174822 12.509390 -3.895600 0.000000 51.000000 14.727757 23.000000
14.995154 9.600554 0.534014 0.000000 34.000000 14.434014 0.000000
15.034307 9.529771 0.607279 0.000000 43.000000 14.453845 0.000000
19.121683 12.666756 -1.735310 0.000000 69.000000 14.879271 15.000000
17.531523 12.067046 -2.229198 0.000000 61.000000 15.110287 25.000000
15.502221 11.575727 -2.505173 0.000000 47.000000 14.990756 13.000000
18.669994 12.999990 -2.428842 0.000000 45.000000 14.911717 16.000000
14.100147 9.390305 0.283188 0.000000 23.000000 14.454666 0.000000
16.837656 12.658053 -3.075054 0.000000 56.000000 14.969616 27.000000
14.153783 9.332913 0.368783 0.000000 26.000000 14.461868 0.000000
15.211740 9.285749 0.977068 0.000000 30.000000 14.464831 0.000000
16.839699 11.314854 -1.688553 0.000000 37.000000 15.112663 19.000000
15.265128 9.230822 1.071316 0.000000 37.000000 14.464921 0.000000
16.377811 12.161460 -2.909046 0.000000 77.000000 15.085651 27.000000
19.611377 13.494429 -1.677268 0.000000 52.000000 14.395475 0.000000
17.450231 12.369057 -2.677285 0.000000 50.000000 15.134871 27.000000
17.914269 12.920330 -1.909725 0.000000 36.000000 14.415694 0.000000
19.155806 12.804543 -1.611495 0.000000 55.000000 14.714631 15.000000
16.995501 11.747359 -2.088109 0.000000 64.000000 15.087990 25.000000
16.892796 11.266139 -0.880864 0.000000 45.000000 14.676693 0.000000
16.518836 11.317320 -1.935878 0.000000 36.000000 15.158410 19.000000
15.046022 11.716339 -2.678971 0.000000 50.000000 14.848134 13.000000
18.226071 11.650740 -0.755010 0.000000 60.000000 14.743640 8.000000
18.486414 12.486986 -1.045242 0.000000 39.000000 14.391272 0.000000
18.405814 12.381985 -1.012466 0.000000 51.000000 14.422500 0.000000
18.162097 12.113798 -0.808490 0.000000 39.000000 14.417503 0.000000
15.036921 12.085089 -3.134159 0.000000 51.000000 14.851229 20.000000
14.297735 9.765722 -0.742938 0.000000 39.000000 14.863864 12.000000
17.528714 12.122805 -2.218720 0.000000 63.000000 15.062341 25.000000
16.137594 10.720435 -0.070750 0.000000 26.000000 14.345184 0.000000
14.697384 12.422817 -4.190730 0.000000 67.000000 15.135587 23.000000
16.065388 10.485393 0.017057 0.000000 32.000000 14.440762 0.000000
16.915041 11.563814 -1.093398 0.000000 33.000000 14.594919 0.000000
16.023449 10.385341 0.113483 0.000000 29.000000 14.442178 0.000000
15.620638 11.920075 -2.292728 0.000000 37.000000 14.648484 0.000000
16.655955 10.818649 -1.144281 0.000000 21.000000 15.087455 18.000000
14.115701 9.686294 -1.013470 0.000000 42.000000 15.027585 12.000000
15.529535 9.725667 -0.379363 0.000000 16.000000 15.064889 14.000000
16.966418 10.071653 0.942889 0.000000 37.000000 14.469489 0.000000
15.918926 10.077033 0.377290 0.000000 42.000000 14.474552 0.000000
16.934410 9.972073 1.044910 0.000000 36.000000 14.470335 0.000000
15.856999 10.025433 0.618124 0.000000 26.000000 14.346906 0.000000
16.872839 9.937940 1.350704 0.000000 28.000000 14.290765 0.000000
15.814250 9.945388 0.783146 0.000000 23.000000 14.291974 0.000000
13.180292 11.265243 -2.800434 0.000000 38.000000 14.657801 30.000000
15.788364 9.844698 0.884047 0.000000 24.000000 14.296254 0.000000
18.765383 12.754887 -1.530182 0.000000 41.000000 14.577590 15.000000
15.778250 9.726329 0.928040 0.000000 25.000000 14.352871 0.000000
17.887549 11.983905 -1.655199 0.000000 67.000000 14.937086 24.000000
15.783978 9.591052 0.923686 0.000000 41.000000 14.456108 0.000000
18.807349 13.124708 -1.911309 0.000000 39.000000 14.551353 15.000000
15.769936 9.489414 1.018855 0.000000 39.000000 14.468312 0.000000
18.468909 13.137614 -2.514030 0.000000 66.000000 14.798803 16.000000
15.457532 9.966758 -0.870056 0.000000 56.000000 15.162676 14.000000
15.633554 9.994340 0.148685 0.000000 42.000000 14.582448 0.000000
15.740628 9.304344 1.264870 0.000000 30.000000 14.445367 0.000000
14.423218 13.463388 -4.447839 0.000000 34.000000 14.444045 0.000000
14.514888 13.448378 -4.367227 0.000000 32.000000 14.435403 0.000000
14.609123 13.431614 -4.288698 0.000000 30.000000 14.430118 0.000000
17.980008 12.892389 -3.022251 0.000000 53.000000 15.129763 21.000000
13.874834 12.502667 -3.465532 0.000000 25.000000 14.377219 0.000000
18.643487 13.139393 -2.549927 0.000000 63.000000 14.874717 16.000000
15.359418 10.307757 -0.764878 0.000000 47.000000 14.818872 14.000000
18.158138 11.500503 -1.307459 0.000000 4.000000 15.165824 8.000000
18.463078 12.913030 -2.604954 0.000000 44.000000 15.015929 16.000000
14.049786 12.215199 -3.130250 0.000000 30.000000 14.440008 0.000000
18.060063 11.962762 -1.754593 0.000000 38.000000 15.067479 24.000000
16.496675 11.364567 -1.686234 0.000000 61.000000 14.965899 19.000000
16.491609 10.971691 -1.566321 0.000000 42.000000 15.178663 18.000000
19.477447 13.052660 -2.193950 0.000000 45.000000 14.987933 26.000000
14.292846 11.987247 -2.741749 0.000000 35.000000 14.448809 0.000000
13.567007 11.845937 -3.182269 0.000000 52.000000 14.587617 7.000000
14.203409 13.214633 -4.490796 0.000000 54.000000 14.581784 0.000000
14.772406 12.502912 -3.392259 0.000000 43.000000 14.618102 0.000000
14.028220 11.688812 -2.282713 0.000000 25.000000 14.305013 0.000000
13.376405 11.441243 -2.883171 0.000000 35.000000 14.641666 0.000000
14.231120 11.640724 -2.166067 0.000000 24.000000 14.334099 0.000000
16.061394 12.181962 -2.736880 0.000000 50.000000 14.865967 25.000000
16.374497 12.281365 -2.926874 0.000000 76.000000 15.007820 27.000000
15.338208 11.647856 -1.592701 0.000000 28.000000 14.334152 0.000000
14.453459 11.586938 -2.084070 0.000000 26.000000 14.394480 0.000000
19.012867 13.292904 -2.096994 0.000000 60.000000 14.606161 26.000000
15.535447 11.622516 -1.457978 0.000000 27.000000 14.333896 0.000000
15.100821 11.492467 -2.154682 0.000000 33.000000 14.711987 13.000000
13.010989 9.616091 -1.143032 0.000000 50.000000 14.805968 11.000000
15.638938 10.397857 -0.764726 0.000000 47.000000 14.841857 14.000000
13.972165 9.537429 -1.065194 0.000000 8.000000 15.121933 12.000000
15.563114 11.610998 -1.412871 0.000000 24.000000 14.323826 0.000000
17.373211 11.716735 -0.539254 0.000000 28.000000 14.293820 0.000000
16.351362 10.796816 -1.253022 0.000000 51.000000 15.072314 18.000000
16.987071 11.752312 -1.090778 0.000000 50.000000 14.478589 0.000000
17.105656 11.817912 -0.985126 0.000000 32.000000 14.404499 0.000000
15.262149 11.750392 -2.566552 0.000000 62.000000 14.824001 13.000000
16.663430 11.760296 -2.375108 0.000000 67.000000 15.146518 25.000000
16.479648 11.073594 -1.200664 0.000000 43.000000 14.879328 18.000000
18.056819 12.982521 -2.351016 0.000000 35.000000 14.682459 16.000000
17.646600 12.007637 -1.303324 0.000000 37.000000 14.630363 0.000000
18.557246 11.917563 -0.353116 0.000000 44.000000 14.411059 0.000000
18.687061 11.962023 -0.311948 0.000000 44.000000 14.394971 0.000000
18.660044 13.150197 -2.590730 0.000000 73.000000 14.896765 16.000000
18.958714 12.020353 -0.314499 0.000000 51.000000 14.440288 0.000000
15.998331 11.067055 -1.506294 0.000000 37.000000 14.915895 18.000000
18.298297 12.162566 -0.779754 0.000000 39.000000 14.407817 0.000000
18.430988 12.206211 -0.770400 0.000000 46.000000 14.412477 0.000000
18.563342 12.259723 -0.747686 0.000000 42.000000 14.401746 0.000000
17.388537 12.377993 -2.735027 0.000000 58.000000 15.143648 27.000000
17.178103 12.282940 -2.522858 0.000000 56.000000 15.017851 27.000000
18.964504 12.397499 -0.750950 0.000000 33.000000 14.430656 0.000000
19.095144 12.456007 -0.740813 0.000000 35.000000 14.423338 0.000000
17.643053 12.421321 -2.277838 0.000000 60.000000 14.916459 27.000000
14.634440 13.111692 -3.925412 0.000000 30.000000 14.452097 0.000000
16.124314 10.620362 -0.445273 0.000000 34.000000 14.640518 17.000000
14.179454 12.645143 -3.607780 0.000000 23.000000 14.456049 0.000000
16.480210 8.893102 0.962736 0.000000 50.000000 15.163514 1.000000
15.103787 12.544461 -2.916284 0.000000 27.000000 14.405290 0.000000
14.866172 11.226789 -2.350837 0.000000 46.000000 14.950006 29.000000
16.711359 8.936996 0.760640 0.000000 5.000000 15.327164 1.000000
13.924478 12.322957 -3.372683 0.000000 25.000000 14.468084 0.000000
15.693918 12.984243 -4.043099 0.000000 49.000000 14.953179 22.000000
13.807716 12.170565 -3.228043 0.000000 26.000000 14.454775 0.000000
13.757935 12.087128 -3.165926 0.000000 24.000000 14.462313 0.000000
17.206259 12.395417 -2.256357 0.000000 42.000000 14.783511 25.000000
16.708847 9.083243 1.494155 0.000000 49.000000 14.776001 1.000000
16.175005 13.117253 -3.902140 0.000000 51.000000 14.923768 22.000000
13.978522 11.697994 -3.204138 0.000000 59.000000 14.839709 7.000000
13.383524 11.157506 -2.239244 0.000000 25.000000 14.461727 0.000000
14.462160 11.138375 -1.672395 0.000000 38.000000 14.475853 0.000000
17.877757 12.106898 -1.860098 0.000000 57.000000 14.968065 24.000000
14.440761 11.011319 -1.473502 0.000000 29.000000 14.441554 0.000000
12.942066 10.057166 -1.414879 0.000000 42.000000 14.626360 11.000000
13.945661 9.745592 -0.676755 0.000000 35.000000 14.726604 12.000000
13.348393 10.836770 -1.725815 0.000000 21.000000 14.374288 0.000000
16.979073 12.358933 -2.374898 0.000000 61.000000 14.809606 25.000000
13.346538 10.783367 -1.605688 0.000000 21.000000 14.340051 0.000000
13.386048 10.690786 -1.578401 0.000000 26.000000 14.403717 0.000000
16.948900 12.807341 -3.407207 0.000000 37.000000 15.096829 21.000000
14.544999 10.483519 -0.772517 0.000000 32.000000 14.436211 0.000000
15.017367 12.491611 -3.720488 0.000000 42.000000 14.902723 28.000000
18.111838 12.011083 -1.790631 0.000000 44.000000 15.070447 24.000000
13.591092 10.297107 -1.120694 0.000000 25.000000 14.479600 0.000000
18.752621 13.061882 -1.872817 0.000000 48.000000 14.556554 15.000000
14.437081 12.653714 -4.515459 0.000000 64.000000 15.080590 23.000000
14.215261 9.887385 -0.007169 0.000000 23.000000 14.303868 0.000000
15.113790 12.735505 -3.983972 0.000000 59.000000 14.914615 28.000000
15.109753 11.488493 -2.345499 0.000000 34.000000 14.833119 13.000000
19.126993 12.638330 -1.843940 0.000000 45.000000 14.967408 15.000000
16.825921 11.958601 -1.670568 0.000000 45.000000 14.627325 19.000000
15.432866 9.792428 0.699184 0.000000 31.000000 14.333186 0.000000
14.510885 9.770863 0.120289 0.000000 34.000000 14.405869 0.000000
15.525530 9.758385 0.752489 0.000000 31.000000 14.355272 0.000000
15.111921 9.845122 -0.553578 0.000000 56.000000 14.950235 14.000000
15.616586 9.731557 0.820334 0.000000 32.000000 14.362786 0.000000
14.723386 9.704095 0.188190 0.000000 28.000000 14.481126 0.000000
15.712106 9.707339 0.888607 0.000000 28.000000 14.369554 0.000000
15.809898 9.682393 0.944914 0.000000 30.000000 14.384812 0.000000
13.771971 10.192922 -1.090669 0.000000 56.000000 14.595030 12.000000
15.918271 9.652062 0.973153 0.000000 46.000000 14.424340 0.000000
14.989344 9.707367 0.527719 0.000000 25.000000 14.357976 0.000000
16.013351 9.642400 1.055074 0.000000 48.000000 14.412086 0.000000
15.101904 9.691991 0.567771 0.000000 28.000000 14.380770 0.000000
14.024806 13.091045 -4.417005 0.000000 39.000000 14.570624 23.000000
15.209517 9.687185 0.636560 0.000000 27.000000 14.376896 0.000000
16.601068 10.984429 -1.227562 0.000000 44.000000 14.999308 18.000000
15.326553 9.676808 0.676487 0.000000 29.000000 14.397540 0.000000
16.326076 9.620518 1.265335 0.000000 32.000000 14.400343 0.000000
16.326068 10.469282 -0.702725 0.000000 41.000000 14.970672 17.000000
13.952803 9.727331 -0.453930 0.000000 38.000000 14.607463 12.000000
17.697171 12.087799 -1.305051 0.000000 37.000000 14.588950 24.000000
16.551805 9.609859 1.370142 0.000000 40.000000 14.416516 0.000000
14.719209 11.031710 -1.756993 0.000000 40.000000 14.686625 0.000000
12.927873 9.765020 -1.534254 0.000000 56.000000 14.907368 11.000000
17.525058 12.808615 -2.501038 0.000000 50.000000 14.731104 27.000000
16.772814 9.635324 1.547854 0.000000 29.000000 14.360722 0.000000
18.122077 11.661924 -0.644685 0.000000 53.000000 14.635694 8.000000
16.898965 9.628243 1.557306 0.000000 33.000000 14.400285 0.000000
16.026005 9.727086 1.047704 0.000000 39.000000 14.358726 0.000000
17.021971 9.633634 1.599983 0.000000 43.000000 14.409649 0.000000
14.460195 9.917951 -0.787298 0.000000 51.000000 14.831180 12.000000
17.141429 9.652771 1.672382 0.000000 35.000000 14.389874 0.000000
15.573851 11.821517 -3.021704 0.000000 44.000000 15.146403 20.000000
13.235348 9.779346 -1.277296 0.000000 50.000000 14.839278 11.000000
16.400409 9.789135 1.210100 0.000000 28.000000 14.334249 0.000000
16.791189 11.098124 -1.200729 0.000000 49.000000 14.960506 18.000000
17.528184 12.599583 -2.541622 0.000000 62.000000 14.909281 27.000000
17.519962 9.692734 1.773344 0.000000 27.000000 14.419988 0.000000
16.651566 9.847236 1.323504 0.000000 25.000000 14.303097 0.000000
17.644021 9.727602 1.855509 0.000000 33.000000 14.384283 0.000000
16.780610 9.878333 1.370250 0.000000 26.000000 14.293149 0.000000
17.769455 9.759416 1.921242 0.000000 36.000000 14.361182 0.000000
16.911146 9.912688 1.416582 0.000000 27.000000 14.281547 0.000000
13.705338 11.687964 -3.244647 0.000000 59.000000 14.784675 7.000000
15.694381 12.953494 -3.958722 0.000000 69.000000 14.924756 22.000000
17.325837 9.982530 1.400938 0.000000 29.000000 14.371852 0.000000
17.458998 10.020926 1.423545 0.000000 30.000000 14.372480 0.000000
17.599345 10.044518 1.392458 0.000000 31.000000 14.418673 0.000000
16.280350 11.978419 -2.656912 0.000000 77.000000 15.035856 25.000000
17.869918 10.122896 1.398286 0.000000 40.000000 14.443941 0.000000
18.121783 13.044338 -1.923701 0.000000 41.000000 14.399568 0.000000
18.027353 12.960263 -1.882097 0.000000 42.000000 14.405780 0.000000
17.061372 11.881718 -2.151032 0.000000 57.000000 15.048871 25.000000
12.692706 9.648690 -1.552459 0.000000 39.000000 14.928557 11.000000
17.738284 12.778247 -1.616329 0.000000 32.000000 14.286073 0.000000
16.341503 11.254903 -1.505675 0.000000 49.000000 14.887456 18.000000
18.208233 11.705740 -0.580628 0.000000 50.000000 14.592353 8.000000
15.633207 11.507600 -1.330283 0.000000 27.000000 14.371673 0.000000
19.623668 12.558087 -1.630721 0.000000 17.000000 15.054977 10.000000
16.350067 10.962922 -0.313327 0.000000 28.000000 14.382356 0.000000
16.505077 11.338359 -2.064530 0.000000 59.000000 15.216470 19.000000
16.761070 11.282194 -1.547532 0.000000 49.000000 15.026235 19.000000
19.489080 12.810216 -2.040427 0.000000 8.000000 15.075832 26.000000
16.116222 10.388384 0.173761 0.000000 33.000000 14.433001 0.000000
18.024956 13.221627 -2.674770 0.000000 59.000000 14.693507 21.000000
16.063205 10.193807 0.337460 0.000000 46.000000 14.459239 0.000000
16.040399 10.099374 0.429648 0.000000 52.000000 14.465197 0.000000
15.992139 10.050190 0.649401 0.000000 28.000000 14.352880 0.000000
15.679344 10.593885 -1.129682 0.000000 58.000000 14.932254 17.000000
16.672965 11.377861 -1.366660 0.000000 57.000000 14.818988 18.000000
15.938242 9.788274 0.979269 0.000000 36.000000 14.327525 0.000000
15.611279 10.701096 -1.154682 0.000000 56.000000 14.847443 17.000000
19.287135 12.899867 -2.143024 0.000000 46.000000 15.008203 26.000000
15.244963 9.762743 -0.097816 0.000000 39.000000 14.777082 14.000000
17.129218 12.150548 -2.336729 0.000000 59.000000 14.986429 25.000000
18.085358 10.910570 0.213633 0.000000 52.000000 14.653638 3.000000
16.421573 12.961157 -3.914821 0.000000 53.000000 15.123815 22.000000
15.490128 9.981518 -0.116336 0.000000 56.000000 14.706473 14.000000
18.249076 13.126206 -2.596383 0.000000 67.000000 14.787040 16.000000
15.953045 9.312016 1.375432 0.000000 35.000000 14.440441 0.000000
14.905129 9.309554 0.838461 0.000000 26.000000 14.433783 0.000000
15.950696 12.899896 -4.158057 0.000000 68.000000 15.165929 22.000000
14.911803 9.231267 0.958286 0.000000 23.000000 14.420612 0.000000
19.149114 12.782118 -0.890727 0.000000 33.000000 14.293018 0.000000
19.017904 12.852027 -2.031430 0.000000 69.000000 14.890055 15.000000
18.987447 12.559711 -0.823304 0.000000 42.000000 14.363253 0.000000
18.458378 13.054331 -2.105507 0.000000 42.000000 14.609229 16.000000
16.020791 11.744811 -2.143963 0.000000 55.000000 14.813729 19.000000
16.319373 10.462458 -0.891755 0.000000 48.000000 15.087836 17.000000
18.677893 12.152863 -0.580948 0.000000 41.000000 14.415369 0.000000
17.205008 10.467238 0.269772 0.000000 23.000000 14.663526 0.000000
18.532178 11.951589 -0.438158 0.000000 44.000000 14.429668 0.000000
16.490601 11.078642 -1.077253 0.000000 35.000000 14.804496 18.000000
18.381269 11.803282 -0.172483 0.000000 33.000000 14.329328 0.000000
17.689376 12.474046 -2.442765 0.000000 57.000000 14.992420 27.000000
18.254759 11.576710 -0.062016 0.000000 34.000000 14.387753 0.000000
18.075011 11.249711 0.144840 0.000000 32.000000 14.444298 0.000000
17.744246 10.673674 0.831933 0.000000 35.000000 14.344276 0.000000
15.653578 10.272027 -0.664890 0.000000 60.000000 14.878023 14.000000
18.192326 11.306575 -0.214369 0.000000 53.000000 14.657294 4.000000
14.415854 10.573578 -1.362920 0.000000 53.000000 14.686415 0.000000
16.323248 11.260726 -1.627197 0.000000 39.000000 14.950887 18.000000
17.551015 10.119876 1.285990 0.000000 39.000000 14.412662 0.000000
14.400104 12.465752 -4.541984 0.000000 78.000000 15.222128 23.000000
17.478532 9.925291 1.567788 0.000000 28.000000 14.361300 0.000000
17.446061 9.824767 1.699486 0.000000 26.000000 14.344741 0.000000
18.532171 12.881142 -2.557883 0.000000 55.000000 15.032717 16.000000
19.109133 13.002871 -2.027822 0.000000 51.000000 14.806728 26.000000
15.986626 10.872311 -1.060856 0.000000 38.000000 14.785016 17.000000
17.373992 9.372327 2.077677 0.000000 33.000000 14.423513 0.000000
16.358312 11.306965 -1.950357 0.000000 50.000000 15.123690 19.000000
15.615045 13.044084 -4.161514 0.000000 54.000000 14.956013 22.000000
17.950592 12.969625 -3.087735 0.000000 59.000000 15.103610 21.000000
14.065503 12.359766 -4.236855 0.000000 70.000000 15.008623 23.000000
18.025776 13.114762 -2.928334 0.000000 56.000000 14.925138 21.000000
14.376286 13.033486 -3.954863 0.000000 33.000000 14.444938 0.000000
16.462420 10.893414 -1.377714 0.000000 33.000000 15.112488 18.000000
13.640104 10.416650 -1.571931 0.000000 48.000000 14.680760 0.000000
16.779324 12.792641 -3.574022 0.000000 25.000000 15.154525 21.000000
17.189910 12.926034 -3.537063 0.000000 68.000000 15.165309 21.000000
14.074182 12.628499 -3.427377 0.000000 21.000000 14.325640 0.000000
14.173650 12.586970 -3.379964 0.000000 24.000000 14.358919 0.000000
14.286364 12.531324 -3.363864 0.000000 25.000000 14.425653 0.000000
14.760602 11.721364 -2.642301 0.000000 56.000000 14.731544 13.000000
15.360132 12.604046 -2.707183 0.000000 29.000000 14.316834 0.000000
13.824766 11.139982 -2.719629 0.000000 56.000000 14.905308 6.000000
14.553835 12.498955 -3.102782 0.000000 22.000000 14.376448 0.000000
14.662517 12.470385 -3.055437 0.000000 26.000000 14.403235 0.000000
19.494831 12.971640 -1.524134 0.000000 32.000000 14.647573 10.000000
19.459683 12.728919 -1.531353 0.000000 77.000000 14.818004 10.000000
18.536140 12.710687 -1.111368 0.000000 39.000000 14.283716 0.000000
17.740796 12.753556 -1.562403 0.000000 32.000000 14.272292 0.000000
18.663700 12.756373 -1.040533 0.000000 34.000000 14.248076 0.000000
17.872175 12.791312 -1.518092 0.000000 27.000000 14.259696 0.000000
18.266743 12.097238 -1.285283 0.000000 37.000000 14.751191 24.000000
18.288849 12.295804 -1.207542 0.000000 57.000000 14.566210 24.000000
18.140964 12.850673 -1.471284 0.000000 27.000000 14.273501 0.000000
15.716411 10.750388 -1.041023 0.000000 50.000000 14.776143 17.000000
18.420105 12.863007 -1.526137 0.000000 32.000000 14.386415 0.000000
15.844331 11.885991 -2.811105 0.000000 58.000000 15.057965 20.000000
15.489183 11.864978 -2.972153 0.000000 56.000000 15.057784 20.000000
19.458985 13.044746 -1.786393 0.000000 56.000000 14.741384 26.000000
14.410204 12.338859 -3.116634 0.000000 38.000000 14.456065 0.000000
14.384137 12.272758 -3.037840 0.000000 38.000000 14.448398 0.000000
13.801948 10.093613 -1.179766 0.000000 42.000000 14.730958 12.000000
14.252116 9.605057 -1.226866 0.000000 45.000000 15.259322 12.000000
16.943451 12.499500 -3.050681 0.000000 73.000000 15.104293 27.000000
17.716964 12.300803 -2.100998 0.000000 56.000000 14.921025 25.000000
16.594259 10.887402 -1.317516 0.000000 56.000000 15.122392 18.000000
14.321189 11.851508 -2.607850 0.000000 35.000000 14.475970 0.000000
17.047480 12.373205 -2.547216 0.000000 49.000000 14.925137 27.000000
19.577599 13.276628 -1.887851 0.000000 36.000000 14.671124 26.000000
15.087912 11.372973 -1.862280 0.000000 52.000000 14.618320 29.000000
16.565427 11.740717 -2.410055 0.000000 59.000000 15.150790 25.000000
17.313024 12.920101 -3.416038 0.000000 57.000000 15.135597 21.000000
13.358964 11.300214 -2.407382 0.000000 24.000000 14.451385 0.000000
15.395863 11.068020 -1.428041 0.000000 62.000000 14.676321 0.000000
19.148095 12.643245 -2.185826 0.000000 5.000000 15.177272 15.000000
14.514047 11.209286 -1.695705 0.000000 34.000000 14.454664 0.000000
14.558115 11.154082 -1.624802 0.000000 32.000000 14.466110 0.000000
17.060487 10.470683 0.094820 0.000000 56.000000 14.720858 3.000000
14.590870 11.117688 -1.515079 0.000000 28.000000 14.436749 0.000000
17.563380 12.198475 -2.136322 0.000000 50.000000 14.968279 25.000000
18.657378 12.820929 -1.992422 0.000000 83.000000 14.774550 15.000000
18.181853 11.626264 -1.021742 0.000000 47.000000 14.908752 8.000000
19.176099 12.861473 -1.960833 0.000000 56.000000 14.890762 26.000000
16.235314 10.906600 -0.661766 0.000000 45.000000 14.597707 17.000000
14.747622 10.973432 -1.282525 0.000000 42.000000 14.451296 0.000000
13.713788 10.950161 -1.664668 0.000000 21.000000 14.370683 0.000000
14.808849 10.926840 -1.212187 0.000000 46.000000 14.462250 0.000000
13.319272 10.735483 -2.478764 0.000000 55.000000 14.894313 5.000000
14.846771 10.916838 -1.057918 0.000000 32.000000 14.388321 0.000000
13.827600 10.896540 -1.443258 0.000000 19.000000 14.312133 0.000000
16.789741 12.327923 -3.010824 0.000000 54.000000 15.156610 27.000000
13.893328 10.868864 -1.345918 0.000000 23.000000 14.294377 0.000000
15.003751 10.808530 -0.975724 0.000000 36.000000 14.467617 0.000000
16.532960 10.775344 -1.246683 0.000000 50.000000 15.141897 18.000000
17.497684 12.501695 -2.142089 0.000000 56.000000 14.729459 27.000000
16.816166 10.547467 0.120076 0.000000 38.000000 14.571837 0.000000
14.615865 10.632019 -0.818945 0.000000 25.000000 14.378379 0.000000
15.637573 10.618547 -0.304233 0.000000 33.000000 14.401801 0.000000
15.050087 11.867644 -3.147745 0.000000 61.000000 15.022416 20.000000
14.819729 10.600765 -0.686549 0.000000 28.000000 14.385955 0.000000
16.246840 12.327927 -2.859432 0.000000 67.000000 14.892449 27.000000
16.493013 11.215860 -1.589960 0.000000 44.000000 15.015105 18.000000
16.030895 10.564203 -0.022757 0.000000 30.000000 14.396322 0.000000
16.135620 10.554189 0.036146 0.000000 32.000000 14.401311 0.000000
16.243005 10.547946 0.100422 0.000000 34.000000 14.401143 0.000000
13.030913 10.687258 -2.192051 0.000000 46.000000 14.664468 5.000000
16.464993 10.538194 0.213956 0.000000 36.000000 14.410187 0.000000
16.579598 10.537398 0.267639 0.000000 34.000000 14.414741 0.000000
13.899377 11.501530 -2.876321 0.000000 51.000000 14.759772 7.000000
16.065092 10.635870 0.015150 0.000000 27.000000 14.331938 0.000000
18.130177 11.292258 -0.342372 0.000000 50.000000 14.725395 4.000000
16.314144 10.672480 0.117588 0.000000 27.000000 14.322442 0.000000
17.406430 12.922307 -3.445281 0.000000 44.000000 15.181368 21.000000
17.407899 10.633467 0.699641 0.000000 34.000000 14.346698 0.000000
16.576626 10.704681 0.183643 0.000000 25.000000 14.342436 0.000000
16.837189 11.685528 -1.920079 0.000000 72.000000 14.981197 19.000000
16.715732 10.709936 0.176013 0.000000 38.000000 14.387440 0.000000
16.449990 11.043645 -1.136757 0.000000 44.000000 14.853123 18.000000
17.613496 12.193378 -2.237774 0.000000 59.000000 15.049284 25.000000
18.041110 10.772247 0.957179 0.000000 30.000000 14.290941 0.000000
17.683607 12.435843 -2.460240 0.000000 54.000000 15.029050 27.000000
18.047824 11.019957 0.369872 0.000000 33.000000 14.467346 0.000000
18.173566 11.091100 0.451429 0.000000 29.000000 14.406055 0.000000
16.094752 12.813406 -3.131372 0.000000 49.000000 14.654032 0.000000
13.668275 11.136341 -2.819764 0.000000 22.000000 14.918767 6.000000
16.686098 8.947417 1.542671 0.000000 34.000000 14.838614 1.000000
16.248321 13.097069 -3.041899 0.000000 39.000000 14.441613 0.000000
16.160247 13.012600 -3.008448 0.000000 42.000000 14.455064 0.000000
15.808238 11.483701 -1.239321 0.000000 32.000000 14.389767 0.000000
14.622088 11.162087 -1.605250 0.000000 29.000000 14.468781 0.000000
15.386908 12.512282 -3.101858 0.000000 54.000000 14.631023 0.000000
13.199602 9.985925 -1.269888 0.000000 49.000000 14.672584 11.000000
16.504806 11.600325 -2.093321 0.000000 60.000000 15.042499 19.000000
16.993357 11.898356 -1.558317 0.000000 59.000000 14.656671 19.000000
15.501679 10.791412 -0.611512 0.000000 29.000000 14.418181 0.000000
14.371611 10.492596 -0.890331 0.000000 24.000000 14.445700 0.000000
16.615270 11.183907 -0.834727 0.000000 32.000000 14.620605 18.000000
14.459054 9.836906 -0.964605 0.000000 66.000000 14.997219 12.000000
19.164118 12.272741 -0.781035 0.000000 59.000000 14.603416 0.000000
14.301239 9.920034 0.020311 0.000000 23.000000 14.290745 0.000000
17.259387 12.103570 -2.198402 0.000000 46.000000 14.978471 25.000000
14.336833 9.824502 0.053428 0.000000 29.000000 14.351795 0.000000
18.024584 11.192403 -0.145241 0.000000 55.000000 14.645531 4.000000
14.381451 9.726436 0.077706 0.000000 41.000000 14.422910 0.000000
15.445758 9.896306 -0.458568 0.000000 47.000000 14.961544 14.000000
13.948321 10.179296 -0.983284 0.000000 41.000000 14.596111 12.000000
16.592455 11.698290 -2.070626 0.000000 40.000000 14.985106 19.000000
13.148812 9.364756 -0.749639 0.000000 62.000000 14.795427 9.000000
15.504533 9.531697 0.854974 0.000000 44.000000 14.452156 0.000000
14.472318 9.512245 0.336755 0.000000 37.000000 14.451557 0.000000
16.405074 12.491631 -3.161386 0.000000 58.000000 15.005814 27.000000
14.503978 9.451645 0.443498 0.000000 30.000000 14.441324 0.000000
15.565514 9.405365 1.067999 0.000000 33.000000 14.434975 0.000000
15.010092 10.470786 -0.723399 0.000000 52.000000 14.563677 14.000000
14.999482 12.228192 -3.292959 0.000000 45.000000 14.830858 20.000000
13.974974 11.219093 -2.737278 0.000000 57.000000 14.905969 6.000000
15.392547 11.290595 -2.309447 0.000000 49.000000 15.045739 13.000000
14.635662 9.269877 0.716251 0.000000 28.000000 14.450985 0.000000
15.787850 10.055489 -1.028241 0.000000 2.000000 15.298560 14.000000
15.284880 12.381455 -3.182882 0.000000 34.000000 14.743114 20.000000
18.098067 11.864338 -0.893210 0.000000 51.000000 14.630539 8.000000
18.343223 12.854403 -1.380611 0.000000 28.000000 14.280252 0.000000
16.955209 11.776843 -1.717111 0.000000 46.000000 14.829301 19.000000
17.323781 12.383607 -2.437252 0.000000 53.000000 14.938890 27.000000
19.115678 12.504474 -0.771794 0.000000 37.000000 14.413209 0.000000
19.034106 12.400334 -0.743520 0.000000 43.000000 14.446222 0.000000
16.813448 11.414375 -1.452770 0.000000 48.000000 14.889062 19.000000
15.833505 11.934626 -2.893432 0.000000 56.000000 15.068794 20.000000
16.791727 11.834284 -2.486267 0.000000 58.000000 15.200501 25.000000
13.693055 11.039562 -2.547017 0.000000 63.000000 14.832380 6.000000
18.633157 11.963999 -0.363629 0.000000 43.000000 14.407642 0.000000
17.297807 12.955361 -2.619008 0.000000 40.000000 14.623033 27.000000
14.019440 11.646218 -3.068455 0.000000 44.000000 14.808477 7.000000
18.647375 12.642829 -1.669059 0.000000 31.000000 14.705880 15.000000
16.595257 12.180333 -2.842798 0.000000 69.000000 15.100942 27.000000
15.309111 10.063675 -0.365706 0.000000 42.000000 14.739726 14.000000
18.341484 11.602497 -0.025667 0.000000 33.000000 14.374515 0.000000
16.735499 13.066004 -3.558388 0.000000 54.000000 14.931520 21.000000
12.968299 9.377529 -0.767652 0.000000 34.000000 14.739600 9.000000
16.248922 12.113860 -2.897292 0.000000 61.000000 15.072324 27.000000
18.027283 11.099914 0.339683 0.000000 45.000000 14.420684 0.000000
17.083849 12.378169 -2.561503 0.000000 49.000000 14.941715 27.000000
14.625311 9.932694 -0.695689 0.000000 45.000000 14.817513 12.000000
18.355628 13.105888 -2.661815 0.000000 57.000000 14.875322 16.000000
16.799551 10.850739 0.132725 0.000000 28.000000 14.337448 0.000000
16.747599 10.751437 0.234071 0.000000 28.000000 14.332158 0.000000
14.198832 9.517852 -1.123861 0.000000 7.000000 15.243771 12.000000
17.254552 11.459978 -0.901705 0.000000 46.000000 14.662766 0.000000
16.683016 10.492199 0.262835 0.000000 36.000000 14.483533 0.000000
15.253882 11.957549 -3.050596 0.000000 60.000000 14.962811 20.000000
15.329785 12.318874 -2.984849 0.000000 63.000000 14.683335 20.000000
17.634514 10.302701 1.083508 0.000000 41.000000 14.428151 0.000000
14.656741 10.755531 -1.317724 0.000000 44.000000 14.602804 0.000000
16.344847 12.742043 -3.856578 0.000000 29.000000 15.224203 22.000000
16.787463 11.649504 -1.919923 0.000000 65.000000 14.991598 19.000000
17.563044 10.097295 1.275663 0.000000 44.000000 14.439221 0.000000
16.513047 10.110367 0.704129 0.000000 43.000000 14.441459 0.000000
17.520851 10.015862 1.431965 0.000000 31.000000 14.390752 0.000000
18.202794 12.090904 -1.612073 0.000000 49.000000 14.933101 24.000000
17.483353 9.927419 1.581712 0.000000 30.000000 14.352859 0.000000
15.409071 9.677519 -0.407720 0.000000 50.000000 15.078896 14.000000
15.862198 10.906099 -0.849971 0.000000 44.000000 14.593257 17.000000
16.391163 9.858723 1.161483 0.000000 28.000000 14.309894 0.000000
17.436438 9.712163 1.759113 0.000000 33.000000 14.387851 0.000000
16.371398 9.745931 1.232692 0.000000 28.000000 14.342912 0.000000
14.561947 12.472435 -3.997880 0.000000 46.000000 14.939674 23.000000
15.473428 10.495572 -0.765687 0.000000 41.000000 14.718462 14.000000
17.401298 9.495846 1.932195 0.000000 34.000000 14.429973 0.000000
15.547410 10.246098 -0.636603 0.000000 44.000000 14.846097 14.000000
18.076948 11.605167 -0.877042 0.000000 53.000000 14.803301 8.000000
16.335130 9.417815 1.458301 0.000000 35.000000 14.434550 0.000000
17.368429 9.301541 2.177779 0.000000 43.000000 14.412901 0.000000
14.522535 13.473365 -4.389124 0.000000 33.000000 14.432830 0.000000
14.608814 13.445646 -4.311889 0.000000 34.000000 14.433797 0.000000
17.810918 12.170241 -1.983332 0.000000 58.000000 14.975082 25.000000
13.227150 11.447956 -2.916485 0.000000 63.000000 14.609455 30.000000
16.642311 12.960891 -3.397383 0.000000 51.000000 14.881286 21.000000
13.812947 11.527724 -3.200035 0.000000 45.000000 14.908921 7.000000
16.405616 11.894119 -2.663780 0.000000 55.000000 15.141394 25.000000
18.309753 12.281307 -1.256259 0.000000 43.000000 14.612903 24.000000
13.037205 9.198072 -0.348035 0.000000 34.000000 14.638802 0.000000
14.526664 13.376401 -4.286298 0.000000 36.000000 14.442768 0.000000
17.077328 11.846846 -1.514826 0.000000 69.000000 14.694683 19.000000
14.466839 13.240247 -4.160009 0.000000 29.000000 14.446801 0.000000
14.441479 13.172623 -4.094794 0.000000 34.000000 14.448683 0.000000
14.415438 13.113734 -4.019126 0.000000 30.000000 14.437648 0.000000
17.600105 12.005811 -1.580896 0.000000 46.000000 14.784767 24.000000
14.921124 12.756190 -4.008888 0.000000 55.000000 14.853321 23.000000
18.496967 12.968179 -2.526195 0.000000 47.000000 14.938806 16.000000
16.645605 12.993332 -3.638983 0.000000 40.000000 15.004744 22.000000
17.359403 11.543402 -0.905724 0.000000 54.000000 14.637614 0.000000
15.518953 10.008497 -0.325565 0.000000 52.000000 14.822462 14.000000
17.108220 12.658523 -2.998919 0.000000 50.000000 15.009255 27.000000
13.716471 9.782509 -0.936670 0.000000 47.000000 14.783953 12.000000
16.151199 10.917523 -0.862513 0.000000 40.000000 14.684383 17.000000
13.481000 12.087377 -3.270140 0.000000 24.000000 14.437103 0.000000
15.001527 11.414594 -2.313349 0.000000 45.000000 14.833231 29.000000
13.825563 9.705130 -1.238432 0.000000 53.000000 15.057623 12.000000
14.607354 12.072073 -2.650411 0.000000 32.000000 14.431627 0.000000
18.027481 9.885753 1.199771 0.000000 61.000000 14.787250 2.000000
16.076662 12.970077 -4.041508 0.000000 54.000000 15.084251 22.000000
14.108820 11.709805 -2.265994 0.000000 24.000000 14.305199 0.000000
14.193432 11.675136 -2.200014 0.000000 23.000000 14.317517 0.000000
15.250382 11.681927 -1.722827 0.000000 33.000000 14.360039 0.000000
14.285653 11.639854 -2.140012 0.000000 23.000000 14.336317 0.000000
15.320334 11.668225 -1.615924 0.000000 27.000000 14.327638 0.000000
18.118932 12.062139 -1.608029 0.000000 72.000000 14.924997 24.000000
15.401947 11.641931 -1.541068 0.000000 26.000000 14.327520 0.000000
16.669300 8.793821 1.212807 0.000000 11.000000 15.144908 1.000000
19.383723 12.480918 -1.293821 0.000000 70.000000 14.831311 10.000000
15.356960 9.630214 -0.294549 0.000000 40.000000 15.028434 14.000000
14.103423 12.227257 -4.058200 0.000000 66.000000 15.009405 23.000000
17.100127 11.816178 -1.498565 0.000000 58.000000 14.714493 19.000000
16.950233 13.302004 -3.222192 0.000000 34.000000 14.624155 21.000000
12.763434 9.773782 -1.229621 0.000000 46.000000 14.664472 0.000000
15.515237 11.449874 -1.371660 0.000000 30.000000 14.401340 0.000000
15.629893 11.451499 -1.307284 0.000000 25.000000 14.397678 0.000000
15.745705 11.452653 -1.252089 0.000000 25.000000 14.400279 0.000000
15.231675 11.769592 -3.135816 0.000000 55.000000 15.144536 20.000000
17.289354 11.496346 -0.427181 0.000000 29.000000 14.360320 0.000000
17.423345 11.474526 -0.451877 0.000000 34.000000 14.433789 0.000000
14.197435 9.898733 -1.052744 0.000000 58.000000 14.922192 12.000000
14.107145 12.194685 -4.246261 0.000000 61.000000 15.148096 23.000000
17.348622 11.706600 -0.538492 0.000000 26.000000 14.292942 0.000000
18.289774 11.662417 -0.033059 0.000000 30.000000 14.318789 0.000000
17.476769 11.743763 -0.486666 0.000000 27.000000 14.275208 0.000000
15.350993 10.326760 -0.963962 0.000000 48.000000 14.922707 14.000000
15.261428 12.904371 -3.914385 0.000000 68.000000 14.796163 28.000000
16.686390 12.664245 -2.958433 0.000000 44.000000 14.846478 27.000000
18.446583 12.878436 -2.625740 0.000000 50.000000 15.048516 16.000000
18.087189 11.567504 -0.746396 0.000000 45.000000 14.755056 8.000000
13.653086 9.769425 -0.893807 0.000000 45.000000 14.747435 12.000000
13.191568 9.770089 -1.352787 0.000000 48.000000 14.877769 11.000000
18.833162 12.051415 -0.408861 0.000000 40.000000 14.434750 0.000000
15.028896 13.332590 -4.233962 0.000000 54.000000 14.602790 0.000000
16.374096 13.126237 -2.994031 0.000000 32.000000 14.431355 0.000000
17.769738 10.868692 0.063435 0.000000 46.000000 14.674698 3.000000
14.809934 12.729093 -3.091184 0.000000 23.000000 14.282804 0.000000
14.749779 12.632144 -3.059699 0.000000 23.000000 14.315434 0.000000
17.121756 12.655141 -2.966243 0.000000 53.000000 14.996268 27.000000
14.661026 12.403030 -3.053233 0.000000 26.000000 14.450612 0.000000
14.597570 12.319749 -2.991958 0.000000 32.000000 14.454196 0.000000
14.536498 12.242231 -2.920243 0.000000 34.000000 14.448018 0.000000
17.525712 12.359928 -2.694721 0.000000 53.000000 15.176079 27.000000
16.880878 11.634424 -1.792862 0.000000 59.000000 14.955474 19.000000
16.855823 12.720411 -2.965330 0.000000 50.000000 14.863504 27.000000
17.736635 12.255425 -1.993515 0.000000 55.000000 14.895418 25.000000
14.184043 11.828638 -2.370832 0.000000 21.000000 14.305737 0.000000
14.143064 11.747369 -2.291099 0.000000 23.000000 14.303837 0.000000
14.122376 11.647967 -2.252522 0.000000 22.000000 14.346518 0.000000
15.654603 11.497600 -2.340322 0.000000 45.000000 14.996566 13.000000
15.445512 13.137851 -3.882720 0.000000 52.000000 14.665049 22.000000
14.071363 11.365962 -2.104601 0.000000 27.000000 14.446776 0.000000
17.330415 12.152096 -2.284427 0.000000 62.000000 15.017639 25.000000
17.726101 12.131229 -1.836541 0.000000 55.000000 14.887836 25.000000
16.437959 11.392518 -1.814601 0.000000 53.000000 15.004446 19.000000
15.420421 10.376781 -0.593314 0.000000 56.000000 14.684116 14.000000
16.528575 11.666261 -2.119608 0.000000 67.000000 15.017805 19.000000
15.908140 11.353705 -1.460859 0.000000 32.000000 14.650425 18.000000
14.006651 11.055442 -1.779002 0.000000 28.000000 14.456056 0.000000
13.992729 10.988630 -1.677613 0.000000 27.000000 14.439106 0.000000
16.918939 11.900900 -2.313562 0.000000 46.000000 15.087864 25.000000
13.943941 10.893488 -1.387697 0.000000 19.000000 14.317752 0.000000
15.548701 9.923141 0.613046 0.000000 29.000000 14.326654 0.000000
14.555244 9.905403 0.111780 0.000000 25.000000 14.326873 0.000000
15.606424 9.887816 0.726264 0.000000 28.000000 14.302337 0.000000
18.303666 11.861541 -1.595673 0.000000 47.000000 15.122742 24.000000
17.714676 11.382865 -0.486480 0.000000 40.000000 14.614272 4.000000
15.749669 9.801476 0.880897 0.000000 29.000000 14.317418 0.000000
15.602993 11.520729 -2.393854 0.000000 52.000000 14.995640 13.000000
16.029747 11.436767 -1.356244 0.000000 66.000000 14.565171 18.000000
13.744840 11.367388 -2.853796 0.000000 78.000000 14.794972 6.000000
17.652194 12.788035 -2.188249 0.000000 50.000000 14.597404 27.000000
15.058392 9.677707 0.518768 0.000000 26.000000 14.407000 0.000000
16.100863 9.623486 1.072908 0.000000 51.000000 14.442936 0.000000
15.149806 9.653144 0.591330 0.000000 30.000000 14.410121 0.000000
17.671326 12.859613 -2.196907 0.000000 56.000000 14.556454 27.000000
15.250315 9.623169 0.642775 0.000000 35.000000 14.432856 0.000000
16.273492 9.577622 1.242497 0.000000 35.000000 14.428759 0.000000
19.199197 13.119450 -2.274258 0.000000 74.000000 14.899258 26.000000
13.213481 9.279757 -0.229908 0.000000 30.000000 14.563765 0.000000
15.453273 9.580600 0.768188 0.000000 42.000000 14.452629 0.000000
16.464310 9.533973 1.389849 0.000000 42.000000 14.432195 0.000000
15.725647 10.005758 0.209184 0.000000 57.000000 14.566806 0.000000
15.395200 9.915886 -0.134410 0.000000 50.000000 14.735148 14.000000
14.239190 10.578413 -1.471060 0.000000 45.000000 14.692110 0.000000
16.655693 9.518001 1.582310 0.000000 28.000000 14.388321 0.000000
15.766824 9.547939 0.970903 0.000000 36.000000 14.453583 0.000000
13.650609 10.133984 -1.137657 0.000000 43.000000 14.627897 12.000000
14.270509 10.281833 -0.919398 0.000000 38.000000 14.585038 0.000000
16.869441 9.490928 1.697271 0.000000 30.000000 14.406530 0.000000
17.006199 13.014251 -3.487642 0.000000 48.000000 15.012596 21.000000
16.983140 9.476564 1.733448 0.000000 34.000000 14.431291 0.000000
15.490481 11.616718 -2.262149 0.000000 50.000000 14.810130 13.000000
17.092045 9.475012 1.799272 0.000000 33.000000 14.427245 0.000000
16.210134 9.551621 1.240941 0.000000 31.000000 14.428543 0.000000
17.630117 12.122543 -2.203567 0.000000 67.000000 15.085609 25.000000
16.323639 9.563153 1.319934 0.000000 33.000000 14.408441 0.000000
13.453837 9.376399 -0.389335 0.000000 43.000000 14.666021 9.000000
16.444502 9.569888 1.371364 0.000000 37.000000 14.410849 0.000000
17.434116 9.487098 2.000824 0.000000 32.000000 14.405294 0.000000
16.568787 9.573464 1.405754 0.000000 35.000000 14.426956 0.000000
17.553199 9.495314 2.062182 0.000000 32.000000 14.400051 0.000000
16.693189 10.806988 -1.568414 0.000000 53.000000 15.364289 18.000000
17.675629 9.508321 2.122626 0.000000 32.000000 14.392927 0.000000
16.300709 11.375724 -2.108896 0.000000 78.000000 15.151038 19.000000
16.935166 9.637785 1.605681 0.000000 26.000000 14.375574 0.000000
14.468510 12.406541 -4.423807 0.000000 45.000000 15.215651 23.000000
17.191066 9.683370 1.695801 0.000000 30.000000 14.369149 0.000000
14.701379 11.685614 -2.761381 0.000000 47.000000 14.810830 13.000000
18.125154 11.952961 -1.582517 0.000000 40.000000 14.991273 24.000000
17.583376 9.767284 1.806216 0.000000 28.000000 14.365833 0.000000
17.713200 9.804813 1.851628 0.000000 26.000000 14.352243 0.000000
17.958550 13.159665 -2.200931 0.000000 40.000000 14.431101 0.000000
15.945666 13.057024 -3.542581 0.000000 49.000000 14.677401 22.000000
15.401949 12.241406 -2.955878 0.000000 48.000000 14.745329 20.000000
16.593834 8.914014 1.121616 0.000000 37.000000 15.088291 1.000000
16.892545 11.870760 -1.720495 0.000000 54.000000 14.742843 19.000000
17.289984 12.068767 -1.698824 0.000000 40.000000 14.711509 25.000000
18.329616 12.563236 -1.304499 0.000000 34.000000 14.442517 0.000000
17.458127 11.669661 -0.436069 0.000000 32.000000 14.292795 0.000000
17.840501 12.394680 -1.802178 0.000000 59.000000 14.711048 24.000000
14.689493 11.064978 -1.916738 0.000000 39.000000 14.749485 29.000000
16.096150 11.954283 -2.203953 0.000000 41.000000 14.721004 19.000000
15.217050 12.184216 -3.117344 0.000000 55.000000 14.825946 20.000000
15.855487 11.265119 -1.246056 0.000000 55.000000 14.568477 18.000000
17.067895 10.969910 0.005044 0.000000 31.000000 14.412954 0.000000
17.072811 11.783736 -1.998549 0.000000 62.000000 15.031848 25.000000
18.281800 11.705413 -1.024556 0.000000 52.000000 14.884433 8.000000
16.826841 10.383606 0.467808 0.000000 38.000000 14.484606 0.000000
15.645535 11.969049 -2.980577 0.000000 59.000000 15.036593 20.000000
15.731647 10.291875 0.036487 0.000000 32.000000 14.464215 0.000000
16.754863 10.211812 0.703103 0.000000 35.000000 14.444883 0.000000
16.724050 10.123662 0.814867 0.000000 38.000000 14.431871 0.000000
16.694233 10.040827 0.940526 0.000000 32.000000 14.406890 0.000000
16.650861 9.983489 1.146536 0.000000 26.000000 14.310393 0.000000
16.632404 9.890499 1.248770 0.000000 27.000000 14.310606 0.000000
14.411585 12.524654 -4.331824 0.000000 58.000000 15.055679 23.000000
17.693960 12.501555 -1.845157 0.000000 64.000000 14.612405 25.000000
15.564281 9.782275 0.758340 0.000000 27.000000 14.346610 0.000000
16.189414 11.142854 -1.581692 0.000000 62.000000 14.966891 18.000000
15.378576 10.394233 -0.885844 0.000000 49.000000 14.834966 14.000000
16.618020 9.582464 1.460862 0.000000 33.000000 14.402712 0.000000
18.060818 11.759396 -1.033467 0.000000 47.000000 14.780144 8.000000
17.325970 12.298733 -2.692184 0.000000 71.000000 15.155725 27.000000
15.598202 12.899748 -3.867524 0.000000 46.000000 14.878275 22.000000
14.417523 10.619439 -1.300800 0.000000 46.000000 14.615891 0.000000
15.063773 11.447774 -2.720169 0.000000 51.000000 15.074804 13.000000
15.489370 9.746829 -0.216840 0.000000 26.000000 14.938385 14.000000
16.503954 11.372099 -2.172437 0.000000 67.000000 15.256728 19.000000
