-1.708492 -15.228478 -43.737396 0.000000 67.000000 14.744945 23.000000
-1.273705 -14.574669 -44.025200 0.000000 29.000000 14.229816 0.000000
-1.390312 -14.587971 -42.806166 0.000000 24.000000 14.248800 0.000000
-1.152813 -14.605214 -43.984968 0.000000 34.000000 14.294181 0.000000
-0.792888 -14.784724 -42.979409 0.000000 57.000000 14.599000 2.000000
-0.524648 -14.680286 -38.421398 0.000000 45.000000 14.718766 16.000000
-1.143191 -14.594881 -42.747414 0.000000 32.000000 14.326337 0.000000
-0.894387 -14.537322 -43.951558 0.000000 35.000000 14.302286 0.000000
-0.327756 -14.627093 -39.353037 0.000000 53.000000 14.693074 17.000000
-0.764967 -14.504734 -43.938923 0.000000 33.000000 14.307570 0.000000
-3.231160 -15.494543 -42.970565 0.000000 49.000000 14.599306 13.000000
-2.553704 -15.615702 -42.401760 0.000000 72.000000 14.922934 26.000000
-2.969164 -15.435456 -40.207057 0.000000 67.000000 14.703740 11.000000
-2.118549 -15.468283 -40.564977 0.000000 70.000000 14.961482 24.000000
-0.361854 -14.349425 -43.935423 0.000000 28.000000 14.271252 0.000000
-0.477891 -14.365933 -42.712484 0.000000 24.000000 14.293596 0.000000
-3.983103 -15.753940 -38.844678 0.000000 48.000000 14.769477 5.000000
-1.501018 -14.831999 -43.748675 0.000000 53.000000 14.422062 0.000000
-2.779285 -15.649859 -41.507380 0.000000 60.000000 14.921157 27.000000
-1.856716 -15.387539 -40.143147 0.000000 65.000000 14.970565 24.000000
0.466279 -14.713079 -43.699273 0.000000 47.000000 14.859099 22.000000
-1.564746 -15.097223 -39.594232 0.000000 33.000000 14.790995 18.000000
-1.269954 -15.174562 -39.695841 0.000000 54.000000 14.944334 18.000000
-2.841496 -15.340487 -39.490178 0.000000 59.000000 14.671082 11.000000
1.225722 -13.818911 -43.021059 0.000000 26.000000 14.234746 0.000000
1.454479 -13.889584 -44.250961 0.000000 39.000000 14.327334 0.000000
1.324079 -13.871039 -43.048779 0.000000 32.000000 14.311366 0.000000
-0.143995 -14.604800 -40.722297 0.000000 70.000000 14.679441 14.000000
1.557609 -13.833175 -43.150087 0.000000 30.000000 14.337045 0.000000
-2.167991 -15.490724 -39.937113 0.000000 64.000000 14.989186 24.000000
1.333138 -14.015881 -39.451881 0.000000 42.000000 14.567364 1.000000
-0.075329 -14.744594 -39.152047 0.000000 41.000000 14.882750 17.000000
0.516191 -14.301791 -43.268342 0.000000 58.000000 14.492061 22.000000
-3.073030 -15.523716 -42.515267 0.000000 44.000000 14.685966 19.000000
-4.321012 -15.525713 -40.925213 0.000000 38.000000 14.389847 0.000000
-4.315933 -15.434752 -39.812627 0.000000 30.000000 14.339381 0.000000
-4.250644 -15.410302 -39.901277 0.000000 27.000000 14.331336 0.000000
-3.679861 -15.813408 -41.274625 0.000000 49.000000 14.833929 19.000000
-4.186660 -15.392067 -39.990745 0.000000 26.000000 14.328864 0.000000
-4.126211 -15.395939 -41.181718 0.000000 33.000000 14.311565 0.000000
0.282926 -14.560759 -43.168708 0.000000 48.000000 14.678587 22.000000
-4.065422 -15.381826 -41.268984 0.000000 36.000000 14.312226 0.000000
-4.065190 -15.370659 -40.178224 0.000000 24.000000 14.336287 0.000000
-4.006259 -15.372409 -41.358321 0.000000 38.000000 14.316874 0.000000
-0.976231 -14.740703 -42.978230 0.000000 29.000000 14.505573 2.000000
-3.772503 -15.822843 -39.728728 0.000000 55.000000 14.866300 12.000000
-3.953846 -15.373457 -40.374800 0.000000 26.000000 14.363822 0.000000
-3.892912 -15.343440 -41.548872 0.000000 34.000000 14.314674 0.000000
-2.616016 -15.471857 -40.269531 0.000000 58.000000 14.835340 11.000000
-3.788761 -15.332195 -41.744146 0.000000 33.000000 14.326764 0.000000
1.672401 -13.949108 -41.600134 0.000000 56.000000 14.529696 28.000000
-3.753573 -15.303362 -40.804318 0.000000 29.000000 14.338834 0.000000
-2.776780 -15.606821 -41.155197 0.000000 68.000000 14.891763 27.000000
-3.116974 -15.542237 -42.617735 0.000000 43.000000 14.688203 19.000000
-3.455010 -15.290492 -42.619012 0.000000 40.000000 14.352139 0.000000
-2.784030 -15.346073 -39.491491 0.000000 70.000000 14.692455 11.000000
-3.230807 -15.257624 -44.002751 0.000000 34.000000 14.339195 0.000000
-3.623515 -15.781209 -41.697544 0.000000 72.000000 14.805311 19.000000
-3.219991 -15.243343 -44.275185 0.000000 39.000000 14.319841 0.000000
-0.892016 -15.019290 -41.259606 0.000000 50.000000 14.851142 10.000000
-3.320312 -15.239498 -43.473619 0.000000 30.000000 14.313635 0.000000
-0.853799 -14.584498 -39.556424 0.000000 34.000000 14.498769 17.000000
-1.914331 -15.345549 -39.857783 0.000000 59.000000 14.923255 24.000000
-0.256543 -14.657299 -40.698482 0.000000 40.000000 14.699138 14.000000
-3.340614 -15.826719 -43.031863 0.000000 71.000000 14.885553 13.000000
-3.372265 -15.287914 -44.160550 0.000000 44.000000 14.323723 0.000000
0.295730 -14.804310 -41.751251 0.000000 56.000000 14.960999 9.000000
-2.876363 -15.477130 -39.532202 0.000000 46.000000 14.791135 11.000000
-2.840527 -15.651943 -41.214390 0.000000 55.000000 14.915372 27.000000
-3.453010 -15.313567 -44.719242 0.000000 48.000000 14.308004 0.000000
-3.479059 -15.327682 -44.856392 0.000000 43.000000 14.309908 0.000000
-0.885089 -14.923725 -41.534269 0.000000 58.000000 14.752627 10.000000
-2.295136 -15.609337 -41.474795 0.000000 49.000000 15.018559 27.000000
-4.293772 -15.433608 -39.956755 0.000000 27.000000 14.339888 0.000000
-0.393025 -14.678929 -41.539007 0.000000 50.000000 14.655019 10.000000
-2.926134 -15.328156 -39.843789 0.000000 66.000000 14.624350 11.000000
-2.118293 -15.331986 -38.663569 0.000000 47.000000 14.891265 3.000000
-4.086270 -15.362310 -39.911278 0.000000 23.000000 14.330881 0.000000
0.450549 -14.559929 -43.777369 0.000000 44.000000 14.705248 22.000000
-3.354605 -14.997930 -39.878370 0.000000 19.000000 14.186647 0.000000
-3.255039 -15.009082 -39.883826 0.000000 22.000000 14.224991 0.000000
-3.159684 -15.086635 -39.888781 0.000000 25.000000 14.325896 0.000000
-3.253006 -15.730992 -44.635792 0.000000 71.000000 14.767118 7.000000
-3.551443 -15.613232 -43.423123 0.000000 60.000000 14.609329 13.000000
-0.589057 -14.673966 -42.640801 0.000000 57.000000 14.560429 0.000000
-1.683059 -14.592229 -40.636538 0.000000 21.000000 14.240151 0.000000
-1.573514 -14.599134 -41.862973 0.000000 27.000000 14.238350 0.000000
-1.611924 -14.607517 -40.710989 0.000000 20.000000 14.272325 0.000000
-1.511906 -14.674492 -41.920061 0.000000 35.000000 14.326062 0.000000
-1.544756 -14.637894 -40.786709 0.000000 24.000000 14.317831 0.000000
-1.436112 -14.649427 -41.999487 0.000000 31.000000 14.320654 0.000000
-1.171490 -14.785381 -42.309510 0.000000 35.000000 14.515183 0.000000
-1.375708 -14.710005 -42.067013 0.000000 35.000000 14.393514 0.000000
-2.440771 -15.242485 -38.484298 0.000000 51.000000 14.720992 3.000000
-2.120075 -15.764419 -43.802334 0.000000 8.000000 15.142218 23.000000
-3.488096 -15.505645 -42.541345 0.000000 62.000000 14.551841 19.000000
0.260412 -14.623877 -43.579962 0.000000 59.000000 14.719781 22.000000
-1.209000 -14.543983 -41.245428 0.000000 24.000000 14.306908 0.000000
-1.112610 -14.648741 -42.421358 0.000000 30.000000 14.396944 0.000000
-1.151797 -14.531869 -41.345178 0.000000 24.000000 14.308088 0.000000
-3.820192 -15.551560 -43.203780 0.000000 47.000000 14.482048 0.000000
-2.943842 -15.340052 -43.720936 0.000000 33.000000 14.507433 23.000000
-3.001780 -15.161735 -39.437839 0.000000 49.000000 14.456429 11.000000
-0.801744 -14.902980 -39.466869 0.000000 56.000000 14.821795 17.000000
0.855655 -14.580178 -44.164601 0.000000 43.000000 14.825528 22.000000
-3.191262 -15.353882 -38.661853 0.000000 39.000000 14.612586 4.000000
-1.442522 -15.221178 -39.739980 0.000000 45.000000 14.939456 18.000000
-0.861568 -14.478868 -42.002919 0.000000 30.000000 14.317372 0.000000
-0.823719 -14.474350 -42.119535 0.000000 34.000000 14.319899 0.000000
-0.787463 -14.458524 -42.242738 0.000000 29.000000 14.310919 0.000000
-2.386884 -15.092305 -39.436877 0.000000 62.000000 14.561609 24.000000
1.240776 -14.142942 -39.344376 0.000000 39.000000 14.666918 1.000000
0.281475 -14.538666 -44.072576 0.000000 65.000000 14.628215 21.000000
-0.584358 -14.456641 -43.642352 0.000000 33.000000 14.321310 0.000000
-0.706829 -14.475201 -42.607856 0.000000 31.000000 14.337830 0.000000
-0.270200 -14.525749 -38.693442 0.000000 49.000000 14.632889 16.000000
-0.529097 -14.453176 -43.886575 0.000000 40.000000 14.325651 0.000000
-0.506542 -14.446924 -44.013047 0.000000 35.000000 14.321927 0.000000
-0.495257 -14.489755 -44.125937 0.000000 37.000000 14.362590 0.000000
-2.568920 -15.714605 -42.062984 0.000000 73.000000 15.024377 26.000000
-4.108276 -15.681627 -40.573186 0.000000 55.000000 14.610104 6.000000
-0.610737 -14.476964 -43.657228 0.000000 32.000000 14.332971 0.000000
-3.633948 -15.703068 -39.876364 0.000000 34.000000 14.785365 12.000000
-2.100403 -15.793029 -41.174836 0.000000 65.000000 15.258788 27.000000
-0.625557 -14.484755 -44.069733 0.000000 32.000000 14.323180 0.000000
-3.099471 -15.481393 -42.088408 0.000000 37.000000 14.651549 19.000000
-0.648810 -14.487922 -44.349462 0.000000 34.000000 14.310821 0.000000
-0.664266 -14.486863 -44.489916 0.000000 34.000000 14.301017 0.000000
-4.200965 -15.481396 -42.777150 0.000000 30.000000 14.321918 0.000000
-4.094951 -15.429783 -42.710922 0.000000 36.000000 14.304111 0.000000
-3.989227 -15.411155 -42.641456 0.000000 34.000000 14.317980 0.000000
1.099925 -14.501582 -44.131292 0.000000 57.000000 14.819402 22.000000
-1.804890 -15.057981 -42.813648 0.000000 49.000000 14.583794 0.000000
0.403433 -14.347164 -42.970076 0.000000 51.000000 14.513595 0.000000
-3.772274 -15.354582 -42.509250 0.000000 31.000000 14.328505 0.000000
-3.542784 -15.295410 -43.647005 0.000000 41.000000 14.299623 0.000000
-3.495226 -15.410511 -40.013590 0.000000 37.000000 14.538997 0.000000
-2.197230 -15.221174 -40.346377 0.000000 46.000000 14.709318 24.000000
-3.325559 -15.245951 -43.531290 0.000000 36.000000 14.316526 0.000000
-1.857689 -15.616591 -40.903852 0.000000 50.000000 15.165897 27.000000
-2.516664 -15.318221 -44.038372 0.000000 47.000000 14.595717 23.000000
-2.973192 -15.018815 -42.154195 0.000000 28.000000 14.240816 0.000000
-2.124338 -15.394194 -41.781115 0.000000 51.000000 14.850062 25.000000
-2.059988 -14.880117 -43.106646 0.000000 38.000000 14.332516 0.000000
-2.160882 -14.943834 -41.882453 0.000000 28.000000 14.404436 0.000000
0.536005 -14.768665 -42.278769 0.000000 47.000000 14.977128 20.000000
-2.021583 -15.257356 -39.584325 0.000000 51.000000 14.817361 24.000000
-1.646553 -14.606200 -41.845735 0.000000 29.000000 14.225275 0.000000
-1.448557 -14.641658 -43.046030 0.000000 29.000000 14.276416 0.000000
-1.534400 -14.632491 -41.825380 0.000000 29.000000 14.282484 0.000000
-1.333589 -14.635273 -43.033122 0.000000 32.000000 14.302818 0.000000
0.631610 -14.433208 -44.016753 0.000000 48.000000 14.626603 22.000000
-1.307601 -14.667204 -41.800296 0.000000 29.000000 14.379954 0.000000
-3.727204 -15.534215 -43.439287 0.000000 41.000000 14.483885 0.000000
-2.582534 -15.581017 -41.140222 0.000000 40.000000 14.921741 27.000000
-2.178402 -15.771380 -40.792951 0.000000 54.000000 15.228375 27.000000
-3.175783 -15.556480 -44.643229 0.000000 44.000000 14.620983 7.000000
-0.234367 -14.230762 -43.158217 0.000000 27.000000 14.217725 0.000000
-0.346973 -14.364762 -41.917172 0.000000 25.000000 14.354356 0.000000
-0.365361 -14.487207 -38.921260 0.000000 37.000000 14.562067 0.000000
-1.776676 -15.091618 -40.071282 0.000000 52.000000 14.711229 24.000000
-0.021882 -14.262407 -43.196915 0.000000 30.000000 14.306222 0.000000
-1.694297 -15.489928 -41.221629 0.000000 54.000000 15.079876 27.000000
-2.414673 -15.018313 -39.137562 0.000000 41.000000 14.492365 3.000000
-2.291155 -15.442973 -43.344145 0.000000 41.000000 14.800529 23.000000
0.778252 -14.375541 -43.150141 0.000000 26.000000 14.639807 22.000000
0.676260 -14.638047 -43.671667 0.000000 43.000000 14.846633 22.000000
0.338389 -14.144801 -42.166542 0.000000 26.000000 14.326797 0.000000
0.441121 -14.139286 -42.216357 0.000000 34.000000 14.348618 0.000000
0.805727 -14.565531 -44.213895 0.000000 66.000000 14.795955 22.000000
1.060631 -14.013518 -43.716029 0.000000 28.000000 14.353265 0.000000
1.198995 -13.844173 -43.825430 0.000000 27.000000 14.225924 0.000000
-1.624664 -15.282536 -39.894912 0.000000 20.000000 14.942525 18.000000
-2.024208 -15.665765 -41.253740 0.000000 53.000000 15.155433 27.000000
0.124095 -14.481956 -39.557910 0.000000 51.000000 14.673502 17.000000
1.457505 -13.856685 -44.042799 0.000000 31.000000 14.303232 0.000000
-0.300122 -14.492900 -38.748981 0.000000 43.000000 14.591238 16.000000
-2.525922 -15.755914 -41.777177 0.000000 65.000000 15.085127 27.000000
1.401431 -13.853055 -42.972459 0.000000 27.000000 14.318146 0.000000
1.479948 -13.837587 -43.065822 0.000000 28.000000 14.322265 0.000000
1.557332 -13.813082 -43.163883 0.000000 28.000000 14.317246 0.000000
1.631479 -13.797994 -43.266057 0.000000 28.000000 14.320229 0.000000
-0.400743 -14.696673 -39.578967 0.000000 57.000000 14.732268 17.000000
1.767438 -13.766205 -43.477967 0.000000 30.000000 14.320960 0.000000
-2.585306 -15.740222 -41.064752 0.000000 63.000000 15.076151 27.000000
-2.029906 -15.562856 -43.959348 0.000000 50.000000 14.968980 23.000000
-2.151953 -15.410765 -41.732472 0.000000 70.000000 14.859797 27.000000
-3.407740 -15.793836 -43.080991 0.000000 41.000000 14.833681 13.000000
-1.289172 -14.556685 -44.640390 0.000000 29.000000 14.188658 0.000000
-1.161089 -14.584820 -44.593003 0.000000 29.000000 14.252948 0.000000
-0.165524 -14.740480 -38.794764 0.000000 52.000000 14.864975 16.000000
0.619274 -14.946033 -41.787285 0.000000 14.000000 15.186244 9.000000
-0.752534 -14.518399 -44.516653 0.000000 45.000000 14.305771 0.000000
-2.123422 -15.607892 -42.157503 0.000000 44.000000 15.043416 25.000000
-4.569879 -15.522949 -39.499368 0.000000 24.000000 14.363046 0.000000
-4.474529 -15.499050 -39.510974 0.000000 26.000000 14.366380 0.000000
-2.315239 -15.109142 -40.290359 0.000000 53.000000 14.570621 0.000000
-4.285492 -15.408114 -39.548535 0.000000 24.000000 14.330727 0.000000
0.213780 -14.544909 -43.228109 0.000000 46.000000 14.642169 22.000000
-2.975628 -15.344875 -38.682044 0.000000 60.000000 14.663540 4.000000
-2.236175 -15.716263 -42.207436 0.000000 71.000000 15.114327 26.000000
-1.687070 -14.868631 -41.266152 0.000000 30.000000 14.484245 0.000000
-3.993898 -15.354072 -40.845908 0.000000 32.000000 14.319037 0.000000
-2.007886 -15.238514 -39.833007 0.000000 47.000000 14.795191 24.000000
-3.905536 -15.348316 -40.874221 0.000000 30.000000 14.337297 0.000000
-3.389430 -15.025425 -39.973837 0.000000 22.000000 14.200266 0.000000
-3.308745 -15.019261 -40.036000 0.000000 24.000000 14.214913 0.000000
-3.231378 -15.030143 -40.100304 0.000000 22.000000 14.244923 0.000000
-3.157977 -15.067307 -40.164987 0.000000 23.000000 14.299034 0.000000
-3.068483 -14.995717 -41.400848 0.000000 32.000000 14.216004 0.000000
0.643404 -14.533457 -44.278210 0.000000 58.000000 14.717781 22.000000
-2.165676 -14.872690 -42.747011 0.000000 35.000000 14.307309 0.000000
-3.671541 -15.696850 -40.228808 0.000000 53.000000 14.757680 12.000000
-0.649552 -14.516721 -38.511508 0.000000 42.000000 14.524038 16.000000
-0.409638 -15.004308 -44.183096 0.000000 58.000000 14.878485 8.000000
1.531127 -14.011207 -44.200891 0.000000 59.000000 14.467056 29.000000
-1.841840 -15.138531 -40.070508 0.000000 60.000000 14.738070 24.000000
-1.982239 -14.844342 -43.321835 0.000000 40.000000 14.313056 0.000000
-1.953015 -14.834003 -43.443201 0.000000 36.000000 14.307436 0.000000
-0.449241 -14.848540 -41.439129 0.000000 53.000000 14.805261 10.000000
-0.169825 -14.502303 -40.556107 0.000000 41.000000 14.579152 15.000000
-0.468285 -14.460194 -39.916313 0.000000 54.000000 14.475724 0.000000
-1.818915 -14.800457 -44.340135 0.000000 37.000000 14.284162 0.000000
-1.945356 -14.839961 -43.354859 0.000000 42.000000 14.318105 0.000000
-0.277291 -14.501361 -38.479894 0.000000 38.000000 14.614300 16.000000
-3.698081 -15.904263 -39.977914 0.000000 46.000000 14.957296 12.000000
0.461509 -14.747954 -41.849263 0.000000 41.000000 14.950110 9.000000
-2.023758 -14.873259 -44.597795 0.000000 28.000000 14.288602 0.000000
-4.174713 -15.467859 -42.801629 0.000000 38.000000 14.315482 0.000000
-4.281804 -15.460448 -41.601290 0.000000 26.000000 14.316652 0.000000
-4.072182 -15.425915 -42.749498 0.000000 38.000000 14.305532 0.000000
-2.998754 -15.663905 -43.291910 0.000000 56.000000 14.816534 23.000000
-0.589525 -14.602662 -38.470504 0.000000 48.000000 14.624586 16.000000
-4.070845 -15.402858 -41.490446 0.000000 27.000000 14.323847 0.000000
-3.865024 -15.378299 -42.646416 0.000000 39.000000 14.320989 0.000000
-3.962264 -15.367161 -41.439431 0.000000 34.000000 14.321547 0.000000
-2.800746 -15.487718 -39.581778 0.000000 58.000000 14.820842 11.000000
-4.056787 -15.654110 -40.452150 0.000000 48.000000 14.601933 6.000000
-3.073559 -14.991044 -41.153852 0.000000 25.000000 14.217962 0.000000
-2.888824 -14.992691 -42.354526 0.000000 27.000000 14.232939 0.000000
-1.464111 -14.679742 -42.347122 0.000000 33.000000 14.330861 0.000000
-2.479221 -15.359131 -38.709435 0.000000 66.000000 14.815026 3.000000
-1.410998 -14.643516 -41.164408 0.000000 30.000000 14.348573 0.000000
-1.257397 -14.658731 -42.395351 0.000000 37.000000 14.366911 0.000000
-1.304174 -14.605945 -41.197371 0.000000 30.000000 14.341311 0.000000
-3.546859 -15.849725 -41.731156 0.000000 59.000000 14.891408 19.000000
-2.503715 -15.768153 -41.113774 0.000000 49.000000 15.124189 27.000000
0.531476 -14.214361 -42.909851 0.000000 39.000000 14.423837 0.000000
-2.128701 -15.569535 -40.934061 0.000000 56.000000 15.044067 27.000000
-1.899784 -15.341269 -44.136425 0.000000 71.000000 14.787048 23.000000
-2.714811 -15.591485 -41.811139 0.000000 60.000000 14.873482 27.000000
-2.506783 -15.543971 -42.888257 0.000000 75.000000 14.851722 23.000000
-0.640818 -14.473169 -42.651642 0.000000 39.000000 14.352927 0.000000
-0.091672 -14.646753 -38.912627 0.000000 45.000000 14.791910 16.000000
-0.434985 -14.348185 -42.780694 0.000000 35.000000 14.286380 0.000000
0.158996 -14.520229 -43.152786 0.000000 52.000000 14.605578 22.000000
0.017275 -14.492008 -43.233241 0.000000 67.000000 14.536343 22.000000
-3.226182 -15.877609 -41.975464 0.000000 42.000000 14.999977 19.000000
-0.217259 -14.205990 -41.828987 0.000000 27.000000 14.241033 0.000000
-3.333478 -15.840831 -42.859522 0.000000 73.000000 14.906574 13.000000
-2.587783 -15.559247 -43.192839 0.000000 58.000000 14.834061 23.000000
0.009226 -14.252584 -43.125338 0.000000 28.000000 14.307763 0.000000
-0.070883 -14.243969 -41.976187 0.000000 24.000000 14.313687 0.000000
0.087545 -14.248802 -43.200702 0.000000 32.000000 14.323615 0.000000
0.008926 -14.220128 -42.062727 0.000000 22.000000 14.310350 0.000000
-2.747288 -15.475678 -40.395305 0.000000 49.000000 14.798332 11.000000
0.326575 -14.583356 -43.683198 0.000000 48.000000 14.696093 22.000000
-0.673800 -14.675072 -41.806907 0.000000 56.000000 14.564354 10.000000
0.288485 -14.168897 -42.432374 0.000000 24.000000 14.327520 0.000000
-3.674384 -15.394976 -44.368114 0.000000 41.000000 14.335460 0.000000
-2.886964 -15.511976 -44.148839 0.000000 55.000000 14.674693 23.000000
-3.446434 -15.318691 -44.236495 0.000000 44.000000 14.330121 0.000000
-3.330763 -15.289435 -44.173034 0.000000 41.000000 14.336379 0.000000
-1.789500 -15.024879 -40.620916 0.000000 31.000000 14.626109 24.000000
-3.097842 -15.235264 -44.050089 0.000000 31.000000 14.353375 0.000000
1.680173 -14.034100 -41.432697 0.000000 36.000000 14.618759 28.000000
-0.496728 -14.799032 -44.277284 0.000000 53.000000 14.654163 8.000000
-1.068644 -14.572614 -43.470748 0.000000 28.000000 14.302775 0.000000
-2.473070 -15.547434 -44.008388 0.000000 71.000000 14.828816 23.000000
-0.544661 -14.462144 -43.426100 0.000000 30.000000 14.344563 0.000000
1.239897 -13.939515 -39.558626 0.000000 52.000000 14.464634 1.000000
-0.234535 -14.192883 -43.474903 0.000000 24.000000 14.171249 0.000000
-0.120752 -14.252953 -43.457330 0.000000 23.000000 14.261241 0.000000
1.226644 -13.794116 -43.739476 0.000000 25.000000 14.188346 0.000000
-0.366550 -14.484638 -39.154553 0.000000 46.000000 14.551845 0.000000
1.437727 -13.864385 -43.801410 0.000000 26.000000 14.312778 0.000000
-0.404658 -15.102931 -44.488488 0.000000 74.000000 14.964801 8.000000
-0.303052 -14.656226 -39.477474 0.000000 48.000000 14.723973 17.000000
1.801411 -13.775366 -43.972727 0.000000 29.000000 14.323497 0.000000
1.918843 -13.746969 -44.038248 0.000000 35.000000 14.326967 0.000000
-4.345447 -15.449697 -41.349357 0.000000 29.000000 14.296573 0.000000
-4.275663 -15.434323 -41.424521 0.000000 30.000000 14.298922 0.000000
-4.176630 -15.796156 -40.556227 0.000000 42.000000 14.701457 6.000000
-2.020114 -15.517921 -43.756611 0.000000 53.000000 14.935045 23.000000
-4.077834 -15.413322 -41.662733 0.000000 36.000000 14.326453 0.000000
-3.526822 -15.555297 -39.612778 0.000000 50.000000 14.681871 12.000000
-2.132615 -15.625266 -41.626618 0.000000 47.000000 15.074416 27.000000
-2.877204 -15.507645 -39.888073 0.000000 48.000000 14.808858 11.000000
-3.961735 -15.344938 -40.754791 0.000000 26.000000 14.322156 0.000000
-3.897981 -15.353047 -41.933068 0.000000 38.000000 14.310251 0.000000
-3.905539 -15.329817 -40.853492 0.000000 26.000000 14.320203 0.000000
-2.713645 -15.633211 -40.007209 0.000000 25.000000 14.971260 11.000000
-3.787923 -15.342949 -42.120765 0.000000 30.000000 14.325333 0.000000
-3.735943 -15.338769 -42.218795 0.000000 34.000000 14.332723 0.000000
-2.273728 -15.568691 -43.592344 0.000000 44.000000 14.918144 23.000000
-2.469016 -15.539943 -43.978122 0.000000 51.000000 14.823723 23.000000
-3.592636 -15.348228 -42.523141 0.000000 45.000000 14.372149 0.000000
-3.396911 -15.701864 -42.786970 0.000000 45.000000 14.757801 13.000000
-0.151776 -14.787844 -40.689727 0.000000 63.000000 14.853963 14.000000
0.172167 -14.622824 -44.360012 0.000000 47.000000 14.669294 21.000000
-3.641594 -15.724252 -39.700778 0.000000 44.000000 14.809146 12.000000
-0.415474 -14.991978 -44.370988 0.000000 56.000000 14.859042 8.000000
-3.171747 -15.221658 -44.349341 0.000000 31.000000 14.310149 0.000000
-3.158817 -15.200780 -44.486727 0.000000 37.000000 14.289353 0.000000
-3.160709 -15.297913 -44.590451 0.000000 39.000000 14.378738 0.000000
-3.728109 -15.932639 -39.925457 0.000000 63.000000 14.977807 12.000000
-3.272420 -15.263129 -44.206390 0.000000 40.000000 14.326372 0.000000
-3.282412 -15.255090 -44.349984 0.000000 33.000000 14.311296 0.000000
-3.295076 -15.264638 -44.488584 0.000000 33.000000 14.312510 0.000000
-3.309818 -15.273977 -44.627970 0.000000 33.000000 14.312918 0.000000
-4.310938 -15.502935 -41.808499 0.000000 33.000000 14.342692 0.000000
-4.210112 -15.450904 -41.783848 0.000000 35.000000 14.321712 0.000000
-4.111856 -15.430140 -41.757855 0.000000 36.000000 14.330061 0.000000
-4.009565 -15.400337 -41.736319 0.000000 37.000000 14.330722 0.000000
0.592224 -14.486187 -43.069886 0.000000 47.000000 14.696574 22.000000
-1.635925 -14.916524 -39.633819 0.000000 62.000000 14.596441 18.000000
-3.434917 -15.047489 -40.466089 0.000000 18.000000 14.193067 0.000000
-3.327670 -14.990609 -40.471898 0.000000 22.000000 14.168258 0.000000
-3.273058 -15.913291 -43.105942 0.000000 54.000000 14.985148 13.000000
-3.128089 -15.013100 -40.483912 0.000000 22.000000 14.245214 0.000000
-2.998070 -15.126963 -41.707513 0.000000 29.000000 14.351866 0.000000
-2.435631 -14.898325 -40.669178 0.000000 23.000000 14.322620 0.000000
-1.904874 -14.965471 -43.233236 0.000000 50.000000 14.453731 0.000000
-2.253992 -14.902006 -40.754852 0.000000 24.000000 14.374169 0.000000
-1.565757 -14.626410 -41.276474 0.000000 21.000000 14.285357 0.000000
-1.448879 -14.649073 -42.495540 0.000000 29.000000 14.300961 0.000000
-1.493376 -14.629985 -41.354334 0.000000 23.000000 14.306531 0.000000
-4.623964 -15.581149 -38.918854 0.000000 54.000000 14.422264 0.000000
-1.423714 -14.637803 -41.434938 0.000000 28.000000 14.330929 0.000000
-1.302031 -14.623765 -42.651041 0.000000 34.000000 14.312749 0.000000
-1.359074 -14.652801 -41.518038 0.000000 27.000000 14.360735 0.000000
-2.501039 -15.575758 -41.866384 0.000000 48.000000 14.916352 27.000000
-3.280022 -15.858550 -42.384089 0.000000 43.000000 14.953642 19.000000
-0.349725 -14.561901 -41.146770 0.000000 43.000000 14.567291 14.000000
-1.225760 -14.615366 -41.702829 0.000000 29.000000 14.356172 0.000000
-4.096852 -15.587632 -43.615794 0.000000 35.000000 14.426264 0.000000
-1.157064 -14.574116 -41.803638 0.000000 23.000000 14.332569 0.000000
-1.098831 -14.565749 -41.902990 0.000000 24.000000 14.337646 0.000000
-1.042269 -14.562263 -42.002967 0.000000 25.000000 14.346920 0.000000
-0.979404 -14.500815 -42.116073 0.000000 24.000000 14.301914 0.000000
-0.929562 -14.500861 -42.223219 0.000000 30.000000 14.312472 0.000000
-0.883019 -14.489196 -42.331370 0.000000 28.000000 14.310838 0.000000
-2.466043 -15.729978 -42.266637 0.000000 55.000000 15.061389 26.000000
-0.699531 -14.486736 -43.621087 0.000000 35.000000 14.318693 0.000000
-2.616574 -15.747503 -41.511980 0.000000 58.000000 15.060171 27.000000
-0.799271 -14.837688 -39.313262 0.000000 44.000000 14.764716 17.000000
-0.756527 -14.468087 -42.675171 0.000000 29.000000 14.314977 0.000000
-2.475404 -15.563902 -40.931088 0.000000 76.000000 14.941900 27.000000
-4.316229 -15.923271 -40.112972 0.000000 57.000000 14.798552 6.000000
-0.537355 -14.458167 -44.078356 0.000000 32.000000 14.322030 0.000000
-0.549534 -14.713847 -39.738749 0.000000 48.000000 14.702097 17.000000
-0.585275 -14.441147 -43.417976 0.000000 28.000000 14.313325 0.000000
-0.279109 -14.679468 -40.896658 0.000000 41.000000 14.707802 14.000000
-0.306889 -14.790692 -40.921657 0.000000 48.000000 14.805983 14.000000
-3.015061 -15.475845 -38.599152 0.000000 64.000000 14.780848 4.000000
-0.534844 -14.450371 -43.943097 0.000000 33.000000 14.319554 0.000000
-1.882827 -15.218827 -39.599782 0.000000 56.000000 14.818657 24.000000
-2.630246 -15.108062 -40.012179 0.000000 39.000000 14.490436 11.000000
-3.828825 -15.492925 -44.425192 0.000000 49.000000 14.384496 0.000000
-3.734086 -15.453707 -44.357888 0.000000 47.000000 14.375469 0.000000
0.174444 -14.317510 -40.797912 0.000000 53.000000 14.490294 0.000000
-4.208548 -15.699440 -38.741903 0.000000 51.000000 14.657465 5.000000
-4.443461 -15.533933 -39.389904 0.000000 42.000000 14.412388 0.000000
-2.272176 -15.563498 -43.419788 0.000000 55.000000 14.919086 23.000000
-3.636945 -15.524794 -43.242070 0.000000 48.000000 14.506335 13.000000
-0.018776 -14.754165 -40.719442 0.000000 53.000000 14.857852 14.000000
-3.614671 -15.455155 -42.799910 0.000000 49.000000 14.459799 13.000000
-2.838872 -15.102617 -42.711318 0.000000 25.000000 14.341031 0.000000
-2.457607 -15.500659 -42.966308 0.000000 52.000000 14.821411 23.000000
-2.338047 -14.929390 -39.453309 0.000000 40.000000 14.418387 0.000000
-2.705763 -15.208757 -38.882059 0.000000 47.000000 14.601938 3.000000
-4.390232 -15.602814 -40.975205 0.000000 43.000000 14.442909 0.000000
-1.171741 -14.666255 -43.645958 0.000000 36.000000 14.358261 0.000000
0.115247 -14.571174 -44.417456 0.000000 52.000000 14.601998 21.000000
-0.927080 -14.851195 -41.390845 0.000000 55.000000 14.675856 10.000000
-1.144002 -14.621752 -42.435412 0.000000 24.000000 14.361827 0.000000
-0.922526 -14.555439 -43.662136 0.000000 29.000000 14.321022 0.000000
-2.630764 -15.754541 -41.167009 0.000000 54.000000 15.073939 27.000000
-0.796939 -14.509341 -43.674413 0.000000 31.000000 14.311477 0.000000
-0.338227 -14.501242 -40.973998 0.000000 29.000000 14.517790 14.000000
-0.679878 -14.489195 -43.682209 0.000000 37.000000 14.324598 0.000000
-0.767945 -14.462862 -42.472843 0.000000 27.000000 14.313212 0.000000
-0.557393 -14.448668 -43.700265 0.000000 31.000000 14.319349 0.000000
-2.992455 -15.246017 -39.704980 0.000000 53.000000 14.531415 11.000000
-0.423692 -14.355936 -43.733264 0.000000 35.000000 14.266659 0.000000
-0.514391 -14.328371 -42.521775 0.000000 24.000000 14.253422 0.000000
0.014880 -14.265229 -38.622166 0.000000 44.000000 14.464787 16.000000
-1.795431 -14.989745 -41.596795 0.000000 24.000000 14.559679 0.000000
-0.160709 -14.188834 -43.807268 0.000000 30.000000 14.177410 0.000000
-0.264178 -14.204176 -42.581995 0.000000 23.000000 14.202221 0.000000
-1.805439 -15.946030 -42.239091 0.000000 51.000000 15.454149 25.000000
0.023654 -14.705492 -42.614429 0.000000 50.000000 14.762690 20.000000
0.025619 -14.343094 -43.812929 0.000000 38.000000 14.377320 0.000000
-0.332257 -14.673816 -40.398411 0.000000 46.000000 14.703387 15.000000
1.312105 -13.845686 -43.450738 0.000000 28.000000 14.270899 0.000000
1.389324 -13.857212 -43.531222 0.000000 30.000000 14.300971 0.000000
-2.129369 -15.378710 -42.249985 0.000000 37.000000 14.818875 25.000000
-0.681026 -14.679598 -39.427070 0.000000 43.000000 14.642415 17.000000
-1.698236 -15.207495 -43.948506 0.000000 50.000000 14.720956 23.000000
1.703297 -13.783176 -43.916485 0.000000 34.000000 14.305373 0.000000
1.780228 -13.745322 -44.026399 0.000000 28.000000 14.287040 0.000000
-2.365100 -15.129083 -39.769300 0.000000 45.000000 14.592410 24.000000
1.910153 -13.720561 -44.245397 0.000000 27.000000 14.292604 0.000000
-2.967039 -15.439868 -43.280930 0.000000 62.000000 14.610744 23.000000
0.409737 -14.616437 -44.414980 0.000000 48.000000 14.727784 21.000000
-1.623270 -14.831540 -43.385327 0.000000 34.000000 14.399033 30.000000
1.149595 -14.033059 -42.421679 0.000000 28.000000 14.438063 0.000000
-3.557548 -15.540535 -42.789294 0.000000 39.000000 14.558031 13.000000
-0.528703 -14.474520 -40.550687 0.000000 34.000000 14.452405 0.000000
-4.021755 -15.346378 -40.210107 0.000000 23.000000 14.324105 0.000000
-0.605044 -14.874095 -39.467721 0.000000 47.000000 14.848999 17.000000
-0.279050 -14.609427 -39.414920 0.000000 56.000000 14.687758 17.000000
-3.569909 -15.621352 -42.904348 0.000000 61.000000 14.628473 13.000000
-1.318589 -15.242311 -39.669254 0.000000 47.000000 14.996609 18.000000
-3.652309 -15.826862 -41.340265 0.000000 56.000000 14.852448 19.000000
-0.762320 -14.617090 -39.183114 0.000000 32.000000 14.567482 17.000000
-3.090839 -15.029000 -40.825881 0.000000 23.000000 14.259996 0.000000
-0.875840 -14.956286 -41.397394 0.000000 50.000000 14.790814 10.000000
-3.164589 -15.301823 -43.909843 0.000000 41.000000 14.403066 0.000000
-2.927829 -15.049192 -42.113410 0.000000 28.000000 14.283938 0.000000
0.924283 -14.209110 -39.626011 0.000000 43.000000 14.633038 1.000000
-2.367456 -14.956985 -42.898889 0.000000 39.000000 14.327000 0.000000
-2.172354 -14.903166 -43.325436 0.000000 32.000000 14.316282 0.000000
-2.131565 -14.850617 -42.646584 0.000000 33.000000 14.298852 0.000000
-2.682321 -15.496833 -38.658302 0.000000 57.000000 14.892062 4.000000
-2.859554 -15.370022 -40.502746 0.000000 35.000000 14.662157 11.000000
-2.055481 -14.859280 -43.020261 0.000000 33.000000 14.316528 0.000000
-2.041914 -14.909818 -43.136162 0.000000 41.000000 14.365129 0.000000
-2.015599 -14.850142 -43.279279 0.000000 41.000000 14.310657 0.000000
-1.885462 -14.827390 -44.407906 0.000000 35.000000 14.289261 0.000000
-2.000697 -14.843993 -43.410319 0.000000 30.000000 14.304749 0.000000
-3.149784 -15.778158 -43.674189 0.000000 61.000000 14.871820 23.000000
-3.293812 -16.037553 -41.622394 0.000000 60.000000 15.145812 19.000000
-1.751340 -15.009505 -42.952361 0.000000 54.000000 14.547819 0.000000
-1.984667 -14.858595 -44.630238 0.000000 28.000000 14.284417 0.000000
-2.888725 -15.499244 -40.259278 0.000000 64.000000 14.785764 11.000000
-2.056100 -15.540259 -40.700603 0.000000 51.000000 15.043683 27.000000
-4.076494 -15.420901 -42.063329 0.000000 36.000000 14.321352 0.000000
-3.651335 -15.936033 -39.449829 0.000000 67.000000 15.017649 12.000000
-3.861726 -15.358080 -41.968998 0.000000 29.000000 14.324066 0.000000
-0.180482 -14.440371 -38.489130 0.000000 39.000000 14.582521 16.000000
-3.381106 -15.741399 -42.357541 0.000000 62.000000 14.813823 19.000000
-2.339220 -14.935415 -42.874494 0.000000 38.000000 14.314965 0.000000
-3.801828 -15.457365 -39.042108 0.000000 49.000000 14.529224 12.000000
-0.269214 -14.879176 -44.241345 0.000000 61.000000 14.795776 8.000000
-2.566037 -15.901267 -41.136991 0.000000 47.000000 15.233784 27.000000
-0.260373 -14.662914 -40.546293 0.000000 48.000000 14.708300 15.000000
-2.504056 -15.577362 -42.613658 0.000000 79.000000 14.893267 26.000000
-1.450722 -14.618761 -42.977856 0.000000 27.000000 14.256008 0.000000
-0.290384 -14.516104 -41.734875 0.000000 45.000000 14.521203 0.000000
-0.052694 -14.539510 -42.625092 0.000000 45.000000 14.581736 20.000000
-1.533185 -14.902021 -40.343015 0.000000 37.000000 14.588655 0.000000
-3.663887 -15.585774 -40.707185 0.000000 60.000000 14.637999 12.000000
-1.217756 -14.628651 -41.852540 0.000000 26.000000 14.366393 0.000000
-0.575554 -14.609003 -39.672812 0.000000 55.000000 14.596312 17.000000
0.505743 -14.644331 -43.843872 0.000000 47.000000 14.799548 22.000000
-0.900818 -14.474830 -41.999807 0.000000 24.000000 14.302631 0.000000
-1.545395 -15.004034 -42.235352 0.000000 39.000000 14.622920 25.000000
-0.713689 -14.453491 -42.104586 0.000000 29.000000 14.331095 0.000000
-3.079798 -15.371590 -42.545374 0.000000 55.000000 14.537129 19.000000
-0.438759 -14.362940 -43.409314 0.000000 33.000000 14.279480 0.000000
-2.731011 -15.610691 -41.724311 0.000000 50.000000 14.890151 27.000000
-0.132956 -14.710080 -39.487972 0.000000 36.000000 14.822839 17.000000
-2.541812 -15.459971 -42.643315 0.000000 56.000000 14.769120 26.000000
-3.860303 -15.522168 -40.931281 0.000000 38.000000 14.514956 19.000000
-1.398262 -15.351029 -39.850457 0.000000 5.000000 15.072917 18.000000
-3.564209 -15.806582 -41.893983 0.000000 72.000000 14.839977 19.000000
-0.069693 -14.206076 -43.699226 0.000000 30.000000 14.222821 0.000000
-0.173030 -14.248960 -42.534312 0.000000 26.000000 14.272179 0.000000
-0.332267 -14.642276 -39.558243 0.000000 50.000000 14.699854 17.000000
-3.327551 -16.133881 -41.776107 0.000000 61.000000 15.223936 19.000000
0.259005 -14.169956 -43.076105 0.000000 23.000000 14.299814 0.000000
-3.734752 -15.480202 -44.912096 0.000000 37.000000 14.383071 0.000000
-3.618612 -15.392600 -44.863439 0.000000 38.000000 14.332997 0.000000
-3.502364 -15.347659 -44.802278 0.000000 42.000000 14.324290 0.000000
-3.387421 -15.331933 -44.734362 0.000000 39.000000 14.343471 0.000000
-2.619598 -15.436778 -42.513951 0.000000 40.000000 14.729249 26.000000
-2.902725 -15.110148 -44.534663 0.000000 32.000000 14.272394 0.000000
-3.289093 -15.749062 -42.315108 0.000000 50.000000 14.848232 19.000000
-1.361170 -14.586137 -44.128212 0.000000 25.000000 14.213108 0.000000
-1.243407 -14.634488 -44.089107 0.000000 28.000000 14.293652 0.000000
-0.246674 -14.770209 -39.344145 0.000000 46.000000 14.853351 17.000000
-2.872687 -15.721674 -43.943069 0.000000 68.000000 14.886468 23.000000
-2.697303 -15.766792 -44.131491 0.000000 41.000000 14.972765 23.000000
1.055533 -14.625360 -43.915673 0.000000 18.000000 14.932647 22.000000
-0.582436 -14.477827 -44.041151 0.000000 28.000000 14.329487 0.000000
-0.449338 -14.439087 -44.043109 0.000000 30.000000 14.329430 0.000000
-0.292892 -14.301467 -44.074435 0.000000 22.000000 14.240070 0.000000
-0.450872 -14.834559 -44.495043 0.000000 49.000000 14.694137 8.000000
-2.859511 -15.589490 -41.518607 0.000000 52.000000 14.840454 27.000000
0.094489 -14.261225 -44.092691 0.000000 26.000000 14.309090 0.000000
-2.865106 -15.302085 -40.945301 0.000000 49.000000 14.581325 27.000000
-4.300014 -15.465775 -42.030157 0.000000 31.000000 14.303029 0.000000
-4.310861 -15.519059 -40.904057 0.000000 34.000000 14.386970 0.000000
-1.800978 -15.616714 -41.137597 0.000000 22.000000 15.174419 27.000000
-4.244981 -15.467530 -40.995336 0.000000 25.000000 14.353019 0.000000
0.481061 -14.624735 -43.704873 0.000000 69.000000 14.778270 22.000000
-1.345544 -14.892123 -39.694236 0.000000 63.000000 14.652223 18.000000
-4.107739 -15.433531 -42.275186 0.000000 36.000000 14.318002 0.000000
-3.316899 -15.900117 -41.081208 0.000000 63.000000 15.024693 19.000000
-4.046970 -15.410425 -42.365476 0.000000 35.000000 14.309931 0.000000
-4.062360 -15.385100 -41.279052 0.000000 28.000000 14.315903 0.000000
-3.988384 -15.408177 -42.454540 0.000000 39.000000 14.321306 0.000000
-3.876078 -15.712747 -38.774850 0.000000 55.000000 14.762067 5.000000
-2.375146 -15.698728 -41.044720 0.000000 61.000000 15.095679 27.000000
-3.685460 -15.642350 -40.431684 0.000000 68.000000 14.695034 12.000000
-1.415511 -15.004268 -39.735640 0.000000 36.000000 14.738980 18.000000
0.416005 -14.690579 -41.740656 0.000000 60.000000 14.885794 9.000000
-3.825097 -15.375351 -42.741039 0.000000 45.000000 14.326303 0.000000
-3.849803 -15.347835 -41.686955 0.000000 29.000000 14.326540 0.000000
-2.129269 -15.375288 -39.609470 0.000000 51.000000 14.899652 24.000000
-0.890118 -14.903410 -43.155202 0.000000 43.000000 14.680141 2.000000
-1.560339 -15.072759 -43.594103 0.000000 54.000000 14.641457 30.000000
-3.758890 -15.367818 -41.899083 0.000000 31.000000 14.364364 0.000000
-0.327709 -14.709700 -40.341915 0.000000 59.000000 14.740892 15.000000
-2.217077 -15.203582 -41.017771 0.000000 53.000000 14.665524 27.000000
-2.102604 -15.576028 -42.079704 0.000000 50.000000 15.021129 25.000000
-3.476638 -15.279217 -43.617363 0.000000 41.000000 14.303505 0.000000
-4.255329 -15.905381 -40.517381 0.000000 60.000000 14.785527 6.000000
-3.445105 -15.291459 -43.730161 0.000000 41.000000 14.320473 0.000000
-0.785484 -14.557435 -40.326567 0.000000 49.000000 14.467373 15.000000
0.779365 -14.658318 -43.222111 0.000000 39.000000 14.909197 22.000000
-3.385796 -15.285345 -43.970518 0.000000 49.000000 14.323525 0.000000
-3.359533 -15.272785 -44.096663 0.000000 42.000000 14.314794 0.000000
-1.803332 -15.471043 -41.518086 0.000000 53.000000 15.021858 27.000000
-2.278253 -15.156830 -39.897831 0.000000 55.000000 14.639209 24.000000
-3.886766 -15.537803 -44.803098 0.000000 47.000000 14.399350 0.000000
-3.381203 -15.270948 -43.508948 0.000000 32.000000 14.325681 0.000000
-0.679329 -14.965759 -41.214361 0.000000 64.000000 14.860627 10.000000
-3.822858 -15.571313 -40.931443 0.000000 66.000000 14.572574 19.000000
-3.559638 -15.580319 -40.257806 0.000000 56.000000 14.676188 12.000000
-3.353738 -15.282125 -43.910404 0.000000 33.000000 14.331304 0.000000
-3.349609 -15.283814 -44.045725 0.000000 37.000000 14.329771 0.000000
-2.533953 -15.563422 -42.797461 0.000000 75.000000 14.865688 23.000000
-3.611796 -15.758518 -43.337466 0.000000 59.000000 14.734620 13.000000
-2.534320 -15.350482 -38.811139 0.000000 75.000000 14.788097 3.000000
-3.352112 -15.828117 -42.463180 0.000000 65.000000 14.901780 19.000000
-3.366389 -15.339009 -44.720122 0.000000 37.000000 14.356590 0.000000
-1.313443 -15.412824 -39.782882 0.000000 4.000000 15.158065 18.000000
-1.295203 -14.742235 -41.906228 0.000000 28.000000 14.452051 0.000000
-4.122586 -15.447666 -42.336468 0.000000 37.000000 14.325469 0.000000
-3.034447 -15.850753 -44.803976 0.000000 48.000000 14.937753 7.000000
-2.700319 -15.584470 -42.110176 0.000000 47.000000 14.861282 26.000000
-4.087660 -15.389511 -41.094289 0.000000 24.000000 14.318948 0.000000
-3.376336 -15.803234 -43.009087 0.000000 61.000000 14.853761 13.000000
0.698341 -14.470780 -44.227784 0.000000 55.000000 14.674585 22.000000
-3.819774 -15.371304 -42.289160 0.000000 35.000000 14.338287 0.000000
-2.023386 -15.601056 -43.677820 0.000000 63.000000 15.016420 23.000000
-3.698912 -15.502803 -42.987607 0.000000 42.000000 14.476018 0.000000
-2.902876 -15.005422 -42.356000 0.000000 25.000000 14.241184 0.000000
-2.158317 -14.928013 -42.621793 0.000000 36.000000 14.366441 0.000000
-2.063719 -14.852215 -42.683238 0.000000 36.000000 14.318172 0.000000
-1.977365 -14.848047 -42.736997 0.000000 35.000000 14.336586 0.000000
-2.792448 -15.623961 -40.352699 0.000000 52.000000 14.929373 11.000000
-4.012037 -15.555963 -43.695163 0.000000 36.000000 14.417041 0.000000
-1.697144 -14.742807 -41.854823 0.000000 23.000000 14.341949 0.000000
-1.552676 -14.652944 -43.086245 0.000000 42.000000 14.256881 0.000000
-2.192931 -15.329472 -38.794060 0.000000 53.000000 14.863849 3.000000
-3.172050 -15.913411 -44.787947 0.000000 76.000000 14.959952 7.000000
-0.628283 -14.959019 -41.022513 0.000000 54.000000 14.874525 10.000000
-3.233373 -15.956919 -41.573663 0.000000 49.000000 15.086866 19.000000
-1.473636 -14.659117 -42.107558 0.000000 25.000000 14.316031 0.000000
-1.337568 -14.648179 -43.316406 0.000000 33.000000 14.305076 0.000000
0.439602 -14.468881 -41.457317 0.000000 57.000000 14.688648 9.000000
-1.629176 -15.068477 -40.160864 0.000000 55.000000 14.727377 18.000000
-1.288576 -14.693331 -42.373447 0.000000 32.000000 14.392102 0.000000
-1.378773 -14.759780 -41.940713 0.000000 46.000000 14.444444 0.000000
-1.222541 -14.638198 -42.479294 0.000000 32.000000 14.354272 0.000000
0.084565 -14.509668 -43.672704 0.000000 53.000000 14.558104 22.000000
-2.386968 -15.722913 -43.006414 0.000000 44.000000 15.053157 23.000000
-2.829110 -15.406332 -44.177651 0.000000 51.000000 14.588556 23.000000
-1.101568 -14.563169 -42.693183 0.000000 25.000000 14.309258 0.000000
-3.635959 -15.766006 -41.873733 0.000000 61.000000 14.781638 19.000000
-1.051249 -14.559786 -42.798950 0.000000 30.000000 14.316703 0.000000
-2.285715 -15.109008 -40.669189 0.000000 44.000000 14.566684 0.000000
-0.565301 -14.582710 -40.498629 0.000000 47.000000 14.547663 0.000000
-0.802556 -14.525171 -44.199772 0.000000 35.000000 14.308380 0.000000
-2.185357 -15.346861 -39.531754 0.000000 68.000000 14.859176 24.000000
-0.709732 -14.491068 -44.428827 0.000000 33.000000 14.294295 0.000000
-0.670424 -14.486557 -44.544376 0.000000 38.000000 14.297270 0.000000
-2.997047 -15.564724 -41.454047 0.000000 51.000000 14.780319 27.000000
-0.746818 -14.503045 -43.740192 0.000000 28.000000 14.317343 0.000000
-0.722731 -14.503777 -43.867130 0.000000 38.000000 14.320735 0.000000
-2.515401 -15.591775 -41.053617 0.000000 70.000000 14.953576 27.000000
-0.811864 -14.982395 -41.529517 0.000000 51.000000 14.829537 10.000000
-3.422175 -16.018812 -41.556858 0.000000 45.000000 15.094052 19.000000
-0.655684 -14.488470 -44.391003 0.000000 32.000000 14.308104 0.000000
-0.645605 -14.485369 -44.526890 0.000000 31.000000 14.303619 0.000000
-3.772226 -15.491811 -44.913512 0.000000 38.000000 14.383698 0.000000
-3.661481 -15.414793 -44.867705 0.000000 40.000000 14.342183 0.000000
-3.551244 -15.349849 -44.821749 0.000000 49.000000 14.312117 0.000000
-2.957332 -15.692938 -38.538825 0.000000 61.000000 15.007230 4.000000
-0.863103 -14.607810 -40.511137 0.000000 43.000000 14.488158 0.000000
-3.331099 -15.343802 -44.700820 0.000000 41.000000 14.371663 0.000000
0.174727 -14.582116 -40.918674 0.000000 32.000000 14.740461 14.000000
-3.105292 -15.272526 -44.608327 0.000000 39.000000 14.369287 0.000000
1.053279 -14.161223 -39.715970 0.000000 58.000000 14.620256 1.000000
-1.460479 -14.968081 -43.433756 0.000000 55.000000 14.574001 0.000000
-1.928516 -15.554905 -42.076500 0.000000 46.000000 15.049594 25.000000
-2.269995 -15.092961 -40.675069 0.000000 40.000000 14.555489 0.000000
0.589771 -14.619995 -41.400500 0.000000 70.000000 14.877426 9.000000
-2.276433 -14.946411 -44.390093 0.000000 32.000000 14.294825 0.000000
-2.171895 -15.022137 -44.337829 0.000000 41.000000 14.398363 0.000000
-1.359399 -15.218106 -39.709333 0.000000 55.000000 14.960705 18.000000
-3.243330 -15.851449 -41.087001 0.000000 55.000000 14.998356 19.000000
0.044305 -14.587526 -42.541263 0.000000 35.000000 14.657580 20.000000
-1.793933 -14.800274 -44.314757 0.000000 32.000000 14.291773 0.000000
-3.096544 -15.573817 -43.724471 0.000000 58.000000 14.688996 23.000000
-2.572403 -15.385538 -40.820607 0.000000 59.000000 14.747150 27.000000
-1.522183 -14.606429 -43.094444 0.000000 32.000000 14.220500 0.000000
-1.292035 -14.576373 -44.311351 0.000000 28.000000 14.217224 0.000000
-2.799061 -15.520983 -40.149025 0.000000 64.000000 14.835184 11.000000
-3.345969 -16.151989 -41.518268 0.000000 15.000000 15.244374 19.000000
-1.295208 -14.651352 -43.073171 0.000000 28.000000 14.327696 0.000000
-1.063957 -14.592098 -44.296911 0.000000 31.000000 14.296490 0.000000
-0.601861 -14.798252 -40.223383 0.000000 56.000000 14.753056 15.000000
-0.940324 -14.546963 -44.308520 0.000000 31.000000 14.287345 0.000000
-0.817851 -14.522403 -44.318784 0.000000 30.000000 14.297663 0.000000
-0.698138 -14.494688 -44.332437 0.000000 31.000000 14.304075 0.000000
-0.581364 -14.481269 -44.346347 0.000000 37.000000 14.323377 0.000000
-3.962884 -15.368227 -39.144729 0.000000 44.000000 14.395424 0.000000
-0.296697 -14.215476 -43.257347 0.000000 23.000000 14.182488 0.000000
-0.188832 -14.223784 -43.284728 0.000000 27.000000 14.219723 0.000000
-0.087002 -14.257085 -43.311509 0.000000 26.000000 14.279276 0.000000
-2.460232 -15.407851 -42.471313 0.000000 48.000000 14.747367 26.000000
1.204043 -14.022604 -44.145181 0.000000 21.000000 14.388392 0.000000
-4.313821 -15.497478 -41.938890 0.000000 30.000000 14.332500 0.000000
-4.221378 -15.442470 -41.965535 0.000000 37.000000 14.304688 0.000000
-4.130505 -15.419221 -41.992675 0.000000 35.000000 14.306900 0.000000
-4.040417 -15.406556 -42.020944 0.000000 37.000000 14.319014 0.000000
-2.132615 -15.625266 -41.626618 0.000000 47.000000 15.074416 27.000000
-2.083769 -15.659801 -43.790489 0.000000 63.000000 15.052340 23.000000
-3.979780 -15.360567 -40.858467 0.000000 23.000000 14.328814 0.000000
0.586926 -14.942617 -41.674567 0.000000 16.000000 15.177516 9.000000
-0.950176 -14.677424 -42.715513 0.000000 58.000000 14.460487 0.000000
0.064217 -14.537398 -39.314842 0.000000 47.000000 14.717716 17.000000
-3.692386 -15.313733 -42.178130 0.000000 35.000000 14.322159 0.000000
-2.501441 -15.703910 -41.394295 0.000000 53.000000 15.054245 27.000000
0.119003 -14.797579 -42.524703 0.000000 55.000000 14.880555 20.000000
-2.149907 -15.017723 -44.306394 0.000000 38.000000 14.401270 0.000000
-2.102479 -14.894012 -44.455465 0.000000 31.000000 14.291055 0.000000
-3.833978 -15.895903 -39.995642 0.000000 70.000000 14.910744 12.000000
-2.074400 -14.895243 -44.574296 0.000000 32.000000 14.296299 0.000000
-2.967629 -15.276851 -39.204036 0.000000 50.000000 14.583883 0.000000
-2.095254 -14.898351 -44.490878 0.000000 30.000000 14.296111 0.000000
-0.704748 -14.699103 -43.403831 0.000000 39.000000 14.527949 0.000000
-4.164770 -15.453844 -42.630674 0.000000 29.000000 14.310250 0.000000
-3.576212 -15.910400 -41.838673 0.000000 57.000000 14.938013 19.000000
-3.950780 -15.401883 -42.539215 0.000000 31.000000 14.323077 0.000000
-1.929332 -15.419851 -39.739182 0.000000 48.000000 14.994144 24.000000
-3.840778 -15.368915 -42.498637 0.000000 35.000000 14.323460 0.000000
-1.496779 -15.171892 -39.867017 0.000000 48.000000 14.872958 18.000000
-2.636797 -15.415836 -40.060645 0.000000 49.000000 14.782422 11.000000
-3.949472 -15.539432 -38.871159 0.000000 53.000000 14.572175 5.000000
0.655688 -14.697092 -41.548524 0.000000 35.000000 14.965117 9.000000
-0.750288 -14.550532 -40.759869 0.000000 51.000000 14.456792 0.000000
1.569513 -14.026475 -41.127327 0.000000 42.000000 14.590245 28.000000
-2.948730 -15.128091 -42.282474 0.000000 26.000000 14.348435 0.000000
-1.990774 -14.944931 -43.478021 0.000000 35.000000 14.402233 0.000000
-1.875187 -14.870484 -43.502672 0.000000 34.000000 14.362295 0.000000
-3.823008 -15.453304 -40.892819 0.000000 35.000000 14.460513 19.000000
-1.410490 -14.667186 -42.453713 0.000000 24.000000 14.330399 0.000000
-1.312419 -14.674346 -42.488445 0.000000 29.000000 14.363562 0.000000
-0.743340 -14.923690 -39.427274 0.000000 40.000000 14.859245 17.000000
-1.208219 -14.626994 -42.536477 0.000000 29.000000 14.345701 0.000000
-1.020362 -14.576434 -43.770359 0.000000 35.000000 14.310394 0.000000
-1.101890 -14.561333 -42.590348 0.000000 24.000000 14.310679 0.000000
-3.001221 -15.724299 -44.737856 0.000000 69.000000 14.827786 7.000000
-1.002167 -14.528462 -42.642971 0.000000 23.000000 14.305318 0.000000
-0.819864 -14.515160 -43.871730 0.000000 33.000000 14.304377 0.000000
-0.908120 -14.513658 -42.697768 0.000000 28.000000 14.315641 0.000000
0.750196 -14.582621 -43.559746 0.000000 56.000000 14.817660 22.000000
-0.833636 -14.580805 -42.739333 0.000000 30.000000 14.399564 0.000000
