18.585355 22.158282 11.084598 0.000000 33.000000 14.486183 0.000000
18.672427 22.323421 11.067595 0.000000 38.000000 14.438396 0.000000
23.373964 20.567548 12.987028 0.000000 48.000000 14.497450 0.000000
22.623293 22.512982 13.336237 0.000000 44.000000 15.097898 30.000000
21.227781 21.430710 12.058589 0.000000 48.000000 14.421896 0.000000
21.823897 21.445910 12.266837 0.000000 48.000000 14.396717 0.000000
20.687069 21.916777 12.214361 0.000000 56.000000 14.765326 8.000000
22.493625 20.113334 13.152730 0.000000 66.000000 14.974820 27.000000
22.963256 21.454175 12.701314 0.000000 40.000000 14.382497 0.000000
18.518042 24.635931 11.421205 0.000000 41.000000 14.823994 4.000000
19.315938 20.800549 11.369462 0.000000 50.000000 14.482894 0.000000
20.263451 20.751592 11.721717 0.000000 52.000000 14.462637 0.000000
21.885240 22.759986 12.888923 0.000000 40.000000 14.952826 18.000000
23.232260 23.957882 13.319634 0.000000 41.000000 14.858854 10.000000
19.945320 19.814958 12.095211 0.000000 68.000000 14.926854 25.000000
22.187493 20.585039 12.462674 0.000000 43.000000 14.445370 0.000000
22.565866 20.519953 12.662637 0.000000 60.000000 14.492435 0.000000
23.895044 21.992713 13.389050 0.000000 44.000000 14.680061 15.000000
23.508506 20.383527 13.046021 0.000000 49.000000 14.502921 0.000000
19.006552 19.466855 11.497561 0.000000 50.000000 14.715646 22.000000
19.811280 19.624372 11.531476 0.000000 31.000000 14.451712 0.000000
22.211383 23.406891 12.552281 0.000000 52.000000 14.519946 0.000000
23.938777 21.097301 13.348784 0.000000 40.000000 14.626550 19.000000
21.485127 22.714785 12.138131 0.000000 44.000000 14.401390 0.000000
22.455317 19.082844 13.321841 0.000000 56.000000 15.146185 24.000000
20.242678 21.993278 11.762721 0.000000 46.000000 14.508404 0.000000
20.275372 21.826240 11.586292 0.000000 35.000000 14.332294 0.000000
21.925493 19.948862 13.093231 0.000000 76.000000 15.128083 27.000000
23.695256 21.605149 13.075857 0.000000 43.000000 14.462103 0.000000
18.868606 21.156864 11.227458 0.000000 49.000000 14.515060 0.000000
21.942301 19.521081 12.547308 0.000000 44.000000 14.614122 0.000000
18.935925 24.018635 11.267140 0.000000 34.000000 14.527252 0.000000
22.433878 20.944449 12.541200 0.000000 43.000000 14.427943 0.000000
20.205246 19.880854 12.212625 0.000000 49.000000 14.940627 25.000000
21.533907 20.528692 12.190925 0.000000 51.000000 14.432586 0.000000
18.425387 21.868722 10.929947 0.000000 27.000000 14.401071 0.000000
20.418915 19.904996 12.410741 0.000000 62.000000 15.046450 25.000000
19.242417 23.458720 11.329013 0.000000 51.000000 14.472266 0.000000
18.605857 22.808983 11.525924 0.000000 69.000000 14.889154 5.000000
23.956214 21.990682 13.553384 0.000000 44.000000 14.810456 15.000000
19.163748 23.112613 11.266003 0.000000 50.000000 14.442543 0.000000
20.061118 19.819476 12.252592 0.000000 57.000000 15.030723 25.000000
23.471026 21.146937 13.534157 0.000000 49.000000 14.970723 19.000000
22.472695 23.200757 12.581791 0.000000 59.000000 14.451446 0.000000
23.557272 22.494614 13.420766 0.000000 51.000000 14.833585 16.000000
21.846947 19.306078 13.030332 0.000000 55.000000 15.098418 24.000000
19.386437 22.299117 11.361981 0.000000 29.000000 14.450050 0.000000
19.403053 19.758048 11.877153 0.000000 57.000000 14.923136 22.000000
19.240061 22.117109 11.320910 0.000000 35.000000 14.465594 0.000000
18.814931 21.890394 11.183881 0.000000 49.000000 14.494235 0.000000
18.727292 21.113543 11.105606 0.000000 28.000000 14.453607 0.000000
22.999982 24.178139 12.965109 0.000000 34.000000 14.614381 11.000000
19.781266 21.059134 11.555101 0.000000 51.000000 14.484707 0.000000
19.393915 19.556908 11.703152 0.000000 47.000000 14.764644 22.000000
20.436313 22.664859 12.002727 0.000000 57.000000 14.660547 14.000000
21.395602 21.086777 12.162330 0.000000 56.000000 14.456771 0.000000
22.003776 21.092821 12.366319 0.000000 46.000000 14.423202 0.000000
19.148371 24.214005 11.193581 0.000000 29.000000 14.380825 0.000000
19.994287 21.532074 11.485032 0.000000 20.000000 14.341316 0.000000
21.770272 19.215869 12.592313 0.000000 59.000000 14.719149 24.000000
21.075767 20.367752 11.965545 0.000000 45.000000 14.391168 0.000000
22.332253 23.903195 12.938405 0.000000 46.000000 14.834718 11.000000
23.622250 23.631970 13.079358 0.000000 48.000000 14.492165 0.000000
18.361973 19.296278 11.186655 0.000000 63.000000 14.663132 28.000000
22.882113 23.963631 12.922606 0.000000 48.000000 14.618126 11.000000
20.709805 21.528376 11.831065 0.000000 42.000000 14.400455 0.000000
19.141346 20.707204 11.289597 0.000000 38.000000 14.472714 0.000000
23.343515 20.841194 12.980774 0.000000 46.000000 14.502813 0.000000
21.720668 22.211124 12.728311 0.000000 60.000000 14.863860 17.000000
22.385914 20.419376 12.613223 0.000000 58.000000 14.512547 0.000000
19.107642 19.604498 11.680483 0.000000 41.000000 14.848672 22.000000
23.149140 19.627638 13.174677 0.000000 51.000000 14.754543 26.000000
22.458812 22.271907 13.069244 0.000000 52.000000 14.909948 18.000000
19.407343 24.055514 11.486339 0.000000 34.000000 14.558045 12.000000
18.772124 23.094964 11.114904 0.000000 49.000000 14.445794 0.000000
19.369376 23.185186 11.294290 0.000000 48.000000 14.393352 0.000000
22.424894 23.528304 12.566600 0.000000 59.000000 14.454868 0.000000
22.359944 21.802766 12.845942 0.000000 54.000000 14.738546 17.000000
23.627367 23.629014 13.018014 0.000000 43.000000 14.433228 0.000000
24.058524 23.643129 13.263872 0.000000 61.000000 14.503600 0.000000
23.758912 22.025407 13.316831 0.000000 67.000000 14.662872 15.000000
21.865798 19.617624 12.780589 0.000000 51.000000 14.859198 27.000000
19.999585 24.441480 11.524755 0.000000 43.000000 14.376319 0.000000
19.691868 23.263275 11.908881 0.000000 18.000000 14.846601 9.000000
19.766726 19.879035 12.022129 0.000000 59.000000 14.924452 22.000000
18.653936 23.423876 11.096957 0.000000 42.000000 14.472497 0.000000
22.779227 24.603622 12.806314 0.000000 56.000000 14.547734 11.000000
18.468433 24.999855 11.472463 0.000000 42.000000 14.889887 4.000000
18.654694 22.278463 11.067688 0.000000 32.000000 14.444994 0.000000
22.674917 19.544425 13.174700 0.000000 58.000000 14.928689 27.000000
19.960218 19.875193 12.026338 0.000000 51.000000 14.857321 25.000000
19.672105 25.000138 11.715930 0.000000 40.000000 14.674384 3.000000
22.462561 19.880724 13.167005 0.000000 77.000000 14.999504 27.000000
21.417897 20.028778 12.575638 0.000000 58.000000 14.833023 25.000000
20.915350 21.461152 11.928736 0.000000 25.000000 14.415832 0.000000
23.398172 19.797602 13.629466 0.000000 51.000000 15.086125 26.000000
22.884841 19.364022 13.198088 0.000000 61.000000 14.873363 24.000000
21.946677 20.637349 12.353606 0.000000 52.000000 14.432343 0.000000
18.754487 19.435500 11.331241 0.000000 59.000000 14.653496 28.000000
18.932979 20.122131 11.030060 0.000000 34.000000 14.307814 0.000000
19.805507 24.050963 11.845792 0.000000 57.000000 14.746193 12.000000
18.525406 22.551008 11.415230 0.000000 61.000000 14.815732 5.000000
20.632960 22.040333 12.213362 0.000000 45.000000 14.784265 8.000000
21.427571 21.364768 12.197359 0.000000 55.000000 14.477615 0.000000
22.635627 19.835688 13.206373 0.000000 58.000000 14.972576 27.000000
18.211636 22.807269 11.361164 0.000000 48.000000 14.880653 5.000000
19.716678 23.952139 11.827579 0.000000 50.000000 14.761868 12.000000
20.345974 19.590258 11.926295 0.000000 50.000000 14.622625 25.000000
21.594059 22.950725 12.279430 0.000000 55.000000 14.492822 0.000000
19.977636 19.896954 12.120422 0.000000 51.000000 14.938438 25.000000
23.714357 21.555539 13.605010 0.000000 64.000000 14.947281 19.000000
22.416115 19.275436 13.625162 0.000000 1.000000 15.442713 24.000000
19.408148 22.332597 11.380984 0.000000 47.000000 14.459754 0.000000
22.025628 21.682030 12.527791 0.000000 38.000000 14.565372 17.000000
19.821969 22.881810 11.711938 0.000000 39.000000 14.615644 0.000000
20.467910 19.747740 12.307473 0.000000 54.000000 14.932405 25.000000
18.651562 19.699064 11.467851 0.000000 66.000000 14.818356 28.000000
22.361000 22.586760 13.030144 0.000000 47.000000 14.909494 18.000000
19.310997 22.690569 11.323754 0.000000 29.000000 14.442193 0.000000
18.562667 19.297548 11.250846 0.000000 58.000000 14.649149 28.000000
20.914411 19.175217 12.426550 0.000000 54.000000 14.879219 23.000000
21.934866 21.763563 12.578872 0.000000 53.000000 14.646211 17.000000
23.739883 23.714578 13.163729 0.000000 56.000000 14.527451 0.000000
23.332619 23.828959 13.399262 0.000000 61.000000 14.896071 10.000000
23.525039 23.470473 12.991115 0.000000 47.000000 14.445780 0.000000
21.315609 22.178308 12.202546 0.000000 56.000000 14.523550 0.000000
19.505095 20.487258 11.604316 0.000000 43.000000 14.631889 7.000000
21.946369 20.641376 12.354158 0.000000 31.000000 14.432969 0.000000
18.622517 20.712500 11.105399 0.000000 49.000000 14.491886 0.000000
23.737841 23.847103 13.274249 0.000000 40.000000 14.631001 10.000000
20.683945 24.782138 11.887874 0.000000 45.000000 14.462791 0.000000
20.701193 23.879996 12.005830 0.000000 45.000000 14.566175 0.000000
19.316853 21.359098 11.688272 0.000000 50.000000 14.779099 6.000000
19.589624 22.389281 11.539834 0.000000 47.000000 14.540874 13.000000
21.743717 19.789021 12.755192 0.000000 59.000000 14.880401 27.000000
23.066575 24.933410 12.867948 0.000000 62.000000 14.499555 0.000000
22.678589 23.784608 13.203275 0.000000 52.000000 14.953920 11.000000
19.402781 20.316320 11.327369 0.000000 43.000000 14.411854 0.000000
20.098787 20.330891 11.498912 0.000000 33.000000 14.315856 0.000000
20.686507 20.330357 11.691700 0.000000 29.000000 14.279379 0.000000
21.009642 20.299992 11.914846 0.000000 52.000000 14.368290 0.000000
19.746754 24.453132 11.501183 0.000000 48.000000 14.447228 0.000000
20.503568 23.301782 12.052047 0.000000 60.000000 14.681727 14.000000
20.114214 21.579975 11.525971 0.000000 23.000000 14.335361 0.000000
18.327531 23.402645 11.016982 0.000000 49.000000 14.517957 0.000000
19.075528 21.514024 11.325793 0.000000 50.000000 14.530549 6.000000
22.204279 21.486386 12.437663 0.000000 51.000000 14.415942 0.000000
23.146454 24.015090 13.341257 0.000000 50.000000 14.910473 10.000000
21.404487 21.049382 12.153249 0.000000 44.000000 14.445062 0.000000
20.264257 19.058201 12.262831 0.000000 55.000000 14.965658 23.000000
20.610598 20.638350 11.869500 0.000000 52.000000 14.472632 0.000000
18.627566 23.747531 11.103720 0.000000 29.000000 14.488470 0.000000
20.191065 20.286113 11.540952 0.000000 25.000000 14.321077 0.000000
18.892791 22.270944 11.173961 0.000000 44.000000 14.456420 0.000000
19.360918 22.308312 11.371127 0.000000 51.000000 14.467927 0.000000
19.354844 19.748437 11.784473 0.000000 52.000000 14.854631 22.000000
19.878546 19.065247 12.033377 0.000000 41.000000 14.893857 23.000000
19.273998 21.797822 11.244186 0.000000 33.000000 14.381768 0.000000
19.752485 21.791702 11.414662 0.000000 37.000000 14.364646 0.000000
20.872930 19.726828 12.624082 0.000000 55.000000 15.078184 25.000000
20.529954 21.740333 11.788435 0.000000 42.000000 14.426840 0.000000
20.983296 21.712991 11.973021 0.000000 53.000000 14.432075 0.000000
19.930072 22.494985 11.937928 0.000000 44.000000 14.786156 13.000000
18.895617 21.173371 11.284171 0.000000 59.000000 14.557894 6.000000
18.511025 22.562874 11.315153 0.000000 61.000000 14.727926 5.000000
23.162054 21.587827 12.693002 0.000000 26.000000 14.301771 0.000000
23.292074 21.493789 12.911230 0.000000 38.000000 14.457015 0.000000
23.318214 22.540719 13.096625 0.000000 39.000000 14.619862 30.000000
18.800096 23.614520 11.190797 0.000000 42.000000 14.506115 0.000000
18.586984 23.389497 11.074018 0.000000 48.000000 14.475744 0.000000
23.242587 22.820314 12.971829 0.000000 33.000000 14.531552 30.000000
22.623874 23.620026 12.663472 0.000000 50.000000 14.471912 0.000000
22.875874 19.800184 13.301601 0.000000 54.000000 14.972939 26.000000
20.082148 21.918681 11.618389 0.000000 50.000000 14.433097 0.000000
19.862540 21.719724 11.450149 0.000000 35.000000 14.357244 0.000000
18.476657 21.063142 11.041480 0.000000 48.000000 14.485988 0.000000
22.237288 19.259745 13.076153 0.000000 42.000000 14.997714 24.000000
23.082637 20.713426 12.931057 0.000000 42.000000 14.552358 0.000000
22.827703 19.857859 13.281590 0.000000 63.000000 14.972013 26.000000
21.067927 24.637757 12.044361 0.000000 45.000000 14.467357 0.000000
20.385512 21.016062 11.745287 0.000000 38.000000 14.439742 0.000000
22.115784 24.742395 12.465055 0.000000 58.000000 14.473915 0.000000
20.303801 24.043597 12.308537 0.000000 50.000000 14.993652 1.000000
23.368462 20.440232 13.241349 0.000000 34.000000 14.736027 21.000000
18.701118 21.166006 11.315817 0.000000 54.000000 14.658745 6.000000
20.685820 23.226974 12.114059 0.000000 47.000000 14.672489 14.000000
21.250428 23.875660 12.152822 0.000000 46.000000 14.501232 0.000000
20.841438 21.112563 11.930899 0.000000 29.000000 14.444983 0.000000
23.572301 22.929706 13.358056 0.000000 40.000000 14.769737 16.000000
20.906119 19.441983 12.376134 0.000000 60.000000 14.835369 23.000000
22.818414 24.543648 12.787963 0.000000 60.000000 14.516276 0.000000
18.391107 23.104083 11.063921 0.000000 46.000000 14.538274 0.000000
19.809203 24.675928 11.661548 0.000000 53.000000 14.573461 0.000000
20.237980 21.781396 11.558704 0.000000 28.000000 14.320363 0.000000
18.784362 20.929994 11.123619 0.000000 34.000000 14.449407 0.000000
21.517324 19.647275 12.640062 0.000000 50.000000 14.856440 25.000000
18.220745 25.048302 11.410126 0.000000 34.000000 14.922850 4.000000
22.552287 23.845844 12.706064 0.000000 47.000000 14.537814 11.000000
19.568305 19.345878 11.417925 0.000000 35.000000 14.435308 0.000000
23.421773 20.190799 13.363154 0.000000 38.000000 14.829749 26.000000
23.332472 20.488636 13.321633 0.000000 54.000000 14.823918 21.000000
19.088422 21.500600 11.204885 0.000000 44.000000 14.413352 0.000000
21.038382 21.416818 11.947392 0.000000 39.000000 14.388010 0.000000
22.282855 19.713499 12.509454 0.000000 27.000000 14.453867 0.000000
18.580362 19.546803 11.352895 0.000000 67.000000 14.737573 28.000000
20.476151 19.425620 12.073307 0.000000 54.000000 14.711569 23.000000
19.020539 20.522592 11.259298 0.000000 49.000000 14.488889 0.000000
22.665424 21.313084 13.133132 0.000000 64.000000 14.893510 20.000000
21.017712 20.244469 11.812557 0.000000 28.000000 14.270183 0.000000
18.548967 21.249443 11.057539 0.000000 36.000000 14.474375 0.000000
18.166963 24.626617 11.587314 0.000000 49.000000 15.107409 4.000000
21.408938 24.069198 12.318507 0.000000 47.000000 14.597142 0.000000
21.996374 22.180981 12.812484 0.000000 50.000000 14.840921 17.000000
20.892149 20.199478 12.408191 0.000000 60.000000 14.870316 25.000000
22.705199 19.258897 13.267466 0.000000 41.000000 15.003856 24.000000
20.074119 24.350567 11.933540 0.000000 49.000000 14.729183 1.000000
22.907931 21.437790 12.709730 0.000000 35.000000 14.410639 0.000000
22.483092 21.196152 12.646352 0.000000 46.000000 14.507680 0.000000
23.970027 21.610423 13.413584 0.000000 37.000000 14.675349 19.000000
22.129087 20.774570 12.462741 0.000000 37.000000 14.466878 0.000000
20.011995 22.205292 11.808675 0.000000 50.000000 14.635850 13.000000
21.808066 20.371361 12.253234 0.000000 36.000000 14.389877 0.000000
21.784452 19.167835 12.969967 0.000000 52.000000 15.065217 24.000000
19.315441 23.383139 12.298781 0.000000 7.000000 15.347483 9.000000
21.838296 19.076167 12.935244 0.000000 57.000000 15.013149 24.000000
19.671525 22.190144 11.684561 0.000000 56.000000 14.645419 13.000000
22.567169 23.459947 12.630158 0.000000 47.000000 14.461746 0.000000
22.960228 23.407742 12.823856 0.000000 46.000000 14.497591 0.000000
23.809861 21.174536 13.937008 0.000000 60.000000 15.221022 19.000000
24.058411 23.329133 13.190460 0.000000 46.000000 14.435358 0.000000
19.536931 23.072123 11.315906 0.000000 26.000000 14.351935 0.000000
20.783792 22.127479 11.937902 0.000000 54.000000 14.472663 0.000000
21.793763 21.830747 12.328633 0.000000 48.000000 14.465261 0.000000
22.018767 21.706681 12.462183 0.000000 51.000000 14.506866 0.000000
23.735434 19.941250 13.770354 0.000000 50.000000 15.093337 26.000000
23.726586 23.512387 13.159854 0.000000 44.000000 14.528729 0.000000
23.687734 20.903134 13.142983 0.000000 48.000000 14.527302 0.000000
18.927614 19.636369 11.611979 0.000000 76.000000 14.851056 22.000000
22.409731 24.288586 12.675281 0.000000 57.000000 14.561525 11.000000
20.243006 24.023339 12.358454 0.000000 23.000000 15.062405 1.000000
21.156724 22.465292 12.055952 0.000000 29.000000 14.445534 0.000000
19.028083 23.270379 11.202594 0.000000 36.000000 14.433376 0.000000
23.326245 22.689929 13.083553 0.000000 44.000000 14.604754 30.000000
23.660719 23.598934 13.060813 0.000000 38.000000 14.460791 0.000000
19.549398 24.937747 11.507747 0.000000 33.000000 14.525798 3.000000
22.803945 19.868216 13.140856 0.000000 58.000000 14.849833 26.000000
21.349632 21.649797 12.140066 0.000000 40.000000 14.452941 0.000000
21.861396 20.606652 12.319510 0.000000 32.000000 14.431942 0.000000
23.232775 22.711175 13.061076 0.000000 55.000000 14.618168 30.000000
20.434404 20.995261 11.748350 0.000000 47.000000 14.424639 0.000000
20.667951 19.170170 12.364863 0.000000 66.000000 14.912335 23.000000
23.945097 23.133955 13.374698 0.000000 53.000000 14.648333 0.000000
23.140823 24.944478 13.282401 0.000000 43.000000 14.857796 2.000000
20.063936 24.377283 11.518146 0.000000 41.000000 14.346543 0.000000
19.392385 23.656299 11.885313 0.000000 38.000000 14.934643 9.000000
23.951913 19.427327 13.709933 0.000000 58.000000 14.957649 26.000000
22.016134 23.318349 12.481954 0.000000 58.000000 14.526223 0.000000
19.354512 23.965315 11.748234 0.000000 46.000000 14.821045 12.000000
22.478020 23.036582 12.634233 0.000000 55.000000 14.498270 0.000000
22.481614 19.610489 13.182986 0.000000 51.000000 15.007373 27.000000
21.828317 22.277466 12.669986 0.000000 56.000000 14.770083 18.000000
23.620216 20.879083 13.099179 0.000000 40.000000 14.511349 0.000000
23.131181 25.073870 13.150492 0.000000 59.000000 14.738641 2.000000
19.502928 20.284194 11.468407 0.000000 51.000000 14.506269 0.000000
20.811764 19.729481 12.540989 0.000000 47.000000 15.023354 25.000000
20.136041 20.074398 11.849135 0.000000 36.000000 14.627937 25.000000
20.586522 24.907897 11.855117 0.000000 49.000000 14.468094 0.000000
20.705167 24.748892 11.897431 0.000000 55.000000 14.463888 0.000000
20.854017 24.591936 11.928369 0.000000 44.000000 14.438011 0.000000
22.409185 19.556862 13.037575 0.000000 68.000000 14.898713 27.000000
22.891960 23.843035 12.843970 0.000000 52.000000 14.541367 11.000000
19.463397 22.523543 11.689519 0.000000 41.000000 14.726451 13.000000
20.378344 21.276667 11.698352 0.000000 38.000000 14.398718 0.000000
20.346815 19.138159 12.305635 0.000000 46.000000 14.975159 23.000000
23.719137 22.706254 13.577049 0.000000 33.000000 14.919518 16.000000
19.289370 22.597701 11.427565 0.000000 37.000000 14.546694 13.000000
21.752801 22.279716 12.293735 0.000000 33.000000 14.447841 0.000000
18.844870 25.029676 11.569282 0.000000 51.000000 14.841723 4.000000
19.136677 19.986003 11.553471 0.000000 31.000000 14.719871 22.000000
18.897824 21.064420 11.238722 0.000000 38.000000 14.514809 0.000000
21.230298 19.075101 12.292791 0.000000 48.000000 14.638815 23.000000
22.395107 19.904050 13.118964 0.000000 70.000000 14.979587 27.000000
20.163129 25.254196 12.453548 0.000000 56.000000 15.180186 29.000000
19.022798 24.511919 11.098965 0.000000 16.000000 14.338926 0.000000
23.073839 19.782611 13.423131 0.000000 72.000000 15.013291 26.000000
22.363466 23.551654 12.547043 0.000000 35.000000 14.459232 0.000000
18.881557 19.660002 11.255018 0.000000 42.000000 14.535940 28.000000
19.392755 20.681262 11.614452 0.000000 55.000000 14.682566 7.000000
20.321607 19.346570 12.231376 0.000000 55.000000 14.915343 23.000000
23.273787 19.019924 13.426384 0.000000 47.000000 14.942900 24.000000
20.673059 21.697719 11.743920 0.000000 37.000000 14.332889 0.000000
19.267583 20.814159 11.316211 0.000000 44.000000 14.451118 0.000000
18.597470 20.406491 11.087918 0.000000 49.000000 14.484823 0.000000
23.484245 22.570665 13.485334 0.000000 58.000000 14.920457 16.000000
20.918305 23.225734 12.323916 0.000000 52.000000 14.782324 14.000000
19.857306 19.225650 11.760721 0.000000 26.000000 14.648045 23.000000
19.762739 22.182538 11.848916 0.000000 36.000000 14.764802 13.000000
22.286704 24.593906 12.487543 0.000000 39.000000 14.432074 0.000000
22.553276 24.497521 12.643988 0.000000 45.000000 14.479711 0.000000
21.965612 23.830259 12.945582 0.000000 53.000000 14.976017 11.000000
19.309077 19.922793 11.742037 0.000000 45.000000 14.831964 22.000000
20.901339 25.223431 12.326241 0.000000 45.000000 14.790716 29.000000
22.379363 21.728665 12.395777 0.000000 22.000000 14.312695 0.000000
21.906364 19.980068 13.035795 0.000000 71.000000 15.081683 27.000000
21.184367 21.600449 12.058496 0.000000 40.000000 14.437751 0.000000
18.220838 24.849389 11.339450 0.000000 42.000000 14.857077 4.000000
18.484765 20.426481 10.905469 0.000000 28.000000 14.356500 0.000000
22.081695 19.209545 13.156723 0.000000 62.000000 15.129786 24.000000
20.956782 21.997363 12.117753 0.000000 46.000000 14.576433 8.000000
20.870244 19.280527 12.404488 0.000000 51.000000 14.874915 23.000000
21.532939 20.526498 12.234675 0.000000 50.000000 14.473635 0.000000
21.628900 21.823344 12.111782 0.000000 26.000000 14.324091 0.000000
19.406256 19.350584 11.373383 0.000000 42.000000 14.453378 0.000000
20.621843 19.806477 12.517321 0.000000 64.000000 15.071074 25.000000
20.574866 20.618049 11.831156 0.000000 37.000000 14.450087 0.000000
20.262514 21.837406 11.668484 0.000000 27.000000 14.413466 0.000000
20.128187 24.362976 11.534212 0.000000 40.000000 14.337895 0.000000
20.619789 23.152888 11.712471 0.000000 31.000000 14.323197 0.000000
22.492455 19.038268 13.043968 0.000000 53.000000 14.874085 24.000000
19.535267 22.616915 11.598328 0.000000 43.000000 14.615241 13.000000
18.403316 19.836935 11.286542 0.000000 52.000000 14.740862 28.000000
23.256512 19.949598 13.620203 0.000000 43.000000 15.129524 26.000000
19.431729 20.224231 11.220516 0.000000 26.000000 14.301836 0.000000
18.676811 22.054547 11.117122 0.000000 43.000000 14.482854 0.000000
18.532350 19.719224 11.417695 0.000000 62.000000 14.815475 28.000000
19.577656 21.950215 11.413344 0.000000 34.000000 14.427614 0.000000
20.145787 19.662467 12.070447 0.000000 53.000000 14.830212 25.000000
20.368338 21.806493 11.720218 0.000000 43.000000 14.422730 0.000000
20.771884 21.729653 11.870279 0.000000 48.000000 14.414136 0.000000
21.171578 21.642803 12.021712 0.000000 39.000000 14.408232 0.000000
21.539180 21.547241 12.172415 0.000000 41.000000 14.413433 0.000000
20.316294 22.793512 12.129297 0.000000 67.000000 14.822345 14.000000
22.157686 21.321749 12.485930 0.000000 46.000000 14.477946 0.000000
21.961952 21.925297 12.852899 0.000000 70.000000 14.891152 17.000000
23.212115 20.954998 12.918299 0.000000 41.000000 14.492950 0.000000
19.863255 25.164942 11.987801 0.000000 56.000000 14.857079 3.000000
23.831669 20.740085 13.527668 0.000000 54.000000 14.832267 21.000000
19.454614 20.139081 11.226720 0.000000 24.000000 14.299204 0.000000
18.889713 19.747249 11.708135 0.000000 54.000000 14.954412 22.000000
23.475981 24.789924 13.038817 0.000000 55.000000 14.508163 0.000000
23.374439 24.548171 12.993177 0.000000 43.000000 14.502995 0.000000
22.825900 24.869249 12.816327 0.000000 61.000000 14.539910 0.000000
22.559429 23.113853 12.583297 0.000000 36.000000 14.421000 0.000000
21.063592 21.697722 12.023738 0.000000 46.000000 14.449766 0.000000
18.872749 19.623543 11.278412 0.000000 49.000000 14.560934 28.000000
23.252123 20.047713 13.597923 0.000000 58.000000 15.110412 26.000000
21.383291 19.736290 12.764157 0.000000 50.000000 15.021081 25.000000
19.221799 20.412162 11.361567 0.000000 49.000000 14.510117 0.000000
19.296584 20.251581 11.192321 0.000000 26.000000 14.325233 0.000000
18.891511 20.051757 11.082461 0.000000 35.000000 14.371781 0.000000
23.024199 22.735795 13.287240 0.000000 47.000000 14.905119 30.000000
20.563791 19.111151 12.457398 0.000000 20.000000 15.036652 23.000000
20.548889 24.083242 12.204168 0.000000 53.000000 14.806582 1.000000
22.654767 20.259350 13.206188 0.000000 53.000000 14.965376 27.000000
18.628917 23.028162 10.994373 0.000000 42.000000 14.386265 0.000000
23.697466 23.698801 13.102774 0.000000 44.000000 14.486328 0.000000
23.174997 19.153620 13.410867 0.000000 57.000000 14.964741 24.000000
24.088447 19.094059 13.384272 0.000000 50.000000 14.604603 0.000000
21.763978 19.047003 12.488416 0.000000 51.000000 14.624820 0.000000
23.721196 21.428174 14.031466 0.000000 8.000000 15.341438 19.000000
21.047041 21.638467 11.905148 0.000000 39.000000 14.345537 0.000000
21.105329 21.468646 11.972370 0.000000 41.000000 14.386662 0.000000
20.353763 19.135195 12.268489 0.000000 52.000000 14.938056 23.000000
19.706965 21.566040 11.410687 0.000000 24.000000 14.377663 0.000000
18.386909 24.622745 11.593302 0.000000 50.000000 15.032219 4.000000
21.470034 20.790644 12.159669 0.000000 50.000000 14.426966 0.000000
19.756981 25.085474 11.981757 0.000000 43.000000 14.890478 3.000000
23.722516 21.924891 13.285021 0.000000 59.000000 14.646647 15.000000
22.485082 19.692485 13.198532 0.000000 62.000000 15.020560 27.000000
22.011163 19.693653 13.004816 0.000000 52.000000 15.014388 27.000000
22.529499 22.780983 13.045545 0.000000 44.000000 14.861950 30.000000
18.333777 19.782058 11.274150 0.000000 73.000000 14.754869 28.000000
20.442700 22.692585 12.006192 0.000000 58.000000 14.661425 14.000000
20.414573 19.588563 12.066354 0.000000 37.000000 14.727712 25.000000
18.807539 22.976434 11.725205 0.000000 3.000000 15.000462 5.000000
23.059816 25.028169 13.621950 0.000000 3.000000 15.203372 2.000000
19.261109 21.849276 11.203083 0.000000 26.000000 14.348269 0.000000
18.841640 21.222438 11.608631 0.000000 54.000000 14.879510 6.000000
20.184120 24.471474 11.666190 0.000000 46.000000 14.440117 0.000000
20.302740 24.321046 11.730508 0.000000 53.000000 14.456388 0.000000
20.911675 25.211735 12.226893 0.000000 45.000000 14.694512 29.000000
21.076426 21.471605 11.949010 0.000000 40.000000 14.375546 0.000000
20.850216 21.256161 11.932549 0.000000 42.000000 14.443295 0.000000
20.769301 21.058098 11.892161 0.000000 35.000000 14.435438 0.000000
20.631946 20.855575 11.852078 0.000000 41.000000 14.448589 0.000000
20.456759 20.650421 11.811955 0.000000 52.000000 14.475593 0.000000
20.302174 20.456372 11.762752 0.000000 51.000000 14.486587 0.000000
19.601775 24.899971 11.850064 0.000000 50.000000 14.824973 3.000000
20.190089 23.142924 12.035479 0.000000 34.000000 14.781420 14.000000
18.869799 21.756657 11.113189 0.000000 38.000000 14.408335 0.000000
20.686430 19.167803 12.373716 0.000000 27.000000 14.913785 23.000000
22.215538 19.943892 13.066239 0.000000 61.000000 14.996478 27.000000
23.871475 19.683025 13.919336 0.000000 54.000000 15.181961 26.000000
23.126224 20.177327 13.335831 0.000000 48.000000 14.912854 26.000000
23.512655 20.732811 13.233483 0.000000 45.000000 14.675766 21.000000
19.167274 23.224465 11.828764 0.000000 41.000000 14.964700 9.000000
21.988489 21.131965 12.364942 0.000000 43.000000 14.427535 0.000000
22.420299 21.031669 12.515087 0.000000 41.000000 14.408640 0.000000
19.591092 24.099141 11.933749 0.000000 55.000000 14.906735 12.000000
23.075813 20.788705 12.825790 0.000000 38.000000 14.456950 0.000000
18.878837 20.254246 11.001571 0.000000 27.000000 14.301195 0.000000
19.243417 20.428284 11.482265 0.000000 50.000000 14.614446 7.000000
24.043723 21.126950 13.460499 0.000000 59.000000 14.691928 19.000000
22.962676 23.810217 12.858215 0.000000 47.000000 14.528651 11.000000
20.155769 24.405144 11.650562 0.000000 46.000000 14.435991 0.000000
23.591594 21.097659 13.174863 0.000000 68.000000 14.592256 19.000000
19.504227 23.131487 11.473092 0.000000 42.000000 14.510150 0.000000
19.065136 22.318329 11.235599 0.000000 38.000000 14.450471 0.000000
18.900747 22.112034 11.169472 0.000000 33.000000 14.449323 0.000000
21.160607 19.248141 12.333965 0.000000 40.000000 14.702703 23.000000
23.065661 24.867981 12.902392 0.000000 37.000000 14.531929 2.000000
22.785821 21.577992 12.653242 0.000000 26.000000 14.402933 0.000000
23.736220 21.217305 13.695956 0.000000 52.000000 15.023847 19.000000
20.691804 23.037606 12.269911 0.000000 30.000000 14.815257 14.000000
21.800586 20.899568 12.315553 0.000000 33.000000 14.450590 0.000000
23.667637 19.719877 13.747373 0.000000 49.000000 15.096854 26.000000
21.173906 20.474761 12.069585 0.000000 49.000000 14.451906 0.000000
21.131343 20.296482 11.914823 0.000000 33.000000 14.323583 0.000000
20.415564 20.059886 11.832174 0.000000 51.000000 14.509526 0.000000
18.913965 19.152181 11.151846 0.000000 41.000000 14.428075 0.000000
20.197502 24.335628 11.596832 0.000000 38.000000 14.370690 0.000000
19.569838 22.449669 12.083901 0.000000 48.000000 15.054203 13.000000
20.719084 22.125240 11.961034 0.000000 53.000000 14.517939 0.000000
20.098633 22.851347 11.967165 0.000000 52.000000 14.751458 14.000000
23.221943 19.639710 13.128385 0.000000 65.000000 14.684752 26.000000
20.340844 21.470311 11.666533 0.000000 23.000000 14.382891 0.000000
22.012596 21.261916 12.401811 0.000000 42.000000 14.452977 0.000000
22.290510 21.112637 12.447295 0.000000 35.000000 14.393239 0.000000
22.341411 20.931772 12.510207 0.000000 39.000000 14.433067 0.000000
21.854695 19.147266 12.956718 0.000000 60.000000 15.027102 24.000000
22.763706 23.273976 12.835655 0.000000 43.000000 14.580725 0.000000
20.685211 19.202022 12.450812 0.000000 50.000000 14.985943 23.000000
20.570288 21.810927 12.234851 0.000000 47.000000 14.827265 8.000000
19.442065 21.158227 11.484474 0.000000 48.000000 14.543561 6.000000
22.286788 21.180346 12.489621 0.000000 26.000000 14.433976 0.000000
22.780709 22.575385 13.515681 0.000000 51.000000 15.207008 30.000000
20.305697 19.571899 12.004389 0.000000 67.000000 14.710053 25.000000
22.003769 20.075345 12.973281 0.000000 59.000000 14.987771 27.000000
18.833459 25.104413 11.256434 0.000000 26.000000 14.554917 4.000000
23.721680 22.630349 13.442348 0.000000 53.000000 14.793292 16.000000
20.708303 24.785092 11.919272 0.000000 47.000000 14.483052 0.000000
20.937815 24.665843 12.000977 0.000000 48.000000 14.474778 0.000000
21.648632 19.953038 12.729208 0.000000 46.000000 14.891145 27.000000
18.810878 19.085645 11.135421 0.000000 32.000000 14.450648 0.000000
22.218936 23.295834 12.541977 0.000000 53.000000 14.507588 0.000000
22.513041 23.149577 12.554080 0.000000 44.000000 14.410857 0.000000
19.932935 25.030123 12.047450 0.000000 52.000000 14.886976 3.000000
22.458232 24.073930 12.925723 0.000000 35.000000 14.776665 11.000000
22.436500 21.197986 12.549926 0.000000 44.000000 14.435097 0.000000
22.293036 23.785056 12.653827 0.000000 43.000000 14.584418 11.000000
20.775911 20.040598 12.265232 0.000000 65.000000 14.780023 25.000000
23.438296 20.856987 13.281325 0.000000 33.000000 14.747569 21.000000
22.096988 20.399035 12.376633 0.000000 43.000000 14.398570 0.000000
20.362035 22.880751 12.082510 0.000000 39.000000 14.762031 14.000000
20.250710 19.542539 11.883522 0.000000 52.000000 14.617818 25.000000
21.767446 22.879770 12.486992 0.000000 45.000000 14.622222 18.000000
21.010599 21.251567 12.027607 0.000000 46.000000 14.472823 0.000000
23.203056 20.742551 12.929852 0.000000 29.000000 14.507022 0.000000
20.010958 19.394261 11.699602 0.000000 26.000000 14.534777 23.000000
19.643542 22.343053 11.993925 0.000000 71.000000 14.943449 13.000000
22.739273 20.900235 12.669039 0.000000 38.000000 14.434718 0.000000
23.061382 20.785846 12.836763 0.000000 40.000000 14.472455 0.000000
19.714240 19.956792 11.943482 0.000000 58.000000 14.870571 22.000000
23.013308 19.265107 13.299738 0.000000 57.000000 14.920743 24.000000
19.280012 20.150108 11.192219 0.000000 29.000000 14.331223 0.000000
22.750551 22.429824 13.142901 0.000000 50.000000 14.871340 30.000000
21.676041 24.979704 12.259785 0.000000 49.000000 14.444447 0.000000
23.606202 21.446618 13.572622 0.000000 52.000000 14.956868 19.000000
22.203339 22.207656 12.935266 0.000000 57.000000 14.879133 18.000000
23.767796 22.492131 13.414693 0.000000 57.000000 14.750636 16.000000
20.379487 24.064401 12.062986 0.000000 44.000000 14.737462 1.000000
22.969767 24.944333 12.912488 0.000000 38.000000 14.576530 2.000000
22.510374 20.268147 13.033082 0.000000 50.000000 14.857380 27.000000
19.647333 25.074783 12.146196 0.000000 65.000000 15.083692 3.000000
22.524287 22.452582 13.164570 0.000000 60.000000 14.974575 18.000000
23.358345 20.585885 12.945742 0.000000 50.000000 14.464783 0.000000
18.896114 20.304987 11.006281 0.000000 24.000000 14.299232 0.000000
22.958983 20.364997 12.822314 0.000000 46.000000 14.496614 0.000000
19.292845 24.126778 11.284562 0.000000 49.000000 14.412404 0.000000
21.253517 24.013594 12.149121 0.000000 49.000000 14.496655 0.000000
19.090909 20.388739 11.585385 0.000000 77.000000 14.766361 7.000000
21.816280 21.982450 12.751305 0.000000 57.000000 14.850142 17.000000
20.480928 22.038515 11.939074 0.000000 28.000000 14.584959 8.000000
22.965065 23.837295 12.824175 0.000000 54.000000 14.496112 0.000000
20.734008 19.887026 12.972988 0.000000 7.000000 15.453728 25.000000
23.785850 23.705006 13.157644 0.000000 43.000000 14.504913 0.000000
18.567337 19.576359 11.247443 0.000000 52.000000 14.644269 28.000000
21.904019 21.899476 12.367110 0.000000 46.000000 14.460567 0.000000
20.652245 21.838383 12.197627 0.000000 53.000000 14.762548 8.000000
20.508860 23.327439 11.901195 0.000000 52.000000 14.539469 14.000000
19.887307 19.846831 11.835793 0.000000 52.000000 14.706857 25.000000
19.255153 19.755532 11.706394 0.000000 43.000000 14.818610 22.000000
18.548226 20.280807 10.918737 0.000000 27.000000 14.345540 0.000000
23.299204 20.841936 12.939580 0.000000 58.000000 14.480767 0.000000
23.422798 20.667496 13.002542 0.000000 53.000000 14.493950 0.000000
19.591675 19.654040 11.702497 0.000000 39.000000 14.691422 22.000000
19.363822 23.424241 12.200318 0.000000 10.000000 15.238133 9.000000
18.564357 23.486604 11.083145 0.000000 47.000000 14.492541 0.000000
19.608074 22.196908 11.832306 0.000000 69.000000 14.806142 13.000000
22.615790 23.520332 12.679452 0.000000 47.000000 14.489744 0.000000
23.405422 22.651347 13.275470 0.000000 48.000000 14.754194 16.000000
22.365473 23.071186 12.431665 0.000000 38.000000 14.351176 0.000000
20.173680 19.604990 11.987659 0.000000 51.000000 14.742965 25.000000
23.977200 22.616903 13.512030 0.000000 53.000000 14.764285 16.000000
19.852727 19.934321 12.126817 0.000000 54.000000 14.990250 25.000000
19.271066 19.105116 11.413914 0.000000 43.000000 14.540717 0.000000
19.043151 20.823804 11.231363 0.000000 37.000000 14.454603 0.000000
23.486436 19.798251 13.891246 0.000000 63.000000 15.297211 26.000000
21.254656 24.923915 12.092756 0.000000 44.000000 14.443809 0.000000
21.437219 24.809161 12.206186 0.000000 51.000000 14.482283 0.000000
21.818843 24.729780 12.294866 0.000000 40.000000 14.424644 0.000000
22.179172 19.965013 12.992245 0.000000 58.000000 14.941006 27.000000
24.074986 22.184972 13.462951 0.000000 50.000000 14.682729 15.000000
18.529349 22.028363 11.103279 0.000000 48.000000 14.524123 0.000000
23.222120 23.792683 12.893914 0.000000 52.000000 14.466594 0.000000
18.698901 22.543124 11.396053 0.000000 49.000000 14.734191 5.000000
19.604936 22.378546 11.986428 0.000000 56.000000 14.950651 13.000000
23.803048 23.334658 13.057718 0.000000 47.000000 14.405652 0.000000
23.890120 23.155968 13.108014 0.000000 53.000000 14.420464 0.000000
19.175571 20.462176 11.660306 0.000000 72.000000 14.804963 7.000000
19.959310 21.222052 11.628653 0.000000 49.000000 14.487748 0.000000
20.468207 21.178278 11.780093 0.000000 49.000000 14.441753 0.000000
19.533126 22.444977 12.003342 0.000000 61.000000 14.992751 13.000000
21.390671 21.056362 12.112485 0.000000 41.000000 14.412218 0.000000
21.943131 22.707712 12.787308 0.000000 39.000000 14.837053 18.000000
19.364359 25.134200 12.088524 0.000000 67.000000 15.133951 3.000000
22.658914 20.811839 12.624943 0.000000 42.000000 14.423208 0.000000
22.099178 22.289214 12.797834 0.000000 31.000000 14.789546 18.000000
21.169850 19.182375 12.292884 0.000000 55.000000 14.661097 23.000000
22.496769 20.296046 13.075064 0.000000 41.000000 14.901425 27.000000
19.502024 19.929242 12.043361 0.000000 64.000000 15.041394 22.000000
21.127347 21.957474 12.170671 0.000000 50.000000 14.563027 0.000000
23.038819 24.035653 12.921941 0.000000 39.000000 14.559968 11.000000
20.015471 19.910871 11.841207 0.000000 35.000000 14.664834 25.000000
18.111453 24.709814 11.531371 0.000000 55.000000 15.075756 4.000000
23.858194 21.247375 13.762847 0.000000 54.000000 15.041279 19.000000
20.850779 19.600124 12.234095 0.000000 58.000000 14.723571 25.000000
23.370894 23.772532 12.991165 0.000000 58.000000 14.502426 0.000000
23.423421 23.577444 12.952685 0.000000 38.000000 14.447346 0.000000
21.884164 21.727542 12.518193 0.000000 65.000000 14.608387 17.000000
22.262640 24.307882 12.765533 0.000000 32.000000 14.699482 11.000000
19.485169 23.882466 11.490833 0.000000 47.000000 14.533649 12.000000
23.169716 25.019063 13.095559 0.000000 49.000000 14.673396 2.000000
21.305667 20.787526 12.133583 0.000000 48.000000 14.463054 0.000000
23.452947 19.716595 13.454679 0.000000 73.000000 14.903435 26.000000
19.705507 24.790561 11.625130 0.000000 55.000000 14.577662 0.000000
21.963051 22.224748 12.731739 0.000000 39.000000 14.778051 17.000000
19.195146 19.278268 11.321719 0.000000 43.000000 14.482838 0.000000
18.995765 19.114295 11.196681 0.000000 34.000000 14.439743 0.000000
18.871490 23.787013 11.189964 0.000000 47.000000 14.479126 0.000000
19.401075 19.780684 11.944551 0.000000 78.000000 14.986553 22.000000
20.343075 19.778038 12.337668 0.000000 47.000000 15.006328 25.000000
21.070830 23.800089 12.049705 0.000000 53.000000 14.471262 0.000000
21.531016 23.789189 12.225996 0.000000 53.000000 14.466269 0.000000
21.947960 23.762417 12.406680 0.000000 49.000000 14.481239 0.000000
18.591743 22.949557 10.993308 0.000000 46.000000 14.398924 0.000000
23.328980 23.665327 12.944781 0.000000 49.000000 14.474671 0.000000
22.446183 19.491292 13.188830 0.000000 68.000000 15.025818 27.000000
21.234467 22.423019 12.066992 0.000000 41.000000 14.427258 0.000000
22.994558 19.990716 13.487431 0.000000 40.000000 15.102210 26.000000
22.808099 22.455990 13.295528 0.000000 54.000000 14.992175 30.000000
23.461532 19.765140 13.920402 0.000000 63.000000 15.333475 26.000000
23.191625 19.164495 13.367926 0.000000 41.000000 14.918694 24.000000
21.372289 24.995474 12.163520 0.000000 49.000000 14.466438 0.000000
19.268789 19.671208 11.850983 0.000000 63.000000 14.948093 22.000000
21.021087 24.520958 12.071478 0.000000 53.000000 14.509779 0.000000
23.792031 21.309632 13.904081 0.000000 57.000000 15.196942 19.000000
19.232391 20.709755 11.400527 0.000000 50.000000 14.542466 7.000000
18.686087 21.899621 11.138244 0.000000 45.000000 14.499095 0.000000
18.533774 21.712599 11.028736 0.000000 46.000000 14.453162 0.000000
22.231498 21.529307 12.432929 0.000000 42.000000 14.401545 0.000000
18.575220 22.505841 11.521315 0.000000 55.000000 14.896116 5.000000
21.386377 21.078972 12.180730 0.000000 48.000000 14.477273 0.000000
21.125300 20.879997 12.035026 0.000000 47.000000 14.437608 0.000000
19.175555 23.330520 12.258671 0.000000 15.000000 15.361538 9.000000
20.186497 20.301748 11.607216 0.000000 42.000000 14.384390 0.000000
18.615287 20.768425 11.048807 0.000000 33.000000 14.441901 0.000000
23.700106 23.814010 13.280937 0.000000 46.000000 14.651077 10.000000
20.560200 21.966548 12.088907 0.000000 74.000000 14.695219 8.000000
22.354754 24.842209 12.532162 0.000000 52.000000 14.448589 0.000000
21.719768 21.300406 12.295888 0.000000 30.000000 14.461973 0.000000
18.619268 22.946918 11.787161 0.000000 2.000000 15.127220 5.000000
21.101256 19.964211 12.673945 0.000000 49.000000 15.040727 25.000000
19.313346 23.385282 11.677748 0.000000 53.000000 14.770598 9.000000
20.257460 21.072404 11.684807 0.000000 46.000000 14.430505 0.000000
23.836852 21.435463 13.955093 0.000000 4.000000 15.227933 19.000000
21.135768 20.970452 12.028911 0.000000 51.000000 14.428077 0.000000
21.579278 20.912323 12.204338 0.000000 40.000000 14.428402 0.000000
22.020763 20.845250 12.378381 0.000000 40.000000 14.428185 0.000000
22.354793 20.763466 12.562893 0.000000 47.000000 14.477160 0.000000
22.754919 20.291303 13.114620 0.000000 51.000000 14.843430 27.000000
22.866364 20.693064 12.733789 0.000000 49.000000 14.448280 0.000000
22.512132 21.273866 12.814731 0.000000 48.000000 14.653635 20.000000
23.277341 20.603998 12.912594 0.000000 49.000000 14.463693 0.000000
21.822017 24.998977 12.352797 0.000000 51.000000 14.477363 0.000000
19.779805 21.879481 11.408158 0.000000 27.000000 14.348565 0.000000
21.471171 24.514805 12.129138 0.000000 40.000000 14.398150 0.000000
22.802599 24.148263 13.036846 0.000000 45.000000 14.753582 11.000000
18.390579 23.084936 11.017214 0.000000 25.000000 14.495023 0.000000
23.887984 21.917814 13.175804 0.000000 53.000000 14.484303 0.000000
21.502534 21.577927 12.117839 0.000000 28.000000 14.376124 0.000000
21.612647 22.067097 12.607899 0.000000 47.000000 14.791523 17.000000
19.924977 19.084367 12.025266 0.000000 69.000000 14.869264 23.000000
23.168073 19.084323 13.314070 0.000000 65.000000 14.877247 24.000000
20.939647 19.689320 12.469683 0.000000 50.000000 14.910072 25.000000
22.600214 20.325892 13.119017 0.000000 39.000000 14.904325 27.000000
19.104343 23.534500 11.284240 0.000000 47.000000 14.481318 0.000000
22.312373 23.560505 12.511386 0.000000 35.000000 14.444826 0.000000
22.405274 20.720579 12.572155 0.000000 40.000000 14.467239 0.000000
20.778524 21.154171 11.905562 0.000000 25.000000 14.444516 0.000000
23.790536 23.582691 13.234451 0.000000 53.000000 14.574634 0.000000
22.401574 23.941614 12.762861 0.000000 48.000000 14.645983 11.000000
21.694423 22.271956 12.256387 0.000000 36.000000 14.434537 0.000000
20.782261 22.898290 12.171720 0.000000 56.000000 14.690711 14.000000
23.610111 21.808622 12.879568 0.000000 37.000000 14.310788 0.000000
20.002139 23.000021 12.043207 0.000000 31.000000 14.857619 14.000000
22.803916 25.171621 12.731200 0.000000 45.000000 14.468801 0.000000
18.990887 21.020405 11.317494 0.000000 48.000000 14.553908 6.000000
20.478520 19.645132 12.155614 0.000000 60.000000 14.787257 25.000000
22.546554 24.500053 12.570989 0.000000 49.000000 14.414279 0.000000
21.965663 19.646810 12.787015 0.000000 63.000000 14.828507 27.000000
21.955592 23.788561 12.397875 0.000000 51.000000 14.470246 0.000000
20.249022 22.012741 11.738335 0.000000 40.000000 14.483392 0.000000
20.213305 21.834092 11.613933 0.000000 37.000000 14.380794 0.000000
20.917826 19.686069 12.465998 0.000000 48.000000 14.914657 25.000000
20.909689 19.906914 12.964857 0.000000 31.000000 15.381659 25.000000
23.857373 19.608852 13.681382 0.000000 47.000000 14.965806 26.000000
21.932228 19.856948 13.012058 0.000000 43.000000 15.050108 27.000000
22.538527 20.764643 12.619649 0.000000 54.000000 14.462488 0.000000
22.216247 20.561155 12.473293 0.000000 42.000000 14.444689 0.000000
18.584527 24.476915 11.235654 0.000000 34.000000 14.626992 0.000000
23.057947 19.894638 13.416833 0.000000 74.000000 15.013268 26.000000
19.677185 19.280051 11.453884 0.000000 37.000000 14.428777 0.000000
22.170530 23.674521 12.930356 0.000000 48.000000 14.886613 11.000000
20.787214 24.999165 11.968421 0.000000 51.000000 14.499794 0.000000
22.243410 23.800889 12.712123 0.000000 45.000000 14.656863 11.000000
21.573386 24.929791 12.231972 0.000000 44.000000 14.456270 0.000000
19.636023 23.590486 11.656468 0.000000 39.000000 14.632324 9.000000
22.254299 24.813780 12.498820 0.000000 47.000000 14.454461 0.000000
22.563757 24.741924 12.631975 0.000000 56.000000 14.464689 0.000000
22.063649 22.379749 12.700182 0.000000 52.000000 14.711761 18.000000
23.132570 24.567525 12.895474 0.000000 56.000000 14.500926 0.000000
19.353108 23.267041 11.705928 0.000000 58.000000 14.782210 9.000000
22.740092 21.392829 13.183769 0.000000 40.000000 14.913194 20.000000
19.518245 20.876415 11.415134 0.000000 46.000000 14.451093 0.000000
22.462056 24.077252 12.937572 0.000000 50.000000 14.786283 11.000000
20.852087 20.765569 11.918619 0.000000 44.000000 14.429650 0.000000
22.308654 20.090339 13.126310 0.000000 59.000000 15.018163 27.000000
22.140554 20.313682 12.704774 0.000000 42.000000 14.687794 27.000000
22.118202 23.324020 12.533597 0.000000 32.000000 14.536781 0.000000
22.548004 20.523232 12.626390 0.000000 55.000000 14.465278 0.000000
23.195540 20.467938 12.786187 0.000000 55.000000 14.376152 0.000000
22.904140 19.246629 13.382853 0.000000 63.000000 15.038136 24.000000
18.426929 22.467977 11.109699 0.000000 39.000000 14.567701 0.000000
18.688832 22.230845 11.078187 0.000000 28.000000 14.442225 0.000000
22.996597 20.236038 13.236064 0.000000 65.000000 14.867652 26.000000
19.101212 22.546485 11.300599 0.000000 34.000000 14.497684 0.000000
19.033240 23.141811 11.219318 0.000000 45.000000 14.447038 0.000000
19.511010 23.218734 11.789136 0.000000 42.000000 14.801628 9.000000
19.984193 23.190309 11.548502 0.000000 41.000000 14.404059 0.000000
18.897967 22.563359 11.315134 0.000000 47.000000 14.585831 5.000000
19.125194 20.578610 11.393923 0.000000 56.000000 14.575684 7.000000
22.306561 23.190800 12.430038 0.000000 36.000000 14.371294 0.000000
23.235816 20.152655 13.295785 0.000000 66.000000 14.835366 26.000000
22.575268 23.143451 12.632619 0.000000 46.000000 14.461061 0.000000
23.861926 24.332701 13.342088 0.000000 27.000000 14.648540 0.000000
23.182184 21.078948 13.174653 0.000000 55.000000 14.742387 20.000000
19.384628 20.456024 11.782025 0.000000 67.000000 14.841418 7.000000
19.560375 22.321560 11.407228 0.000000 43.000000 14.428270 0.000000
23.113941 25.165133 13.151711 0.000000 50.000000 14.746105 2.000000
21.036349 19.532022 12.261080 0.000000 61.000000 14.680533 25.000000
23.372212 21.625925 12.760010 0.000000 27.000000 14.286933 0.000000
22.852402 22.534393 13.485625 0.000000 55.000000 15.152727 30.000000
22.802930 23.718414 12.728853 0.000000 44.000000 14.466981 0.000000
22.513529 23.470490 12.674026 0.000000 52.000000 14.522245 0.000000
23.716351 21.223532 13.754447 0.000000 41.000000 15.085548 19.000000
23.246238 24.995040 13.173246 0.000000 51.000000 14.717559 2.000000
21.683766 22.384012 12.262897 0.000000 35.000000 14.444505 0.000000
18.424626 24.141828 10.982136 0.000000 25.000000 14.449894 0.000000
20.967103 21.564242 11.860749 0.000000 37.000000 14.333591 0.000000
21.562121 22.472361 12.546751 0.000000 63.000000 14.753198 18.000000
20.252414 21.134732 11.685901 0.000000 44.000000 14.433375 0.000000
20.371772 19.072886 12.325198 0.000000 56.000000 14.984192 23.000000
21.500040 25.028582 12.279687 0.000000 51.000000 14.527583 0.000000
20.271338 19.452084 12.094865 0.000000 68.000000 14.806825 23.000000
19.948982 19.804884 11.762237 0.000000 66.000000 14.615793 25.000000
18.092167 24.653346 12.028105 0.000000 5.000000 15.544874 4.000000
22.859449 22.598648 13.308879 0.000000 54.000000 14.985739 30.000000
21.605828 22.477527 12.705443 0.000000 58.000000 14.884757 18.000000
22.310179 24.470737 12.408907 0.000000 36.000000 14.350311 0.000000
18.540977 21.364141 11.119854 0.000000 32.000000 14.535271 6.000000
18.966264 20.555073 11.232158 0.000000 45.000000 14.483574 0.000000
20.385625 20.448312 11.703210 0.000000 39.000000 14.400563 0.000000
23.981945 22.899023 13.343963 0.000000 34.000000 14.606215 16.000000
18.668873 21.383197 11.495594 0.000000 39.000000 14.837805 6.000000
22.860357 21.167412 12.837720 0.000000 31.000000 14.547157 20.000000
20.034665 19.308254 11.619538 0.000000 45.000000 14.451601 0.000000
20.226878 19.199152 11.772024 0.000000 40.000000 14.522859 0.000000
21.458696 23.129541 12.373583 0.000000 55.000000 14.630101 0.000000
19.627169 23.993052 11.921556 0.000000 45.000000 14.882147 12.000000
19.454378 19.896393 12.069746 0.000000 60.000000 15.083431 22.000000
