38.127206 8.392894 48.515837 0.000000 32.000000 14.526258 3.000000
41.310053 6.499288 50.098019 0.000000 29.000000 14.156231 0.000000
39.994461 7.083171 49.205475 0.000000 34.000000 14.107764 0.000000
42.821524 7.949146 51.577982 0.000000 55.000000 14.595654 28.000000
40.524252 3.480743 50.091075 0.000000 41.000000 14.571507 20.000000
41.444362 6.807851 50.145594 0.000000 26.000000 14.124416 0.000000
38.320237 8.085101 48.526938 0.000000 49.000000 14.432178 3.000000
41.524699 6.922113 50.253615 0.000000 31.000000 14.172559 0.000000
37.715507 6.433664 48.476383 0.000000 53.000000 14.713592 29.000000
41.434840 8.223764 50.115212 0.000000 19.000000 14.103869 0.000000
37.750797 6.412880 48.553845 0.000000 62.000000 14.760077 29.000000
41.188104 3.432055 50.617183 0.000000 60.000000 14.659897 20.000000
39.169498 8.530867 49.027177 0.000000 46.000000 14.399361 5.000000
41.760960 7.320122 50.422568 0.000000 37.000000 14.188578 0.000000
38.335105 5.160287 48.772984 0.000000 42.000000 14.631936 17.000000
41.280612 3.931056 50.463675 0.000000 40.000000 14.480718 24.000000
39.508888 7.022741 48.868357 0.000000 27.000000 14.083384 0.000000
41.219291 3.993864 50.087073 0.000000 28.000000 14.195633 0.000000
40.677506 8.126042 49.743271 0.000000 39.000000 14.195736 0.000000
42.270040 4.318800 51.506084 0.000000 62.000000 14.830513 23.000000
40.188369 5.055274 49.798702 0.000000 55.000000 14.504680 19.000000
37.833076 8.822950 48.633545 0.000000 62.000000 14.783268 3.000000
42.372017 6.328135 50.929786 0.000000 44.000000 14.289315 0.000000
42.404604 5.078975 51.686114 0.000000 45.000000 14.910388 16.000000
41.180760 8.685194 50.070784 0.000000 36.000000 14.202530 0.000000
42.837975 7.825628 51.534028 0.000000 51.000000 14.549729 28.000000
41.607205 3.297814 51.036392 0.000000 32.000000 14.789208 12.000000
41.567438 4.002955 50.725067 0.000000 59.000000 14.547681 24.000000
39.451807 4.835844 49.404217 0.000000 59.000000 14.566381 30.000000
42.810887 8.582273 51.027958 0.000000 35.000000 14.136992 0.000000
38.257256 4.906383 48.713831 0.000000 82.000000 14.623718 17.000000
42.069910 3.272458 51.282087 0.000000 66.000000 14.748658 26.000000
40.850577 4.003911 50.090597 0.000000 48.000000 14.396214 25.000000
39.903368 7.218779 49.466988 0.000000 42.000000 14.377369 0.000000
42.075695 3.317259 50.693553 0.000000 50.000000 14.248682 0.000000
41.592631 5.930231 50.402717 0.000000 35.000000 14.262032 0.000000
38.945933 4.210672 49.382008 0.000000 54.000000 14.818746 11.000000
41.675910 4.508783 50.761419 0.000000 33.000000 14.520238 24.000000
39.840376 4.786706 49.548418 0.000000 76.000000 14.479877 30.000000
39.456346 4.191507 49.666079 0.000000 44.000000 14.785028 11.000000
38.150540 5.972460 48.664370 0.000000 60.000000 14.639152 4.000000
39.512120 8.736580 49.028580 0.000000 36.000000 14.216922 0.000000
39.642713 8.602194 49.028861 0.000000 24.000000 14.147170 0.000000
38.442148 8.830039 48.803822 0.000000 45.000000 14.600603 3.000000
39.915565 8.265877 49.145742 0.000000 21.000000 14.099617 0.000000
39.161177 8.897117 49.615158 0.000000 49.000000 14.900229 6.000000
39.574343 4.936892 49.618911 0.000000 55.000000 14.681967 30.000000
40.267770 4.020461 49.958472 0.000000 57.000000 14.597013 25.000000
42.741024 3.912632 51.474459 0.000000 60.000000 14.551397 23.000000
39.150154 7.721892 48.818186 0.000000 41.000000 14.233285 0.000000
40.582772 7.251999 49.739003 0.000000 39.000000 14.242904 0.000000
40.683596 7.128664 49.686737 0.000000 38.000000 14.144743 0.000000
42.330896 3.294441 51.177393 0.000000 46.000000 14.520398 26.000000
42.719458 4.600862 51.520518 0.000000 60.000000 14.601840 16.000000
39.626368 7.009923 48.967670 0.000000 24.000000 14.104269 0.000000
42.472026 8.611550 51.156108 0.000000 35.000000 14.426791 14.000000
42.481181 6.362012 50.878753 0.000000 31.000000 14.187725 0.000000
41.123884 6.369180 50.012081 0.000000 31.000000 14.183452 0.000000
42.712161 3.754661 51.339419 0.000000 61.000000 14.452857 23.000000
42.614128 3.918679 51.502691 0.000000 68.000000 14.643240 23.000000
39.985698 6.372437 49.300202 0.000000 38.000000 14.192435 0.000000
38.744809 8.081113 48.980444 0.000000 57.000000 14.587512 5.000000
40.097895 6.158889 49.411786 0.000000 34.000000 14.226510 0.000000
40.708619 4.765764 50.230718 0.000000 48.000000 14.590593 19.000000
41.501697 5.665420 50.199012 0.000000 34.000000 14.138787 0.000000
41.582745 5.504463 50.203374 0.000000 32.000000 14.099033 0.000000
42.249427 3.691367 51.278157 0.000000 65.000000 14.649131 23.000000
38.344371 7.456370 48.293615 0.000000 40.000000 14.222258 0.000000
37.742464 6.027033 48.458147 0.000000 62.000000 14.683749 4.000000
39.298469 3.622036 49.497557 0.000000 38.000000 14.727363 22.000000
39.554935 4.905582 49.479865 0.000000 62.000000 14.574978 30.000000
42.921986 9.140131 51.183283 0.000000 39.000000 14.208585 0.000000
38.992971 3.508350 49.308956 0.000000 56.000000 14.731862 22.000000
42.324873 5.046005 51.470626 0.000000 45.000000 14.771191 16.000000
39.143840 4.262857 49.665198 0.000000 67.000000 14.951767 11.000000
41.763891 3.544204 50.502544 0.000000 48.000000 14.254528 12.000000
40.309071 4.758405 49.980447 0.000000 60.000000 14.593431 19.000000
42.795725 7.240715 51.059830 0.000000 32.000000 14.172026 0.000000
42.863902 7.084040 51.055326 0.000000 34.000000 14.131685 0.000000
42.928714 6.920287 51.064294 0.000000 39.000000 14.104521 0.000000
40.016815 4.952921 49.663640 0.000000 74.000000 14.482594 30.000000
38.136730 3.556185 48.846277 0.000000 63.000000 14.800130 7.000000
41.801706 3.819782 50.943921 0.000000 61.000000 14.606898 23.000000
43.163888 6.149569 51.319012 0.000000 45.000000 14.193532 0.000000
43.214470 5.980088 51.333455 0.000000 45.000000 14.178616 0.000000
39.129202 2.940186 48.757642 0.000000 31.000000 14.193399 0.000000
41.242617 4.149278 50.811217 0.000000 55.000000 14.794497 24.000000
42.346507 5.511458 51.100442 0.000000 54.000000 14.447065 10.000000
39.092652 4.867184 49.185005 0.000000 52.000000 14.573793 18.000000
40.860052 3.348553 50.468931 0.000000 64.000000 14.710549 20.000000
40.799548 7.943928 49.849732 0.000000 24.000000 14.220210 0.000000
39.124552 6.084381 48.725036 0.000000 36.000000 14.168363 0.000000
38.368342 3.389387 48.701935 0.000000 51.000000 14.554139 7.000000
37.649062 3.166845 48.536560 0.000000 62.000000 14.800007 7.000000
38.598379 9.005734 48.802487 0.000000 32.000000 14.515746 6.000000
39.530249 8.328522 49.073242 0.000000 27.000000 14.244912 0.000000
39.131538 4.681974 48.891286 0.000000 48.000000 14.304977 18.000000
39.630991 7.945231 49.055532 0.000000 22.000000 14.175969 0.000000
38.039275 6.164752 48.662596 0.000000 60.000000 14.697285 29.000000
39.736936 8.341971 48.968970 0.000000 19.000000 14.046109 0.000000
42.620834 7.542186 51.242973 0.000000 71.000000 14.420376 8.000000
39.148216 4.682933 48.938142 0.000000 57.000000 14.335598 18.000000
39.992254 8.686750 49.285640 0.000000 31.000000 14.176627 0.000000
40.612575 3.271860 50.025182 0.000000 59.000000 14.468541 21.000000
42.332865 5.850633 51.108437 0.000000 66.000000 14.461126 10.000000
40.255413 9.077050 49.469366 0.000000 32.000000 14.190703 0.000000
41.825423 9.096653 50.920846 0.000000 65.000000 14.574706 14.000000
41.319005 5.628716 50.104416 0.000000 41.000000 14.156835 0.000000
41.400439 5.745989 50.200607 0.000000 44.000000 14.194401 0.000000
41.477983 5.885709 50.238632 0.000000 45.000000 14.184946 0.000000
41.958836 8.502391 50.923168 0.000000 54.000000 14.505166 14.000000
41.559528 6.023637 50.275288 0.000000 39.000000 14.172190 0.000000
42.770020 5.737723 51.054498 0.000000 32.000000 14.181301 0.000000
41.823771 5.916495 51.072858 0.000000 18.000000 14.703929 10.000000
38.741111 6.784743 48.632668 0.000000 28.000000 14.295880 0.000000
38.139552 4.844707 48.597204 0.000000 63.000000 14.588336 17.000000
41.912823 6.512381 50.520485 0.000000 33.000000 14.189857 0.000000
38.923117 4.826858 48.722359 0.000000 37.000000 14.274059 18.000000
41.996995 6.690832 50.451916 0.000000 21.000000 14.086856 0.000000
38.899804 4.894225 49.149163 0.000000 53.000000 14.646887 18.000000
42.088944 6.833111 50.453348 0.000000 28.000000 14.038786 0.000000
41.035890 5.475359 50.350098 0.000000 52.000000 14.515985 9.000000
42.290923 7.023708 50.640450 0.000000 34.000000 14.088502 0.000000
42.395159 7.112202 50.737778 0.000000 33.000000 14.114808 0.000000
42.502681 7.175100 50.875277 0.000000 39.000000 14.173268 0.000000
40.371637 4.888362 50.090936 0.000000 61.000000 14.653181 19.000000
41.085392 5.823936 50.288858 0.000000 61.000000 14.437753 9.000000
42.825427 7.418949 51.144449 0.000000 37.000000 14.227548 0.000000
38.290792 6.231729 48.434148 0.000000 37.000000 14.369619 29.000000
40.794035 5.278567 50.007942 0.000000 43.000000 14.356735 19.000000
39.172611 4.863257 49.362095 0.000000 71.000000 14.680450 18.000000
41.010904 3.213344 50.025565 0.000000 40.000000 14.255386 20.000000
38.134277 7.662060 48.167923 0.000000 41.000000 14.228738 0.000000
37.751347 8.543282 48.910985 0.000000 52.000000 15.061301 3.000000
37.880392 8.039421 48.539790 0.000000 48.000000 14.678756 3.000000
39.362141 4.865313 49.399781 0.000000 56.000000 14.610691 30.000000
40.683649 5.598582 50.094120 0.000000 49.000000 14.488651 9.000000
39.309973 6.228682 48.846787 0.000000 37.000000 14.171779 0.000000
38.751919 5.116637 49.020234 0.000000 60.000000 14.617294 18.000000
42.934121 5.220241 51.307077 0.000000 31.000000 14.306595 16.000000
41.928111 3.906053 50.907416 0.000000 69.000000 14.508334 23.000000
42.989982 8.229538 51.356014 0.000000 35.000000 14.317973 0.000000
42.395505 4.847856 51.502841 0.000000 45.000000 14.760534 16.000000
40.941605 3.316659 50.352375 0.000000 68.000000 14.568438 20.000000
38.646905 5.501227 48.442349 0.000000 38.000000 14.185690 0.000000
39.518781 4.038467 48.886555 0.000000 33.000000 14.093446 0.000000
41.289602 3.919488 50.471357 0.000000 53.000000 14.482386 24.000000
39.988714 3.078781 49.312820 0.000000 34.000000 14.201471 0.000000
41.163961 9.077888 50.060954 0.000000 33.000000 14.203235 0.000000
41.417082 4.740217 50.396702 0.000000 39.000000 14.351037 0.000000
40.129661 8.993707 49.419642 0.000000 41.000000 14.216118 0.000000
42.337377 4.359053 51.552715 0.000000 67.000000 14.833794 23.000000
38.487711 8.230644 48.659772 0.000000 39.000000 14.454569 3.000000
41.729972 8.172472 50.433964 0.000000 31.000000 14.214807 0.000000
39.492925 8.664687 49.505568 0.000000 53.000000 14.629911 6.000000
41.830520 8.007113 50.472236 0.000000 39.000000 14.193231 0.000000
41.998937 3.478329 51.129201 0.000000 49.000000 14.657619 12.000000
40.710221 5.680908 50.208427 0.000000 52.000000 14.570915 9.000000
38.368262 4.768726 48.490284 0.000000 47.000000 14.375494 17.000000
39.362647 5.083404 49.465856 0.000000 50.000000 14.666204 30.000000
42.809917 4.788833 51.514068 0.000000 60.000000 14.547915 16.000000
38.784162 9.070080 48.986455 0.000000 41.000000 14.571496 6.000000
40.906303 7.654029 49.886455 0.000000 36.000000 14.194000 0.000000
42.208584 7.289566 50.696582 0.000000 36.000000 14.180020 0.000000
42.298048 4.339588 51.536074 0.000000 43.000000 14.840822 23.000000
42.293288 7.129184 50.709198 0.000000 34.000000 14.145275 0.000000
42.655726 5.057045 51.925716 0.000000 54.000000 14.978089 16.000000
42.373904 6.975489 50.704061 0.000000 33.000000 14.097733 0.000000
41.183272 7.102522 50.015295 0.000000 33.000000 14.154337 0.000000
42.840127 7.844548 51.735007 0.000000 56.000000 14.718254 28.000000
41.265262 6.929998 50.034329 0.000000 32.000000 14.126466 0.000000
40.603658 7.177279 49.742743 0.000000 38.000000 14.234868 0.000000
40.289471 4.111672 49.882937 0.000000 45.000000 14.521612 25.000000
42.611025 6.378325 50.966808 0.000000 40.000000 14.192478 0.000000
41.427790 7.659961 50.265421 0.000000 39.000000 14.234463 0.000000
42.680046 6.207127 50.998129 0.000000 32.000000 14.181931 0.000000
41.510501 6.337056 50.248030 0.000000 34.000000 14.175453 0.000000
42.749166 6.022036 51.053696 0.000000 34.000000 14.191800 0.000000
41.586569 6.139400 50.316125 0.000000 37.000000 14.192175 0.000000
37.779841 7.517991 48.340758 0.000000 57.000000 14.564611 3.000000
38.191291 5.584727 48.356232 0.000000 51.000000 14.357164 4.000000
37.895604 4.939503 48.093098 0.000000 44.000000 14.293480 17.000000
39.281493 5.006028 49.426571 0.000000 45.000000 14.676531 30.000000
42.929949 5.543525 51.052369 0.000000 31.000000 14.093792 0.000000
41.439932 8.155468 50.409990 0.000000 39.000000 14.350009 15.000000
42.991044 5.304523 51.232852 0.000000 32.000000 14.213423 0.000000
41.960971 5.029239 50.586099 0.000000 47.000000 14.219448 0.000000
39.439768 8.837780 49.522343 0.000000 46.000000 14.672562 6.000000
42.378895 3.131061 50.815884 0.000000 41.000000 14.189466 0.000000
38.347122 8.276212 48.571425 0.000000 43.000000 14.455328 3.000000
42.264993 3.831705 51.290222 0.000000 63.000000 14.650975 23.000000
38.713900 3.080257 48.590298 0.000000 38.000000 14.274692 0.000000
43.030455 5.119826 51.406127 0.000000 54.000000 14.338591 16.000000
40.381926 4.009395 49.503079 0.000000 31.000000 14.151363 0.000000
39.277776 5.642583 48.868808 0.000000 40.000000 14.207626 0.000000
40.683710 4.721302 50.224957 0.000000 60.000000 14.599079 19.000000
37.957071 8.365601 48.846188 0.000000 55.000000 14.896341 3.000000
39.283466 7.262423 49.206099 0.000000 50.000000 14.489338 2.000000
38.078192 5.626713 48.397079 0.000000 65.000000 14.452263 4.000000
39.415510 6.162717 48.919923 0.000000 33.000000 14.176964 0.000000
40.354122 4.766770 49.754001 0.000000 64.000000 14.378107 19.000000
37.956854 8.379537 48.206181 0.000000 40.000000 14.356125 3.000000
39.602631 6.613168 49.108657 0.000000 36.000000 14.236020 0.000000
41.085895 7.371392 50.011268 0.000000 30.000000 14.203125 0.000000
39.806038 3.519340 49.937035 0.000000 74.000000 14.826373 22.000000
41.021750 6.432638 49.929734 0.000000 31.000000 14.168667 0.000000
40.265065 4.128502 50.335977 0.000000 55.000000 14.917175 25.000000
41.078974 6.612157 49.900433 0.000000 20.000000 14.113261 0.000000
42.688770 7.782283 51.464870 0.000000 64.000000 14.571306 8.000000
40.555564 5.000654 50.207147 0.000000 62.000000 14.652721 19.000000
39.863556 3.541553 49.885211 0.000000 49.000000 14.751794 22.000000
40.648280 3.434528 50.245872 0.000000 65.000000 14.635725 20.000000
41.834705 4.031725 51.047634 0.000000 61.000000 14.676773 23.000000
38.538904 9.078721 48.807888 0.000000 57.000000 14.552181 6.000000
42.283946 4.756524 51.361424 0.000000 73.000000 14.700930 16.000000
41.374902 7.161317 50.140133 0.000000 30.000000 14.157032 0.000000
40.111167 7.667808 49.405550 0.000000 39.000000 14.214133 0.000000
37.986420 8.447368 48.898530 0.000000 41.000000 14.924802 3.000000
41.009336 6.361696 49.948674 0.000000 31.000000 14.191310 0.000000
37.902054 6.253446 48.288082 0.000000 52.000000 14.454640 29.000000
41.992390 4.463099 51.389151 0.000000 53.000000 14.880593 23.000000
43.171499 4.988774 51.443742 0.000000 56.000000 14.294757 16.000000
40.764687 5.835186 50.086723 0.000000 48.000000 14.438975 9.000000
40.885280 4.139027 50.478565 0.000000 70.000000 14.705162 24.000000
40.455374 8.234364 49.540026 0.000000 24.000000 14.143193 0.000000
42.578715 6.567239 50.970615 0.000000 35.000000 14.213009 0.000000
39.403719 5.141405 49.532537 0.000000 52.000000 14.700488 30.000000
39.422911 7.862318 49.132004 0.000000 42.000000 14.352049 5.000000
40.738325 3.045357 50.005695 0.000000 51.000000 14.384695 0.000000
41.982981 8.011014 50.586254 0.000000 37.000000 14.207783 0.000000
40.751663 8.576069 49.752592 0.000000 35.000000 14.163862 0.000000
39.160828 6.304462 49.034409 0.000000 43.000000 14.410113 1.000000
38.249558 3.388621 48.673257 0.000000 64.000000 14.593588 7.000000
42.270258 8.419606 50.629250 0.000000 29.000000 14.090121 0.000000
41.072045 8.870186 49.988435 0.000000 33.000000 14.191271 0.000000
41.180792 8.960988 50.065595 0.000000 40.000000 14.198132 0.000000
41.293655 9.048017 50.141396 0.000000 35.000000 14.201641 0.000000
37.785123 6.387340 48.421505 0.000000 51.000000 14.629951 29.000000
41.405344 9.128988 50.222391 0.000000 38.000000 14.210164 0.000000
37.929870 3.334074 48.630240 0.000000 43.000000 14.728602 7.000000
42.808141 8.810499 51.094567 0.000000 38.000000 14.194699 0.000000
38.874945 7.903487 48.920700 0.000000 54.000000 14.467328 5.000000
41.902787 3.891547 50.919236 0.000000 45.000000 14.531885 23.000000
43.148300 9.027604 51.322257 0.000000 40.000000 14.204625 0.000000
42.923618 3.973541 51.309943 0.000000 49.000000 14.314644 23.000000
38.964707 4.806738 48.955998 0.000000 48.000000 14.449022 18.000000
43.013856 3.398886 51.193187 0.000000 32.000000 14.167710 0.000000
43.082076 3.543181 51.196231 0.000000 30.000000 14.133718 0.000000
37.793022 6.326525 48.262873 0.000000 67.000000 14.491791 29.000000
43.226843 3.832280 51.205518 0.000000 29.000000 14.063974 0.000000
42.230551 3.897545 50.856393 0.000000 34.000000 14.303169 23.000000
42.086194 4.852933 51.067870 0.000000 61.000000 14.559076 16.000000
39.600651 3.285195 49.122558 0.000000 40.000000 14.248817 0.000000
38.450823 3.240561 48.342465 0.000000 40.000000 14.206449 0.000000
38.567540 3.063433 48.401320 0.000000 38.000000 14.193585 0.000000
41.757129 3.508535 51.198808 0.000000 67.000000 14.845979 12.000000
39.180732 3.670466 49.424544 0.000000 48.000000 14.728821 22.000000
39.655046 8.426563 48.938195 0.000000 24.000000 14.064015 0.000000
42.296691 8.518109 51.095240 0.000000 41.000000 14.469371 14.000000
39.934094 7.998677 49.206723 0.000000 30.000000 14.141171 0.000000
40.024380 6.974212 49.179974 0.000000 22.000000 14.070200 0.000000
40.072975 7.771275 49.367309 0.000000 40.000000 14.202316 0.000000
40.027233 6.900000 49.263350 0.000000 15.000000 14.139062 0.000000
40.181751 5.658259 49.463365 0.000000 43.000000 14.225115 0.000000
39.015914 7.649091 48.704439 0.000000 38.000000 14.209197 0.000000
40.433150 7.203956 49.619295 0.000000 38.000000 14.222027 0.000000
41.101615 6.929509 49.883687 0.000000 27.000000 14.086989 0.000000
40.627906 6.941839 49.527618 0.000000 23.000000 14.040251 0.000000
39.141080 4.798506 49.306008 0.000000 72.000000 14.649997 18.000000
40.748224 6.700415 49.716265 0.000000 28.000000 14.135036 0.000000
39.465305 6.956263 48.794266 0.000000 24.000000 14.044190 0.000000
40.853073 6.504741 49.805473 0.000000 34.000000 14.154158 0.000000
38.157476 5.518593 48.340929 0.000000 51.000000 14.362367 0.000000
40.953535 6.316735 49.874943 0.000000 32.000000 14.158968 0.000000
39.779963 3.712895 49.602103 0.000000 48.000000 14.557578 22.000000
41.763817 4.495080 50.989749 0.000000 55.000000 14.665895 23.000000
40.602575 5.623568 49.758017 0.000000 42.000000 14.248343 0.000000
39.637428 4.077395 49.529021 0.000000 71.000000 14.572267 11.000000
38.244728 6.161944 48.484492 0.000000 58.000000 14.436810 4.000000
40.373132 3.204928 49.870036 0.000000 58.000000 14.465883 21.000000
41.427919 4.875955 50.232712 0.000000 30.000000 14.206779 0.000000
41.387865 5.453100 50.057311 0.000000 40.000000 14.080161 0.000000
40.180636 5.570996 49.321255 0.000000 37.000000 14.105735 0.000000
41.471769 5.254201 50.156631 0.000000 33.000000 14.119046 0.000000
38.170401 4.940538 48.713165 0.000000 55.000000 14.669704 17.000000
41.650916 7.302411 50.371587 0.000000 31.000000 14.204513 0.000000
39.645145 4.868677 49.642907 0.000000 56.000000 14.664281 30.000000
42.839805 9.019562 51.141757 0.000000 35.000000 14.217570 0.000000
42.933746 8.856161 51.199492 0.000000 42.000000 14.215967 0.000000
37.960207 6.213249 48.333974 0.000000 64.000000 14.462219 29.000000
38.902524 8.946895 49.199715 0.000000 50.000000 14.688108 6.000000
42.116617 8.396668 50.573164 0.000000 35.000000 14.125111 0.000000
38.890308 9.091372 48.653467 0.000000 27.000000 14.233480 0.000000
42.585822 7.265332 50.941269 0.000000 40.000000 14.184424 0.000000
39.348250 6.955801 48.769249 0.000000 16.000000 14.085803 0.000000
42.714264 6.930576 50.969139 0.000000 37.000000 14.139117 0.000000
41.279207 8.692249 50.197218 0.000000 51.000000 14.256513 0.000000
40.166572 4.311756 49.937380 0.000000 61.000000 14.633442 25.000000
42.888700 6.363724 51.139471 0.000000 40.000000 14.189435 0.000000
39.365691 7.168799 49.300795 0.000000 31.000000 14.525219 2.000000
38.051684 6.327122 48.609823 0.000000 52.000000 14.646081 29.000000
42.530773 5.142684 51.701279 0.000000 45.000000 14.855573 16.000000
43.075600 5.670108 51.236457 0.000000 39.000000 14.171150 0.000000
43.114211 5.518054 51.209029 0.000000 39.000000 14.127301 0.000000
41.384850 3.552376 50.441563 0.000000 45.000000 14.406185 20.000000
43.217380 4.952919 51.382285 0.000000 44.000000 14.218282 0.000000
38.902681 3.059985 48.632937 0.000000 33.000000 14.209516 0.000000
42.512546 8.439404 51.246932 0.000000 58.000000 14.481754 14.000000
37.772467 8.793069 48.556343 0.000000 42.000000 14.750572 3.000000
41.375177 7.202076 50.180309 0.000000 26.000000 14.190803 0.000000
42.843108 7.864729 51.300222 0.000000 50.000000 14.349585 8.000000
38.872033 5.663111 48.539957 0.000000 30.000000 14.147443 0.000000
37.687362 7.803630 48.585272 0.000000 52.000000 14.820606 3.000000
38.929008 6.004436 48.623494 0.000000 28.000000 14.187435 0.000000
39.721576 4.395490 49.701362 0.000000 53.000000 14.672670 11.000000
42.951692 4.043769 51.302090 0.000000 56.000000 14.292968 23.000000
40.388724 3.692039 49.989267 0.000000 52.000000 14.558189 21.000000
39.200513 7.217531 48.795107 0.000000 24.000000 14.186811 0.000000
39.439322 7.834794 49.004909 0.000000 42.000000 14.235953 0.000000
39.555396 8.205314 48.969866 0.000000 25.000000 14.144159 0.000000
37.936820 8.679742 48.473981 0.000000 60.000000 14.592955 3.000000
39.697797 8.517694 49.034319 0.000000 20.000000 14.122256 0.000000
39.791445 8.616021 49.167898 0.000000 20.000000 14.184843 0.000000
39.876671 8.738689 49.250829 0.000000 40.000000 14.209183 0.000000
39.959012 8.879072 49.294672 0.000000 32.000000 14.202068 0.000000
42.571920 4.795041 51.932988 0.000000 76.000000 15.029143 16.000000
38.055798 7.869786 48.531559 0.000000 58.000000 14.577801 3.000000
40.196345 3.148724 49.436881 0.000000 34.000000 14.194934 0.000000
41.502990 3.281844 50.285464 0.000000 37.000000 14.211082 0.000000
40.223328 4.660406 50.045991 0.000000 52.000000 14.694720 19.000000
39.569192 7.078485 49.481352 0.000000 56.000000 14.568592 2.000000
38.557109 8.027400 49.702928 0.000000 7.000000 15.298070 5.000000
41.264777 3.358658 50.378642 0.000000 50.000000 14.417415 20.000000
42.554515 4.702290 51.704663 0.000000 71.000000 14.845705 16.000000
42.919563 3.914790 51.473109 0.000000 70.000000 14.454572 23.000000
40.014868 3.305084 49.684017 0.000000 46.000000 14.500841 21.000000
42.630841 5.822868 51.008805 0.000000 37.000000 14.217315 0.000000
38.721585 4.338904 49.243888 0.000000 59.000000 14.822373 11.000000
40.650682 5.988195 50.097630 0.000000 58.000000 14.509283 9.000000
41.611715 6.355317 50.318635 0.000000 35.000000 14.180817 0.000000
37.779033 8.299882 48.345128 0.000000 23.000000 14.568733 3.000000
41.703438 6.471434 50.382932 0.000000 35.000000 14.185943 0.000000
42.889276 6.194029 51.147829 0.000000 37.000000 14.196183 0.000000
37.936413 3.305620 48.463192 0.000000 55.000000 14.584064 7.000000
38.053557 3.248815 48.250289 0.000000 57.000000 14.341537 7.000000
39.007688 6.379195 48.937717 0.000000 59.000000 14.410553 1.000000
43.071771 6.419173 51.272570 0.000000 37.000000 14.203691 0.000000
41.981019 6.896385 50.390964 0.000000 29.000000 14.043959 0.000000
42.345498 4.390964 51.428799 0.000000 73.000000 14.724824 23.000000
40.266540 3.160146 49.611718 0.000000 35.000000 14.304922 21.000000
43.161431 3.219662 51.397278 0.000000 53.000000 14.260925 0.000000
38.577212 6.073260 48.631236 0.000000 39.000000 14.382511 0.000000
37.885297 6.230960 48.389877 0.000000 59.000000 14.549562 29.000000
42.398033 7.213321 50.821555 0.000000 33.000000 14.183997 0.000000
39.411546 6.000865 48.935547 0.000000 34.000000 14.192279 0.000000
38.247072 4.882444 48.683901 0.000000 46.000000 14.603907 17.000000
42.725418 7.450927 51.077766 0.000000 32.000000 14.224849 0.000000
42.836294 7.547102 51.119317 0.000000 37.000000 14.200506 0.000000
42.846609 7.606222 51.218162 0.000000 36.000000 14.278429 8.000000
41.656469 3.477856 50.775452 0.000000 58.000000 14.542504 12.000000
42.242976 4.831379 50.905456 0.000000 45.000000 14.337932 16.000000
43.081802 3.000489 51.282177 0.000000 46.000000 14.206426 0.000000
38.739845 3.268980 48.525170 0.000000 35.000000 14.205803 0.000000
38.135212 7.607545 48.134029 0.000000 37.000000 14.199622 0.000000
41.479120 5.855299 50.258915 0.000000 40.000000 14.201461 0.000000
38.444271 7.233802 48.332907 0.000000 34.000000 14.201891 0.000000
41.864030 5.846779 51.023239 0.000000 51.000000 14.640461 10.000000
40.821368 3.675179 50.185395 0.000000 52.000000 14.491903 20.000000
39.140598 6.323977 48.759868 0.000000 40.000000 14.189171 0.000000
42.301985 7.791550 50.849259 0.000000 57.000000 14.258862 8.000000
38.086998 5.836386 48.398098 0.000000 45.000000 14.448404 4.000000
39.516098 5.777129 48.984176 0.000000 35.000000 14.177302 0.000000
41.607727 4.019968 50.745320 0.000000 55.000000 14.543188 24.000000
38.478950 5.565080 48.383401 0.000000 45.000000 14.225936 0.000000
39.323733 4.101405 48.807528 0.000000 37.000000 14.131260 0.000000
41.285034 8.582987 50.067007 0.000000 24.000000 14.143458 0.000000
38.810550 6.680875 48.484155 0.000000 23.000000 14.133282 0.000000
40.495733 4.880416 50.128358 0.000000 55.000000 14.618268 19.000000
40.191409 4.347603 49.890112 0.000000 63.000000 14.580224 25.000000
42.306616 5.239677 51.336048 0.000000 46.000000 14.667356 16.000000
38.404208 8.406247 48.735057 0.000000 41.000000 14.562881 3.000000
41.561592 5.438989 50.215257 0.000000 29.000000 14.120402 0.000000
39.282128 6.467482 49.123944 0.000000 40.000000 14.420695 1.000000
41.671790 8.072583 50.308979 0.000000 25.000000 14.140469 0.000000
40.425443 8.339929 49.424335 0.000000 21.000000 14.061560 0.000000
41.830533 5.637012 51.152929 0.000000 14.000000 14.767906 10.000000
40.545324 8.074687 49.627323 0.000000 30.000000 14.168686 0.000000
39.234743 4.648427 49.050056 0.000000 44.000000 14.383709 18.000000
39.247984 3.561883 49.427683 0.000000 57.000000 14.695428 22.000000
41.342956 4.884571 50.239685 0.000000 32.000000 14.258200 19.000000
40.750362 7.659337 49.814440 0.000000 45.000000 14.216775 0.000000
41.431959 3.699713 50.315512 0.000000 35.000000 14.274518 0.000000
40.593151 3.319674 49.948253 0.000000 45.000000 14.414002 21.000000
41.211882 3.442093 50.609000 0.000000 44.000000 14.640245 20.000000
40.931253 7.290181 49.907987 0.000000 44.000000 14.198807 0.000000
41.876622 3.244344 51.083379 0.000000 73.000000 14.684487 12.000000
38.722218 8.445865 48.634692 0.000000 26.000000 14.307715 0.000000
42.278497 6.832046 50.645967 0.000000 36.000000 14.099819 0.000000
41.521400 4.220463 50.904713 0.000000 74.000000 14.724022 24.000000
42.353107 6.644528 50.703867 0.000000 25.000000 14.108715 0.000000
41.167686 6.798797 49.906885 0.000000 22.000000 14.071164 0.000000
42.831986 7.084168 51.086128 0.000000 37.000000 14.174795 0.000000
39.464066 4.194406 49.667827 0.000000 53.000000 14.782366 11.000000
42.495167 6.250218 50.867795 0.000000 34.000000 14.170978 0.000000
42.541672 5.153292 51.790249 0.000000 34.000000 14.924845 16.000000
42.561174 6.051266 50.953790 0.000000 32.000000 14.208205 0.000000
38.896285 7.739936 48.874022 0.000000 39.000000 14.416482 5.000000
40.355868 4.163411 49.721022 0.000000 38.000000 14.349329 25.000000
40.671997 5.746040 50.064466 0.000000 54.000000 14.469860 9.000000
42.868320 9.050612 51.518742 0.000000 48.000000 14.520561 13.000000
41.530383 5.804728 50.260299 0.000000 42.000000 14.175155 0.000000
41.584725 5.655600 50.218298 0.000000 32.000000 14.110572 0.000000
41.645369 5.458261 50.291743 0.000000 36.000000 14.140077 0.000000
38.304252 4.361577 48.262788 0.000000 33.000000 14.217734 0.000000
41.807709 4.878942 50.484715 0.000000 53.000000 14.215992 0.000000
40.947488 4.127858 50.249715 0.000000 51.000000 14.478613 25.000000
41.893487 9.079805 50.865461 0.000000 53.000000 14.491469 14.000000
43.152966 3.850357 51.194487 0.000000 32.000000 14.094253 0.000000
43.181256 3.682796 51.203463 0.000000 35.000000 14.086670 0.000000
39.646104 4.113368 49.569597 0.000000 56.000000 14.601874 11.000000
40.579472 6.088793 49.803978 0.000000 40.000000 14.299528 0.000000
42.127709 3.309436 50.710490 0.000000 48.000000 14.235106 0.000000
39.065445 3.591714 49.336975 0.000000 42.000000 14.716676 22.000000
42.149604 3.147400 50.698932 0.000000 46.000000 14.213613 0.000000
43.184759 9.008842 51.347703 0.000000 42.000000 14.206569 0.000000
38.215975 5.200054 48.739534 0.000000 51.000000 14.667542 17.000000
38.681154 3.148731 48.466599 0.000000 38.000000 14.187808 0.000000
38.691270 3.324778 48.485676 0.000000 47.000000 14.198493 0.000000
40.039236 3.117480 49.331990 0.000000 33.000000 14.190579 0.000000
38.460550 5.122216 48.828945 0.000000 22.000000 14.611951 17.000000
38.866196 8.966013 49.258694 0.000000 58.000000 14.757371 6.000000
37.917503 8.088894 48.407139 0.000000 31.000000 14.546875 3.000000
40.129701 3.969887 49.376473 0.000000 29.000000 14.179651 0.000000
40.156529 4.136957 49.396002 0.000000 43.000000 14.181760 0.000000
39.059595 5.609911 48.694068 0.000000 31.000000 14.177031 0.000000
39.118320 5.751282 48.785084 0.000000 40.000000 14.222400 0.000000
38.277089 9.128445 49.097167 0.000000 51.000000 14.936723 6.000000
39.164153 5.933398 48.772402 0.000000 32.000000 14.187129 0.000000
40.886188 7.673699 49.914883 0.000000 32.000000 14.228781 0.000000
39.217550 6.101144 48.796313 0.000000 37.000000 14.178699 0.000000
40.229897 3.184417 50.145448 0.000000 78.000000 14.775167 21.000000
39.456159 6.775486 48.852236 0.000000 21.000000 14.098034 0.000000
38.368120 8.476337 48.830470 0.000000 45.000000 14.662775 3.000000
38.598008 8.470880 48.780600 0.000000 37.000000 14.497467 3.000000
41.440814 4.150656 50.918301 0.000000 48.000000 14.778683 24.000000
39.235016 8.774216 49.119921 0.000000 43.000000 14.442547 6.000000
39.713909 5.949312 49.158932 0.000000 37.000000 14.218827 0.000000
41.113892 6.925708 50.018298 0.000000 28.000000 14.194056 0.000000
42.276806 6.915042 50.598876 0.000000 25.000000 14.060968 0.000000
41.587787 4.027616 50.435530 0.000000 50.000000 14.292331 24.000000
41.219111 6.672843 49.995017 0.000000 28.000000 14.118010 0.000000
41.271355 7.206397 50.095866 0.000000 33.000000 14.175153 0.000000
40.035083 7.699709 49.355793 0.000000 41.000000 14.212901 0.000000
37.852561 7.898741 48.456706 0.000000 37.000000 14.623527 3.000000
40.127343 7.818065 49.435692 0.000000 41.000000 14.230911 0.000000
39.050824 3.335438 49.183526 0.000000 62.000000 14.594961 22.000000
42.085801 7.578582 51.170622 0.000000 54.000000 14.646036 8.000000
41.532239 7.578208 50.277654 0.000000 37.000000 14.188813 0.000000
38.408053 2.999485 48.318761 0.000000 36.000000 14.209359 0.000000
41.625306 7.691579 50.352502 0.000000 40.000000 14.202126 0.000000
38.054195 5.733932 48.582940 0.000000 67.000000 14.622039 4.000000
42.072605 5.085547 51.414148 0.000000 57.000000 14.858707 16.000000
40.489352 8.409781 49.466209 0.000000 23.000000 14.062662 0.000000
41.814406 7.933264 50.450479 0.000000 32.000000 14.183499 0.000000
40.597949 8.501181 49.561876 0.000000 22.000000 14.085229 0.000000
38.499295 4.624670 48.406266 0.000000 27.000000 14.234336 0.000000
38.373037 9.144979 48.846170 0.000000 56.000000 14.673395 6.000000
40.821936 8.641641 49.815319 0.000000 38.000000 14.179158 0.000000
42.991262 7.659018 51.531159 0.000000 72.000000 14.465155 28.000000
40.305069 5.851092 49.641072 0.000000 39.000000 14.309055 0.000000
42.215370 8.419677 50.573785 0.000000 30.000000 14.072710 0.000000
41.977722 4.269902 51.267760 0.000000 67.000000 14.785969 23.000000
41.156966 8.905108 50.047246 0.000000 42.000000 14.195410 0.000000
40.437689 3.335724 50.262045 0.000000 40.000000 14.762242 21.000000
42.844364 7.723383 51.572735 0.000000 70.000000 14.578983 28.000000
42.576934 8.971538 51.466900 0.000000 49.000000 14.632956 13.000000
42.655370 8.686621 50.992173 0.000000 34.000000 14.190127 0.000000
41.506917 9.143368 50.261890 0.000000 38.000000 14.189075 0.000000
38.010560 5.942631 48.482722 0.000000 48.000000 14.560815 4.000000
42.883272 8.828807 51.144705 0.000000 41.000000 14.196763 0.000000
42.999600 8.885598 51.235973 0.000000 44.000000 14.211473 0.000000
43.116692 8.962265 51.286735 0.000000 36.000000 14.191575 0.000000
41.238599 3.226575 50.147651 0.000000 29.000000 14.236428 0.000000
42.445062 7.612434 51.283456 0.000000 55.000000 14.548757 8.000000
42.668842 3.167202 51.004576 0.000000 35.000000 14.193378 0.000000
40.253049 3.574996 49.961709 0.000000 58.000000 14.607635 21.000000
42.811808 3.432040 51.086653 0.000000 38.000000 14.186052 0.000000
42.885436 3.596592 51.028122 0.000000 37.000000 14.097177 0.000000
40.281016 4.033480 50.174685 0.000000 60.000000 14.772454 25.000000
43.041178 3.848302 51.129178 0.000000 31.000000 14.099027 0.000000
41.367433 4.313700 50.765970 0.000000 61.000000 14.689403 24.000000
42.076606 3.829071 50.755668 0.000000 41.000000 14.300635 23.000000
40.531973 3.962936 49.811909 0.000000 38.000000 14.331680 25.000000
38.329064 4.749841 48.316838 0.000000 42.000000 14.250068 0.000000
38.838440 4.079267 48.559529 0.000000 43.000000 14.181970 0.000000
39.499956 5.305307 49.462354 0.000000 57.000000 14.589659 30.000000
41.643483 3.622298 50.874598 0.000000 57.000000 14.633169 12.000000
38.706143 4.014016 48.669297 0.000000 52.000000 14.345545 0.000000
41.662817 3.733418 50.775012 0.000000 22.000000 14.538731 12.000000
38.932012 9.073484 48.655454 0.000000 22.000000 14.212807 0.000000
42.572823 3.982911 51.687354 0.000000 69.000000 14.821280 23.000000
41.017802 7.970684 49.997189 0.000000 37.000000 14.227732 0.000000
39.602680 8.226896 48.953910 0.000000 24.000000 14.105347 0.000000
42.395514 7.722641 51.410566 0.000000 53.000000 14.682625 8.000000
42.243256 3.438120 51.517514 0.000000 53.000000 14.854518 26.000000
38.535700 8.113531 48.304423 0.000000 22.000000 14.128843 0.000000
39.100593 3.435454 49.124955 0.000000 64.000000 14.518839 22.000000
41.828031 5.786844 50.468454 0.000000 38.000000 14.191372 0.000000
42.443945 7.732346 51.296904 0.000000 48.000000 14.560709 8.000000
40.724348 8.089243 49.769892 0.000000 34.000000 14.193107 0.000000
40.220706 7.233111 49.461474 0.000000 41.000000 14.202641 0.000000
38.941620 7.453476 48.667182 0.000000 41.000000 14.217559 0.000000
42.380752 3.896411 51.606116 0.000000 48.000000 14.855632 23.000000
39.066547 3.686549 49.308297 0.000000 60.000000 14.691874 22.000000
42.438125 4.095629 51.631669 0.000000 71.000000 14.846457 23.000000
39.182748 8.866164 48.866362 0.000000 28.000000 14.256490 6.000000
40.761347 3.990041 50.002557 0.000000 42.000000 14.369707 25.000000
39.257917 6.955001 48.686071 0.000000 23.000000 14.063992 0.000000
40.635654 6.502703 49.710619 0.000000 45.000000 14.190599 0.000000
38.037563 3.046663 48.658531 0.000000 43.000000 14.694771 7.000000
40.731515 6.317662 49.780754 0.000000 33.000000 14.198436 0.000000
40.913388 6.066928 49.984816 0.000000 33.000000 14.273245 0.000000
39.605818 9.059392 49.227879 0.000000 49.000000 14.334966 6.000000
39.140961 4.031335 49.209636 0.000000 41.000000 14.568697 11.000000
41.608023 3.324182 51.132660 0.000000 61.000000 14.870044 12.000000
42.934427 5.040052 51.643483 0.000000 53.000000 14.590445 16.000000
39.876702 5.721025 49.235762 0.000000 37.000000 14.196445 0.000000
41.148719 5.484176 49.879174 0.000000 31.000000 14.057934 0.000000
42.640488 9.106211 51.719858 0.000000 40.000000 14.812458 13.000000
41.239843 5.238604 50.086222 0.000000 34.000000 14.183900 0.000000
39.277558 7.677431 48.961647 0.000000 46.000000 14.286123 5.000000
40.594347 3.895928 49.648258 0.000000 41.000000 14.160088 0.000000
38.984034 6.644181 48.985877 0.000000 24.000000 14.463889 1.000000
42.720377 8.924949 51.048368 0.000000 33.000000 14.202731 0.000000
41.528950 9.134130 50.285399 0.000000 36.000000 14.197114 0.000000
42.814618 8.763718 51.098371 0.000000 32.000000 14.194439 0.000000
42.084920 5.448257 50.859574 0.000000 51.000000 14.383903 10.000000
42.902679 8.641703 51.080123 0.000000 27.000000 14.131838 0.000000
42.990158 8.484970 51.115651 0.000000 28.000000 14.114950 0.000000
41.820800 8.569417 50.517963 0.000000 39.000000 14.237046 0.000000
41.906443 8.460954 50.453552 0.000000 34.000000 14.136767 0.000000
41.995355 8.259627 50.546818 0.000000 32.000000 14.167857 0.000000
42.995282 8.960395 51.336319 0.000000 48.000000 14.298505 13.000000
41.935282 3.521323 51.404269 0.000000 45.000000 14.923963 26.000000
40.934297 3.247265 50.202995 0.000000 53.000000 14.446239 20.000000
42.503147 7.035939 50.810625 0.000000 39.000000 14.118435 0.000000
38.007684 4.943569 48.542210 0.000000 64.000000 14.612579 17.000000
42.042064 3.211400 50.704131 0.000000 41.000000 14.275637 12.000000
42.677106 6.442917 51.035175 0.000000 38.000000 14.214783 0.000000
42.035722 5.718158 50.941978 0.000000 61.000000 14.479840 10.000000
39.390209 8.066894 49.279176 0.000000 53.000000 14.493827 5.000000
42.139684 3.397959 51.077954 0.000000 41.000000 14.538923 26.000000
42.861857 5.754419 51.129213 0.000000 38.000000 14.195161 0.000000
42.755031 4.393822 51.679466 0.000000 62.000000 14.716969 27.000000
42.611281 8.014593 51.372749 0.000000 27.000000 14.535061 8.000000
42.326410 4.745773 51.034103 0.000000 57.000000 14.401828 16.000000
40.790829 6.476737 49.811906 0.000000 32.000000 14.192948 0.000000
42.552326 4.996640 51.945974 0.000000 45.000000 15.050607 16.000000
43.172450 3.604410 51.209490 0.000000 32.000000 14.096478 0.000000
43.178331 3.389396 51.360420 0.000000 45.000000 14.220750 0.000000
43.182236 3.235209 51.346951 0.000000 40.000000 14.207286 0.000000
42.705042 5.929798 51.112543 0.000000 34.000000 14.265130 0.000000
38.653166 3.286851 48.454843 0.000000 38.000000 14.192882 0.000000
39.222869 8.452748 49.129129 0.000000 30.000000 14.456831 5.000000
38.597922 4.064840 48.289362 0.000000 28.000000 14.082781 0.000000
38.624498 4.196757 48.442776 0.000000 38.000000 14.198059 0.000000
38.739105 5.636069 48.540178 0.000000 42.000000 14.218870 0.000000
39.491811 7.755716 49.118168 0.000000 39.000000 14.303442 5.000000
41.885202 4.072926 51.056817 0.000000 52.000000 14.657463 23.000000
38.823815 6.186215 48.539633 0.000000 24.000000 14.173010 0.000000
38.405470 8.400855 48.715956 0.000000 41.000000 14.546079 3.000000
38.912359 6.503922 48.649274 0.000000 38.000000 14.218122 0.000000
39.023283 7.092044 48.551158 0.000000 29.000000 14.075839 0.000000
37.883886 5.092296 48.534023 0.000000 59.000000 14.672015 17.000000
39.159556 7.349268 48.769401 0.000000 34.000000 14.187059 0.000000
38.474564 5.605752 48.389385 0.000000 35.000000 14.233338 0.000000
39.186062 5.002999 49.368301 0.000000 61.000000 14.678481 30.000000
39.428245 3.435985 49.567762 0.000000 64.000000 14.717083 22.000000
42.406333 7.924267 51.488261 0.000000 44.000000 14.742422 8.000000
39.132167 4.139264 49.258928 0.000000 54.000000 14.615026 11.000000
40.250187 5.588485 49.392854 0.000000 26.000000 14.128908 0.000000
39.454313 3.563175 49.503451 0.000000 66.000000 14.648817 22.000000
39.998617 8.924611 49.306477 0.000000 34.000000 14.190808 0.000000
41.742025 8.812009 50.555577 0.000000 34.000000 14.311020 0.000000
42.656151 4.870140 51.908561 0.000000 55.000000 14.963378 16.000000
38.720930 4.495744 48.527286 0.000000 30.000000 14.217726 0.000000
41.843495 8.509568 50.734239 0.000000 47.000000 14.407476 15.000000
41.255651 3.239032 50.101130 0.000000 35.000000 14.188014 0.000000
40.235669 4.076755 49.364092 0.000000 34.000000 14.112406 0.000000
42.463389 3.936209 51.552424 0.000000 65.000000 14.766013 23.000000
40.929934 5.504672 49.819738 0.000000 29.000000 14.125009 0.000000
41.195483 5.830504 50.120314 0.000000 42.000000 14.236456 0.000000
41.284275 5.954503 50.176038 0.000000 46.000000 14.235915 0.000000
39.094433 4.058330 49.254196 0.000000 46.000000 14.631253 11.000000
37.761875 8.149870 48.700053 0.000000 60.000000 14.877577 3.000000
38.907177 3.663401 48.903422 0.000000 60.000000 14.435466 22.000000
40.991459 5.581633 49.844583 0.000000 28.000000 14.113011 0.000000
42.731605 6.078238 51.030937 0.000000 33.000000 14.181997 0.000000
41.657697 6.448225 50.348911 0.000000 36.000000 14.181735 0.000000
42.826388 6.179745 51.112498 0.000000 35.000000 14.200058 0.000000
39.211021 7.942391 49.024837 0.000000 38.000000 14.375132 5.000000
42.008278 4.759132 51.040127 0.000000 48.000000 14.577412 16.000000
40.495738 5.553638 49.669825 0.000000 39.000000 14.231144 0.000000
38.785507 4.127145 48.922667 0.000000 48.000000 14.516921 11.000000
38.958068 3.461369 49.092670 0.000000 50.000000 14.567966 22.000000
38.997564 8.893924 49.428439 0.000000 43.000000 14.830275 6.000000
41.604079 3.723984 50.865336 0.000000 39.000000 14.646467 12.000000
43.219731 6.651298 51.240424 0.000000 26.000000 14.097255 0.000000
37.981504 6.703774 48.109341 0.000000 38.000000 14.261156 29.000000
42.274798 7.079947 50.664242 0.000000 37.000000 14.117230 0.000000
42.384208 7.155336 50.755719 0.000000 31.000000 14.135824 0.000000
42.022291 3.201445 50.846156 0.000000 40.000000 14.406140 12.000000
41.815395 9.109136 50.886582 0.000000 45.000000 14.551153 14.000000
39.940607 4.124628 49.359930 0.000000 45.000000 14.267026 11.000000
42.833382 7.406684 51.146282 0.000000 42.000000 14.224832 0.000000
42.950441 7.493139 51.180566 0.000000 36.000000 14.191041 0.000000
43.065045 7.554700 51.255618 0.000000 38.000000 14.192984 0.000000
43.181645 7.608399 51.335611 0.000000 40.000000 14.198029 0.000000
41.680539 3.907199 50.653417 0.000000 62.000000 14.426575 24.000000
41.066885 3.573613 50.380271 0.000000 35.000000 14.524847 20.000000
40.216858 3.305107 50.110981 0.000000 59.000000 14.753056 21.000000
40.686930 3.444273 50.254982 0.000000 36.000000 14.622702 20.000000
38.137441 7.350039 48.147152 0.000000 31.000000 14.209506 0.000000
38.279759 7.170808 48.224706 0.000000 37.000000 14.198709 0.000000
38.409952 7.015432 48.246849 0.000000 25.000000 14.147628 0.000000
40.176961 3.808600 49.360576 0.000000 30.000000 14.140902 0.000000
38.992384 8.635146 48.844260 0.000000 29.000000 14.339853 0.000000
38.830604 6.419218 48.590586 0.000000 37.000000 14.212390 0.000000
38.954556 6.244740 48.648833 0.000000 35.000000 14.195135 0.000000
39.080007 6.051689 48.750429 0.000000 35.000000 14.213675 0.000000
42.029626 3.355049 51.243292 0.000000 60.000000 14.737495 26.000000
39.321006 5.673815 48.930372 0.000000 42.000000 14.236434 0.000000
38.098448 3.951949 48.218414 0.000000 38.000000 14.290568 0.000000
41.069391 4.316442 50.646553 0.000000 50.000000 14.748316 24.000000
40.127481 4.234290 49.441989 0.000000 37.000000 14.236153 0.000000
42.318445 4.953679 50.882506 0.000000 46.000000 14.278110 16.000000
38.049593 7.938700 48.293455 0.000000 42.000000 14.380105 3.000000
40.457096 4.981714 50.120841 0.000000 40.000000 14.632628 19.000000
40.940193 8.896327 49.916468 0.000000 32.000000 14.201176 0.000000
43.038883 7.644999 51.512131 0.000000 52.000000 14.423569 28.000000
38.888295 2.940243 48.622416 0.000000 36.000000 14.208344 0.000000
38.040977 7.656915 48.223308 0.000000 42.000000 14.325500 3.000000
37.884990 4.990301 48.416477 0.000000 67.000000 14.572184 17.000000
39.909361 8.788025 49.264517 0.000000 38.000000 14.203219 0.000000
37.925396 4.953050 48.161490 0.000000 33.000000 14.335254 17.000000
41.358405 8.232605 50.100799 0.000000 22.000000 14.132665 0.000000
38.108530 6.348299 48.618770 0.000000 62.000000 14.623169 29.000000
42.332182 6.154183 50.866567 0.000000 64.000000 14.257291 10.000000
40.066421 3.300346 49.821117 0.000000 56.000000 14.588960 21.000000
40.921775 5.760787 50.179174 0.000000 35.000000 14.432839 9.000000
38.532641 5.891294 48.485707 0.000000 40.000000 14.283533 0.000000
42.881210 8.774947 51.278423 0.000000 68.000000 14.310761 13.000000
42.161560 7.847589 51.032133 0.000000 37.000000 14.488513 8.000000
41.628156 6.037426 50.335215 0.000000 32.000000 14.186004 0.000000
40.533068 7.625734 49.684674 0.000000 38.000000 14.223674 0.000000
41.817751 7.286546 50.475204 0.000000 36.000000 14.202580 0.000000
39.299388 8.744062 49.173827 0.000000 49.000000 14.453559 6.000000
41.896251 7.147670 50.445129 0.000000 32.000000 14.135118 0.000000
40.280029 4.022506 49.830418 0.000000 43.000000 14.482332 25.000000
40.383012 6.127965 49.628628 0.000000 44.000000 14.256777 0.000000
40.709381 5.311220 49.894550 0.000000 37.000000 14.306372 19.000000
37.697091 5.890290 48.494347 0.000000 49.000000 14.738628 4.000000
39.901379 4.116895 49.779839 0.000000 88.000000 14.642562 11.000000
38.043799 8.605569 48.948711 0.000000 47.000000 14.936416 3.000000
40.941447 6.748580 49.818957 0.000000 33.000000 14.118179 0.000000
42.093692 4.974981 50.718637 0.000000 44.000000 14.260215 0.000000
39.731042 7.988228 49.167859 0.000000 31.000000 14.217182 0.000000
41.161780 6.143665 50.050838 0.000000 35.000000 14.195863 0.000000
39.786280 3.294506 49.573751 0.000000 63.000000 14.530256 22.000000
41.343366 5.614151 50.125686 0.000000 42.000000 14.161736 0.000000
38.331980 9.122695 48.615805 0.000000 33.000000 14.500911 6.000000
40.156575 4.340917 49.828231 0.000000 65.000000 14.546649 25.000000
41.506748 5.031612 50.325862 0.000000 48.000000 14.243174 0.000000
41.548646 4.879532 50.294706 0.000000 36.000000 14.194416 0.000000
41.216005 4.129475 50.809585 0.000000 67.000000 14.807381 24.000000
42.929212 3.480449 51.123541 0.000000 39.000000 14.154274 0.000000
42.949963 3.297888 51.182473 0.000000 34.000000 14.192907 0.000000
42.968265 3.130803 51.197188 0.000000 35.000000 14.195522 0.000000
41.866487 3.143280 50.520574 0.000000 42.000000 14.214765 0.000000
42.983138 2.954861 51.251614 0.000000 41.000000 14.233500 0.000000
42.326211 9.096630 51.386321 0.000000 54.000000 14.699298 13.000000
42.950076 8.993267 51.215337 0.000000 41.000000 14.220592 0.000000
43.036322 8.837605 51.271284 0.000000 41.000000 14.221604 0.000000
40.434146 3.434434 50.002908 0.000000 51.000000 14.545362 21.000000
41.027958 3.922875 50.152981 0.000000 36.000000 14.353818 0.000000
37.674314 3.110172 48.558294 0.000000 58.000000 14.804823 7.000000
39.013775 9.061689 48.725227 0.000000 29.000000 14.227894 0.000000
39.277938 5.098679 49.395671 0.000000 61.000000 14.652349 30.000000
38.534211 3.537127 48.411558 0.000000 52.000000 14.220091 0.000000
38.541906 3.737246 48.344179 0.000000 37.000000 14.159082 0.000000
38.596619 4.083468 48.385236 0.000000 35.000000 14.164422 0.000000
39.957447 4.031891 49.164170 0.000000 32.000000 14.092729 0.000000
40.015293 4.127718 49.388925 0.000000 42.000000 14.251479 0.000000
41.120603 4.078305 50.299893 0.000000 50.000000 14.428198 24.000000
40.214894 4.695006 49.958622 0.000000 73.000000 14.625478 19.000000
42.412484 6.043145 51.157884 0.000000 51.000000 14.460201 10.000000
39.172929 6.060882 48.803933 0.000000 37.000000 14.209046 0.000000
39.236658 6.216194 48.835128 0.000000 38.000000 14.201228 0.000000
42.164197 5.591846 51.475313 0.000000 66.000000 14.861259 10.000000
39.513941 6.860163 48.896877 0.000000 23.000000 14.104755 0.000000
40.848511 6.439350 49.869447 0.000000 30.000000 14.210614 0.000000
39.591662 7.003394 48.939905 0.000000 23.000000 14.099428 0.000000
39.971447 4.259392 49.530285 0.000000 41.000000 14.394322 11.000000
40.993486 6.778970 49.824998 0.000000 21.000000 14.095390 0.000000
38.657708 4.424735 48.974863 0.000000 55.000000 14.629480 11.000000
41.075892 6.918413 49.862573 0.000000 21.000000 14.082949 0.000000
38.861536 8.043969 49.096814 0.000000 40.000000 14.623200 5.000000
42.811995 4.691144 51.511323 0.000000 53.000000 14.544484 16.000000
40.567541 3.949196 50.269081 0.000000 41.000000 14.698590 25.000000
41.251899 7.136906 50.042111 0.000000 22.000000 14.140197 0.000000
40.051083 7.581683 49.375182 0.000000 38.000000 14.220695 0.000000
41.345233 7.224779 50.166870 0.000000 31.000000 14.195505 0.000000
