80.958481 3.993721 11.332995 0.000000 32.000000 14.044917 0.000000
82.268874 4.108212 11.247298 0.000000 39.000000 14.101818 0.000000
84.646621 4.922285 11.380053 0.000000 40.000000 14.491621 16.000000
81.121888 3.191061 11.520093 0.000000 49.000000 14.248631 0.000000
81.189195 3.051063 11.480025 0.000000 52.000000 14.216097 0.000000
82.505782 3.140299 11.372744 0.000000 49.000000 14.252213 0.000000
82.984823 4.645510 11.614502 0.000000 33.000000 14.544491 19.000000
82.052552 8.855420 11.362541 0.000000 44.000000 14.192924 0.000000
82.138478 8.712836 11.349217 0.000000 35.000000 14.188996 0.000000
84.515507 7.383099 11.100243 0.000000 44.000000 14.199244 0.000000
82.522558 4.249289 11.866268 0.000000 71.000000 14.744646 25.000000
83.806789 8.970715 11.146649 0.000000 47.000000 14.168526 0.000000
84.424011 4.091512 11.503827 0.000000 67.000000 14.590527 23.000000
81.378168 3.505785 11.882627 0.000000 71.000000 14.636817 22.000000
82.595221 3.161513 11.665350 0.000000 43.000000 14.552792 21.000000
81.158010 5.053976 11.890547 0.000000 40.000000 14.620817 18.000000
82.577156 7.791258 11.310442 0.000000 38.000000 14.198018 0.000000
84.201319 8.190914 11.070553 0.000000 35.000000 14.135660 0.000000
83.059671 4.779031 11.703167 0.000000 72.000000 14.640749 19.000000
84.237698 8.001363 11.105245 0.000000 44.000000 14.174092 0.000000
82.696937 7.468450 11.302302 0.000000 43.000000 14.202914 0.000000
80.582557 7.628662 11.565741 0.000000 24.000000 14.235527 0.000000
80.027053 4.996508 11.947418 0.000000 76.000000 14.554717 17.000000
84.356725 7.664786 11.091533 0.000000 48.000000 14.173368 0.000000
85.225521 6.770058 10.896273 0.000000 24.000000 14.073467 0.000000
84.413834 7.494714 11.080791 0.000000 45.000000 14.168882 0.000000
85.206886 4.499338 11.417066 0.000000 42.000000 14.589169 23.000000
84.728674 8.552837 11.473454 0.000000 47.000000 14.593369 14.000000
83.028447 6.902389 11.084045 0.000000 18.000000 14.021892 0.000000
84.541379 7.171714 11.025705 0.000000 40.000000 14.127951 0.000000
83.021314 6.699079 11.159650 0.000000 31.000000 14.096278 0.000000
84.611517 7.014697 10.983412 0.000000 44.000000 14.093513 0.000000
80.835803 8.903862 12.006130 0.000000 50.000000 14.700780 6.000000
84.702655 6.871699 10.906279 0.000000 36.000000 14.026717 0.000000
83.050364 6.328027 11.228127 0.000000 38.000000 14.167501 0.000000
84.923777 5.834644 11.616969 0.000000 61.000000 14.757194 10.000000
83.924951 4.040251 11.641060 0.000000 61.000000 14.672835 24.000000
82.420695 3.169035 11.658766 0.000000 61.000000 14.527322 21.000000
84.776314 5.532862 11.319613 0.000000 65.000000 14.445601 10.000000
79.585347 5.700286 11.895776 0.000000 70.000000 14.455483 4.000000
84.703844 3.189973 11.044033 0.000000 40.000000 14.163788 0.000000
85.603234 3.427183 10.974222 0.000000 52.000000 14.191914 0.000000
85.537573 3.257334 10.954617 0.000000 39.000000 14.165304 0.000000
80.976492 3.003489 11.486851 0.000000 46.000000 14.199819 0.000000
80.794983 4.622807 11.701094 0.000000 44.000000 14.393116 18.000000
80.978641 3.847523 11.319288 0.000000 34.000000 14.033477 0.000000
80.960102 4.004508 11.333464 0.000000 35.000000 14.045559 0.000000
83.503032 5.200521 11.380787 0.000000 43.000000 14.368346 19.000000
83.567628 5.032866 11.563635 0.000000 63.000000 14.557120 19.000000
80.974929 5.625035 11.473549 0.000000 38.000000 14.186426 0.000000
85.353935 3.771933 11.068042 0.000000 40.000000 14.258148 23.000000
79.545991 4.393229 11.670730 0.000000 47.000000 14.227497 0.000000
83.264801 4.946547 11.660263 0.000000 60.000000 14.620341 19.000000
79.550984 4.721138 11.654916 0.000000 38.000000 14.212317 0.000000
79.559039 4.886519 11.645767 0.000000 39.000000 14.204096 0.000000
80.239746 3.490582 11.957110 0.000000 38.000000 14.587416 7.000000
80.910809 5.613659 11.488652 0.000000 49.000000 14.194487 0.000000
80.912069 5.774506 11.518703 0.000000 49.000000 14.224497 0.000000
80.953897 5.964578 11.475876 0.000000 39.000000 14.186458 0.000000
80.973697 6.135017 11.482374 0.000000 37.000000 14.195065 0.000000
81.240905 8.139434 12.119679 0.000000 23.000000 14.857587 5.000000
81.141161 6.878907 11.389499 0.000000 14.000000 14.120897 0.000000
82.861443 3.825718 11.336883 0.000000 34.000000 14.255130 0.000000
81.157113 8.774140 12.134666 0.000000 57.000000 14.863399 6.000000
79.868531 7.264496 11.630675 0.000000 39.000000 14.222653 0.000000
80.501487 3.525252 11.527468 0.000000 32.000000 14.188689 0.000000
81.637213 8.884662 11.768098 0.000000 45.000000 14.551053 6.000000
81.257712 8.868378 11.897832 0.000000 46.000000 14.638870 6.000000
82.479712 5.075245 11.509070 0.000000 58.000000 14.384908 19.000000
80.002831 7.787514 11.640371 0.000000 47.000000 14.246854 0.000000
80.050708 7.961365 11.645517 0.000000 44.000000 14.257161 0.000000
82.998838 5.865341 11.622817 0.000000 51.000000 14.554276 9.000000
82.362076 5.697774 11.416178 0.000000 50.000000 14.279808 0.000000
81.358851 5.864485 11.467331 0.000000 40.000000 14.221875 0.000000
82.639807 3.972555 11.394401 0.000000 46.000000 14.288276 25.000000
82.412088 5.763533 11.436889 0.000000 49.000000 14.305820 0.000000
83.162528 4.180709 11.616392 0.000000 47.000000 14.565639 25.000000
80.046106 5.668962 11.747745 0.000000 45.000000 14.358288 4.000000
83.873180 5.774540 11.139455 0.000000 47.000000 14.168574 0.000000
82.428122 5.644079 11.359939 0.000000 52.000000 14.231063 0.000000
83.956251 5.961133 11.132708 0.000000 47.000000 14.170874 0.000000
84.039709 6.145503 11.130842 0.000000 40.000000 14.178069 0.000000
84.126315 6.331766 11.129790 0.000000 43.000000 14.186415 0.000000
82.691104 6.198253 11.299797 0.000000 37.000000 14.199792 0.000000
84.200620 6.509478 11.147942 0.000000 48.000000 14.212517 0.000000
82.799549 6.393759 11.258420 0.000000 34.000000 14.170418 0.000000
84.597390 4.878300 11.262674 0.000000 43.000000 14.369596 16.000000
84.572137 3.947026 11.570747 0.000000 68.000000 14.673114 23.000000
83.959468 4.399924 11.760496 0.000000 65.000000 14.795310 24.000000
83.047618 6.806591 11.140292 0.000000 21.000000 14.079886 0.000000
81.252938 8.908403 11.546282 0.000000 49.000000 14.288876 6.000000
80.809543 6.270110 11.508405 0.000000 32.000000 14.203142 0.000000
84.656637 7.305878 11.054263 0.000000 45.000000 14.168838 0.000000
79.721764 5.257029 12.061058 0.000000 58.000000 14.634583 17.000000
83.282281 7.310109 11.224718 0.000000 41.000000 14.189260 0.000000
80.711168 6.787603 11.688152 0.000000 31.000000 14.371162 0.000000
81.829843 3.031659 11.505846 0.000000 46.000000 14.311235 0.000000
83.616532 7.871143 11.198341 0.000000 45.000000 14.199283 0.000000
85.332174 8.343335 10.916389 0.000000 29.000000 14.105029 0.000000
81.087717 3.535514 11.959140 0.000000 58.000000 14.681383 22.000000
83.799152 4.741267 11.266326 0.000000 42.000000 14.286669 0.000000
80.105503 5.790762 11.799412 0.000000 47.000000 14.416091 4.000000
85.698379 8.913718 10.957137 0.000000 41.000000 14.185247 0.000000
83.162184 5.805860 11.426605 0.000000 30.000000 14.376934 9.000000
79.720005 5.625745 11.626051 0.000000 39.000000 14.201950 0.000000
82.714914 4.018053 11.660745 0.000000 53.000000 14.561193 25.000000
79.679592 7.836867 12.034855 0.000000 53.000000 14.603962 3.000000
83.567488 4.892979 11.312331 0.000000 68.000000 14.307283 19.000000
82.190109 4.127828 11.357415 0.000000 35.000000 14.202745 0.000000
79.651498 4.266549 11.652608 0.000000 49.000000 14.220922 0.000000
79.783121 4.171375 11.559620 0.000000 31.000000 14.142755 0.000000
79.897989 4.062964 11.504094 0.000000 32.000000 14.100012 0.000000
82.130339 5.022780 11.751280 0.000000 68.000000 14.587806 30.000000
85.515219 3.754972 11.387770 0.000000 82.000000 14.593479 23.000000
82.773362 4.184512 11.959917 0.000000 63.000000 14.864939 25.000000
80.311436 6.778469 11.631428 0.000000 30.000000 14.271428 0.000000
83.764128 3.205932 11.223640 0.000000 50.000000 14.240437 0.000000
80.759551 7.911330 11.852920 0.000000 46.000000 14.540205 5.000000
83.689972 8.128501 11.307125 0.000000 31.000000 14.315389 15.000000
84.799999 4.135014 11.757250 0.000000 37.000000 14.883226 23.000000
79.594695 9.069467 11.648616 0.000000 34.000000 14.210794 0.000000
80.558161 8.241690 11.440723 0.000000 27.000000 14.108601 0.000000
85.485409 4.064330 11.243096 0.000000 56.000000 14.446426 23.000000
82.112623 8.457208 11.217441 0.000000 30.000000 14.055194 0.000000
80.351025 8.215440 11.865927 0.000000 42.000000 14.508837 3.000000
82.229523 8.339642 11.186513 0.000000 23.000000 14.037124 0.000000
80.798960 7.796561 11.531376 0.000000 40.000000 14.224830 0.000000
85.326581 7.608065 11.101026 0.000000 41.000000 14.287971 8.000000
80.906631 7.679304 11.498262 0.000000 36.000000 14.203587 0.000000
82.335695 7.984654 11.326927 0.000000 49.000000 14.188223 0.000000
81.009062 7.553901 11.471081 0.000000 30.000000 14.187673 0.000000
82.419996 7.839134 11.335010 0.000000 49.000000 14.205400 0.000000
81.347824 5.522649 11.530139 0.000000 42.000000 14.283117 0.000000
82.517011 7.702347 11.319458 0.000000 42.000000 14.200459 0.000000
79.916293 6.948077 11.747006 0.000000 31.000000 14.343477 0.000000
82.596032 7.552841 11.330037 0.000000 43.000000 14.219544 0.000000
81.239614 7.112561 11.502521 0.000000 44.000000 14.243928 0.000000
82.274759 3.317199 11.755281 0.000000 70.000000 14.607444 21.000000
84.139658 4.085120 11.536271 0.000000 71.000000 14.591946 24.000000
82.790969 7.281280 11.274810 0.000000 43.000000 14.185781 0.000000
81.524990 6.935984 11.261270 0.000000 16.000000 14.035044 0.000000
82.921401 7.172861 11.186627 0.000000 37.000000 14.112261 0.000000
81.714468 4.727991 11.505547 0.000000 43.000000 14.298427 30.000000
84.515906 9.048662 11.454243 0.000000 50.000000 14.551200 14.000000
82.991585 4.241134 11.891833 0.000000 42.000000 14.820920 25.000000
83.111771 6.900235 11.112057 0.000000 30.000000 14.058774 0.000000
81.653387 6.420070 11.406141 0.000000 37.000000 14.192984 0.000000
83.234509 5.947920 11.534527 0.000000 43.000000 14.492062 9.000000
84.572528 4.047309 11.532048 0.000000 47.000000 14.634686 23.000000
83.192217 6.544151 11.198842 0.000000 39.000000 14.153770 0.000000
79.668389 8.290339 12.101215 0.000000 62.000000 14.668716 3.000000
83.250813 6.383363 11.203495 0.000000 42.000000 14.164750 0.000000
81.849005 5.967634 11.388540 0.000000 34.000000 14.196698 0.000000
79.853541 6.875300 11.791221 0.000000 42.000000 14.380626 0.000000
82.481157 5.985762 11.418824 0.000000 43.000000 14.295351 0.000000
82.002586 5.685785 11.315619 0.000000 33.000000 14.140861 0.000000
84.954618 4.563127 11.634102 0.000000 52.000000 14.777570 23.000000
81.886697 4.967845 12.119090 0.000000 65.000000 14.927028 30.000000
82.260270 4.722677 11.333657 0.000000 36.000000 14.186735 0.000000
83.717627 4.918362 11.159119 0.000000 51.000000 14.171254 0.000000
79.660441 7.642766 11.991375 0.000000 47.000000 14.558661 3.000000
84.061602 8.347224 11.599085 0.000000 51.000000 14.645925 15.000000
85.289426 4.950089 11.517674 0.000000 63.000000 14.698134 16.000000
83.996005 3.953648 10.993387 0.000000 44.000000 14.036686 0.000000
83.890178 3.547621 11.202165 0.000000 58.000000 14.232757 0.000000
80.476967 4.760944 11.647934 0.000000 36.000000 14.305786 17.000000
82.749980 3.604271 11.742285 0.000000 55.000000 14.646055 21.000000
80.598111 4.721406 11.774010 0.000000 71.000000 14.444255 17.000000
81.057035 6.744651 11.716306 0.000000 32.000000 14.436654 1.000000
85.189981 7.477286 11.029702 0.000000 41.000000 14.202256 0.000000
81.746061 4.208293 12.118513 0.000000 73.000000 14.911204 11.000000
79.811706 3.557738 12.166939 0.000000 67.000000 14.749593 7.000000
80.648583 3.348266 11.560640 0.000000 24.000000 14.237616 0.000000
84.925356 4.228746 11.669373 0.000000 52.000000 14.809460 23.000000
85.276012 6.572423 10.955176 0.000000 34.000000 14.137498 0.000000
81.568136 5.042420 11.633146 0.000000 39.000000 14.409406 30.000000
85.217751 5.628194 10.967663 0.000000 45.000000 14.143594 0.000000
84.684630 3.222814 11.066405 0.000000 38.000000 14.183944 0.000000
82.129101 3.341088 11.760511 0.000000 52.000000 14.596848 22.000000
82.715892 4.684014 11.726629 0.000000 57.000000 14.626795 19.000000
85.045224 3.914965 11.700168 0.000000 56.000000 14.853071 23.000000
81.700249 4.934696 11.953778 0.000000 63.000000 14.742473 30.000000
81.939618 4.913177 11.625071 0.000000 45.000000 14.441660 30.000000
79.928749 4.654520 11.622478 0.000000 47.000000 14.221034 0.000000
79.910758 4.811938 11.626296 0.000000 53.000000 14.222878 0.000000
83.469966 4.369824 11.912733 0.000000 69.000000 14.893570 24.000000
82.726075 6.334063 11.310934 0.000000 35.000000 14.214655 0.000000
80.727909 4.804852 11.993181 0.000000 64.000000 14.676208 18.000000
81.654554 8.907179 12.097034 0.000000 28.000000 14.879929 6.000000
82.367148 3.047278 11.326031 0.000000 40.000000 14.190743 0.000000
81.031876 3.028722 11.494624 0.000000 53.000000 14.213551 0.000000
81.814746 4.991755 11.886689 0.000000 58.000000 14.688195 30.000000
82.145531 3.562191 11.854150 0.000000 66.000000 14.691717 22.000000
82.943308 3.942111 11.768286 0.000000 57.000000 14.692866 25.000000
79.596285 5.992400 12.149053 0.000000 58.000000 14.708453 4.000000
82.497575 4.084110 11.239354 0.000000 38.000000 14.118720 0.000000
79.896676 6.831270 11.692372 0.000000 39.000000 14.287038 0.000000
81.508632 3.424503 11.647889 0.000000 66.000000 14.417610 22.000000
83.568513 3.565588 11.399300 0.000000 33.000000 14.393850 20.000000
82.490782 4.103484 11.692841 0.000000 64.000000 14.568796 25.000000
79.708878 5.879108 12.424383 0.000000 1.000000 14.994368 4.000000
81.486805 5.907702 11.438964 0.000000 38.000000 14.207550 0.000000
83.303843 3.119925 11.312103 0.000000 40.000000 14.278468 0.000000
83.278857 5.142967 11.705612 0.000000 52.000000 14.666947 19.000000
82.976974 3.382371 11.590609 0.000000 36.000000 14.519887 20.000000
82.921390 5.929353 11.563194 0.000000 63.000000 14.486607 9.000000
83.079669 6.587744 11.204477 0.000000 32.000000 14.147168 0.000000
83.411513 4.875721 11.520774 0.000000 52.000000 14.497584 19.000000
84.905649 4.112176 11.623370 0.000000 57.000000 14.761591 23.000000
82.916023 5.648374 11.256662 0.000000 31.000000 14.181300 0.000000
83.247027 6.987962 11.140910 0.000000 29.000000 14.102123 0.000000
81.847109 6.864765 11.287357 0.000000 25.000000 14.095906 0.000000
80.251126 3.005414 11.608217 0.000000 32.000000 14.241814 0.000000
82.432296 3.514367 11.734160 0.000000 44.000000 14.603530 21.000000
85.512000 6.330531 11.060851 0.000000 42.000000 14.268139 0.000000
81.950383 7.201611 11.336514 0.000000 34.000000 14.155972 0.000000
80.879316 7.853763 11.890229 0.000000 47.000000 14.590281 5.000000
81.842817 3.289253 11.866745 0.000000 73.000000 14.671413 22.000000
82.504305 5.032156 11.460629 0.000000 54.000000 14.339420 19.000000
85.241505 8.991914 11.934340 0.000000 41.000000 15.107146 13.000000
82.142682 7.725840 11.379277 0.000000 52.000000 14.219335 0.000000
82.480618 3.264725 11.809510 0.000000 62.000000 14.683675 21.000000
80.836430 4.101065 11.618601 0.000000 55.000000 14.315604 11.000000
83.304610 4.020883 11.423444 0.000000 54.000000 14.389235 24.000000
84.576927 3.577528 11.727242 0.000000 61.000000 14.829206 12.000000
84.105913 3.860986 11.251491 0.000000 45.000000 14.305186 0.000000
80.097394 3.259774 11.977660 0.000000 74.000000 14.592408 7.000000
83.983546 3.537359 11.463780 0.000000 69.000000 14.502954 12.000000
84.201147 9.099202 11.131949 0.000000 44.000000 14.196675 0.000000
85.000027 5.754270 11.533126 0.000000 84.000000 14.682113 10.000000
80.096699 4.398885 11.597582 0.000000 32.000000 14.214496 0.000000
82.510233 4.752165 11.703817 0.000000 55.000000 14.581817 19.000000
80.104642 3.333113 12.053753 0.000000 68.000000 14.668839 7.000000
79.812426 4.146403 11.542627 0.000000 39.000000 14.129040 0.000000
85.469477 6.170659 10.990861 0.000000 30.000000 14.193951 0.000000
81.984759 5.007401 11.946350 0.000000 37.000000 14.765940 30.000000
85.002473 9.058028 11.544010 0.000000 39.000000 14.693198 13.000000
80.802028 3.171166 11.497509 0.000000 41.000000 14.191496 0.000000
84.961395 8.512244 11.160600 0.000000 36.000000 14.307595 14.000000
80.925114 7.627820 11.554082 0.000000 37.000000 14.261082 5.000000
83.162693 3.864146 11.633520 0.000000 49.000000 14.582684 25.000000
84.129712 5.169810 11.154786 0.000000 42.000000 14.211632 0.000000
85.160725 9.048672 11.846630 0.000000 53.000000 15.011194 13.000000
83.940514 8.716964 11.247353 0.000000 36.000000 14.283137 0.000000
85.009570 6.441393 11.049640 0.000000 43.000000 14.202513 0.000000
82.585677 3.407008 11.874741 0.000000 42.000000 14.759914 21.000000
80.820305 4.970572 11.813394 0.000000 61.000000 14.507500 18.000000
85.545739 7.059540 10.864489 0.000000 36.000000 14.076593 0.000000
85.596193 7.822588 11.373828 0.000000 59.000000 14.588400 28.000000
82.066022 3.244908 11.825902 0.000000 60.000000 14.655014 22.000000
82.544343 5.796532 11.456530 0.000000 43.000000 14.339687 0.000000
81.061111 4.897421 11.913425 0.000000 50.000000 14.633053 18.000000
80.892526 4.884645 11.846764 0.000000 58.000000 14.548504 18.000000
80.630796 7.455185 11.527466 0.000000 42.000000 14.202709 0.000000
82.601926 4.163629 11.945178 0.000000 61.000000 14.831697 25.000000
83.810113 8.670679 11.260295 0.000000 36.000000 14.281863 0.000000
81.881731 4.784441 11.547809 0.000000 30.000000 14.358577 30.000000
81.228866 7.264937 11.708212 0.000000 52.000000 14.447241 2.000000
79.995271 3.824077 11.518505 0.000000 34.000000 14.124887 0.000000
84.623673 5.577423 11.477783 0.000000 38.000000 14.586287 10.000000
82.955783 4.210029 11.787173 0.000000 55.000000 14.712994 25.000000
83.516344 5.736813 11.567383 0.000000 47.000000 14.555285 9.000000
80.316468 6.222586 11.533706 0.000000 29.000000 14.174827 0.000000
81.724685 7.333208 11.774830 0.000000 41.000000 14.567230 2.000000
83.169959 5.927125 11.614931 0.000000 49.000000 14.564992 9.000000
81.742338 6.304389 11.377421 0.000000 38.000000 14.174079 0.000000
84.129234 3.236192 11.818773 0.000000 65.000000 14.871652 12.000000
81.621544 8.110394 11.426672 0.000000 20.000000 14.209941 0.000000
80.592744 5.835437 11.516958 0.000000 35.000000 14.188136 0.000000
79.602729 6.112675 11.869065 0.000000 50.000000 14.430815 4.000000
80.079604 8.205269 11.918948 0.000000 31.000000 14.532114 3.000000
79.883077 4.812572 11.842446 0.000000 50.000000 14.434752 17.000000
84.819331 3.298339 11.364301 0.000000 70.000000 14.494690 26.000000
85.209297 3.991073 11.775207 0.000000 82.000000 14.945459 23.000000
80.911235 5.481403 11.378823 0.000000 29.000000 14.085351 0.000000
81.938135 4.134550 11.850417 0.000000 70.000000 14.665517 11.000000
82.244706 5.467068 11.394587 0.000000 47.000000 14.245618 0.000000
79.990888 7.221049 11.665052 0.000000 41.000000 14.270095 0.000000
82.487523 5.041216 11.364087 0.000000 56.000000 14.241627 0.000000
84.321849 8.969299 11.484080 0.000000 49.000000 14.559818 14.000000
83.302200 4.402913 11.808242 0.000000 76.000000 14.771503 24.000000
85.142235 4.996150 11.636030 0.000000 62.000000 14.799831 16.000000
82.603777 4.112155 11.539470 0.000000 52.000000 14.428582 25.000000
80.868102 4.770387 11.732397 0.000000 40.000000 14.432163 18.000000
85.647917 3.294559 10.983238 0.000000 47.000000 14.205722 0.000000
82.921612 9.082486 11.271550 0.000000 39.000000 14.196707 0.000000
83.018620 8.944218 11.243766 0.000000 36.000000 14.179605 0.000000
84.709699 5.695727 11.704375 0.000000 62.000000 14.820871 10.000000
83.785870 6.632523 11.122289 0.000000 25.000000 14.142042 0.000000
80.599116 6.625691 11.517086 0.000000 22.000000 14.188954 0.000000
83.955772 4.334690 11.591799 0.000000 60.000000 14.627206 24.000000
80.530502 5.826858 11.665267 0.000000 38.000000 14.328822 0.000000
85.363462 3.825216 11.809799 0.000000 44.000000 14.996564 23.000000
81.601267 7.834061 11.612595 0.000000 40.000000 14.392569 0.000000
83.399853 4.961473 11.585696 0.000000 50.000000 14.560858 19.000000
83.575148 7.678719 11.196985 0.000000 44.000000 14.193447 0.000000
83.642705 7.523014 11.171481 0.000000 33.000000 14.175419 0.000000
82.841862 3.647043 11.447704 0.000000 41.000000 14.363174 20.000000
80.685088 4.828246 11.970628 0.000000 49.000000 14.649145 17.000000
84.330473 3.727504 11.624112 0.000000 56.000000 14.699960 12.000000
80.863539 3.447240 11.756779 0.000000 61.000000 14.455907 22.000000
85.425257 7.363683 10.977994 0.000000 44.000000 14.176365 0.000000
84.577378 5.783511 11.715747 0.000000 62.000000 14.817828 10.000000
80.837878 4.437951 12.034614 0.000000 52.000000 14.729321 11.000000
83.905327 6.699178 11.092360 0.000000 22.000000 14.125242 0.000000
82.004745 4.818281 11.471090 0.000000 50.000000 14.295649 30.000000
83.902838 6.501747 11.146938 0.000000 36.000000 14.179229 0.000000
85.276980 8.928544 11.633576 0.000000 53.000000 14.812003 13.000000
83.945911 6.337412 11.125889 0.000000 40.000000 14.162974 0.000000
85.243132 6.504544 11.013406 0.000000 28.000000 14.191819 0.000000
83.966755 6.159318 11.135392 0.000000 38.000000 14.174682 0.000000
81.862481 8.079522 11.354589 0.000000 20.000000 14.164409 0.000000
83.997995 5.988882 11.123290 0.000000 40.000000 14.166039 0.000000
84.030854 3.387797 11.645219 0.000000 58.000000 14.688453 12.000000
81.432677 4.711748 11.654702 0.000000 52.000000 14.416146 30.000000
85.637563 6.091123 10.955643 0.000000 39.000000 14.177167 0.000000
84.548445 4.964235 11.231298 0.000000 56.000000 14.333098 16.000000
85.632443 5.896888 10.982659 0.000000 42.000000 14.203468 0.000000
84.153883 5.523047 10.968933 0.000000 31.000000 14.029495 0.000000
84.713542 7.632800 11.257303 0.000000 48.000000 14.376852 8.000000
84.159710 5.342248 10.979563 0.000000 31.000000 14.040695 0.000000
81.366944 2.947709 11.504969 0.000000 55.000000 14.260168 0.000000
80.515406 4.328540 11.744047 0.000000 63.000000 14.405500 11.000000
80.692826 9.038220 12.131729 0.000000 38.000000 14.810135 6.000000
81.251840 6.501888 11.676874 0.000000 39.000000 14.418579 1.000000
83.978695 3.506842 11.205167 0.000000 51.000000 14.245340 0.000000
83.978309 3.342757 11.178060 0.000000 50.000000 14.218351 0.000000
85.571750 3.502445 10.954634 0.000000 46.000000 14.169027 0.000000
85.381165 5.932546 11.063053 0.000000 35.000000 14.256141 0.000000
85.495454 3.130476 10.985297 0.000000 43.000000 14.191236 0.000000
81.671049 3.239781 11.423650 0.000000 44.000000 14.212305 0.000000
80.710854 8.523043 11.632885 0.000000 36.000000 14.316187 5.000000
84.859696 4.798079 11.280045 0.000000 52.000000 14.415308 16.000000
80.347602 4.040653 11.492076 0.000000 45.000000 14.136819 0.000000
80.311329 4.178840 11.560224 0.000000 35.000000 14.200632 0.000000
85.485122 4.916949 11.421917 0.000000 65.000000 14.624161 16.000000
80.786638 5.186040 11.927209 0.000000 49.000000 14.616993 18.000000
80.303702 4.662454 11.583104 0.000000 35.000000 14.222550 0.000000
84.935215 3.692258 11.510616 0.000000 48.000000 14.652708 23.000000
83.404620 4.329175 11.752710 0.000000 47.000000 14.727404 24.000000
85.055073 7.246279 11.144840 0.000000 71.000000 14.302086 8.000000
81.671596 8.894869 11.546130 0.000000 47.000000 14.334122 6.000000
84.469505 3.131045 11.732343 0.000000 62.000000 14.822629 12.000000
80.470799 6.200893 11.531433 0.000000 35.000000 14.189303 0.000000
82.782345 7.766064 11.343542 0.000000 36.000000 14.253173 0.000000
82.383759 5.725551 11.438461 0.000000 52.000000 14.304311 0.000000
81.900494 6.655138 11.349213 0.000000 37.000000 14.163187 0.000000
81.329857 8.639095 11.614466 0.000000 30.000000 14.364998 6.000000
80.304135 8.875578 12.221191 0.000000 44.000000 14.856921 3.000000
80.633804 6.781073 11.395987 0.000000 24.000000 14.072331 0.000000
82.030267 7.058069 11.260434 0.000000 30.000000 14.089003 0.000000
81.603305 3.578695 11.853468 0.000000 58.000000 14.632242 22.000000
85.067146 4.621213 11.486305 0.000000 52.000000 14.642847 23.000000
82.457048 5.016810 11.610663 0.000000 70.000000 14.483445 19.000000
83.524493 3.533524 11.641705 0.000000 48.000000 14.630052 20.000000
85.166437 5.102068 11.656043 0.000000 40.000000 14.822350 16.000000
80.040936 5.753787 11.907374 0.000000 53.000000 14.516415 4.000000
80.734202 7.424754 11.533699 0.000000 36.000000 14.220118 0.000000
82.157655 7.733732 11.384063 0.000000 50.000000 14.225716 0.000000
80.776374 7.595302 11.549285 0.000000 43.000000 14.240185 0.000000
82.229902 7.933301 11.357871 0.000000 44.000000 14.207513 0.000000
84.813539 4.524178 11.639077 0.000000 67.000000 14.767218 23.000000
81.213754 9.128558 12.227838 0.000000 41.000000 14.962164 6.000000
81.587814 7.116638 11.786285 0.000000 51.000000 14.563776 2.000000
82.494066 8.561901 11.230750 0.000000 30.000000 14.109786 0.000000
82.522511 8.711502 11.302186 0.000000 35.000000 14.183885 0.000000
82.590338 8.898860 11.308371 0.000000 40.000000 14.197389 0.000000
82.666123 9.086171 11.311300 0.000000 38.000000 14.208518 0.000000
79.737076 7.943130 11.907653 0.000000 33.000000 14.483743 3.000000
85.274372 4.844729 11.677780 0.000000 36.000000 14.855663 16.000000
84.047764 3.888835 11.042754 0.000000 43.000000 14.091374 0.000000
81.879468 4.943593 11.792876 0.000000 57.000000 14.601953 30.000000
82.319155 7.143857 11.321039 0.000000 33.000000 14.180576 0.000000
85.084680 6.445944 11.029369 0.000000 44.000000 14.190506 0.000000
84.111092 7.818185 11.188227 0.000000 29.000000 14.242856 0.000000
85.275051 6.693140 10.898022 0.000000 33.000000 14.080577 0.000000
80.148566 4.471697 11.593403 0.000000 36.000000 14.215966 0.000000
85.418081 6.910420 10.841295 0.000000 33.000000 14.039694 0.000000
84.680427 3.361853 11.657795 0.000000 75.000000 14.771391 26.000000
83.826503 8.330327 11.432109 0.000000 69.000000 14.454441 15.000000
82.622208 4.637699 11.790097 0.000000 51.000000 14.679730 19.000000
85.206807 9.129664 11.564307 0.000000 46.000000 14.735533 13.000000
84.118033 7.095744 11.018520 0.000000 34.000000 14.074903 0.000000
85.683434 7.440493 10.932561 0.000000 40.000000 14.159195 0.000000
84.538907 8.792332 11.278845 0.000000 54.000000 14.379330 14.000000
80.127606 3.316761 11.801841 0.000000 52.000000 14.420902 7.000000
80.315875 3.822033 11.484649 0.000000 35.000000 14.125995 0.000000
84.514675 7.798978 11.087126 0.000000 57.000000 14.186114 0.000000
84.643586 7.991791 11.075299 0.000000 53.000000 14.188335 0.000000
79.872782 3.277526 11.623637 0.000000 27.000000 14.216117 0.000000
85.031243 8.469270 10.882831 0.000000 19.000000 14.039038 0.000000
85.469317 9.133956 11.044142 0.000000 46.000000 14.246900 0.000000
80.560652 5.657597 11.422893 0.000000 32.000000 14.091146 0.000000
80.611919 5.496672 11.543694 0.000000 37.000000 14.216794 0.000000
82.040741 3.379513 11.858893 0.000000 69.000000 14.685069 22.000000
82.825229 5.919818 11.362138 0.000000 46.000000 14.276309 9.000000
79.909989 4.798054 11.620473 0.000000 44.000000 14.217006 0.000000
80.018380 4.688631 11.592839 0.000000 30.000000 14.201289 0.000000
81.267017 4.819191 11.477515 0.000000 44.000000 14.222041 0.000000
79.754007 8.023848 11.946425 0.000000 34.000000 14.524122 3.000000
81.125558 4.229217 11.958272 0.000000 49.000000 14.684624 11.000000
85.484572 4.826507 11.453536 0.000000 45.000000 14.655534 16.000000
80.404158 4.206222 11.552804 0.000000 38.000000 14.203322 0.000000
80.511532 4.090344 11.511344 0.000000 34.000000 14.173749 0.000000
83.665622 6.027837 11.214373 0.000000 31.000000 14.220544 0.000000
81.931332 4.114635 11.276819 0.000000 40.000000 14.094563 0.000000
83.608406 3.975217 11.414112 0.000000 57.000000 14.412901 24.000000
82.052849 4.000376 11.211216 0.000000 36.000000 14.042524 0.000000
81.272519 4.642719 11.651711 0.000000 32.000000 14.395806 18.000000
80.806717 8.372095 11.918186 0.000000 41.000000 14.610201 5.000000
81.079438 3.164104 11.480898 0.000000 39.000000 14.205064 0.000000
82.349129 3.250205 11.390847 0.000000 49.000000 14.253223 0.000000
82.281404 5.579974 11.312420 0.000000 34.000000 14.167914 0.000000
82.463639 3.128403 11.317075 0.000000 46.000000 14.192303 0.000000
84.652127 3.155911 11.051901 0.000000 39.000000 14.166001 0.000000
80.736168 8.883971 11.514295 0.000000 30.000000 14.201041 0.000000
80.859184 8.782237 11.486844 0.000000 30.000000 14.187091 0.000000
81.114243 7.884709 11.965319 0.000000 49.000000 14.690402 5.000000
81.236009 3.562910 11.998565 0.000000 68.000000 14.736656 22.000000
82.525940 8.897357 11.301305 0.000000 37.000000 14.183381 0.000000
82.648240 8.786613 11.274359 0.000000 43.000000 14.169856 0.000000
85.354620 3.258476 11.005933 0.000000 31.000000 14.196479 0.000000
82.909560 8.576375 11.178063 0.000000 34.000000 14.102464 0.000000
84.956107 3.300614 11.063215 0.000000 40.000000 14.210211 0.000000
81.589510 7.913273 11.441272 0.000000 37.000000 14.220981 0.000000
80.976793 8.137201 12.172136 0.000000 8.000000 14.881096 5.000000
81.697049 7.790976 11.410617 0.000000 42.000000 14.202168 0.000000
83.184177 8.142962 11.205654 0.000000 36.000000 14.159670 0.000000
79.777042 6.146859 12.039045 0.000000 36.000000 14.618694 4.000000
81.940401 6.005893 11.441265 0.000000 45.000000 14.259023 0.000000
83.343476 7.832954 11.238870 0.000000 48.000000 14.209964 0.000000
82.348015 4.154527 11.571548 0.000000 67.000000 14.432737 25.000000
82.069034 7.248600 11.351652 0.000000 41.000000 14.183887 0.000000
80.002884 5.183756 12.053852 0.000000 59.000000 14.657903 17.000000
82.206498 7.154514 11.245889 0.000000 27.000000 14.093653 0.000000
81.329680 4.146332 11.537161 0.000000 36.000000 14.288130 11.000000
81.327266 8.081086 12.157060 0.000000 47.000000 14.904112 5.000000
85.437831 7.705338 11.097011 0.000000 36.000000 14.296043 28.000000
82.312930 6.822235 11.316080 0.000000 27.000000 14.174971 0.000000
83.814744 7.136513 11.120757 0.000000 38.000000 14.143650 0.000000
82.413471 6.693882 11.264249 0.000000 38.000000 14.134348 0.000000
80.803806 7.893998 11.766367 0.000000 51.000000 14.458961 5.000000
82.451581 6.517968 11.314996 0.000000 45.000000 14.188928 0.000000
84.033388 6.877125 10.998558 0.000000 33.000000 14.045880 0.000000
83.721440 3.377669 11.342507 0.000000 51.000000 14.353975 0.000000
81.821669 5.137064 11.983851 0.000000 47.000000 14.785535 30.000000
84.065709 6.488621 11.142391 0.000000 47.000000 14.192369 0.000000
84.145486 6.337874 11.112382 0.000000 36.000000 14.171188 0.000000
79.832569 7.675501 11.679915 0.000000 35.000000 14.267703 0.000000
83.608346 5.013147 11.637271 0.000000 66.000000 14.634737 19.000000
82.863460 5.624416 11.201814 0.000000 34.000000 14.121076 0.000000
80.672648 4.921299 11.680191 0.000000 47.000000 14.359071 17.000000
82.683436 3.272339 11.822842 0.000000 49.000000 14.718921 21.000000
84.560412 5.405552 10.937435 0.000000 37.000000 14.042265 0.000000
84.464759 5.156890 11.136090 0.000000 41.000000 14.229377 0.000000
85.225892 5.152276 11.641764 0.000000 34.000000 14.814603 16.000000
81.557756 5.883802 11.483705 0.000000 39.000000 14.259721 0.000000
79.558923 6.529891 12.041244 0.000000 66.000000 14.597228 29.000000
80.319416 8.177598 11.901693 0.000000 42.000000 14.540964 3.000000
80.855817 3.424644 11.824341 0.000000 32.000000 14.522233 22.000000
80.987656 2.949673 11.494712 0.000000 51.000000 14.208844 0.000000
81.314281 3.555141 11.970121 0.000000 52.000000 14.716867 22.000000
84.566654 8.566323 11.622761 0.000000 27.000000 14.724227 14.000000
80.856107 3.728388 11.423173 0.000000 29.000000 14.123462 0.000000
80.585323 6.420391 11.535575 0.000000 34.000000 14.205839 0.000000
80.834132 4.062299 11.359546 0.000000 39.000000 14.057827 0.000000
84.741357 3.523638 11.571045 0.000000 65.000000 14.691760 26.000000
80.756209 4.181998 11.471434 0.000000 44.000000 14.160606 0.000000
80.944351 4.254101 12.129830 0.000000 80.000000 14.835521 11.000000
80.646614 4.784393 11.561871 0.000000 39.000000 14.238626 0.000000
82.660117 3.585026 11.682439 0.000000 46.000000 14.576817 21.000000
80.323246 4.258627 11.585188 0.000000 38.000000 14.226741 0.000000
79.847823 6.169289 12.022811 0.000000 46.000000 14.610231 4.000000
80.652309 5.957654 11.514206 0.000000 33.000000 14.191860 0.000000
84.990251 4.335712 11.533418 0.000000 49.000000 14.681344 23.000000
82.831385 3.452859 11.668938 0.000000 61.000000 14.581968 20.000000
81.092437 7.830969 11.780993 0.000000 51.000000 14.504799 5.000000
80.850707 4.864990 11.803955 0.000000 68.000000 14.501413 18.000000
80.786807 6.878541 11.369967 0.000000 19.000000 14.063055 0.000000
80.804756 7.046065 11.375613 0.000000 29.000000 14.070614 0.000000
82.332688 3.559280 11.554093 0.000000 42.000000 14.413723 21.000000
83.993633 8.149391 11.295284 0.000000 28.000000 14.336545 15.000000
81.364247 4.032354 11.650164 0.000000 57.000000 14.404215 11.000000
82.102626 3.676048 11.729755 0.000000 35.000000 14.563403 22.000000
79.519859 7.576965 11.657512 0.000000 31.000000 14.211523 0.000000
83.093524 3.243514 11.265079 0.000000 46.000000 14.208915 0.000000
85.397278 7.377869 11.055839 0.000000 41.000000 14.250717 0.000000
83.254724 3.967520 11.126000 0.000000 37.000000 14.088136 0.000000
81.075938 4.079785 11.417774 0.000000 29.000000 14.141932 0.000000
81.848476 6.445614 11.412403 0.000000 37.000000 14.220363 0.000000
81.226449 8.827839 12.075668 0.000000 30.000000 14.812268 6.000000
81.759433 6.469370 11.415409 0.000000 32.000000 14.213696 0.000000
82.205338 5.611129 11.344136 0.000000 49.000000 14.191195 0.000000
83.716814 6.086145 11.174438 0.000000 40.000000 14.186395 0.000000
83.513456 7.561982 11.231467 0.000000 39.000000 14.221037 0.000000
79.582112 3.429729 11.996258 0.000000 45.000000 14.555022 7.000000
79.576065 5.129911 12.041958 0.000000 60.000000 14.599797 17.000000
85.335047 7.959326 11.299310 0.000000 28.000000 14.486004 8.000000
82.908757 5.289866 11.424549 0.000000 44.000000 14.347409 19.000000
79.772825 3.420501 12.182547 0.000000 51.000000 14.760893 7.000000
84.094774 6.914327 10.997988 0.000000 35.000000 14.051970 0.000000
81.085376 4.762296 11.805713 0.000000 61.000000 14.528607 18.000000
81.381837 7.932825 11.908487 0.000000 42.000000 14.662922 5.000000
82.738684 6.957610 11.137944 0.000000 30.000000 14.044052 0.000000
80.888768 3.363063 11.792714 0.000000 38.000000 14.494366 22.000000
82.787827 7.122410 11.177587 0.000000 31.000000 14.088791 0.000000
84.260844 7.436134 11.095006 0.000000 56.000000 14.166423 0.000000
81.377969 7.801997 12.031191 0.000000 57.000000 14.784483 5.000000
82.456976 4.698406 11.737946 0.000000 59.000000 14.609970 19.000000
82.888730 7.445545 11.269088 0.000000 37.000000 14.190693 0.000000
84.426141 7.816737 11.107821 0.000000 52.000000 14.197087 0.000000
84.851880 7.465996 11.415667 0.000000 57.000000 14.549283 8.000000
83.616835 5.477270 11.105889 0.000000 24.000000 14.107409 0.000000
79.689272 8.644724 12.008172 0.000000 53.000000 14.578486 3.000000
82.025673 5.591123 11.303488 0.000000 28.000000 14.131305 0.000000
83.151376 8.004435 11.250552 0.000000 40.000000 14.200747 0.000000
84.569682 4.782551 11.291088 0.000000 46.000000 14.394838 16.000000
83.327169 8.260699 11.117911 0.000000 29.000000 14.087950 0.000000
82.624219 3.978048 11.390307 0.000000 42.000000 14.282515 25.000000
81.178800 5.772393 11.465750 0.000000 39.000000 14.200779 0.000000
83.582906 8.784696 11.187967 0.000000 41.000000 14.185324 0.000000
83.702222 8.985251 11.166381 0.000000 39.000000 14.176803 0.000000
84.427482 4.385443 11.567524 0.000000 68.000000 14.654225 23.000000
84.105901 5.651544 11.134304 0.000000 34.000000 14.188688 0.000000
79.750604 4.536951 11.631297 0.000000 40.000000 14.210484 0.000000
82.606228 4.231847 11.873247 0.000000 55.000000 14.760657 25.000000
81.076111 8.800014 12.089044 0.000000 76.000000 14.809263 6.000000
81.229132 3.022674 11.492015 0.000000 36.000000 14.232347 0.000000
79.725458 6.016527 12.057102 0.000000 89.000000 14.631051 4.000000
80.405827 4.105781 11.485221 0.000000 46.000000 14.136318 0.000000
80.267375 8.123409 11.948101 0.000000 48.000000 14.581456 3.000000
80.694893 3.938316 11.356544 0.000000 36.000000 14.039745 0.000000
80.822640 3.838751 11.326838 0.000000 28.000000 14.024066 0.000000
83.572015 5.393667 11.301059 0.000000 73.000000 14.296568 0.000000
81.041224 5.048280 11.869259 0.000000 61.000000 14.586991 18.000000
81.392091 3.110742 11.460379 0.000000 55.000000 14.218568 0.000000
80.730494 9.156432 12.379341 0.000000 36.000000 15.060371 6.000000
84.756152 7.856643 11.231654 0.000000 50.000000 14.355974 8.000000
83.954431 3.348059 11.182362 0.000000 53.000000 14.220038 0.000000
84.203431 3.852634 11.180787 0.000000 51.000000 14.245473 0.000000
84.654385 8.349890 11.458029 0.000000 45.000000 14.569979 14.000000
84.599307 4.126996 11.721301 0.000000 64.000000 14.825727 23.000000
84.127490 8.986528 11.162940 0.000000 32.000000 14.219497 0.000000
81.860343 3.392663 12.093309 0.000000 60.000000 14.898541 22.000000
80.003126 4.114589 11.533840 0.000000 31.000000 14.140983 0.000000
80.906301 3.765858 11.624170 0.000000 36.000000 14.328717 0.000000
85.304013 4.770060 11.377995 0.000000 58.000000 14.560860 16.000000
79.542675 7.573852 11.640584 0.000000 29.000000 14.197169 0.000000
83.306883 4.217594 11.740875 0.000000 73.000000 14.705041 25.000000
85.190355 3.534298 11.187702 0.000000 47.000000 14.359365 26.000000
80.951841 7.704476 11.518374 0.000000 44.000000 14.228483 0.000000
80.985877 6.438316 11.881733 0.000000 58.000000 14.593390 1.000000
80.495569 9.112040 11.840704 0.000000 43.000000 14.499436 6.000000
79.897033 7.272677 11.617711 0.000000 32.000000 14.212856 0.000000
82.282146 3.556124 11.549552 0.000000 27.000000 14.403729 21.000000
80.033284 7.188669 11.566598 0.000000 30.000000 14.176819 0.000000
80.150398 7.085977 11.548006 0.000000 35.000000 14.171035 0.000000
85.300178 3.631267 11.431341 0.000000 32.000000 14.613476 23.000000
80.027241 4.927191 11.931129 0.000000 50.000000 14.538545 17.000000
82.915435 5.031658 11.588671 0.000000 41.000000 14.511288 19.000000
82.878254 4.111607 11.988477 0.000000 58.000000 14.904705 25.000000
80.143356 4.830902 11.970926 0.000000 57.000000 14.590698 17.000000
81.926209 6.878687 11.355448 0.000000 21.000000 14.172173 0.000000
80.685801 6.512681 11.509596 0.000000 34.000000 14.190908 0.000000
82.048978 6.772527 11.316656 0.000000 29.000000 14.146922 0.000000
80.792130 6.394145 11.492087 0.000000 38.000000 14.185032 0.000000
82.145240 6.639404 11.323298 0.000000 37.000000 14.163963 0.000000
80.894330 6.273543 11.479040 0.000000 35.000000 14.183144 0.000000
82.227123 6.497789 11.353815 0.000000 41.000000 14.203179 0.000000
84.282251 6.623187 11.179633 0.000000 30.000000 14.252873 0.000000
82.326756 6.371176 11.342568 0.000000 47.000000 14.202802 0.000000
82.633926 3.248011 11.911971 0.000000 64.000000 14.802156 21.000000
83.129073 4.866100 11.674990 0.000000 55.000000 14.620264 19.000000
82.503080 6.095148 11.358351 0.000000 39.000000 14.237612 0.000000
81.274587 5.765345 11.436553 0.000000 37.000000 14.182141 0.000000
81.393158 5.658175 11.368948 0.000000 32.000000 14.127792 0.000000
82.821525 5.720140 11.255283 0.000000 44.000000 14.169682 0.000000
84.992401 4.462325 11.787286 0.000000 72.000000 14.933948 23.000000
82.958982 5.416009 11.296729 0.000000 34.000000 14.225789 0.000000
84.544620 4.966860 11.217904 0.000000 59.000000 14.319368 16.000000
82.245942 8.246979 11.225063 0.000000 15.000000 14.077227 0.000000
82.468438 3.160292 11.359524 0.000000 42.000000 14.235022 0.000000
85.013217 4.491536 11.747272 0.000000 53.000000 14.896427 23.000000
82.007941 3.333877 11.997976 0.000000 54.000000 14.819775 22.000000
82.590700 6.887091 11.204464 0.000000 17.000000 14.094134 0.000000
83.676686 9.020336 11.155001 0.000000 37.000000 14.162721 0.000000
83.735914 8.844098 11.189612 0.000000 36.000000 14.203551 0.000000
85.478131 9.153721 10.999631 0.000000 47.000000 14.203607 0.000000
85.580161 9.010852 10.963705 0.000000 39.000000 14.178957 0.000000
83.794630 8.372830 11.502227 0.000000 58.000000 14.520689 15.000000
84.122636 8.079345 11.129492 0.000000 37.000000 14.185719 0.000000
84.155481 7.891301 11.173123 0.000000 49.000000 14.232655 0.000000
79.889884 8.886732 12.276415 0.000000 49.000000 14.866900 3.000000
83.484118 3.397175 11.568083 0.000000 69.000000 14.552486 20.000000
84.368264 7.425482 11.093966 0.000000 39.000000 14.177038 0.000000
84.430868 7.265934 11.070475 0.000000 34.000000 14.160474 0.000000
84.531290 7.133622 10.983829 0.000000 31.000000 14.085228 0.000000
84.607958 6.985693 10.931575 0.000000 31.000000 14.041595 0.000000
85.163301 7.489178 11.137385 0.000000 50.000000 14.306411 8.000000
84.590183 6.575678 11.065711 0.000000 39.000000 14.173013 0.000000
80.057459 8.562135 12.371710 0.000000 52.000000 14.979805 3.000000
84.705886 3.226485 11.048608 0.000000 36.000000 14.168557 0.000000
84.628701 4.065422 11.528661 0.000000 67.000000 14.637410 23.000000
84.207757 5.685339 11.186639 0.000000 55.000000 14.251760 10.000000
82.977806 4.465968 11.789085 0.000000 46.000000 14.717283 25.000000
79.578110 4.454169 11.658500 0.000000 44.000000 14.218822 0.000000
79.551592 4.606779 11.654787 0.000000 37.000000 14.212255 0.000000
79.527573 4.758297 11.652661 0.000000 38.000000 14.207537 0.000000
81.634331 7.268466 11.757056 0.000000 52.000000 14.539763 2.000000
82.327856 3.034695 11.334145 0.000000 39.000000 14.194548 0.000000
81.003607 3.003665 11.485905 0.000000 47.000000 14.201818 0.000000
79.805237 5.109992 12.131347 0.000000 51.000000 14.713509 17.000000
83.970063 4.018620 11.528523 0.000000 77.000000 14.565853 24.000000
81.020468 3.836512 11.374529 0.000000 35.000000 14.092927 0.000000
85.495572 4.892673 11.843563 0.000000 72.000000 15.044455 16.000000
81.042048 4.015431 11.328255 0.000000 34.000000 14.049266 0.000000
82.446632 5.699963 11.405229 0.000000 44.000000 14.278093 0.000000
82.870433 3.623677 11.620068 0.000000 24.000000 14.537620 20.000000
82.344309 5.027534 11.340884 0.000000 51.000000 14.203032 0.000000
82.424513 5.562039 11.312989 0.000000 50.000000 14.183998 0.000000
81.111037 5.652454 11.441480 0.000000 39.000000 14.169305 0.000000
81.061087 5.078278 11.813265 0.000000 57.000000 14.533481 18.000000
80.186256 6.623887 11.824464 0.000000 26.000000 14.449752 29.000000
80.875376 3.294650 11.653686 0.000000 42.000000 14.354705 22.000000
79.711874 6.813954 11.754135 0.000000 13.000000 14.328397 0.000000
82.508675 4.074956 11.711384 0.000000 70.000000 14.589170 25.000000
85.021728 8.569797 11.389425 0.000000 51.000000 14.541613 14.000000
80.871695 6.576555 11.629822 0.000000 21.000000 14.330583 1.000000
82.755149 6.874370 11.179066 0.000000 24.000000 14.086717 0.000000
82.818943 7.072142 11.149504 0.000000 29.000000 14.064247 0.000000
81.343722 6.854866 11.474629 0.000000 20.000000 14.227489 0.000000
85.371059 7.999045 11.199134 0.000000 35.000000 14.390324 28.000000
82.845055 7.370115 11.283947 0.000000 45.000000 14.200729 0.000000
82.907939 7.560373 11.273901 0.000000 39.000000 14.197561 0.000000
84.260219 5.767713 11.488803 0.000000 61.000000 14.557831 10.000000
83.031999 7.931306 11.276322 0.000000 49.000000 14.213420 0.000000
81.631859 7.766371 11.431776 0.000000 41.000000 14.216133 0.000000
84.264879 4.113558 11.520130 0.000000 53.000000 14.589478 23.000000
84.430821 7.651323 11.134112 0.000000 34.000000 14.223730 0.000000
79.864076 3.246595 12.091248 0.000000 60.000000 14.680027 7.000000
81.827644 8.197603 11.305323 0.000000 25.000000 14.111656 0.000000
83.320582 8.567940 11.153313 0.000000 32.000000 14.122429 0.000000
80.690990 6.872797 11.386686 0.000000 14.000000 14.069286 0.000000
79.761724 3.360451 12.002069 0.000000 57.000000 14.580275 7.000000
81.745482 2.990137 11.532501 0.000000 51.000000 14.328585 0.000000
79.764699 8.031484 11.851593 0.000000 30.000000 14.431009 3.000000
84.659754 7.698313 11.481469 0.000000 61.000000 14.593863 8.000000
84.773947 7.519497 11.511806 0.000000 51.000000 14.636404 8.000000
82.093796 8.896674 11.365006 0.000000 44.000000 14.199847 0.000000
79.867238 4.624894 11.659348 0.000000 24.000000 14.251016 0.000000
83.123274 3.174433 11.253468 0.000000 38.000000 14.200598 0.000000
80.741953 8.283305 11.929084 0.000000 44.000000 14.614012 5.000000
82.424513 3.147812 11.502927 0.000000 42.000000 14.372816 21.000000
84.606487 5.175894 11.201917 0.000000 46.000000 14.310184 16.000000
79.671561 5.815834 12.034084 0.000000 63.000000 14.602324 4.000000
82.176206 3.463583 11.981599 0.000000 46.000000 14.821740 22.000000
85.008651 7.941055 11.404911 0.000000 48.000000 14.555590 8.000000
84.142234 5.659259 11.088790 0.000000 42.000000 14.147382 0.000000
80.369797 5.811629 11.637538 0.000000 38.000000 14.283830 0.000000
84.186551 5.808862 11.155109 0.000000 56.000000 14.218116 0.000000
81.555617 4.138795 12.050993 0.000000 69.000000 14.823432 11.000000
82.206507 3.372823 11.439774 0.000000 43.000000 14.286396 21.000000
85.282924 5.141702 11.552840 0.000000 70.000000 14.732387 16.000000
84.913016 6.977981 10.966205 0.000000 48.000000 14.109100 0.000000
80.094300 6.436195 11.917458 0.000000 38.000000 14.532226 29.000000
84.908279 5.127724 11.549677 0.000000 55.000000 14.688618 16.000000
84.884037 7.483515 11.516494 0.000000 74.000000 14.653002 8.000000
80.371005 6.072716 11.538642 0.000000 32.000000 14.185648 0.000000
82.379125 4.806797 11.719524 0.000000 45.000000 14.583214 19.000000
80.624242 5.890421 11.503745 0.000000 35.000000 14.178417 0.000000
79.512970 5.629222 11.614511 0.000000 33.000000 14.168029 0.000000
83.234291 3.209956 11.324341 0.000000 41.000000 14.283092 20.000000
81.650925 4.664666 11.746724 0.000000 44.000000 14.531291 30.000000
80.980667 5.586145 11.479890 0.000000 38.000000 14.193351 0.000000
80.366971 4.746534 11.596465 0.000000 35.000000 14.242693 0.000000
80.472321 4.632179 11.580469 0.000000 31.000000 14.238215 0.000000
80.583844 4.525187 11.545977 0.000000 37.000000 14.216019 0.000000
82.237349 6.420723 11.387651 0.000000 29.000000 14.237925 0.000000
81.040045 4.087171 11.358405 0.000000 30.000000 14.079021 0.000000
82.282252 4.201589 11.314188 0.000000 38.000000 14.169764 0.000000
81.150935 3.974551 11.307947 0.000000 30.000000 14.040885 0.000000
82.417938 4.096380 11.231035 0.000000 41.000000 14.101814 0.000000
81.069784 8.389401 12.015207 0.000000 51.000000 14.735175 5.000000
83.210091 7.412769 11.261738 0.000000 28.000000 14.218234 0.000000
81.481488 3.261391 11.446996 0.000000 38.000000 14.214958 0.000000
81.026243 9.131263 12.056832 0.000000 33.000000 14.771833 6.000000
84.026597 5.876305 11.136125 0.000000 27.000000 14.181899 0.000000
85.667866 3.406047 10.966507 0.000000 49.000000 14.191253 0.000000
80.097544 3.377187 12.141389 0.000000 69.000000 14.755188 7.000000
81.734549 4.945158 12.111902 0.000000 65.000000 14.903384 30.000000
79.562219 4.910311 11.892995 0.000000 58.000000 14.450211 17.000000
82.636505 9.160420 11.281461 0.000000 45.000000 14.175644 0.000000
82.754348 9.045609 11.279514 0.000000 43.000000 14.186486 0.000000
79.791261 4.894173 11.859294 0.000000 39.000000 14.441545 17.000000
82.997113 8.824583 11.244620 0.000000 36.000000 14.178122 0.000000
84.674271 7.463195 11.270149 0.000000 57.000000 14.385364 8.000000
81.777339 8.230002 11.364374 0.000000 21.000000 14.164904 0.000000
84.821008 5.057537 11.705089 0.000000 55.000000 14.833651 16.000000
81.873993 8.096277 11.372353 0.000000 34.000000 14.183316 0.000000
83.383203 8.503087 11.131636 0.000000 30.000000 14.107670 0.000000
83.130339 3.393237 11.788757 0.000000 57.000000 14.733497 20.000000
79.933165 6.406239 12.252353 0.000000 52.000000 14.847673 29.000000
82.065715 7.834255 11.370720 0.000000 37.000000 14.202482 0.000000
83.578428 8.226860 11.136819 0.000000 26.000000 14.133992 0.000000
82.170565 7.708068 11.349598 0.000000 40.000000 14.192854 0.000000
80.384143 4.791615 11.651945 0.000000 42.000000 14.299708 17.000000
81.391573 3.468831 11.875245 0.000000 45.000000 14.630932 22.000000
83.743918 7.924302 11.176059 0.000000 39.000000 14.190945 0.000000
82.359882 7.440548 11.327350 0.000000 36.000000 14.191266 0.000000
81.423592 5.095753 11.892066 0.000000 65.000000 14.651126 30.000000
85.667706 3.739808 10.864571 0.000000 22.000000 14.089900 0.000000
80.246313 4.990823 11.928872 0.000000 37.000000 14.560056 17.000000
