26.482370 1.104617 -6.413198 0.000000 20.000000 14.241370 0.000000
26.408943 1.131940 -6.581410 0.000000 32.000000 14.322694 0.000000
24.191966 0.082486 -5.014804 0.000000 38.000000 14.280371 0.000000
24.845918 -1.510214 -3.828535 0.000000 70.000000 14.821246 13.000000
26.343936 1.410451 -7.032984 0.000000 39.000000 14.373507 0.000000
23.078093 -1.578936 -3.656420 0.000000 65.000000 14.821505 19.000000
26.293316 1.603771 -7.327578 0.000000 60.000000 14.397596 0.000000
26.392048 1.854910 -7.449159 0.000000 41.000000 14.267377 0.000000
26.234829 1.804389 -7.618874 0.000000 42.000000 14.414091 0.000000
21.979912 -2.054660 -3.038674 0.000000 71.000000 14.860443 17.000000
26.710808 -1.261124 -3.489559 0.000000 40.000000 14.367017 0.000000
25.016740 0.393827 -5.668503 0.000000 46.000000 14.401887 0.000000
22.361253 -1.740088 -3.791493 0.000000 67.000000 15.051212 20.000000
25.511406 -1.703358 -2.924129 0.000000 53.000000 14.413453 0.000000
26.085693 -0.815241 -3.926122 0.000000 43.000000 14.290604 0.000000
22.071659 1.520072 -7.349954 0.000000 24.000000 14.594519 26.000000
27.043791 -2.075804 -3.222735 0.000000 31.000000 14.848085 15.000000
22.671181 0.410534 -5.567123 0.000000 47.000000 14.392397 0.000000
21.517957 0.104335 -5.442195 0.000000 30.000000 14.593710 25.000000
25.518715 -0.742044 -4.119169 0.000000 43.000000 14.363853 0.000000
21.006655 1.054444 -6.289024 0.000000 32.000000 14.358065 0.000000
26.237530 -1.632220 -3.178575 0.000000 36.000000 14.489533 15.000000
25.355681 -0.473146 -4.569626 0.000000 40.000000 14.424380 0.000000
21.010706 0.502461 -5.626505 0.000000 35.000000 14.400545 0.000000
21.853145 -2.205412 -3.295417 0.000000 73.000000 15.138683 17.000000
21.598851 0.863962 -5.930954 0.000000 35.000000 14.278591 0.000000
25.371723 -0.399044 -4.681781 0.000000 63.000000 14.432174 0.000000
23.917286 0.277301 -5.598837 0.000000 39.000000 14.483447 27.000000
23.169664 -1.607195 -3.984388 0.000000 70.000000 15.038697 19.000000
26.897853 -1.568632 -4.061588 0.000000 60.000000 14.951314 11.000000
22.177861 -1.571731 -3.509708 0.000000 76.000000 14.752427 20.000000
26.634002 -1.444484 -4.015511 0.000000 66.000000 14.831750 11.000000
25.389401 0.036161 -5.038496 0.000000 49.000000 14.298532 0.000000
22.164415 -0.671945 -4.121437 0.000000 36.000000 14.401894 0.000000
22.396476 -0.451419 -4.845729 0.000000 50.000000 14.654750 2.000000
25.092444 -1.686742 -3.280091 0.000000 53.000000 14.625736 14.000000
25.278428 0.200351 -5.315081 0.000000 54.000000 14.336728 0.000000
23.890582 0.162751 -5.071474 0.000000 49.000000 14.258658 0.000000
23.497281 0.404667 -5.685197 0.000000 46.000000 14.445240 0.000000
21.803274 -1.852201 -2.877165 0.000000 81.000000 14.606536 17.000000
26.033561 -0.311948 -4.775427 0.000000 55.000000 14.400623 0.000000
23.703642 0.226332 -5.355781 0.000000 35.000000 14.383948 0.000000
25.429668 -1.630861 -3.214481 0.000000 43.000000 14.532350 14.000000
24.186421 0.132679 -5.070533 0.000000 51.000000 14.273937 0.000000
23.754995 0.017317 -5.000564 0.000000 56.000000 14.335931 0.000000
26.177217 -1.221684 -3.832437 0.000000 57.000000 14.556374 12.000000
23.390061 -0.334011 -4.730004 0.000000 34.000000 14.463966 0.000000
23.556058 0.519857 -5.722638 0.000000 36.000000 14.374124 0.000000
26.613925 1.258924 -6.903357 0.000000 37.000000 14.409146 0.000000
23.492505 0.603638 -5.844938 0.000000 42.000000 14.382485 0.000000
22.811098 1.416535 -6.921615 0.000000 36.000000 14.399296 0.000000
27.145271 -0.325176 -4.973923 0.000000 45.000000 14.499799 4.000000
21.106602 -0.137863 -4.833294 0.000000 35.000000 14.432480 0.000000
23.274305 1.420505 -6.992836 0.000000 48.000000 14.426142 0.000000
24.722138 -0.778925 -4.067689 0.000000 54.000000 14.384369 0.000000
24.653186 1.100637 -6.597907 0.000000 52.000000 14.406116 0.000000
25.733860 -0.778003 -4.287951 0.000000 56.000000 14.488089 7.000000
20.927800 1.384168 -7.238069 0.000000 30.000000 14.667404 26.000000
23.124858 0.998083 -6.449133 0.000000 37.000000 14.440810 0.000000
24.511931 1.296862 -6.835394 0.000000 43.000000 14.396059 0.000000
21.060561 -0.545989 -4.325318 0.000000 34.000000 14.454350 0.000000
22.366105 -1.973199 -3.223023 0.000000 60.000000 14.895532 17.000000
25.836694 -0.751060 -4.573650 0.000000 68.000000 14.635473 7.000000
22.940957 1.327101 -6.775298 0.000000 29.000000 14.379181 0.000000
21.933506 -1.687333 -3.776388 0.000000 60.000000 15.011815 20.000000
22.847847 1.397540 -6.890217 0.000000 34.000000 14.394577 0.000000
23.139588 -2.174887 -3.441697 0.000000 70.000000 15.166699 16.000000
26.351501 -0.454390 -4.648162 0.000000 53.000000 14.429101 0.000000
24.215150 1.911709 -7.381480 0.000000 32.000000 14.241466 0.000000
26.183217 -0.281411 -4.867461 0.000000 53.000000 14.427424 0.000000
24.074781 1.932146 -7.499669 0.000000 38.000000 14.300069 0.000000
22.554738 1.599016 -7.219304 0.000000 39.000000 14.439586 0.000000
23.225628 -1.649139 -4.036689 0.000000 70.000000 15.102091 19.000000
22.743452 -1.870975 -3.403144 0.000000 47.000000 14.911741 17.000000
22.322184 1.913976 -7.514080 0.000000 33.000000 14.371660 0.000000
27.014992 0.749757 -6.165962 0.000000 36.000000 14.361452 0.000000
21.956384 0.497798 -5.593175 0.000000 37.000000 14.358109 0.000000
26.720741 -2.019328 -3.178056 0.000000 69.000000 14.785045 15.000000
27.070741 -1.807283 -3.537172 0.000000 50.000000 14.821898 15.000000
22.138345 1.415470 -7.418974 0.000000 43.000000 14.717710 26.000000
24.569296 0.625533 -6.021632 0.000000 58.000000 14.441467 0.000000
26.165253 0.132140 -5.152322 0.000000 47.000000 14.268868 0.000000
25.567520 -0.428942 -4.653440 0.000000 62.000000 14.433607 0.000000
23.731118 1.457841 -7.109516 0.000000 57.000000 14.453843 0.000000
21.010994 -1.632750 -3.363095 0.000000 75.000000 14.745262 18.000000
21.301369 -0.417289 -4.584809 0.000000 68.000000 14.500897 29.000000
22.235820 1.305790 -6.778169 0.000000 31.000000 14.417407 0.000000
25.273481 -0.713398 -4.243640 0.000000 42.000000 14.422573 0.000000
25.294408 0.458278 -5.783663 0.000000 41.000000 14.411967 0.000000
25.254428 -0.726646 -4.076224 0.000000 41.000000 14.333041 0.000000
26.655251 -0.705543 -4.202804 0.000000 38.000000 14.353580 0.000000
26.439123 -0.075026 -5.080072 0.000000 59.000000 14.383328 0.000000
22.697357 -1.325334 -3.611301 0.000000 45.000000 14.602355 20.000000
26.498857 1.345522 -7.022285 0.000000 34.000000 14.414652 0.000000
21.765534 -1.597024 -3.610529 0.000000 70.000000 14.844624 20.000000
26.302888 0.388998 -5.787507 0.000000 47.000000 14.441751 0.000000
24.094534 -1.600161 -2.950094 0.000000 39.000000 14.385782 0.000000
24.625618 -1.461939 -3.171180 0.000000 45.000000 14.393619 0.000000
24.550766 -1.561987 -3.041933 0.000000 46.000000 14.397897 0.000000
24.515711 -1.620763 -2.893165 0.000000 40.000000 14.356379 0.000000
25.882511 -1.646176 -2.795378 0.000000 46.000000 14.280135 0.000000
24.420600 -1.651806 -2.749234 0.000000 40.000000 14.297278 0.000000
24.316937 -1.606246 -2.892467 0.000000 43.000000 14.349857 0.000000
24.079483 -1.380105 -3.263850 0.000000 42.000000 14.399054 0.000000
24.002009 -1.301694 -3.380830 0.000000 48.000000 14.408890 0.000000
22.106980 -0.311016 -4.964711 0.000000 57.000000 14.622136 2.000000
24.056982 1.486557 -7.160507 0.000000 64.000000 14.452559 0.000000
22.309860 -0.750400 -3.870828 0.000000 41.000000 14.309887 0.000000
21.947590 -1.425787 -3.953731 0.000000 53.000000 14.909143 20.000000
25.467089 -1.642644 -2.793900 0.000000 46.000000 14.287902 0.000000
26.108405 -0.558031 -4.488071 0.000000 63.000000 14.422356 0.000000
21.649182 -1.716477 -3.730713 0.000000 65.000000 15.015489 20.000000
26.196318 -0.249009 -4.916018 0.000000 44.000000 14.430373 0.000000
24.500338 1.150886 -6.651704 0.000000 34.000000 14.402544 0.000000
23.297905 0.204818 -5.073650 0.000000 40.000000 14.242741 0.000000
21.091927 -1.522396 -3.055637 0.000000 64.000000 14.470067 18.000000
21.598680 -0.764837 -3.836221 0.000000 26.000000 14.320260 0.000000
23.516812 -1.631133 -3.790715 0.000000 65.000000 14.931803 19.000000
21.714292 -0.385579 -4.514436 0.000000 44.000000 14.421861 0.000000
22.870329 -0.254352 -4.776594 0.000000 49.000000 14.442709 0.000000
22.819181 -0.109333 -4.851897 0.000000 41.000000 14.373567 0.000000
22.742369 -0.000555 -4.935981 0.000000 35.000000 14.339356 0.000000
25.391884 0.147881 -5.293992 0.000000 42.000000 14.362823 0.000000
21.249053 0.099285 -4.896026 0.000000 37.000000 14.276852 0.000000
21.662090 0.603013 -5.794320 0.000000 47.000000 14.403122 0.000000
21.320715 0.129643 -4.934797 0.000000 34.000000 14.273932 0.000000
22.411206 0.198947 -5.222283 0.000000 49.000000 14.361273 0.000000
24.103577 0.179678 -5.267426 0.000000 22.000000 14.357048 0.000000
23.226036 -2.021780 -3.188897 0.000000 39.000000 14.890062 16.000000
21.016526 0.116885 -5.160470 0.000000 36.000000 14.428184 0.000000
26.831915 1.856022 -7.466368 0.000000 39.000000 14.264682 0.000000
22.029232 0.330705 -5.508813 0.000000 43.000000 14.438836 0.000000
21.949614 0.450348 -5.577071 0.000000 43.000000 14.386513 0.000000
26.341669 -0.542562 -4.862149 0.000000 33.000000 14.628427 30.000000
22.024660 -1.754513 -3.932905 0.000000 72.000000 15.157039 20.000000
21.585326 0.627810 -5.827323 0.000000 43.000000 14.405276 0.000000
25.464902 0.995668 -6.248461 0.000000 28.000000 14.257464 0.000000
22.627628 -2.079760 -3.176651 0.000000 62.000000 14.945539 17.000000
25.431261 -1.859185 -3.225173 0.000000 74.000000 14.721089 14.000000
24.393755 -0.400026 -4.574653 0.000000 51.000000 14.395576 0.000000
25.432752 -0.755451 -4.062212 0.000000 52.000000 14.342697 0.000000
21.336167 -1.806754 -3.152013 0.000000 66.000000 14.748363 17.000000
24.552767 0.051249 -5.046862 0.000000 58.000000 14.314624 0.000000
24.806048 1.914195 -7.504510 0.000000 52.000000 14.297115 0.000000
21.844575 -1.864093 -3.382627 0.000000 52.000000 14.918743 17.000000
23.217975 -1.599501 -3.286220 0.000000 69.000000 14.611526 16.000000
26.218210 0.658028 -6.068316 0.000000 39.000000 14.398026 0.000000
21.803095 0.306041 -5.469653 0.000000 48.000000 14.441242 0.000000
26.849332 -1.436634 -3.467410 0.000000 48.000000 14.490052 15.000000
23.813726 0.636236 -5.916350 0.000000 50.000000 14.390504 0.000000
22.294926 1.832370 -7.365628 0.000000 35.000000 14.348350 0.000000
24.175567 1.087971 -6.480279 0.000000 33.000000 14.358716 0.000000
24.922029 0.012644 -5.588015 0.000000 70.000000 14.660559 24.000000
22.752248 -0.438991 -4.473434 0.000000 44.000000 14.411198 0.000000
25.561096 1.117377 -6.496267 0.000000 33.000000 14.306565 0.000000
24.558225 0.626174 -6.012008 0.000000 36.000000 14.435476 0.000000
26.745970 1.392439 -7.076418 0.000000 36.000000 14.402896 0.000000
23.479253 -0.433751 -5.007591 0.000000 75.000000 14.708028 8.000000
23.832148 0.524428 -5.771455 0.000000 41.000000 14.392191 0.000000
25.646477 -0.503522 -4.545226 0.000000 67.000000 14.425940 0.000000
23.146437 -0.424339 -4.936658 0.000000 61.000000 14.667065 8.000000
25.045895 -0.438562 -4.563987 0.000000 51.000000 14.401927 0.000000
26.108021 -0.216098 -4.930642 0.000000 45.000000 14.415318 0.000000
21.076043 0.524961 -5.657491 0.000000 44.000000 14.399397 0.000000
24.070034 -0.376568 -4.794655 0.000000 55.000000 14.518034 9.000000
23.680156 0.172803 -5.193546 0.000000 52.000000 14.329824 0.000000
23.077379 -1.551468 -3.308523 0.000000 54.000000 14.590455 16.000000
23.666914 0.108392 -5.043599 0.000000 59.000000 14.291495 0.000000
21.804281 1.058346 -6.197378 0.000000 26.000000 14.277822 0.000000
22.355406 -1.690393 -3.778923 0.000000 68.000000 15.004128 20.000000
24.020205 -1.774832 -3.722798 0.000000 79.000000 14.991838 19.000000
22.808228 0.901717 -6.250671 0.000000 51.000000 14.407220 0.000000
24.119483 1.026719 -6.297394 0.000000 37.000000 14.299247 0.000000
25.137915 -0.820752 -3.862602 0.000000 53.000000 14.283004 0.000000
23.456068 -0.263787 -4.920110 0.000000 60.000000 14.520335 8.000000
21.001122 -1.707265 -3.056081 0.000000 64.000000 14.620492 18.000000
26.319412 -1.795221 -3.168720 0.000000 39.000000 14.611531 15.000000
24.395294 0.790186 -6.095435 0.000000 39.000000 14.359136 0.000000
23.345333 -0.727647 -4.143897 0.000000 45.000000 14.427260 0.000000
24.705713 -0.689537 -4.232521 0.000000 52.000000 14.412516 0.000000
21.240079 -1.629161 -2.647571 0.000000 21.000000 14.305943 0.000000
23.849665 1.053303 -6.408567 0.000000 41.000000 14.352299 0.000000
26.640988 -0.670120 -4.331493 0.000000 37.000000 14.403041 0.000000
24.416685 -1.374386 -3.795994 0.000000 65.000000 14.705061 19.000000
24.601835 -1.486002 -3.161135 0.000000 42.000000 14.407456 0.000000
24.913884 -0.618502 -4.406588 0.000000 54.000000 14.454670 0.000000
21.525294 -0.412340 -4.548218 0.000000 63.000000 14.468762 29.000000
24.236073 0.153350 -5.304832 0.000000 43.000000 14.396900 0.000000
26.186207 -0.643148 -4.403406 0.000000 57.000000 14.437293 0.000000
23.270002 1.422418 -7.021379 0.000000 39.000000 14.441891 0.000000
24.671431 -0.717289 -4.232583 0.000000 58.000000 14.435666 0.000000
21.501047 1.965795 -7.564116 0.000000 43.000000 14.383036 0.000000
26.455863 -1.193000 -3.936097 0.000000 27.000000 14.588080 11.000000
22.184482 -2.115017 -3.394732 0.000000 70.000000 15.117035 17.000000
25.430661 -0.768651 -4.135076 0.000000 38.000000 14.397099 0.000000
21.337904 1.482046 -7.018880 0.000000 46.000000 14.446140 0.000000
25.551247 0.910675 -6.911703 0.000000 78.000000 14.721656 5.000000
23.011709 -2.090287 -3.299225 0.000000 72.000000 15.017019 16.000000
24.408667 0.868762 -6.267967 0.000000 51.000000 14.399724 0.000000
23.591338 0.824005 -6.188208 0.000000 50.000000 14.410104 0.000000
23.154320 -1.732330 -3.953118 0.000000 56.000000 15.120265 19.000000
25.843782 0.377085 -5.722858 0.000000 60.000000 14.425085 0.000000
26.831922 -0.600630 -4.494079 0.000000 59.000000 14.440003 0.000000
25.153450 -1.881829 -3.110893 0.000000 61.000000 14.678151 14.000000
26.399622 0.597925 -5.942974 0.000000 48.000000 14.365670 0.000000
21.904887 -1.814897 -3.225656 0.000000 48.000000 14.783425 17.000000
24.033923 -0.415108 -4.557425 0.000000 47.000000 14.407206 0.000000
21.331512 0.944884 -6.033910 0.000000 34.000000 14.283236 0.000000
23.504032 -1.955046 -3.375488 0.000000 48.000000 14.941250 16.000000
21.774909 -1.980736 -3.022929 0.000000 67.000000 14.797600 17.000000
23.885782 0.937273 -6.241841 0.000000 52.000000 14.343747 0.000000
21.236462 0.599103 -5.807223 0.000000 45.000000 14.425758 0.000000
24.532541 0.842472 -6.301161 0.000000 53.000000 14.437254 0.000000
26.704929 -1.445208 -4.085650 0.000000 68.000000 14.872532 11.000000
24.149661 -0.184676 -4.970326 0.000000 56.000000 14.468177 9.000000
22.587646 0.096916 -4.939456 0.000000 45.000000 14.267872 0.000000
24.117268 -1.662362 -2.744508 0.000000 38.000000 14.311248 0.000000
26.321075 0.122058 -5.130519 0.000000 40.000000 14.259509 0.000000
25.151098 -1.861096 -3.040043 0.000000 37.000000 14.619067 14.000000
25.825721 -0.504988 -4.562726 0.000000 62.000000 14.432679 0.000000
22.556545 0.251618 -5.404578 0.000000 53.000000 14.424775 0.000000
25.495515 -0.804863 -4.500244 0.000000 34.000000 14.643742 7.000000
25.219253 -0.795526 -3.856081 0.000000 43.000000 14.256690 0.000000
24.761730 -0.658675 -4.271017 0.000000 27.000000 14.409462 0.000000
22.664705 0.182632 -5.108775 0.000000 37.000000 14.299067 0.000000
23.991409 -0.444950 -4.981537 0.000000 55.000000 14.687162 9.000000
26.767950 -0.559738 -5.157363 0.000000 86.000000 14.807832 4.000000
22.949081 -0.771659 -3.989303 0.000000 60.000000 14.380426 0.000000
21.465037 1.573027 -7.378212 0.000000 33.000000 14.585970 26.000000
22.266383 -1.546306 -3.497576 0.000000 55.000000 14.722382 20.000000
24.800625 -1.636975 -2.754373 0.000000 41.000000 14.278024 0.000000
22.207803 -0.419567 -4.775079 0.000000 42.000000 14.592053 2.000000
22.533718 -0.368478 -4.957908 0.000000 63.000000 14.652151 2.000000
25.526903 -0.931297 -3.776980 0.000000 25.000000 14.309078 0.000000
21.485281 0.147312 -4.993748 0.000000 47.000000 14.290712 0.000000
21.804084 -2.165146 -3.333475 0.000000 64.000000 15.130757 17.000000
27.191845 -1.938307 -3.317529 0.000000 72.000000 14.791163 15.000000
23.542813 -1.611925 -3.234690 0.000000 36.000000 14.581499 16.000000
26.799230 -1.314470 -3.456581 0.000000 37.000000 14.387357 0.000000
24.785995 -0.433667 -4.615156 0.000000 44.000000 14.435956 0.000000
21.334487 -1.472479 -3.066046 0.000000 41.000000 14.429755 0.000000
23.489415 1.174787 -6.702027 0.000000 35.000000 14.441633 0.000000
22.705449 -1.990306 -3.087994 0.000000 74.000000 14.818650 17.000000
27.066431 0.043633 -5.628897 0.000000 48.000000 14.601145 21.000000
26.097434 -1.400095 -3.772339 0.000000 68.000000 14.664942 12.000000
26.315386 -1.697188 -2.951651 0.000000 50.000000 14.402859 0.000000
21.936340 0.209928 -5.421835 0.000000 62.000000 14.485579 25.000000
25.428868 0.082712 -5.345270 0.000000 35.000000 14.444675 0.000000
23.274028 -1.958272 -3.417799 0.000000 67.000000 14.975615 16.000000
25.353409 0.678070 -6.186727 0.000000 41.000000 14.477091 22.000000
26.686258 -1.518805 -3.779591 0.000000 46.000000 14.747846 11.000000
22.900150 -2.026618 -3.351987 0.000000 83.000000 15.000967 16.000000
24.055904 0.553881 -5.795166 0.000000 35.000000 14.376740 0.000000
22.631813 0.955109 -6.118779 0.000000 22.000000 14.290166 0.000000
22.790631 1.503475 -7.073693 0.000000 44.000000 14.421843 0.000000
26.588701 -0.662395 -4.359194 0.000000 50.000000 14.414968 0.000000
25.111879 -0.714078 -4.166737 0.000000 35.000000 14.381351 0.000000
25.070531 -0.670661 -4.320362 0.000000 46.000000 14.440167 0.000000
26.281356 -0.745178 -4.006713 0.000000 35.000000 14.277687 0.000000
24.539886 0.613968 -6.001316 0.000000 59.000000 14.439304 0.000000
24.603517 -1.544733 -3.064332 0.000000 38.000000 14.396125 0.000000
24.881524 0.140359 -5.369254 0.000000 51.000000 14.428172 0.000000
26.711161 0.029135 -5.720580 0.000000 67.000000 14.677652 21.000000
23.200023 -1.783010 -3.836138 0.000000 67.000000 15.089159 19.000000
26.533169 -1.470304 -3.961827 0.000000 65.000000 14.822886 11.000000
26.712871 0.191646 -5.324011 0.000000 47.000000 14.309422 0.000000
26.568280 1.175888 -6.810201 0.000000 48.000000 14.420727 0.000000
25.199573 0.220268 -5.209817 0.000000 51.000000 14.259722 0.000000
25.106513 0.227728 -5.373455 0.000000 43.000000 14.354703 0.000000
26.575905 0.525334 -5.921503 0.000000 44.000000 14.405869 0.000000
24.961085 0.058317 -5.593021 0.000000 73.000000 14.626012 24.000000
25.030758 0.514706 -5.782998 0.000000 34.000000 14.373783 0.000000
24.323129 -1.694830 -3.778672 0.000000 52.000000 14.953162 19.000000
24.985157 0.591533 -5.923718 0.000000 42.000000 14.398275 0.000000
26.619449 0.980441 -6.314157 0.000000 32.000000 14.277223 0.000000
24.449886 -0.331306 -4.781203 0.000000 62.000000 14.463305 0.000000
25.284889 0.573660 -5.921537 0.000000 48.000000 14.402958 0.000000
23.197831 0.913700 -6.312419 0.000000 55.000000 14.424005 0.000000
21.343158 -0.765115 -3.973664 0.000000 48.000000 14.410162 0.000000
24.961915 0.989290 -6.301813 0.000000 35.000000 14.308525 0.000000
24.846457 -1.345318 -4.086062 0.000000 65.000000 14.844341 13.000000
22.231095 -2.027052 -3.102965 0.000000 74.000000 14.870102 17.000000
26.269418 0.026609 -5.119702 0.000000 54.000000 14.330666 0.000000
21.978854 -1.662087 -3.778278 0.000000 47.000000 14.991535 20.000000
26.333847 1.392057 -7.032234 0.000000 39.000000 14.388026 0.000000
26.274298 1.480866 -7.172094 0.000000 61.000000 14.402815 0.000000
24.684195 1.248154 -6.850998 0.000000 35.000000 14.439582 0.000000
22.663463 -0.761745 -3.844629 0.000000 48.000000 14.293430 0.000000
27.165397 0.470523 -5.830869 0.000000 39.000000 14.378878 0.000000
26.776456 -1.515996 -4.067350 0.000000 42.000000 14.916092 11.000000
23.818622 0.464797 -5.686534 0.000000 40.000000 14.389143 0.000000
24.024164 -0.339828 -4.817315 0.000000 56.000000 14.503580 9.000000
23.388385 1.295647 -6.782664 0.000000 42.000000 14.396370 0.000000
22.037446 -1.723479 -3.799298 0.000000 81.000000 15.051585 20.000000
24.558954 1.946217 -7.448083 0.000000 27.000000 14.244445 0.000000
24.481366 2.025890 -7.574045 0.000000 25.000000 14.258676 0.000000
24.417669 -1.431190 -3.828611 0.000000 71.000000 14.770008 19.000000
21.995803 0.476271 -5.619413 0.000000 31.000000 14.389985 0.000000
22.429480 -1.894216 -3.467136 0.000000 58.000000 14.977444 17.000000
21.269321 -1.492197 -3.810256 0.000000 74.000000 14.894672 20.000000
21.043657 1.159986 -6.587952 0.000000 46.000000 14.452445 0.000000
26.130558 1.908733 -7.679075 0.000000 42.000000 14.369824 0.000000
26.250167 1.164615 -6.813732 0.000000 44.000000 14.440640 0.000000
25.672584 -1.333872 -3.411376 0.000000 39.000000 14.406802 0.000000
23.453674 -1.695886 -4.039897 0.000000 76.000000 15.135055 19.000000
24.159503 1.920544 -7.490999 0.000000 26.000000 14.301783 0.000000
23.015111 -0.755144 -3.788315 0.000000 39.000000 14.244592 0.000000
23.077018 -1.686268 -3.354474 0.000000 67.000000 14.725748 16.000000
21.906498 -1.580109 -3.552859 0.000000 65.000000 14.792554 20.000000
21.190188 1.848322 -7.373778 0.000000 45.000000 14.371027 0.000000
22.943073 1.871891 -7.446381 0.000000 31.000000 14.347424 0.000000
24.635019 -0.730192 -4.055677 0.000000 49.000000 14.340633 0.000000
24.272004 -0.682468 -4.240443 0.000000 58.000000 14.423614 0.000000
21.390954 -1.645285 -3.419830 0.000000 53.000000 14.778882 20.000000
23.201731 -1.742387 -3.823792 0.000000 70.000000 15.049246 19.000000
22.934085 0.749781 -6.155229 0.000000 59.000000 14.467717 0.000000
24.503747 1.258916 -6.829585 0.000000 42.000000 14.423100 0.000000
21.066425 -1.462729 -3.868142 0.000000 48.000000 14.911540 20.000000
24.361158 -0.400184 -4.553868 0.000000 42.000000 14.384109 0.000000
26.192257 -1.277891 -3.520526 0.000000 43.000000 14.413349 0.000000
25.778833 -1.361150 -3.360177 0.000000 42.000000 14.394876 0.000000
25.129293 -0.163958 -4.931835 0.000000 46.000000 14.401430 0.000000
26.952941 0.666741 -6.112996 0.000000 26.000000 14.397629 0.000000
25.474093 0.363448 -5.674224 0.000000 51.000000 14.416954 0.000000
21.484327 0.954261 -6.621295 0.000000 54.000000 14.624621 1.000000
26.579735 -1.472474 -3.947836 0.000000 60.000000 14.814922 11.000000
22.299852 -0.557573 -4.970302 0.000000 45.000000 14.817087 2.000000
23.992451 0.210517 -5.218418 0.000000 57.000000 14.306027 0.000000
23.798767 0.164922 -5.480437 0.000000 33.000000 14.505301 27.000000
24.434879 -0.742476 -4.157569 0.000000 49.000000 14.417223 0.000000
21.781185 -1.421955 -3.933385 0.000000 56.000000 14.898449 20.000000
23.747125 0.274089 -5.473952 0.000000 41.000000 14.415641 0.000000
22.435815 0.172092 -5.272296 0.000000 37.000000 14.412106 0.000000
21.154648 1.543185 -7.025017 0.000000 23.000000 14.406062 0.000000
23.461179 -1.885115 -3.362131 0.000000 70.000000 14.878552 16.000000
24.898994 -0.828126 -3.893739 0.000000 53.000000 14.314211 0.000000
26.551590 1.793927 -7.697137 0.000000 56.000000 14.460742 0.000000
23.508009 0.558367 -5.786026 0.000000 55.000000 14.382799 0.000000
23.674038 -1.514041 -3.360980 0.000000 32.000000 14.575614 19.000000
23.407476 0.626413 -5.892268 0.000000 45.000000 14.395095 0.000000
22.423129 -0.760425 -3.995946 0.000000 40.000000 14.389977 0.000000
22.128912 -2.060118 -3.492534 0.000000 71.000000 15.133516 17.000000
21.465088 1.952477 -7.522436 0.000000 34.000000 14.369611 0.000000
21.911849 -2.328429 -3.221478 0.000000 60.000000 15.190865 17.000000
25.752082 -0.437910 -4.964624 0.000000 68.000000 14.622733 10.000000
21.789055 0.917299 -6.046909 0.000000 36.000000 14.300442 0.000000
22.923941 1.029997 -6.387572 0.000000 40.000000 14.383865 0.000000
22.257573 -2.100019 -3.112775 0.000000 68.000000 14.933544 17.000000
22.796200 1.069788 -6.491493 0.000000 40.000000 14.418084 0.000000
25.437505 0.771492 -6.148625 0.000000 41.000000 14.377250 0.000000
22.664609 1.103829 -6.590823 0.000000 50.000000 14.454242 0.000000
21.057137 -1.733678 -3.465211 0.000000 65.000000 14.885981 18.000000
22.348238 1.935050 -7.525266 0.000000 41.000000 14.360833 0.000000
27.071651 -1.880294 -3.160113 0.000000 42.000000 14.653522 15.000000
26.440759 1.082899 -6.378897 0.000000 29.000000 14.239246 0.000000
27.069859 -0.353430 -4.814413 0.000000 43.000000 14.428561 0.000000
21.068352 1.175793 -6.624711 0.000000 35.000000 14.461235 0.000000
22.254962 1.433977 -6.930150 0.000000 34.000000 14.405859 0.000000
20.983124 1.288986 -6.699900 0.000000 40.000000 14.418384 0.000000
24.302755 -1.550712 -3.960774 0.000000 56.000000 14.948089 19.000000
22.101254 1.479537 -7.094260 0.000000 40.000000 14.472370 26.000000
27.152839 -1.581571 -4.100305 0.000000 47.000000 14.977877 11.000000
21.471302 1.987267 -7.445279 0.000000 31.000000 14.295272 0.000000
24.011003 1.461366 -7.124859 0.000000 56.000000 14.452519 0.000000
24.878000 -1.897964 -3.121368 0.000000 67.000000 14.704944 14.000000
26.627984 1.884244 -7.663872 0.000000 38.000000 14.366502 0.000000
24.206333 1.207193 -6.746413 0.000000 45.000000 14.422628 0.000000
22.337848 1.905819 -7.389926 0.000000 39.000000 14.303109 0.000000
23.160474 -0.443174 -4.932070 0.000000 59.000000 14.678963 8.000000
25.833627 -1.588191 -3.786031 0.000000 75.000000 14.830688 12.000000
27.196304 -0.385327 -4.714188 0.000000 44.000000 14.390295 0.000000
26.840045 -1.482201 -4.100903 0.000000 80.000000 14.907514 11.000000
26.329525 1.133139 -6.660897 0.000000 38.000000 14.371713 0.000000
21.562103 1.440338 -6.971255 0.000000 42.000000 14.444629 0.000000
25.911063 -1.465909 -3.806254 0.000000 43.000000 14.743042 12.000000
25.162764 -1.328211 -3.587813 0.000000 32.000000 14.522427 13.000000
22.953394 -1.281975 -4.004707 0.000000 46.000000 14.797142 19.000000
26.072165 -1.170183 -3.864400 0.000000 53.000000 14.537357 12.000000
25.249659 0.593076 -5.899102 0.000000 47.000000 14.374938 0.000000
22.729186 0.642723 -5.921145 0.000000 53.000000 14.418166 0.000000
21.909897 -1.685145 -3.696886 0.000000 70.000000 14.962928 20.000000
23.787143 -1.660134 -3.781739 0.000000 35.000000 14.942101 19.000000
26.454650 -0.632798 -4.423625 0.000000 40.000000 14.433765 0.000000
26.007298 -0.665262 -4.376655 0.000000 46.000000 14.443815 0.000000
24.975211 0.262137 -5.305886 0.000000 38.000000 14.290230 0.000000
26.260110 0.185624 -5.495940 0.000000 51.000000 14.430091 0.000000
24.939155 0.209900 -5.150565 0.000000 43.000000 14.239578 0.000000
22.583293 -1.451971 -3.457823 0.000000 56.000000 14.614388 20.000000
23.824607 -0.316754 -4.742108 0.000000 60.000000 14.445455 0.000000
22.466748 0.592693 -5.860749 0.000000 67.000000 14.429067 0.000000
21.970771 1.886807 -7.490896 0.000000 31.000000 14.389131 0.000000
22.142712 0.546684 -5.705506 0.000000 29.000000 14.381444 0.000000
25.854150 -1.397926 -3.706147 0.000000 74.000000 14.630141 12.000000
21.238974 1.435394 -7.173401 0.000000 56.000000 14.579021 26.000000
24.691457 -0.759647 -4.119346 0.000000 51.000000 14.400872 0.000000
24.061741 0.876996 -6.733056 0.000000 81.000000 14.682312 23.000000
23.978449 -1.738531 -3.966181 0.000000 81.000000 15.110304 19.000000
21.472356 -2.055219 -3.261937 0.000000 40.000000 15.009122 17.000000
24.717452 1.321883 -6.889359 0.000000 24.000000 14.402838 0.000000
26.337859 0.102768 -5.148225 0.000000 44.000000 14.285095 0.000000
25.742269 -0.667965 -4.007714 0.000000 38.000000 14.231514 0.000000
25.676275 -0.786256 -3.873601 0.000000 40.000000 14.247193 0.000000
26.591627 -0.407393 -4.936110 0.000000 63.000000 14.558027 4.000000
25.376015 -1.325279 -3.383060 0.000000 49.000000 14.391110 0.000000
23.747844 -1.499878 -3.488257 0.000000 31.000000 14.638773 19.000000
23.081047 -0.753296 -4.096301 0.000000 52.000000 14.426435 0.000000
22.396990 -0.556296 -4.385439 0.000000 62.000000 14.461804 0.000000
22.431812 -1.703550 -2.707484 0.000000 39.000000 14.368449 0.000000
21.942546 -1.362977 -3.206318 0.000000 36.000000 14.409823 0.000000
22.624366 -0.777950 -3.813285 0.000000 47.000000 14.288611 0.000000
23.209587 0.158861 -5.110583 0.000000 46.000000 14.304087 0.000000
22.859615 0.592669 -5.825587 0.000000 34.000000 14.397097 0.000000
22.465428 0.552516 -5.863379 0.000000 55.000000 14.462773 0.000000
22.774225 -1.368173 -3.222836 0.000000 37.000000 14.400928 0.000000
21.301596 0.817279 -5.946182 0.000000 35.000000 14.333241 0.000000
25.247157 -1.499721 -3.197788 0.000000 50.000000 14.422619 0.000000
24.917206 -1.352711 -3.948896 0.000000 65.000000 14.765836 13.000000
22.527218 1.954057 -7.592983 0.000000 37.000000 14.381415 0.000000
21.205311 -0.253978 -4.739802 0.000000 68.000000 14.466290 0.000000
21.104120 -0.158694 -4.793966 0.000000 64.000000 14.425545 0.000000
21.030841 -0.018872 -4.831849 0.000000 60.000000 14.338669 0.000000
20.917486 0.063116 -4.888052 0.000000 64.000000 14.310105 0.000000
26.849763 -0.377895 -4.742330 0.000000 66.000000 14.410849 0.000000
26.354221 0.769027 -6.203655 0.000000 44.000000 14.386974 0.000000
25.579681 0.146787 -5.428309 0.000000 53.000000 14.439251 0.000000
26.826797 -0.051269 -5.740535 0.000000 22.000000 14.750670 21.000000
24.479797 1.903015 -7.391598 0.000000 29.000000 14.247182 0.000000
22.269557 0.714794 -5.954734 0.000000 25.000000 14.393494 0.000000
27.045859 0.969468 -6.468965 0.000000 54.000000 14.367267 0.000000
23.439423 -1.897690 -2.909115 0.000000 65.000000 14.616874 16.000000
24.251550 1.516708 -7.124976 0.000000 37.000000 14.401745 0.000000
22.311119 0.036430 -4.999175 0.000000 40.000000 14.359719 0.000000
26.284225 0.639706 -6.054349 0.000000 39.000000 14.402440 0.000000
24.292397 -0.392904 -4.946767 0.000000 56.000000 14.616378 9.000000
21.184633 -1.478498 -3.088712 0.000000 48.000000 14.452328 0.000000
22.739925 1.080011 -6.542616 0.000000 45.000000 14.442206 0.000000
26.913627 1.366870 -7.018924 0.000000 27.000000 14.384124 0.000000
24.564320 0.990466 -6.409909 0.000000 38.000000 14.383549 0.000000
24.158328 -0.356176 -4.840144 0.000000 65.000000 14.526654 9.000000
24.104642 1.079217 -6.378263 0.000000 37.000000 14.306341 0.000000
24.084587 0.991554 -6.278250 0.000000 37.000000 14.316788 0.000000
22.801380 0.081443 -4.946536 0.000000 62.000000 14.278581 0.000000
24.087575 -1.482789 -3.121092 0.000000 47.000000 14.395025 0.000000
22.954996 -1.513181 -3.973191 0.000000 69.000000 14.962810 19.000000
21.832190 0.080827 -5.523006 0.000000 70.000000 14.652382 25.000000
23.942050 0.669776 -5.976248 0.000000 48.000000 14.396178 0.000000
22.224178 1.498979 -7.043593 0.000000 45.000000 14.422989 0.000000
21.588175 -0.795581 -3.741574 0.000000 45.000000 14.288209 0.000000
22.850420 0.548805 -5.756398 0.000000 47.000000 14.390792 0.000000
25.837913 0.414655 -5.842296 0.000000 56.000000 14.467040 0.000000
22.546890 0.301757 -5.443376 0.000000 53.000000 14.408319 0.000000
26.846275 -1.965818 -3.367629 0.000000 70.000000 14.852798 15.000000
26.583594 0.151083 -5.242149 0.000000 50.000000 14.296180 0.000000
24.562490 -0.145546 -5.013564 0.000000 56.000000 14.451513 0.000000
25.441637 -0.552890 -4.450889 0.000000 33.000000 14.414319 0.000000
25.887567 -0.489544 -4.916612 0.000000 68.000000 14.631367 10.000000
22.579352 0.109364 -5.013043 0.000000 52.000000 14.302395 0.000000
23.953364 0.217872 -5.103964 0.000000 55.000000 14.232430 0.000000
24.288492 -1.393166 -3.248417 0.000000 34.000000 14.394435 0.000000
21.727707 -1.668958 -2.759416 0.000000 50.000000 14.391490 0.000000
26.790791 0.981433 -6.330547 0.000000 45.000000 14.281549 0.000000
24.278673 -0.704678 -4.123779 0.000000 42.000000 14.371038 0.000000
26.661818 -0.625307 -4.443773 0.000000 50.000000 14.434170 0.000000
21.895591 -0.559299 -4.281377 0.000000 47.000000 14.415498 0.000000
20.860090 1.627902 -7.096901 0.000000 33.000000 14.389750 0.000000
27.104691 -0.360998 -4.959316 0.000000 44.000000 14.520749 4.000000
25.921869 -1.367706 -3.340353 0.000000 43.000000 14.384244 0.000000
23.871128 1.396412 -6.942564 0.000000 30.000000 14.398677 0.000000
23.665870 1.275749 -6.809622 0.000000 43.000000 14.420802 0.000000
22.239301 -1.191027 -3.906362 0.000000 46.000000 14.685113 20.000000
22.286579 -0.440854 -4.923581 0.000000 35.000000 14.696148 2.000000
24.065816 -0.362933 -4.789626 0.000000 44.000000 14.504238 9.000000
21.364873 0.930088 -6.020958 0.000000 31.000000 14.286346 0.000000
26.812760 0.440593 -5.784498 0.000000 36.000000 14.384649 0.000000
23.921863 -0.732137 -4.056564 0.000000 38.000000 14.362421 0.000000
23.844600 0.915703 -6.140966 0.000000 43.000000 14.301472 0.000000
21.366920 0.415621 -5.563582 0.000000 41.000000 14.422236 0.000000
21.381866 0.305166 -5.448294 0.000000 52.000000 14.440738 0.000000
23.157106 -1.881411 -2.855952 0.000000 72.000000 14.579713 16.000000
21.497851 0.215408 -5.182117 0.000000 51.000000 14.349213 0.000000
25.168884 -1.254818 -3.634890 0.000000 38.000000 14.491940 13.000000
24.095104 1.858428 -7.383460 0.000000 42.000000 14.288527 0.000000
21.627329 -0.336555 -4.632868 0.000000 60.000000 14.456302 0.000000
22.236093 -0.639978 -4.241499 0.000000 56.000000 14.446556 0.000000
26.644332 -1.546884 -4.000304 0.000000 69.000000 14.904108 11.000000
23.497424 0.287658 -5.561109 0.000000 63.000000 14.464094 0.000000
22.582476 -2.091338 -3.341762 0.000000 62.000000 15.055287 17.000000
23.962354 -1.771845 -3.738348 0.000000 79.000000 15.000398 19.000000
25.953727 -1.499222 -3.969692 0.000000 35.000000 14.866718 12.000000
24.205157 -0.876325 -3.924057 0.000000 50.000000 14.390099 0.000000
25.856166 -1.702379 -2.995048 0.000000 46.000000 14.445779 0.000000
21.619105 -0.893323 -4.357432 0.000000 72.000000 14.735631 3.000000
21.729110 -1.964946 -2.883824 0.000000 58.000000 14.702635 17.000000
23.571619 -1.648892 -4.010681 0.000000 69.000000 15.076701 19.000000
26.386692 -0.683349 -4.347820 0.000000 43.000000 14.430447 0.000000
26.418516 -0.584412 -4.488847 0.000000 57.000000 14.435325 0.000000
24.104131 -0.272858 -5.048684 0.000000 39.000000 14.586967 9.000000
23.948918 0.743309 -6.040948 0.000000 27.000000 14.376152 0.000000
23.558980 0.942785 -6.342846 0.000000 25.000000 14.409089 0.000000
24.437594 0.286805 -5.591984 0.000000 47.000000 14.457363 0.000000
22.307983 -0.234072 -4.969206 0.000000 50.000000 14.557832 2.000000
25.576428 -1.544959 -3.642148 0.000000 61.000000 14.716772 12.000000
26.931404 -2.010189 -3.508849 0.000000 58.000000 14.970776 15.000000
26.640107 0.579762 -6.067594 0.000000 41.000000 14.448446 0.000000
23.455536 1.003228 -6.375714 0.000000 24.000000 14.383431 0.000000
26.117075 -0.271510 -4.906259 0.000000 53.000000 14.444666 0.000000
26.781395 1.069051 -6.460787 0.000000 40.000000 14.290122 0.000000
26.752929 1.154482 -6.610776 0.000000 29.000000 14.312841 0.000000
24.282677 0.181716 -5.298552 0.000000 46.000000 14.369183 0.000000
23.180048 1.376302 -6.926930 0.000000 43.000000 14.424431 0.000000
25.502190 0.030996 -5.043229 0.000000 52.000000 14.302386 0.000000
26.615838 1.499615 -7.204676 0.000000 41.000000 14.397992 0.000000
26.542701 1.547319 -7.358822 0.000000 65.000000 14.454574 0.000000
21.010563 -1.347338 -3.236988 0.000000 41.000000 14.441517 0.000000
23.823871 0.214620 -5.376120 0.000000 27.000000 14.402207 0.000000
24.420695 -1.561220 -4.038747 0.000000 66.000000 15.000096 19.000000
26.364797 -1.591540 -3.397660 0.000000 50.000000 14.585227 15.000000
24.899174 1.454737 -7.073607 0.000000 29.000000 14.402468 0.000000
24.664014 -1.606014 -2.835671 0.000000 36.000000 14.305942 0.000000
24.597129 -1.584691 -2.997589 0.000000 49.000000 14.388093 0.000000
24.581798 -1.500870 -3.130542 0.000000 39.000000 14.401493 0.000000
27.150742 0.147391 -5.459316 0.000000 32.000000 14.414007 0.000000
25.952784 0.524706 -5.938986 0.000000 38.000000 14.434095 0.000000
21.655686 -1.548894 -3.533278 0.000000 56.000000 14.762781 20.000000
25.365659 -1.813867 -3.033568 0.000000 50.000000 14.571527 14.000000
25.224570 0.062379 -5.004911 0.000000 41.000000 14.261957 0.000000
25.623366 -1.813236 -3.027604 0.000000 56.000000 14.560319 14.000000
25.099231 -0.443563 -4.581393 0.000000 24.000000 14.414911 0.000000
23.118000 -0.464202 -4.469429 0.000000 56.000000 14.418821 0.000000
25.800609 -0.460160 -4.583124 0.000000 46.000000 14.409831 0.000000
26.010476 1.571295 -7.373997 0.000000 46.000000 14.459251 0.000000
21.369076 0.789438 -5.946941 0.000000 23.000000 14.354069 0.000000
21.921236 1.329782 -7.194386 0.000000 39.000000 14.657137 26.000000
27.145123 -0.560557 -5.198222 0.000000 57.000000 14.822628 4.000000
24.292894 -0.811608 -3.935102 0.000000 21.000000 14.342627 0.000000
25.786602 0.093994 -5.054918 0.000000 45.000000 14.251242 0.000000
24.892489 0.233836 -5.263685 0.000000 27.000000 14.289750 0.000000
25.537323 -1.435074 -3.711879 0.000000 46.000000 14.672008 12.000000
24.231160 0.128599 -5.108319 0.000000 54.000000 14.298674 0.000000
23.843400 -1.463071 -3.177930 0.000000 46.000000 14.420189 0.000000
25.979104 0.584637 -5.977416 0.000000 58.000000 14.408604 0.000000
24.517501 1.595569 -7.278110 0.000000 30.000000 14.423467 0.000000
26.077115 1.438916 -7.085566 0.000000 40.000000 14.389752 0.000000
25.374283 0.551590 -5.857134 0.000000 43.000000 14.379401 0.000000
23.953163 0.411871 -5.620180 0.000000 34.000000 14.387808 0.000000
24.288734 -0.336642 -4.758362 0.000000 57.000000 14.458288 0.000000
23.042569 -0.360366 -4.624225 0.000000 49.000000 14.431028 0.000000
22.201754 -0.689679 -4.151936 0.000000 57.000000 14.433360 0.000000
26.041375 -1.762796 -3.404037 0.000000 65.000000 14.734772 14.000000
21.972909 0.090416 -4.922588 0.000000 39.000000 14.279906 0.000000
24.491578 -1.553888 -3.969716 0.000000 64.000000 14.950784 19.000000
24.030812 0.907111 -6.825462 0.000000 44.000000 14.714663 23.000000
21.311331 -1.609709 -2.891024 0.000000 26.000000 14.434786 0.000000
26.079442 0.198259 -5.443001 0.000000 55.000000 14.393168 0.000000
25.472910 0.724169 -6.228103 0.000000 29.000000 14.461843 0.000000
23.507761 0.876591 -6.333881 0.000000 38.000000 14.457983 0.000000
25.841872 -1.818377 -3.514022 0.000000 58.000000 14.850790 14.000000
24.852491 -1.576116 -3.103067 0.000000 26.000000 14.437597 0.000000
24.105607 -1.695869 -3.903389 0.000000 75.000000 15.034972 19.000000
25.917630 -1.539220 -3.874037 0.000000 36.000000 14.842158 12.000000
21.447459 1.036495 -6.277549 0.000000 43.000000 14.353325 0.000000
25.810189 0.726214 -6.105674 0.000000 30.000000 14.377297 0.000000
22.619881 0.196627 -5.280682 0.000000 41.000000 14.392467 0.000000
22.435391 0.396544 -5.559804 0.000000 42.000000 14.405685 0.000000
24.547176 1.958800 -7.523780 0.000000 27.000000 14.280225 0.000000
25.447951 -0.110491 -4.973617 0.000000 45.000000 14.375041 0.000000
22.627129 -2.052867 -3.378860 0.000000 66.000000 15.045628 17.000000
21.834005 -1.718823 -3.722751 0.000000 65.000000 15.007471 20.000000
23.541624 -2.070046 -3.154325 0.000000 67.000000 14.899110 16.000000
24.087188 1.988613 -7.677464 0.000000 36.000000 14.361506 0.000000
26.168670 -1.800946 -3.162601 0.000000 56.000000 14.616590 14.000000
24.036429 -0.443491 -4.908031 0.000000 68.000000 14.640567 9.000000
20.935824 1.146114 -6.499276 0.000000 22.000000 14.413197 0.000000
24.162409 0.084109 -5.454560 0.000000 63.000000 14.544243 27.000000
22.280695 1.749849 -7.297204 0.000000 40.000000 14.373518 0.000000
25.376300 -0.788123 -3.877409 0.000000 36.000000 14.259260 0.000000
25.512898 -0.424938 -4.681913 0.000000 67.000000 14.449034 0.000000
21.262045 -1.672286 -3.564898 0.000000 57.000000 14.891213 20.000000
22.703422 0.190740 -5.229978 0.000000 30.000000 14.364381 0.000000
25.894392 -0.441839 -4.594142 0.000000 50.000000 14.399232 0.000000
27.106663 -0.597915 -4.451722 0.000000 65.000000 14.404783 0.000000
21.131162 1.409421 -7.322327 0.000000 39.000000 14.692267 26.000000
26.015237 1.480641 -7.141936 0.000000 39.000000 14.392023 0.000000
26.678974 -1.847087 -3.539590 0.000000 66.000000 14.865964 15.000000
27.069850 -0.740935 -4.115473 0.000000 54.000000 14.317895 0.000000
26.870317 -0.861428 -4.014754 0.000000 57.000000 14.359096 0.000000
24.798567 0.230351 -5.316550 0.000000 22.000000 14.326907 0.000000
26.512516 -1.297783 -3.480262 0.000000 43.000000 14.396185 0.000000
25.074879 -1.414814 -3.263861 0.000000 44.000000 14.399284 0.000000
24.480286 0.668924 -6.015928 0.000000 46.000000 14.405842 0.000000
26.151727 -1.451996 -3.875140 0.000000 55.000000 14.766692 12.000000
21.548039 -0.953510 -4.390159 0.000000 70.000000 14.805337 3.000000
25.916787 -1.415347 -4.049483 0.000000 51.000000 14.848714 12.000000
22.618690 -0.598086 -4.274288 0.000000 61.000000 14.422239 0.000000
26.828428 0.861141 -6.263777 0.000000 41.000000 14.336446 0.000000
21.751199 0.140668 -5.043368 0.000000 37.000000 14.318501 0.000000
24.493714 -1.453266 -3.190910 0.000000 41.000000 14.402196 0.000000
24.413681 -1.375047 -3.306466 0.000000 44.000000 14.411400 0.000000
21.010789 -1.684973 -3.331081 0.000000 81.000000 14.767732 18.000000
22.958984 -1.271535 -3.417745 0.000000 42.000000 14.435808 0.000000
24.001627 -0.780036 -3.922176 0.000000 45.000000 14.317688 0.000000
26.100847 -1.298810 -3.878946 0.000000 62.000000 14.648039 12.000000
22.638773 -0.761055 -3.888008 0.000000 39.000000 14.319638 0.000000
21.908755 -2.389778 -3.172584 0.000000 3.000000 15.210556 17.000000
24.760141 -1.393680 -3.288003 0.000000 32.000000 14.405612 0.000000
26.762375 1.868905 -7.620295 0.000000 28.000000 14.348844 0.000000
23.573944 -0.544919 -4.366020 0.000000 45.000000 14.408530 0.000000
23.467982 -0.481167 -4.471351 0.000000 45.000000 14.423858 0.000000
26.552179 0.117485 -5.184776 0.000000 46.000000 14.289392 0.000000
22.082418 -0.397460 -4.497272 0.000000 46.000000 14.410862 0.000000
22.770252 -0.578325 -4.316946 0.000000 47.000000 14.427913 0.000000
26.263689 -0.584919 -4.875217 0.000000 40.000000 14.672267 30.000000
22.024998 -0.402806 -4.513002 0.000000 42.000000 14.426174 0.000000
21.092574 -1.293481 -3.532665 0.000000 78.000000 14.573978 20.000000
26.595991 -0.713176 -4.199096 0.000000 37.000000 14.359084 0.000000
23.069931 -0.173407 -4.853646 0.000000 41.000000 14.418865 0.000000
24.908490 0.585015 -5.888637 0.000000 53.000000 14.384510 0.000000
22.454775 1.713722 -7.318813 0.000000 43.000000 14.410553 0.000000
23.856860 1.048295 -6.371253 0.000000 33.000000 14.333669 0.000000
22.271000 1.527364 -7.139759 0.000000 47.000000 14.456833 0.000000
21.187315 0.672023 -5.866992 0.000000 49.000000 14.404807 0.000000
21.512568 0.183728 -4.998818 0.000000 32.000000 14.263921 0.000000
22.523253 0.171088 -5.300897 0.000000 40.000000 14.427686 0.000000
21.347489 0.155074 -5.114087 0.000000 38.000000 14.360658 0.000000
22.413551 0.244701 -5.383478 0.000000 43.000000 14.421566 0.000000
23.537081 0.980351 -6.386012 0.000000 21.000000 14.405640 0.000000
22.697343 -1.862134 -3.261121 0.000000 75.000000 14.820579 17.000000
21.074588 0.192993 -5.304798 0.000000 43.000000 14.452555 0.000000
25.427306 0.489710 -6.339357 0.000000 74.000000 14.717238 22.000000
22.576155 -1.453362 -4.046069 0.000000 72.000000 14.969309 20.000000
22.073553 0.449589 -5.620250 0.000000 43.000000 14.409651 0.000000
25.770291 -0.395887 -5.075616 0.000000 50.000000 14.655389 10.000000
24.808017 -0.724281 -3.963442 0.000000 38.000000 14.275687 0.000000
23.257836 -1.511322 -3.216461 0.000000 22.000000 14.498065 16.000000
24.190344 -0.344859 -4.686792 0.000000 50.000000 14.424546 0.000000
21.952348 -0.842463 -3.649606 0.000000 32.000000 14.260308 0.000000
24.008659 -1.469712 -3.146877 0.000000 39.000000 14.402261 0.000000
26.367658 0.475896 -5.838182 0.000000 48.000000 14.401020 0.000000
24.452475 1.770023 -7.302076 0.000000 25.000000 14.300339 0.000000
23.319404 0.472038 -5.700539 0.000000 46.000000 14.405569 0.000000
25.955389 -1.431032 -3.922732 0.000000 52.000000 14.783981 12.000000
21.538066 -1.629396 -3.202851 0.000000 39.000000 14.631695 17.000000
25.001679 -1.467684 -3.515436 0.000000 35.000000 14.594762 13.000000
23.451933 -0.129182 -4.954641 0.000000 59.000000 14.433702 0.000000
25.809265 -1.424446 -3.659730 0.000000 59.000000 14.624658 12.000000
26.154562 -0.813416 -3.846027 0.000000 38.000000 14.239096 0.000000
24.759855 1.549611 -7.209233 0.000000 40.000000 14.412073 0.000000
26.198987 1.687101 -7.414592 0.000000 33.000000 14.385955 0.000000
22.243857 1.102382 -6.504600 0.000000 41.000000 14.415190 0.000000
23.477185 0.366446 -5.593103 0.000000 55.000000 14.420960 0.000000
24.605018 1.340117 -6.915556 0.000000 37.000000 14.407129 0.000000
26.764943 0.041027 -5.705663 0.000000 78.000000 14.657702 21.000000
26.923708 0.021382 -5.134854 0.000000 40.000000 14.325874 0.000000
27.059514 -1.517175 -3.894026 0.000000 62.000000 14.805023 11.000000
21.256292 0.417753 -5.549990 0.000000 53.000000 14.415419 0.000000
23.420745 -1.663440 -4.011175 0.000000 68.000000 15.092785 19.000000
21.597752 -0.399237 -4.522104 0.000000 60.000000 14.440598 0.000000
22.067450 0.118924 -4.974709 0.000000 58.000000 14.285857 0.000000
23.654609 -0.508659 -4.399888 0.000000 27.000000 14.397701 0.000000
25.723206 -1.888789 -3.185407 0.000000 59.000000 14.712763 14.000000
22.300363 -1.923176 -3.330613 0.000000 53.000000 14.922072 17.000000
22.540355 -2.185909 -3.374797 0.000000 73.000000 15.151840 17.000000
22.257474 -2.017557 -3.424779 0.000000 68.000000 15.055243 17.000000
25.515645 0.663241 -6.068024 0.000000 44.000000 14.413096 0.000000
24.136945 0.017221 -5.007449 0.000000 57.000000 14.329595 0.000000
25.165129 -1.321890 -3.720012 0.000000 50.000000 14.596782 13.000000
27.055369 -2.065947 -3.463142 0.000000 51.000000 14.984409 15.000000
25.841078 -0.875212 -3.864460 0.000000 41.000000 14.308192 0.000000
21.619013 0.651271 -5.882803 0.000000 45.000000 14.418959 0.000000
25.142027 0.193032 -5.176823 0.000000 28.000000 14.263231 0.000000
23.988669 0.178860 -5.198518 0.000000 57.000000 14.319453 0.000000
24.535086 -1.477248 -3.563991 0.000000 61.000000 14.644478 19.000000
26.804760 -1.263885 -3.544898 0.000000 36.000000 14.399893 0.000000
21.806408 1.896621 -7.469707 0.000000 37.000000 14.373095 0.000000
25.823092 -0.721348 -4.197842 0.000000 30.000000 14.386208 0.000000
25.160942 -0.722681 -4.255231 0.000000 39.000000 14.440064 0.000000
23.808318 -0.227052 -4.821899 0.000000 45.000000 14.422227 0.000000
25.120218 -0.218551 -4.945192 0.000000 49.000000 14.453312 0.000000
23.766606 -0.343116 -4.692146 0.000000 54.000000 14.438078 0.000000
22.307176 -0.692207 -4.200376 0.000000 60.000000 14.461586 0.000000
23.063739 -1.545459 -3.310789 0.000000 42.000000 14.587395 16.000000
23.736522 -0.514412 -4.415021 0.000000 47.000000 14.409130 0.000000
24.391356 -0.319812 -4.793936 0.000000 65.000000 14.463396 0.000000
24.513426 -0.467577 -4.488925 0.000000 46.000000 14.394688 0.000000
25.026171 -0.607946 -4.391169 0.000000 57.000000 14.433867 0.000000
24.214953 0.477990 -5.735464 0.000000 55.000000 14.397070 0.000000
24.074001 -0.565239 -4.378678 0.000000 50.000000 14.418554 0.000000
25.662328 -1.677613 -3.358464 0.000000 65.000000 14.649815 14.000000
25.055064 -0.727385 -4.089675 0.000000 37.000000 14.347224 0.000000
22.296244 -1.916005 -3.482543 0.000000 78.000000 15.007789 17.000000
25.098617 -0.756824 -3.927814 0.000000 45.000000 14.272233 0.000000
21.857055 -1.502030 -3.459995 0.000000 57.000000 14.675737 20.000000
24.951239 -1.474741 -3.194044 0.000000 43.000000 14.408592 0.000000
21.440540 -0.688089 -4.230469 0.000000 45.000000 14.500328 3.000000
22.857429 -0.423959 -4.489569 0.000000 40.000000 14.405986 0.000000
21.580922 1.334109 -6.774561 0.000000 36.000000 14.410713 0.000000
21.536725 -1.559787 -2.938157 0.000000 38.000000 14.417021 0.000000
21.415412 -1.501577 -3.014223 0.000000 39.000000 14.419607 0.000000
26.551305 -1.300142 -3.537422 0.000000 37.000000 14.431358 0.000000
21.747473 1.940451 -7.380897 0.000000 31.000000 14.286331 0.000000
23.834036 -0.787734 -3.917652 0.000000 50.000000 14.325746 0.000000
27.226907 -0.731463 -4.153249 0.000000 63.000000 14.328700 0.000000
22.974533 1.751493 -7.271302 0.000000 33.000000 14.337467 0.000000
26.067366 -1.274846 -3.643561 0.000000 25.000000 14.488328 12.000000
24.264793 1.281801 -6.839629 0.000000 40.000000 14.417461 0.000000
21.576656 1.399339 -6.859698 0.000000 29.000000 14.409911 0.000000
26.993497 -1.855995 -3.087790 0.000000 58.000000 14.592799 15.000000
