43.682215 11.064288 -6.941496 0.000000 41.000000 14.279920 0.000000
42.757682 12.925446 -4.453377 0.000000 51.000000 14.507636 15.000000
41.049158 13.404200 -3.932058 0.000000 71.000000 14.588100 27.000000
46.121965 13.681460 -3.548495 0.000000 75.000000 14.761114 19.000000
45.079215 11.637515 -5.985276 0.000000 47.000000 14.296255 0.000000
43.647145 11.766377 -5.857502 0.000000 46.000000 14.297347 0.000000
43.632784 11.850567 -5.723180 0.000000 48.000000 14.296848 0.000000
43.637299 11.909558 -5.575501 0.000000 45.000000 14.268445 0.000000
45.079576 11.844189 -5.532097 0.000000 39.000000 14.230433 0.000000
41.603187 13.959732 -3.566394 0.000000 67.000000 14.879657 26.000000
43.414878 13.030512 -4.579995 0.000000 65.000000 14.682284 15.000000
41.941666 12.575695 -4.719405 0.000000 50.000000 14.330023 0.000000
44.182157 13.531158 -2.980178 0.000000 72.000000 14.277526 0.000000
45.302779 11.645632 -5.947361 0.000000 24.000000 14.289241 0.000000
43.201788 14.673713 -2.212753 0.000000 56.000000 14.809623 14.000000
43.994479 13.748443 -2.768032 0.000000 59.000000 14.343504 0.000000
42.699907 13.709893 -2.740718 0.000000 37.000000 14.260090 0.000000
43.944605 13.806517 -2.627135 0.000000 53.000000 14.316405 0.000000
42.081820 14.278494 -2.965152 0.000000 44.000000 14.843453 7.000000
45.167015 11.818982 -6.480494 0.000000 62.000000 14.715510 1.000000
42.484787 13.500609 -4.191428 0.000000 60.000000 14.847765 27.000000
42.767276 13.160917 -4.089400 0.000000 28.000000 14.513856 11.000000
42.968320 12.498601 -5.101770 0.000000 59.000000 14.496692 3.000000
46.079121 12.512181 -4.502378 0.000000 40.000000 14.276813 0.000000
42.623892 13.744404 -3.488247 0.000000 50.000000 14.684410 26.000000
42.236161 14.201795 -2.060751 0.000000 47.000000 14.302247 0.000000
43.196785 11.794300 -6.155107 0.000000 48.000000 14.466518 18.000000
43.388351 14.347801 -1.777907 0.000000 62.000000 14.307838 0.000000
44.307913 13.633093 -2.767452 0.000000 56.000000 14.254312 0.000000
45.026920 14.322573 -2.132394 0.000000 84.000000 14.520746 13.000000
40.584933 13.899310 -2.831744 0.000000 60.000000 14.409592 7.000000
44.218409 12.478728 -4.868474 0.000000 56.000000 14.390910 20.000000
42.211454 14.215076 -2.541974 0.000000 56.000000 14.568518 7.000000
42.991580 13.513986 -2.845023 0.000000 33.000000 14.157819 0.000000
43.663310 13.489228 -2.828657 0.000000 20.000000 14.146976 0.000000
41.030577 12.666868 -5.190866 0.000000 58.000000 14.632226 21.000000
42.083363 13.546829 -3.941023 0.000000 73.000000 14.742591 27.000000
43.688099 13.715020 -3.377562 0.000000 59.000000 14.630523 26.000000
40.607696 13.638294 -3.055592 0.000000 40.000000 14.308187 0.000000
44.380326 13.542076 -3.120267 0.000000 55.000000 14.366763 0.000000
46.330244 13.427857 -4.000031 0.000000 76.000000 14.792173 24.000000
44.850664 13.523794 -2.935259 0.000000 58.000000 14.266147 0.000000
45.385641 13.374195 -3.176848 0.000000 23.000000 14.282850 0.000000
41.872178 12.783601 -4.959898 0.000000 56.000000 14.631899 22.000000
45.349315 13.488057 -2.724750 0.000000 40.000000 14.137994 0.000000
43.598027 13.646288 -3.136523 0.000000 42.000000 14.441722 26.000000
45.576862 13.497159 -2.634124 0.000000 42.000000 14.103917 0.000000
45.488955 13.631708 -3.911891 0.000000 70.000000 14.894365 25.000000
45.606983 13.703896 -2.680947 0.000000 52.000000 14.304678 0.000000
45.718521 11.227464 -6.519528 0.000000 42.000000 14.250883 0.000000
43.000645 12.951672 -4.770523 0.000000 61.000000 14.705174 15.000000
44.251533 12.475103 -5.376149 0.000000 56.000000 14.658542 29.000000
44.479818 13.485578 -3.760552 0.000000 46.000000 14.661956 17.000000
46.175450 11.612473 -5.957446 0.000000 33.000000 14.290970 0.000000
41.997709 14.371782 -2.780597 0.000000 84.000000 14.822010 7.000000
45.936566 14.093062 -1.947991 0.000000 44.000000 14.253917 0.000000
43.433817 14.289864 -1.627232 0.000000 48.000000 14.179991 0.000000
42.132663 14.253840 -1.998154 0.000000 49.000000 14.310150 0.000000
42.214894 14.162403 -2.104443 0.000000 44.000000 14.291518 0.000000
46.193710 13.318635 -4.304403 0.000000 45.000000 14.857615 24.000000
43.643822 14.057602 -2.182092 0.000000 61.000000 14.284073 0.000000
40.774989 13.478826 -3.261714 0.000000 42.000000 14.287389 0.000000
41.204722 12.067781 -6.100286 0.000000 56.000000 14.613136 8.000000
44.542907 14.637609 -2.095791 0.000000 59.000000 14.754468 13.000000
43.122779 13.767418 -3.313442 0.000000 67.000000 14.624979 26.000000
42.588167 13.787423 -2.691138 0.000000 42.000000 14.296255 0.000000
46.032565 12.477215 -4.966813 0.000000 51.000000 14.492700 2.000000
46.033016 12.848419 -3.880550 0.000000 28.000000 14.229768 0.000000
44.076093 13.645149 -2.767015 0.000000 57.000000 14.257795 0.000000
42.837330 13.538250 -2.856298 0.000000 44.000000 14.180034 0.000000
43.642220 13.471898 -3.967382 0.000000 51.000000 14.736820 11.000000
44.214605 13.536707 -3.039998 0.000000 50.000000 14.314921 0.000000
43.461733 13.526742 -3.901294 0.000000 69.000000 14.743080 11.000000
41.153786 14.174754 -2.705189 0.000000 39.000000 14.591484 7.000000
45.852692 12.407969 -4.656347 0.000000 46.000000 14.264055 0.000000
43.858092 13.714128 -3.482485 0.000000 64.000000 14.690284 26.000000
40.847975 13.441284 -4.013539 0.000000 70.000000 14.657161 27.000000
41.883544 13.931829 -3.530507 0.000000 63.000000 14.844815 26.000000
45.613435 13.441518 -3.064671 0.000000 46.000000 14.286620 0.000000
45.756695 13.489412 -2.939337 0.000000 35.000000 14.264582 0.000000
40.635854 13.148734 -4.007881 0.000000 35.000000 14.400521 27.000000
44.304394 11.773736 -6.312313 0.000000 44.000000 14.563670 18.000000
45.956256 12.334540 -4.978825 0.000000 51.000000 14.376148 2.000000
45.435539 13.010645 -4.368298 0.000000 59.000000 14.609568 24.000000
43.023451 12.986890 -4.499263 0.000000 39.000000 14.591486 15.000000
45.006258 13.131413 -4.511674 0.000000 72.000000 14.775982 20.000000
41.871780 11.932654 -6.784467 0.000000 49.000000 14.880980 23.000000
45.626950 13.105438 -4.756341 0.000000 53.000000 14.901390 24.000000
41.188724 14.190537 -2.681929 0.000000 70.000000 14.593465 7.000000
44.676929 11.979198 -6.018205 0.000000 37.000000 14.591776 30.000000
40.700532 12.949094 -4.593041 0.000000 39.000000 14.544253 22.000000
41.674766 13.627946 -4.323559 0.000000 52.000000 15.003101 27.000000
43.241612 11.842618 -6.717767 0.000000 57.000000 14.807675 18.000000
43.642603 11.775648 -6.202675 0.000000 59.000000 14.488491 18.000000
42.941370 13.213736 -3.636766 0.000000 39.000000 14.322927 0.000000
40.719935 12.816680 -5.146366 0.000000 57.000000 14.726718 21.000000
41.190563 12.105489 -5.823973 0.000000 27.000000 14.497835 21.000000
40.464414 11.644731 -6.224919 0.000000 40.000000 14.300447 0.000000
43.779246 12.973433 -4.544232 0.000000 55.000000 14.625159 15.000000
40.355747 13.369980 -4.100959 0.000000 63.000000 14.629457 10.000000
40.789684 12.702054 -4.372667 0.000000 45.000000 14.220486 0.000000
41.588251 12.222240 -5.488144 0.000000 56.000000 14.429367 8.000000
40.844116 14.302915 -3.125107 0.000000 48.000000 14.914460 7.000000
41.780881 13.665884 -3.690789 0.000000 75.000000 14.701946 26.000000
43.069688 13.053201 -4.797766 0.000000 79.000000 14.807546 15.000000
45.080921 12.067706 -5.378962 0.000000 46.000000 14.338340 0.000000
45.357645 11.571183 -6.075690 0.000000 42.000000 14.295938 0.000000
45.287870 11.651939 -5.934762 0.000000 54.000000 14.287469 0.000000
45.329306 11.626188 -6.625987 0.000000 46.000000 14.634138 1.000000
45.363362 13.529551 -3.530914 0.000000 63.000000 14.601907 25.000000
43.553610 13.617455 -2.753971 0.000000 38.000000 14.212781 0.000000
44.700836 13.926422 -3.519881 0.000000 62.000000 14.913503 4.000000
41.303482 14.705857 -2.355981 0.000000 46.000000 14.859777 6.000000
41.449543 13.970474 -3.569507 0.000000 63.000000 14.886102 26.000000
44.935198 12.487761 -4.989414 0.000000 45.000000 14.482902 29.000000
45.984216 14.460445 -1.922195 0.000000 77.000000 14.552593 16.000000
41.072849 14.237464 -2.679175 0.000000 55.000000 14.628488 7.000000
40.925865 12.704615 -4.981888 0.000000 59.000000 14.550203 22.000000
45.454827 13.252938 -3.396120 0.000000 42.000000 14.298643 0.000000
42.357217 13.269132 -4.442725 0.000000 54.000000 14.781745 27.000000
46.169205 11.491808 -6.174297 0.000000 31.000000 14.303865 0.000000
42.490872 13.639096 -4.115099 0.000000 47.000000 14.924627 27.000000
44.178104 14.012471 -2.152206 0.000000 50.000000 14.244946 0.000000
42.751913 13.561288 -2.817852 0.000000 33.000000 14.176717 0.000000
46.060509 12.590681 -4.902763 0.000000 63.000000 14.555515 2.000000
42.591128 13.675728 -2.754908 0.000000 36.000000 14.235657 0.000000
44.366947 13.191482 -4.834026 0.000000 60.000000 14.980229 20.000000
44.629299 12.968996 -4.059649 0.000000 55.000000 14.387709 20.000000
42.034189 14.024781 -2.948127 0.000000 57.000000 14.618263 7.000000
41.944647 14.026099 -2.327179 0.000000 38.000000 14.286904 0.000000
41.309342 13.840537 -3.740398 0.000000 74.000000 14.862972 26.000000
42.674502 14.306078 -1.980111 0.000000 61.000000 14.359967 0.000000
41.701808 12.282841 -6.027482 0.000000 62.000000 14.770455 8.000000
40.777572 13.424359 -4.298776 0.000000 75.000000 14.792431 27.000000
44.108444 13.183726 -4.197801 0.000000 71.000000 14.628337 11.000000
46.273534 13.456664 -3.488631 0.000000 73.000000 14.543221 19.000000
44.164990 13.346877 -3.902094 0.000000 43.000000 14.610919 11.000000
45.113258 12.279871 -5.296149 0.000000 47.000000 14.474872 29.000000
40.862359 12.691294 -4.368172 0.000000 43.000000 14.211023 0.000000
43.741502 13.472541 -2.875700 0.000000 41.000000 14.160036 0.000000
45.513276 13.630685 -3.695402 0.000000 61.000000 14.779140 25.000000
44.379957 13.510717 -3.138259 0.000000 57.000000 14.349762 0.000000
45.238659 14.551150 -2.141315 0.000000 63.000000 14.724945 13.000000
44.763678 13.548252 -2.888493 0.000000 60.000000 14.259567 0.000000
44.886258 14.512859 -2.006907 0.000000 66.000000 14.611231 13.000000
41.437784 14.439831 -2.030488 0.000000 55.000000 14.465340 6.000000
44.486385 11.248752 -6.503213 0.000000 27.000000 14.225725 0.000000
45.138787 13.597369 -2.634647 0.000000 52.000000 14.176768 0.000000
42.216092 14.263295 -1.867211 0.000000 56.000000 14.250910 0.000000
45.232613 14.455695 -1.722732 0.000000 41.000000 14.421527 13.000000
45.886495 12.375981 -4.839250 0.000000 37.000000 14.335112 0.000000
43.802964 13.002057 -4.618431 0.000000 39.000000 14.689487 15.000000
45.822124 14.002393 -2.144840 0.000000 47.000000 14.278548 0.000000
42.564297 13.771351 -3.576675 0.000000 80.000000 14.752545 26.000000
43.951849 14.233556 -2.024442 0.000000 34.000000 14.357901 0.000000
43.077536 12.297283 -5.646143 0.000000 44.000000 14.618577 3.000000
42.230662 13.926099 -3.591093 0.000000 62.000000 14.881881 26.000000
45.074037 14.246980 -1.532926 0.000000 33.000000 14.139512 0.000000
46.373658 13.735087 -3.548532 0.000000 52.000000 14.813588 19.000000
42.642007 14.326735 -1.878616 0.000000 65.000000 14.322613 0.000000
45.428002 13.393753 -4.171454 0.000000 72.000000 14.829120 25.000000
41.765229 14.290514 -2.844974 0.000000 77.000000 14.780901 7.000000
43.648177 13.445832 -3.840454 0.000000 56.000000 14.647470 11.000000
44.127496 12.858531 -4.713240 0.000000 46.000000 14.627439 20.000000
42.231670 11.948654 -6.455101 0.000000 65.000000 14.729586 23.000000
42.539265 13.061620 -4.752945 0.000000 78.000000 14.776000 15.000000
42.427876 13.748122 -2.744753 0.000000 40.000000 14.286981 0.000000
43.840873 13.696786 -2.687221 0.000000 51.000000 14.252523 0.000000
40.254075 13.078046 -4.383676 0.000000 63.000000 14.529672 10.000000
44.998633 13.278151 -3.817753 0.000000 41.000000 14.531263 17.000000
42.778343 13.528459 -2.853625 0.000000 42.000000 14.168671 0.000000
40.852953 13.384743 -3.958829 0.000000 63.000000 14.580357 27.000000
44.233915 13.549461 -2.989397 0.000000 73.000000 14.299371 0.000000
44.675023 13.293648 -4.178185 0.000000 44.000000 14.726850 17.000000
44.425730 14.703054 -2.101313 0.000000 77.000000 14.809530 13.000000
43.462328 13.184175 -4.837671 0.000000 50.000000 14.950640 15.000000
46.190752 12.412068 -4.621663 0.000000 44.000000 14.258564 0.000000
41.944895 12.423272 -5.720164 0.000000 69.000000 14.732856 8.000000
46.018750 14.203206 -1.935764 0.000000 55.000000 14.342976 0.000000
46.310807 14.120702 -3.731004 0.000000 3.000000 15.235277 19.000000
44.942355 13.447117 -3.776653 0.000000 66.000000 14.650904 17.000000
41.530380 14.203645 -2.130127 0.000000 72.000000 14.320910 0.000000
40.845931 13.528244 -4.145482 0.000000 76.000000 14.800842 27.000000
44.091188 13.921430 -2.397177 0.000000 51.000000 14.295606 0.000000
45.006081 12.924516 -4.898855 0.000000 44.000000 14.806549 20.000000
43.729236 13.675833 -2.671318 0.000000 43.000000 14.223205 0.000000
44.793054 14.414703 -1.750937 0.000000 42.000000 14.389496 13.000000
40.518971 13.117574 -5.101407 0.000000 64.000000 14.951955 21.000000
44.691551 13.248374 -4.165776 0.000000 61.000000 14.682387 17.000000
43.679715 13.748679 -2.619240 0.000000 25.000000 14.255821 0.000000
45.955175 14.145909 -2.527140 0.000000 65.000000 14.606936 19.000000
45.876996 12.393787 -4.694981 0.000000 37.000000 14.273258 0.000000
43.317771 13.335003 -3.839733 0.000000 51.000000 14.543997 11.000000
43.375043 13.424429 -4.199437 0.000000 67.000000 14.812458 11.000000
41.046477 13.266176 -4.780486 0.000000 39.000000 14.922011 22.000000
43.383467 13.915596 -2.623584 0.000000 61.000000 14.391154 28.000000
42.545751 12.244445 -5.175962 0.000000 51.000000 14.309096 0.000000
44.493288 13.479928 -4.051380 0.000000 71.000000 14.812093 17.000000
40.360411 12.840422 -5.720665 0.000000 59.000000 15.041927 21.000000
44.294409 12.570733 -4.758859 0.000000 65.000000 14.412688 20.000000
40.531723 13.433192 -3.170872 0.000000 37.000000 14.193666 0.000000
42.207785 13.472889 -3.622896 0.000000 57.000000 14.514424 26.000000
45.009832 14.080706 -2.749534 0.000000 68.000000 14.643430 5.000000
45.654487 11.299524 -6.438790 0.000000 42.000000 14.267197 0.000000
45.399398 13.167767 -4.123715 0.000000 47.000000 14.611616 25.000000
40.534739 11.565910 -6.404195 0.000000 49.000000 14.330948 0.000000
42.147259 13.409685 -3.714190 0.000000 55.000000 14.507728 27.000000
44.928838 14.513867 -1.975358 0.000000 71.000000 14.596512 13.000000
43.592050 13.295558 -4.295986 0.000000 53.000000 14.760731 11.000000
43.706941 11.846666 -6.534687 0.000000 72.000000 14.726850 18.000000
45.046079 13.119614 -4.222994 0.000000 74.000000 14.613706 20.000000
46.438134 11.907229 -5.537315 0.000000 37.000000 14.324633 0.000000
43.709913 13.876358 -2.512072 0.000000 44.000000 14.307820 0.000000
45.136044 13.554673 -2.724883 0.000000 22.000000 14.188492 0.000000
46.233065 11.604523 -5.950601 0.000000 36.000000 14.282215 0.000000
43.111086 13.964178 -2.580750 0.000000 51.000000 14.401896 12.000000
41.180112 13.537445 -4.479809 0.000000 51.000000 14.995651 27.000000
45.019121 13.697684 -3.284850 0.000000 62.000000 14.603861 4.000000
46.085093 11.189221 -6.760728 0.000000 23.000000 14.356943 0.000000
43.842689 11.857821 -6.769447 0.000000 57.000000 14.864846 18.000000
41.086863 14.644518 -2.186942 0.000000 84.000000 14.711950 6.000000
44.827439 13.152555 -4.556581 0.000000 44.000000 14.812737 20.000000
42.563690 13.561439 -2.838865 0.000000 39.000000 14.182738 0.000000
40.377408 12.624970 -4.561978 0.000000 23.000000 14.244272 0.000000
45.556861 13.495371 -3.629508 0.000000 41.000000 14.630780 25.000000
43.378015 13.736623 -2.662793 0.000000 45.000000 14.260306 0.000000
44.319799 13.238666 -4.260877 0.000000 71.000000 14.714290 11.000000
44.268310 13.895853 -2.748738 0.000000 42.000000 14.465729 5.000000
41.473114 11.903898 -6.574896 0.000000 70.000000 14.734103 23.000000
41.510865 13.671323 -4.341375 0.000000 45.000000 15.044703 27.000000
41.997275 14.055434 -2.278256 0.000000 46.000000 14.287218 0.000000
42.038264 13.848199 -3.300404 0.000000 73.000000 14.656068 26.000000
41.999399 13.611350 -4.047264 0.000000 67.000000 14.851322 27.000000
41.121593 14.077549 -2.343671 0.000000 47.000000 14.316175 0.000000
46.022622 13.821137 -2.637168 0.000000 20.000000 14.392320 19.000000
44.276757 13.538800 -2.907175 0.000000 32.000000 14.247853 0.000000
44.971402 13.228914 -4.684987 0.000000 61.000000 14.949653 20.000000
46.252003 13.225569 -3.569495 0.000000 29.000000 14.389929 24.000000
41.114170 12.493620 -5.522347 0.000000 46.000000 14.664030 21.000000
40.501287 11.607790 -6.309534 0.000000 43.000000 14.315167 0.000000
40.633498 11.654889 -6.241730 0.000000 43.000000 14.322717 0.000000
46.407421 13.635377 -3.733298 0.000000 75.000000 14.828296 24.000000
44.374602 12.891615 -4.986047 0.000000 77.000000 14.807339 20.000000
40.575697 14.128234 -2.778202 0.000000 49.000000 14.574703 7.000000
41.182715 13.577102 -4.134097 0.000000 90.000000 14.845592 27.000000
45.215645 14.348512 -2.720610 0.000000 51.000000 14.860566 5.000000
40.548304 11.920271 -5.609249 0.000000 39.000000 14.208926 0.000000
42.231488 12.182430 -5.244661 0.000000 51.000000 14.284293 0.000000
45.366554 12.726164 -4.638396 0.000000 36.000000 14.510303 20.000000
45.711444 11.917183 -5.531766 0.000000 40.000000 14.309758 0.000000
44.189297 13.536863 -3.613514 0.000000 50.000000 14.619105 11.000000
42.721654 12.421184 -4.869746 0.000000 49.000000 14.300941 0.000000
44.627479 13.231389 -4.061047 0.000000 74.000000 14.610560 17.000000
46.416509 12.536190 -4.589754 0.000000 39.000000 14.353021 0.000000
41.960783 13.380382 -4.464562 0.000000 58.000000 14.876436 27.000000
41.386732 13.502374 -3.905571 0.000000 67.000000 14.666601 27.000000
44.857080 13.684409 -2.683401 0.000000 57.000000 14.268478 0.000000
40.702138 13.455495 -3.162698 0.000000 33.000000 14.212979 0.000000
42.909864 14.710624 -2.244630 0.000000 67.000000 14.849637 14.000000
40.917873 14.316798 -2.113341 0.000000 49.000000 14.390637 6.000000
41.370793 13.976944 -3.500485 0.000000 67.000000 14.852697 26.000000
44.461380 12.776927 -5.109317 0.000000 41.000000 14.778172 20.000000
41.022879 12.720167 -5.294557 0.000000 54.000000 14.732237 21.000000
46.454271 12.472609 -4.572392 0.000000 36.000000 14.291021 0.000000
40.497871 14.159128 -2.235658 0.000000 47.000000 14.310377 0.000000
41.801372 14.155063 -2.150533 0.000000 51.000000 14.298212 0.000000
41.982626 12.265359 -5.279363 0.000000 39.000000 14.365977 0.000000
46.228094 13.643563 -3.053275 0.000000 77.000000 14.468845 19.000000
42.952338 11.876993 -6.511840 0.000000 52.000000 14.719250 18.000000
45.318234 12.937835 -4.454158 0.000000 36.000000 14.590262 20.000000
42.557210 13.950344 -2.488649 0.000000 65.000000 14.325727 0.000000
41.883115 12.716252 -5.762724 0.000000 64.000000 15.001797 8.000000
42.035053 13.720902 -2.823567 0.000000 43.000000 14.294813 0.000000
43.487390 13.623331 -2.703762 0.000000 51.000000 14.189221 0.000000
45.753754 14.271534 -1.677793 0.000000 23.000000 14.256321 0.000000
42.175172 12.722155 -4.266568 0.000000 39.000000 14.219932 0.000000
42.434515 13.554707 -2.869177 0.000000 35.000000 14.189528 0.000000
41.477136 14.581602 -2.268456 0.000000 75.000000 14.712929 6.000000
43.924407 13.606056 -2.944168 0.000000 69.000000 14.314584 0.000000
44.752609 13.231788 -3.457276 0.000000 42.000000 14.293564 0.000000
40.888172 13.217521 -3.820247 0.000000 53.000000 14.366121 0.000000
42.559477 12.388425 -4.976020 0.000000 50.000000 14.325136 0.000000
46.381238 13.157164 -4.061274 0.000000 78.000000 14.596960 24.000000
41.780877 14.385602 -1.894617 0.000000 57.000000 14.356836 0.000000
40.671246 12.802930 -5.817235 0.000000 57.000000 15.070207 21.000000
43.725375 14.007449 -2.285728 0.000000 55.000000 14.298965 0.000000
43.892343 13.293540 -3.846392 0.000000 55.000000 14.528524 11.000000
43.518753 13.737198 -2.641147 0.000000 43.000000 14.253233 0.000000
43.485806 13.610312 -2.736452 0.000000 48.000000 14.195524 0.000000
43.232841 11.892881 -5.699468 0.000000 48.000000 14.308871 0.000000
43.425788 13.519569 -2.853680 0.000000 47.000000 14.179308 0.000000
40.626964 12.840919 -5.694619 0.000000 61.000000 15.035973 21.000000
44.542062 13.555020 -3.081377 0.000000 58.000000 14.361586 0.000000
46.339637 13.635538 -2.919623 0.000000 50.000000 14.394154 19.000000
42.730470 12.721565 -4.310059 0.000000 53.000000 14.258097 0.000000
42.562486 12.537464 -4.729019 0.000000 43.000000 14.320152 0.000000
44.972416 12.437746 -5.258187 0.000000 57.000000 14.584422 29.000000
42.727580 13.275132 -3.665971 0.000000 41.000000 14.384439 26.000000
45.324633 13.029246 -4.395549 0.000000 54.000000 14.636691 20.000000
43.330460 13.961785 -2.398498 0.000000 35.000000 14.309167 0.000000
40.619305 13.970427 -2.996382 0.000000 63.000000 14.558254 7.000000
44.744740 13.148496 -4.183437 0.000000 67.000000 14.608699 20.000000
43.752614 11.888704 -5.528681 0.000000 41.000000 14.229139 0.000000
45.155844 12.161758 -5.406879 0.000000 38.000000 14.434904 29.000000
41.499217 13.825239 -3.001166 0.000000 53.000000 14.462517 7.000000
42.032904 13.580973 -4.146104 0.000000 76.000000 14.879064 27.000000
45.269603 13.391608 -3.692073 0.000000 73.000000 14.568128 25.000000
41.488089 11.831081 -6.498300 0.000000 55.000000 14.632168 23.000000
40.782329 14.150292 -2.579726 0.000000 57.000000 14.493698 7.000000
41.296415 14.544875 -1.988702 0.000000 56.000000 14.528113 6.000000
44.255583 12.013328 -5.773311 0.000000 78.000000 14.478736 30.000000
46.375019 13.420941 -3.527448 0.000000 48.000000 14.536446 24.000000
45.806828 13.291629 -3.299001 0.000000 44.000000 14.289653 0.000000
45.446801 14.218520 -2.682204 0.000000 60.000000 14.736573 5.000000
41.537567 13.039125 -4.987736 0.000000 69.000000 14.853662 22.000000
46.229278 13.876068 -3.210182 0.000000 67.000000 14.749111 19.000000
42.223233 13.854159 -2.814504 0.000000 66.000000 14.408092 7.000000
42.038687 13.510798 -2.937229 0.000000 34.000000 14.177427 0.000000
44.629630 12.419017 -5.104287 0.000000 42.000000 14.477182 29.000000
44.936462 12.641251 -4.856568 0.000000 53.000000 14.542298 20.000000
42.761196 13.828197 -3.471761 0.000000 70.000000 14.750440 26.000000
41.449193 13.831437 -3.172451 0.000000 58.000000 14.557383 26.000000
44.319057 13.184555 -4.907303 0.000000 73.000000 15.011961 20.000000
44.839111 12.363341 -5.220748 0.000000 46.000000 14.497797 29.000000
41.326873 13.612790 -2.912708 0.000000 64.000000 14.230811 0.000000
42.360018 13.471698 -3.804203 0.000000 50.000000 14.614024 27.000000
41.059085 11.627945 -6.255966 0.000000 39.000000 14.319390 0.000000
45.095687 14.174596 -2.510183 0.000000 65.000000 14.598139 5.000000
44.184237 11.478167 -6.478594 0.000000 37.000000 14.398417 18.000000
40.346715 12.955582 -5.598815 0.000000 69.000000 15.074295 21.000000
41.971831 13.093222 -4.431163 0.000000 60.000000 14.615870 27.000000
42.259162 14.008457 -2.338050 0.000000 40.000000 14.286554 0.000000
46.437216 12.537204 -4.999921 0.000000 48.000000 14.572418 2.000000
46.347535 13.397095 -3.394139 0.000000 56.000000 14.444647 19.000000
41.425553 11.346513 -6.634134 0.000000 36.000000 14.292332 0.000000
46.434033 13.802774 -3.586132 0.000000 45.000000 14.892567 19.000000
43.134275 11.653964 -6.075825 0.000000 45.000000 14.303821 0.000000
43.132153 11.698749 -6.167830 0.000000 45.000000 14.390570 18.000000
43.301778 11.798269 -5.841531 0.000000 49.000000 14.306189 0.000000
43.388236 11.863773 -5.718840 0.000000 55.000000 14.298874 0.000000
43.495798 11.902876 -5.583082 0.000000 43.000000 14.262853 0.000000
42.367373 12.196736 -5.284384 0.000000 52.000000 14.321321 0.000000
44.256490 11.418801 -6.490301 0.000000 30.000000 14.356398 0.000000
42.499997 12.342558 -5.043275 0.000000 59.000000 14.320374 0.000000
46.175893 14.359276 -2.382765 0.000000 61.000000 14.717049 19.000000
45.733640 13.563253 -2.602475 0.000000 29.000000 14.147449 0.000000
44.130659 12.735625 -4.349923 0.000000 41.000000 14.330404 0.000000
45.648433 11.378115 -6.481559 0.000000 33.000000 14.356294 0.000000
44.594426 13.562021 -3.007286 0.000000 59.000000 14.329609 0.000000
41.775049 13.618417 -4.447988 0.000000 40.000000 15.063962 27.000000
45.286200 14.253023 -2.817790 0.000000 53.000000 14.833336 5.000000
44.921780 14.010198 -2.744717 0.000000 48.000000 14.578707 5.000000
43.890291 13.621503 -3.482704 0.000000 62.000000 14.612880 26.000000
42.701137 13.332095 -3.898577 0.000000 58.000000 14.555532 11.000000
44.519725 13.665661 -3.302008 0.000000 70.000000 14.571877 4.000000
43.403996 13.982440 -2.329587 0.000000 45.000000 14.292096 0.000000
42.932959 13.370610 -4.245325 0.000000 55.000000 14.778893 11.000000
46.111381 13.629186 -3.303802 0.000000 76.000000 14.586531 19.000000
40.152963 14.000493 -2.534293 0.000000 47.000000 14.325098 0.000000
41.718395 13.552277 -4.448945 0.000000 48.000000 15.006885 27.000000
40.443811 13.975515 -2.634610 0.000000 54.000000 14.365404 0.000000
42.277492 13.474403 -2.971170 0.000000 51.000000 14.171337 0.000000
42.471971 11.106093 -6.780355 0.000000 29.000000 14.195788 0.000000
41.184375 13.538219 -4.027370 0.000000 69.000000 14.756004 27.000000
45.575013 13.021213 -4.303767 0.000000 63.000000 14.588131 24.000000
41.019059 12.679381 -5.135419 0.000000 53.000000 14.613034 21.000000
44.604649 13.500998 -3.794198 0.000000 63.000000 14.696387 17.000000
46.495992 13.186383 -4.430320 0.000000 44.000000 14.821021 24.000000
41.675721 11.918876 -6.531517 0.000000 62.000000 14.729408 23.000000
41.462161 13.489593 -2.966189 0.000000 44.000000 14.158713 0.000000
41.748582 13.732971 -4.446509 0.000000 42.000000 15.159424 27.000000
41.145065 13.663164 -4.243084 0.000000 55.000000 14.975318 27.000000
43.159834 13.485213 -2.945365 0.000000 53.000000 14.191492 0.000000
44.041881 13.525126 -3.097050 0.000000 51.000000 14.330595 0.000000
44.252401 13.503362 -3.100176 0.000000 43.000000 14.319726 0.000000
44.362364 12.597861 -5.194423 0.000000 71.000000 14.669014 29.000000
45.771494 13.412846 -3.105757 0.000000 46.000000 14.288605 0.000000
42.413897 13.680015 -4.271534 0.000000 69.000000 15.040243 27.000000
46.016949 11.627332 -5.948080 0.000000 40.000000 14.294134 0.000000
44.311730 12.869523 -4.912089 0.000000 55.000000 14.747573 20.000000
46.116073 13.063909 -4.303262 0.000000 78.000000 14.639167 24.000000
43.439035 14.344461 -1.687091 0.000000 60.000000 14.258171 0.000000
40.406352 12.959774 -5.300891 0.000000 60.000000 14.921200 21.000000
43.329402 14.031583 -2.250429 0.000000 44.000000 14.289550 0.000000
44.114440 13.483701 -2.987490 0.000000 41.000000 14.239335 0.000000
44.214188 11.758653 -6.212663 0.000000 54.000000 14.495420 18.000000
46.389541 14.141120 -3.064998 0.000000 76.000000 14.900860 19.000000
43.270688 13.773681 -2.677918 0.000000 31.000000 14.296713 0.000000
45.413250 13.449415 -2.882373 0.000000 31.000000 14.190827 0.000000
44.611952 13.680321 -2.792261 0.000000 60.000000 14.315998 0.000000
46.243629 13.961105 -2.791949 0.000000 55.000000 14.599266 19.000000
45.618870 14.209306 -2.012595 0.000000 35.000000 14.377767 13.000000
44.605823 13.251707 -3.479696 0.000000 43.000000 14.318231 0.000000
40.769573 12.821371 -5.090590 0.000000 44.000000 14.702442 21.000000
45.029900 11.881893 -5.511623 0.000000 40.000000 14.250085 0.000000
41.229727 12.942831 -4.973992 0.000000 70.000000 14.756207 22.000000
45.394209 13.590984 -3.749960 0.000000 47.000000 14.771183 25.000000
42.546403 13.923331 -2.462187 0.000000 47.000000 14.288491 0.000000
44.275371 14.463050 -2.106664 0.000000 70.000000 14.604959 13.000000
41.525224 11.112426 -7.014372 0.000000 28.000000 14.298985 0.000000
43.758698 11.685919 -6.015077 0.000000 41.000000 14.316085 0.000000
40.875449 12.685669 -5.563910 0.000000 69.000000 14.842031 21.000000
43.177417 13.832187 -2.718890 0.000000 26.000000 14.365408 0.000000
44.010141 11.976425 -5.284436 0.000000 24.000000 14.180833 0.000000
46.008697 13.427649 -3.113066 0.000000 51.000000 14.311666 0.000000
46.383751 13.924041 -3.194959 0.000000 70.000000 14.785965 19.000000
45.286200 12.004120 -5.244018 0.000000 37.000000 14.218546 0.000000
42.066701 13.269677 -3.909377 0.000000 49.000000 14.490653 27.000000
41.946006 12.373513 -5.630809 0.000000 61.000000 14.643276 8.000000
43.515770 13.531540 -3.616768 0.000000 70.000000 14.597462 26.000000
45.926294 12.521552 -4.505495 0.000000 35.000000 14.282122 0.000000
41.556688 14.292984 -1.755069 0.000000 40.000000 14.197985 0.000000
45.556167 11.330495 -6.407545 0.000000 39.000000 14.274061 0.000000
40.899665 13.400615 -3.481411 0.000000 54.000000 14.341407 0.000000
40.730805 13.388327 -3.515241 0.000000 54.000000 14.344251 0.000000
46.166523 14.271556 -1.495235 0.000000 35.000000 14.170892 0.000000
41.180157 13.265854 -3.643765 0.000000 46.000000 14.321440 0.000000
41.522352 11.118255 -7.113965 0.000000 33.000000 14.356763 0.000000
40.837909 13.239643 -3.736703 0.000000 61.000000 14.339049 0.000000
41.633220 13.598755 -4.081081 0.000000 65.000000 14.848372 27.000000
40.520766 13.193349 -3.821558 0.000000 58.000000 14.336061 0.000000
44.136084 13.404679 -3.811923 0.000000 56.000000 14.611132 11.000000
41.911352 11.981040 -6.387851 0.000000 74.000000 14.712297 23.000000
44.639527 11.204443 -6.729065 0.000000 53.000000 14.312516 0.000000
44.720135 11.228857 -6.569807 0.000000 53.000000 14.250815 0.000000
44.791061 11.264006 -6.410737 0.000000 37.000000 14.198033 0.000000
44.738284 11.448132 -6.312170 0.000000 46.000000 14.300070 0.000000
41.571175 13.117848 -4.680467 0.000000 65.000000 14.757975 22.000000
41.612329 12.154902 -6.178014 0.000000 47.000000 14.739619 8.000000
41.251341 14.246588 -3.016673 0.000000 58.000000 14.820555 7.000000
41.236681 13.847006 -3.619846 0.000000 70.000000 14.802353 26.000000
44.593233 14.497419 -1.962097 0.000000 76.000000 14.566140 13.000000
41.767435 14.022109 -2.834361 0.000000 62.000000 14.548074 7.000000
44.649958 13.337249 -3.437931 0.000000 54.000000 14.369699 0.000000
43.950248 13.461814 -4.113604 0.000000 67.000000 14.814611 11.000000
43.265842 13.545839 -2.981759 0.000000 57.000000 14.265130 0.000000
44.615358 13.574970 -2.825935 0.000000 59.000000 14.244791 0.000000
44.483669 14.224428 -1.652456 0.000000 37.000000 14.167399 0.000000
41.435203 14.323445 -2.717828 0.000000 74.000000 14.731974 7.000000
43.716393 12.416799 -4.855510 0.000000 37.000000 14.317527 0.000000
43.047556 13.978142 -2.365021 0.000000 43.000000 14.297302 0.000000
45.084711 11.744826 -6.384286 0.000000 47.000000 14.599295 1.000000
43.037603 13.513524 -4.020575 0.000000 66.000000 14.783394 11.000000
45.578479 13.624411 -4.040636 0.000000 58.000000 14.959109 25.000000
46.147795 13.467455 -3.358975 0.000000 76.000000 14.479938 19.000000
44.164213 14.326099 -1.837667 0.000000 48.000000 14.342951 0.000000
44.309826 12.971766 -4.716093 0.000000 44.000000 14.729934 20.000000
42.083537 12.038917 -6.707714 0.000000 78.000000 14.936095 23.000000
43.905152 13.568043 -3.759501 0.000000 52.000000 14.715121 11.000000
42.158847 12.197167 -6.819943 0.000000 9.000000 15.131826 23.000000
41.957295 11.530338 -7.180166 0.000000 63.000000 14.753020 23.000000
44.891675 14.426943 -1.710426 0.000000 24.000000 14.381094 13.000000
44.662900 11.117627 -6.901443 0.000000 36.000000 14.331266 0.000000
44.735687 13.533318 -3.448821 0.000000 55.000000 14.543892 4.000000
44.926807 13.111346 -4.805359 0.000000 63.000000 14.912828 20.000000
45.899988 11.860371 -5.604844 0.000000 35.000000 14.305771 0.000000
42.033809 13.414485 -3.857090 0.000000 61.000000 14.584551 27.000000
44.443063 13.598466 -3.289569 0.000000 51.000000 14.506229 4.000000
42.955872 14.062584 -2.761204 0.000000 44.000000 14.576756 12.000000
43.802226 13.441936 -4.142134 0.000000 71.000000 14.808796 11.000000
42.656495 11.722035 -6.030707 0.000000 26.000000 14.324096 0.000000
40.924540 13.782768 -2.942657 0.000000 48.000000 14.379371 7.000000
44.880555 13.731053 -3.421819 0.000000 67.000000 14.701016 4.000000
40.905773 14.311630 -3.112028 0.000000 75.000000 14.916615 7.000000
41.832851 11.618141 -6.106151 0.000000 41.000000 14.253153 0.000000
40.975311 11.563400 -6.375129 0.000000 34.000000 14.325718 0.000000
46.102741 12.562129 -5.186458 0.000000 60.000000 14.683277 2.000000
41.315004 12.809910 -5.032848 0.000000 68.000000 14.677332 22.000000
45.591394 13.785189 -2.566445 0.000000 45.000000 14.312224 0.000000
46.390918 13.590076 -3.921401 0.000000 80.000000 14.889434 24.000000
40.641668 11.520049 -6.475207 0.000000 32.000000 14.332850 0.000000
42.786695 13.488070 -2.919691 0.000000 31.000000 14.169816 0.000000
46.402844 14.208732 -2.619774 0.000000 43.000000 14.721890 19.000000
41.656370 14.284067 -2.014306 0.000000 57.000000 14.330984 0.000000
44.309260 12.429262 -4.975944 0.000000 60.000000 14.408682 29.000000
45.080405 13.686051 -3.266362 0.000000 52.000000 14.585904 4.000000
41.509841 11.902299 -6.439678 0.000000 64.000000 14.661925 23.000000
42.148001 14.029513 -3.467207 0.000000 77.000000 14.901291 26.000000
40.679051 13.194873 -4.115140 0.000000 82.000000 14.497791 27.000000
42.844282 13.971663 -2.829035 0.000000 69.000000 14.532696 12.000000
42.828206 13.371275 -3.954408 0.000000 65.000000 14.621931 11.000000
45.900500 12.292315 -4.839188 0.000000 50.000000 14.264634 0.000000
41.259279 11.866412 -5.693494 0.000000 23.000000 14.228007 0.000000
45.644183 14.046939 -2.080964 0.000000 35.000000 14.277337 0.000000
43.182352 13.362455 -4.221865 0.000000 54.000000 14.766508 11.000000
45.105047 11.846332 -5.506551 0.000000 39.000000 14.219386 0.000000
42.016156 14.407184 -2.988160 0.000000 53.000000 14.962797 7.000000
43.614833 11.892476 -6.552368 0.000000 46.000000 14.772451 18.000000
42.264003 11.942234 -5.444732 0.000000 36.000000 14.188155 0.000000
45.074354 13.045576 -4.766717 0.000000 52.000000 14.840742 20.000000
41.781486 13.932556 -3.554426 0.000000 59.000000 14.855282 26.000000
41.366835 14.079589 -2.510090 0.000000 55.000000 14.413205 7.000000
46.023230 11.318150 -6.540684 0.000000 58.000000 14.347441 0.000000
45.880953 13.811889 -2.506941 0.000000 62.000000 14.311321 0.000000
45.589131 13.480492 -3.005296 0.000000 51.000000 14.287386 0.000000
40.740424 13.035741 -4.416265 0.000000 57.000000 14.524794 27.000000
41.821265 12.576203 -5.531553 0.000000 62.000000 14.758648 8.000000
45.525909 14.078770 -2.462972 0.000000 70.000000 14.503970 5.000000
40.893366 14.320864 -2.873310 0.000000 82.000000 14.797234 7.000000
46.170535 13.629095 -3.252500 0.000000 61.000000 14.560850 19.000000
40.242266 13.634501 -3.148553 0.000000 39.000000 14.344139 0.000000
45.909887 13.510524 -2.678071 0.000000 39.000000 14.147914 0.000000
44.296727 13.564033 -2.853451 0.000000 54.000000 14.241228 0.000000
45.651445 13.527243 -2.769234 0.000000 59.000000 14.203272 0.000000
44.065479 13.581477 -2.937781 0.000000 56.000000 14.294332 0.000000
41.195788 12.499626 -5.478734 0.000000 53.000000 14.648226 21.000000
40.707558 13.453506 -4.255194 0.000000 77.000000 14.791989 27.000000
46.461405 13.838373 -3.142425 0.000000 42.000000 14.687693 19.000000
43.129141 12.860277 -5.433379 0.000000 44.000000 14.983628 3.000000
44.124439 13.423775 -3.819588 0.000000 66.000000 14.631047 11.000000
40.437778 14.262353 -1.989399 0.000000 32.000000 14.265231 0.000000
45.077987 11.283886 -6.542244 0.000000 59.000000 14.292783 0.000000
45.692729 13.649444 -4.031111 0.000000 40.000000 14.978442 25.000000
44.952217 11.558081 -6.123941 0.000000 57.000000 14.299129 0.000000
44.907478 11.646289 -5.985390 0.000000 42.000000 14.298934 0.000000
42.000653 12.416307 -5.717727 0.000000 70.000000 14.727226 8.000000
46.299799 14.487043 -2.634832 0.000000 44.000000 14.962641 19.000000
42.191837 12.513600 -4.773184 0.000000 36.000000 14.313034 0.000000
43.208377 14.262414 -1.699290 0.000000 26.000000 14.188726 0.000000
41.598512 14.526772 -2.200049 0.000000 61.000000 14.633555 6.000000
42.695047 13.726270 -3.664346 0.000000 73.000000 14.764627 26.000000
45.973654 12.238283 -4.990533 0.000000 50.000000 14.301360 0.000000
45.945276 12.281481 -4.830877 0.000000 54.000000 14.252299 0.000000
42.964450 14.258511 -1.688615 0.000000 31.000000 14.172917 0.000000
44.168183 12.693725 -4.238181 0.000000 47.000000 14.236602 0.000000
43.274515 13.440215 -3.711188 0.000000 60.000000 14.563557 11.000000
45.786356 11.626798 -5.977141 0.000000 33.000000 14.302666 0.000000
42.433896 13.795454 -3.706719 0.000000 37.000000 14.838404 26.000000
43.485313 12.468895 -5.543671 0.000000 66.000000 14.720844 3.000000
40.388259 12.955584 -5.132877 0.000000 68.000000 14.827865 21.000000
41.500171 14.445621 -2.142143 0.000000 42.000000 14.531322 6.000000
44.455353 13.632752 -2.661045 0.000000 48.000000 14.201610 0.000000
43.638172 14.610176 -2.021200 0.000000 48.000000 14.666263 14.000000
43.819916 12.992468 -4.767262 0.000000 67.000000 14.760930 15.000000
43.034940 12.091949 -5.540061 0.000000 38.000000 14.387164 3.000000
44.658767 13.848307 -3.512796 0.000000 53.000000 14.842423 4.000000
40.989617 14.374190 -1.919298 0.000000 21.000000 14.338126 0.000000
42.604678 14.019906 -2.318133 0.000000 48.000000 14.295341 0.000000
45.846520 14.096457 -2.017496 0.000000 45.000000 14.291203 0.000000
43.424605 13.986668 -2.659388 0.000000 53.000000 14.471506 28.000000
45.809195 13.044226 -4.452935 0.000000 45.000000 14.693441 24.000000
42.396253 14.153354 -2.113384 0.000000 45.000000 14.293687 0.000000
45.624086 13.568463 -3.884114 0.000000 61.000000 14.829843 25.000000
45.104766 14.281606 -2.485060 0.000000 42.000000 14.675644 5.000000
43.356973 14.372005 -1.774775 0.000000 54.000000 14.325788 0.000000
40.392112 13.303348 -4.168413 0.000000 54.000000 14.609905 10.000000
40.304938 12.661161 -4.481290 0.000000 47.000000 14.230007 0.000000
45.343853 14.298408 -2.707878 0.000000 41.000000 14.814970 5.000000
45.199526 13.287049 -3.732246 0.000000 55.000000 14.498986 25.000000
42.023667 12.680841 -4.390628 0.000000 40.000000 14.246634 0.000000
45.797817 14.271633 -1.498844 0.000000 30.000000 14.162547 0.000000
44.277594 13.422141 -3.296346 0.000000 57.000000 14.355907 0.000000
45.263295 14.600761 -2.144670 0.000000 76.000000 14.769422 13.000000
46.001382 14.305643 -2.666432 0.000000 77.000000 14.817490 19.000000
44.404772 12.968342 -4.211558 0.000000 54.000000 14.461590 11.000000
45.530181 13.501257 -2.666072 0.000000 42.000000 14.123055 0.000000
44.375431 12.978488 -4.501738 0.000000 82.000000 14.623557 20.000000
42.546883 11.619421 -6.176648 0.000000 35.000000 14.311698 0.000000
43.756778 13.494128 -2.874814 0.000000 28.000000 14.178270 0.000000
45.222818 11.793941 -5.682835 0.000000 43.000000 14.272003 0.000000
44.337935 13.808502 -2.657895 0.000000 43.000000 14.345448 0.000000
42.063690 14.227780 -2.777950 0.000000 77.000000 14.700530 7.000000
41.649157 12.329338 -5.291126 0.000000 62.000000 14.417055 8.000000
42.701700 11.437501 -7.021377 0.000000 60.000000 14.610890 18.000000
41.938406 12.593461 -4.710176 0.000000 40.000000 14.340069 0.000000
43.654320 13.234288 -4.363106 0.000000 66.000000 14.746267 11.000000
41.625582 13.713321 -2.996002 0.000000 32.000000 14.368556 0.000000
41.806455 11.935848 -6.632668 0.000000 49.000000 14.801190 23.000000
44.384959 14.682212 -2.127912 0.000000 60.000000 14.804876 13.000000
41.889824 14.241646 -3.102937 0.000000 68.000000 14.880095 7.000000
46.239096 14.542245 -2.634028 0.000000 54.000000 15.007251 19.000000
40.940970 14.366544 -3.141599 0.000000 77.000000 14.979809 7.000000
40.725801 12.879718 -4.879433 0.000000 40.000000 14.638409 22.000000
42.560077 13.973187 -2.399553 0.000000 51.000000 14.297803 0.000000
44.390215 14.268095 -1.587618 0.000000 44.000000 14.167299 0.000000
44.035281 13.891877 -2.475117 0.000000 55.000000 14.310435 0.000000
44.126211 13.846011 -2.600259 0.000000 63.000000 14.340649 0.000000
45.319791 12.565714 -5.105704 0.000000 38.000000 14.621470 29.000000
42.243504 13.977286 -2.890338 0.000000 39.000000 14.553205 7.000000
41.468282 13.282683 -4.875826 0.000000 60.000000 14.998465 22.000000
41.293788 13.386917 -3.879183 0.000000 65.000000 14.552222 27.000000
44.543462 13.568714 -2.873832 0.000000 60.000000 14.262932 0.000000
44.616861 13.553183 -3.015552 0.000000 59.000000 14.327148 0.000000
46.292754 13.908781 -3.084063 0.000000 66.000000 14.711568 19.000000
44.340585 12.140371 -5.860546 0.000000 70.000000 14.635036 30.000000
45.114479 13.858052 -2.748267 0.000000 62.000000 14.457175 5.000000
41.918549 13.714268 -3.731590 0.000000 75.000000 14.768448 26.000000
45.184713 14.185151 -2.374877 0.000000 61.000000 14.537669 5.000000
42.986873 13.385393 -4.193478 0.000000 43.000000 14.765368 11.000000
40.269365 13.936253 -2.590879 0.000000 43.000000 14.304038 0.000000
44.473647 13.153183 -4.919813 0.000000 58.000000 14.996377 20.000000
42.303100 11.619906 -6.681792 0.000000 23.000000 14.573709 23.000000
45.077709 14.200855 -2.469640 0.000000 60.000000 14.598324 5.000000
46.301515 14.065976 -3.155828 0.000000 79.000000 14.883039 19.000000
43.549578 13.129573 -4.868191 0.000000 54.000000 14.923073 15.000000
43.820981 14.542179 -1.847565 0.000000 62.000000 14.521544 14.000000
45.952112 11.266308 -6.528182 0.000000 30.000000 14.294913 0.000000
43.343569 13.393146 -4.084558 0.000000 72.000000 14.724045 11.000000
43.989411 13.715813 -3.633285 0.000000 51.000000 14.775523 11.000000
44.319817 13.232379 -4.919692 0.000000 66.000000 15.059056 20.000000
42.177276 13.917141 -3.004548 0.000000 61.000000 14.561117 7.000000
44.349702 13.365012 -3.363120 0.000000 65.000000 14.345041 0.000000
40.886168 13.444125 -3.361250 0.000000 32.000000 14.314016 0.000000
45.572925 13.662755 -4.000643 0.000000 65.000000 14.970165 25.000000
42.381147 12.377546 -4.968460 0.000000 56.000000 14.306913 0.000000
41.919736 12.498906 -4.846304 0.000000 58.000000 14.331827 0.000000
42.206903 14.044284 -3.594805 0.000000 78.000000 14.983251 26.000000
42.501093 12.712987 -4.196610 0.000000 31.000000 14.184124 0.000000
40.484013 11.846154 -5.708460 0.000000 34.000000 14.197093 0.000000
42.375452 11.303459 -6.533400 0.000000 21.000000 14.228957 0.000000
40.353460 11.857500 -5.850268 0.000000 45.000000 14.278397 0.000000
41.363107 11.678487 -6.154069 0.000000 42.000000 14.316551 0.000000
42.945270 13.719699 -3.662641 0.000000 50.000000 14.765166 26.000000
41.040547 11.154692 -6.791950 0.000000 32.000000 14.203002 0.000000
40.496524 11.672530 -6.223368 0.000000 36.000000 14.324059 0.000000
45.524698 11.341671 -6.491400 0.000000 37.000000 14.327203 0.000000
40.841068 11.781604 -6.053786 0.000000 25.000000 14.335944 0.000000
46.407053 14.301295 -3.074500 0.000000 62.000000 15.042015 19.000000
45.583227 14.646012 -1.956174 0.000000 74.000000 14.716531 13.000000
40.840991 14.020298 -2.488652 0.000000 55.000000 14.336884 0.000000
44.997774 12.997514 -4.874043 0.000000 62.000000 14.854937 20.000000
43.484851 12.037623 -6.291630 0.000000 57.000000 14.753147 18.000000
41.044980 14.472914 -2.252220 0.000000 76.000000 14.600174 6.000000
42.381050 12.693012 -4.178497 0.000000 31.000000 14.154225 0.000000
46.095616 13.464779 -3.079432 0.000000 32.000000 14.327664 0.000000
45.326390 13.642769 -3.648730 0.000000 74.000000 14.759335 25.000000
45.215837 14.640089 -2.115479 0.000000 72.000000 14.785878 13.000000
40.720581 13.263225 -4.441608 0.000000 73.000000 14.730308 27.000000
42.999954 12.549406 -5.028651 0.000000 51.000000 14.501738 3.000000
41.654389 13.060668 -4.571470 0.000000 54.000000 14.653974 27.000000
44.482326 14.338182 -2.724683 0.000000 45.000000 14.833444 5.000000
44.504005 14.229568 -2.155719 0.000000 50.000000 14.439750 13.000000
42.764423 13.732142 -2.771379 0.000000 39.000000 14.297028 0.000000
46.329009 13.256541 -4.460202 0.000000 65.000000 14.891623 24.000000
45.767063 13.599796 -4.042220 0.000000 73.000000 14.944392 25.000000
43.419875 13.415929 -3.690791 0.000000 59.000000 14.536228 11.000000
40.777975 13.301498 -4.498089 0.000000 85.000000 14.794333 27.000000
45.708762 12.122529 -5.292625 0.000000 56.000000 14.356464 0.000000
42.709577 11.438269 -6.999695 0.000000 63.000000 14.600239 18.000000
40.629904 14.039939 -2.627697 0.000000 37.000000 14.421488 7.000000
41.206468 12.547438 -5.473128 0.000000 71.000000 14.686027 21.000000
41.870703 14.399499 -2.935778 0.000000 62.000000 14.924381 7.000000
44.313622 11.768696 -6.300212 0.000000 29.000000 14.553231 18.000000
45.573254 13.057251 -4.458245 0.000000 58.000000 14.700682 24.000000
42.824456 11.246738 -6.877748 0.000000 47.000000 14.376493 18.000000
43.043418 13.183645 -4.375905 0.000000 40.000000 14.693079 11.000000
44.384434 13.117948 -4.204454 0.000000 51.000000 14.583911 11.000000
42.890822 13.370157 -4.274493 0.000000 67.000000 14.792829 11.000000
43.060760 13.176964 -4.611863 0.000000 79.000000 14.813295 15.000000
40.253513 13.929354 -3.883680 0.000000 71.000000 14.984735 10.000000
40.485681 11.839914 -5.686476 0.000000 36.000000 14.180174 0.000000
44.854305 13.247860 -3.550768 0.000000 35.000000 14.359701 0.000000
42.018003 12.352509 -5.005043 0.000000 50.000000 14.294983 0.000000
42.160303 12.396920 -4.928839 0.000000 50.000000 14.296076 0.000000
43.411343 14.732846 -1.998637 0.000000 78.000000 14.751779 14.000000
42.451806 12.482139 -4.764315 0.000000 43.000000 14.288966 0.000000
41.459553 11.734362 -6.182530 0.000000 53.000000 14.381683 23.000000
45.120009 13.487511 -2.826356 0.000000 42.000000 14.185102 0.000000
41.523859 14.139426 -2.947513 0.000000 75.000000 14.700708 7.000000
44.110908 12.249706 -5.248977 0.000000 31.000000 14.396190 29.000000
43.850191 13.650121 -2.780298 0.000000 56.000000 14.262735 0.000000
43.248567 13.005693 -4.409617 0.000000 47.000000 14.566075 11.000000
42.095637 13.295655 -3.648408 0.000000 52.000000 14.374782 27.000000
44.845035 13.745527 -2.708688 0.000000 36.000000 14.333325 0.000000
44.038041 13.164934 -4.293506 0.000000 47.000000 14.661311 11.000000
43.640765 14.069368 -2.570429 0.000000 57.000000 14.500308 28.000000
40.743464 14.169486 -2.670227 0.000000 71.000000 14.556952 7.000000
45.831027 14.385530 -1.901769 0.000000 61.000000 14.474021 13.000000
42.414553 11.434422 -7.248537 0.000000 68.000000 14.720951 23.000000
45.729772 13.019061 -4.536404 0.000000 67.000000 14.714265 24.000000
43.277216 13.648567 -3.575173 0.000000 80.000000 14.667760 26.000000
42.415168 14.287084 -1.863164 0.000000 59.000000 14.274477 0.000000
46.254745 13.423386 -3.380102 0.000000 61.000000 14.456849 19.000000
41.234892 12.608110 -5.397457 0.000000 53.000000 14.697981 21.000000
46.311282 13.235446 -3.891919 0.000000 65.000000 14.571285 24.000000
43.771238 11.745979 -5.891715 0.000000 40.000000 14.301733 0.000000
41.755831 14.033783 -2.341422 0.000000 46.000000 14.295690 0.000000
43.111922 14.020926 -2.271871 0.000000 53.000000 14.285830 0.000000
45.430560 13.409433 -3.417888 0.000000 50.000000 14.442029 25.000000
45.633526 11.661889 -5.933959 0.000000 44.000000 14.305149 0.000000
40.881687 14.171033 -2.541033 0.000000 46.000000 14.493481 7.000000
40.917348 14.389201 -3.083844 0.000000 48.000000 14.967639 7.000000
44.002653 13.742063 -2.753958 0.000000 60.000000 14.330853 0.000000
45.179517 11.276799 -6.632741 0.000000 43.000000 14.337716 0.000000
44.239596 13.609806 -2.770712 0.000000 61.000000 14.234415 0.000000
42.197145 12.343220 -5.646337 0.000000 40.000000 14.632914 8.000000
43.689925 13.056579 -4.373972 0.000000 56.000000 14.602579 15.000000
44.854419 12.971838 -4.451357 0.000000 60.000000 14.604571 20.000000
44.475166 13.618429 -2.991793 0.000000 70.000000 14.365795 0.000000
40.287440 13.506418 -4.442267 0.000000 48.000000 14.924429 10.000000
44.476930 14.103491 -2.068566 0.000000 45.000000 14.285934 0.000000
42.909661 14.820477 -2.276955 0.000000 72.000000 14.959817 14.000000
44.359112 14.029922 -2.189064 0.000000 45.000000 14.284377 0.000000
45.724708 14.003197 -2.133859 0.000000 51.000000 14.270666 0.000000
43.641523 11.075090 -6.783406 0.000000 32.000000 14.203919 0.000000
44.006540 13.834308 -2.564049 0.000000 57.000000 14.308146 0.000000
44.556565 12.608732 -5.332719 0.000000 69.000000 14.757147 29.000000
43.832963 13.650071 -2.776015 0.000000 57.000000 14.259934 0.000000
45.255956 13.520066 -2.684428 0.000000 38.000000 14.141053 0.000000
45.133378 12.173458 -5.388844 0.000000 38.000000 14.434597 29.000000
44.423276 11.450184 -6.288208 0.000000 36.000000 14.280251 0.000000
