72.216881 0.291231 33.014860 0.000000 28.000000 14.192442 0.000000
70.564226 0.130823 30.824432 0.000000 34.000000 14.187099 0.000000
70.138012 2.777284 32.495391 0.000000 58.000000 14.756307 22.000000
71.920392 0.962695 33.738954 0.000000 43.000000 14.074454 0.000000
71.975889 2.949144 35.288470 0.000000 66.000000 14.580657 26.000000
70.288462 2.186309 32.898051 0.000000 49.000000 14.276857 11.000000
72.756404 2.151847 35.640163 0.000000 56.000000 14.376251 0.000000
71.913514 1.411315 33.985177 0.000000 57.000000 14.228653 0.000000
70.089152 2.443946 32.209338 0.000000 47.000000 14.660525 11.000000
70.712972 2.925115 34.413332 0.000000 36.000000 14.241268 0.000000
71.921066 1.710134 33.714654 0.000000 68.000000 14.554619 19.000000
73.926138 -1.786550 32.483890 0.000000 34.000000 14.183888 0.000000
73.948349 -1.700777 32.618869 0.000000 34.000000 14.183826 0.000000
73.965418 -1.601980 32.746656 0.000000 40.000000 14.192396 0.000000
73.214314 0.474991 34.286943 0.000000 48.000000 14.274879 0.000000
73.999401 -1.200510 33.252029 0.000000 32.000000 14.212862 0.000000
74.034655 -1.310657 33.546330 0.000000 20.000000 14.018869 0.000000
70.290455 2.052131 32.012894 0.000000 31.000000 14.634023 11.000000
73.940628 -0.471135 34.145409 0.000000 40.000000 14.189896 0.000000
72.423984 2.516226 34.755873 0.000000 56.000000 14.843882 23.000000
69.997356 2.372340 31.782226 0.000000 43.000000 14.772806 11.000000
72.141417 2.736748 35.095907 0.000000 72.000000 14.642982 26.000000
72.675355 1.822611 34.626708 0.000000 60.000000 14.625204 16.000000
73.821986 -0.014399 34.848690 0.000000 24.000000 14.054820 0.000000
69.791133 0.934765 30.285353 0.000000 55.000000 14.493256 4.000000
73.717990 0.384534 34.932975 0.000000 43.000000 14.200023 0.000000
73.017578 1.791815 34.777892 0.000000 54.000000 14.736548 16.000000
73.631121 0.620950 35.160758 0.000000 33.000000 14.182515 0.000000
69.938029 1.720496 31.354212 0.000000 60.000000 14.541992 17.000000
69.281364 2.826700 32.577911 0.000000 46.000000 14.231176 0.000000
71.367161 -0.171505 31.652120 0.000000 12.000000 14.069311 0.000000
69.565105 2.094463 32.323971 0.000000 33.000000 14.069806 0.000000
73.906084 -0.468189 33.576275 0.000000 62.000000 14.453831 8.000000
71.627761 0.247052 32.189401 0.000000 34.000000 14.220859 0.000000
68.935826 1.955500 31.078013 0.000000 37.000000 14.223759 0.000000
74.122082 -0.287443 33.808682 0.000000 52.000000 14.581282 8.000000
71.760638 3.138095 34.809995 0.000000 45.000000 14.807275 12.000000
70.442923 3.169175 32.965426 0.000000 73.000000 14.951231 22.000000
69.672673 3.012135 33.100857 0.000000 35.000000 14.322566 0.000000
69.112239 2.539767 31.935372 0.000000 29.000000 14.269299 0.000000
70.159797 2.405902 31.877419 0.000000 74.000000 14.844158 11.000000
74.382890 -1.156528 33.685887 0.000000 37.000000 14.255318 0.000000
70.462642 3.018784 33.802691 0.000000 53.000000 14.452863 21.000000
70.496029 0.730952 31.487729 0.000000 31.000000 14.191947 0.000000
70.586383 0.607788 31.437582 0.000000 39.000000 14.194128 0.000000
69.224405 1.962216 31.429193 0.000000 46.000000 14.226925 0.000000
70.775010 0.368534 31.331608 0.000000 38.000000 14.210500 0.000000
71.057939 0.612101 31.286141 0.000000 52.000000 14.555604 1.000000
71.290979 -0.292459 31.147394 0.000000 34.000000 14.198676 0.000000
70.504468 -0.262162 30.188388 0.000000 31.000000 14.221389 0.000000
71.509944 -0.541847 31.078939 0.000000 30.000000 14.208299 0.000000
70.611216 -0.396069 30.163749 0.000000 31.000000 14.214027 0.000000
71.624021 -0.668814 31.050795 0.000000 35.000000 14.211428 0.000000
70.719795 -0.511887 30.131910 0.000000 30.000000 14.222663 0.000000
74.373623 -0.466137 33.636619 0.000000 52.000000 14.706220 8.000000
71.062967 -0.883011 30.064218 0.000000 31.000000 14.230412 0.000000
72.492043 -1.578724 30.930360 0.000000 32.000000 14.223818 0.000000
69.657865 1.727539 30.932536 0.000000 70.000000 14.587531 17.000000
71.424968 2.719252 34.697019 0.000000 51.000000 14.399535 12.000000
72.059030 2.400090 34.727886 0.000000 55.000000 14.565704 23.000000
70.256030 2.442381 31.994625 0.000000 67.000000 14.866590 11.000000
69.451230 2.016424 31.743482 0.000000 33.000000 14.241015 0.000000
71.953589 1.508774 33.722138 0.000000 57.000000 14.444460 19.000000
70.371405 1.805541 31.930456 0.000000 46.000000 14.569369 18.000000
71.379873 -0.961221 29.233138 0.000000 53.000000 14.785055 3.000000
69.858391 1.757845 31.127271 0.000000 53.000000 14.630272 17.000000
69.541445 2.103936 32.249339 0.000000 27.000000 14.098601 0.000000
69.599550 3.031687 32.297932 0.000000 57.000000 14.689891 22.000000
70.017947 2.982544 33.120539 0.000000 65.000000 14.501855 22.000000
69.851554 2.914917 32.932852 0.000000 56.000000 14.452782 22.000000
72.351746 3.166237 34.778428 0.000000 6.000000 15.195962 26.000000
71.715907 -0.099513 32.108418 0.000000 14.000000 14.097252 0.000000
72.152865 -1.398275 30.848247 0.000000 23.000000 14.173615 0.000000
72.650439 -1.140280 29.555057 0.000000 9.000000 15.276918 6.000000
73.011317 0.264881 33.940746 0.000000 41.000000 14.193423 0.000000
72.090845 0.983096 32.977151 0.000000 45.000000 14.568317 9.000000
73.164218 -0.019257 34.044099 0.000000 27.000000 14.056196 0.000000
71.765840 -0.561931 30.479064 0.000000 43.000000 14.647723 5.000000
73.303824 -0.164194 34.028270 0.000000 36.000000 14.057308 0.000000
70.977289 0.437966 31.520889 0.000000 52.000000 14.281486 1.000000
72.804443 1.083623 34.060383 0.000000 63.000000 14.521884 10.000000
72.436913 -0.030981 32.979338 0.000000 32.000000 14.140773 0.000000
73.572860 -0.329653 33.903978 0.000000 50.000000 14.177303 0.000000
68.992411 2.548778 31.297125 0.000000 54.000000 14.520102 7.000000
71.843721 -0.310552 31.793978 0.000000 32.000000 14.198324 0.000000
72.708450 -0.307276 32.962156 0.000000 34.000000 14.139685 0.000000
71.950531 2.933808 34.818335 0.000000 56.000000 14.789473 12.000000
71.572158 1.565021 33.027451 0.000000 49.000000 14.595588 19.000000
73.129988 -0.670582 32.915702 0.000000 37.000000 14.188887 0.000000
73.281319 -0.820363 32.925796 0.000000 36.000000 14.181134 0.000000
71.247529 2.417700 33.777439 0.000000 64.000000 14.561201 25.000000
73.436273 -0.993145 32.956948 0.000000 41.000000 14.150702 0.000000
74.674541 -1.417258 33.960140 0.000000 37.000000 14.131219 0.000000
70.662060 1.816928 32.324325 0.000000 54.000000 14.555490 30.000000
74.997967 -1.661141 33.947353 0.000000 38.000000 14.179426 0.000000
71.809433 2.778059 35.686860 0.000000 45.000000 14.175529 0.000000
70.081708 0.681017 30.893352 0.000000 36.000000 14.207007 0.000000
70.570554 2.396418 32.740662 0.000000 70.000000 14.656149 11.000000
71.033582 -0.687125 30.215690 0.000000 35.000000 14.260032 0.000000
74.103814 -0.508288 33.613883 0.000000 51.000000 14.528929 8.000000
72.127906 -1.529718 29.766677 0.000000 44.000000 14.613905 6.000000
70.248187 0.886768 31.353354 0.000000 25.000000 14.207218 0.000000
71.356012 1.306163 32.879976 0.000000 43.000000 14.376960 19.000000
74.590837 -0.915927 33.043717 0.000000 52.000000 14.850048 14.000000
73.881473 -0.900175 32.702779 0.000000 56.000000 14.602862 15.000000
68.778113 3.041397 32.164548 0.000000 41.000000 14.268389 0.000000
69.902038 2.168054 32.464932 0.000000 34.000000 14.248367 0.000000
70.927807 2.330454 33.689700 0.000000 50.000000 14.357992 25.000000
70.853645 2.324534 33.863371 0.000000 38.000000 14.223384 0.000000
69.956804 2.856283 33.474150 0.000000 31.000000 14.210346 0.000000
69.953653 2.942717 33.604512 0.000000 32.000000 14.197745 0.000000
71.789878 2.505987 34.299727 0.000000 71.000000 14.682940 24.000000
70.160995 1.826973 31.375642 0.000000 48.000000 14.732018 17.000000
71.221288 -1.704391 29.234277 0.000000 29.000000 14.224131 0.000000
69.622503 2.822409 32.295122 0.000000 56.000000 14.574139 22.000000
72.332784 2.810923 35.405683 0.000000 71.000000 14.650490 23.000000
68.918330 2.863481 31.611929 0.000000 39.000000 14.516019 7.000000
74.037085 -0.872247 33.443849 0.000000 50.000000 14.345582 0.000000
74.403694 -0.570753 33.681497 0.000000 41.000000 14.636535 8.000000
73.127326 -1.703010 31.629373 0.000000 36.000000 14.180589 0.000000
72.123444 1.089471 33.309464 0.000000 58.000000 14.489317 9.000000
71.824732 2.241274 34.018810 0.000000 79.000000 14.677876 24.000000
73.288044 -1.551944 32.042255 0.000000 38.000000 14.166538 0.000000
72.238519 -1.270658 31.358478 0.000000 14.000000 14.051379 0.000000
73.330798 -1.465996 32.158777 0.000000 48.000000 14.188110 0.000000
70.496863 3.035968 33.561630 0.000000 48.000000 14.603998 21.000000
71.433585 2.843032 35.097245 0.000000 46.000000 14.283253 12.000000
72.309948 -1.066447 31.577805 0.000000 25.000000 14.113096 0.000000
71.289204 -0.949944 30.281891 0.000000 25.000000 14.216367 0.000000
74.863381 -1.559732 33.041125 0.000000 52.000000 14.612359 13.000000
72.370159 -0.829891 31.781473 0.000000 35.000000 14.196090 0.000000
71.173507 2.482400 33.398762 0.000000 65.000000 14.745384 25.000000
71.441959 2.176210 33.358977 0.000000 46.000000 14.734969 25.000000
69.505910 2.907673 32.332394 0.000000 41.000000 14.538867 22.000000
69.989343 0.562278 30.133417 0.000000 55.000000 14.454867 29.000000
73.578490 -0.965599 33.131376 0.000000 39.000000 14.166752 0.000000
73.597150 -0.921011 32.870112 0.000000 33.000000 14.335718 15.000000
71.419344 2.379333 33.753786 0.000000 55.000000 14.652249 25.000000
72.484393 -0.426379 32.447066 0.000000 35.000000 14.186452 0.000000
73.617568 -0.770530 33.386984 0.000000 46.000000 14.185266 0.000000
72.497815 -0.329622 32.572123 0.000000 34.000000 14.192911 0.000000
73.634629 -0.691646 33.530167 0.000000 48.000000 14.173720 0.000000
72.513822 -0.293816 32.744505 0.000000 27.000000 14.139265 0.000000
72.086596 2.250782 34.354706 0.000000 68.000000 14.674324 23.000000
72.525750 -0.243686 32.908198 0.000000 29.000000 14.096448 0.000000
72.329596 -1.390984 30.142382 0.000000 61.000000 14.635249 6.000000
69.290187 2.985131 32.824993 0.000000 31.000000 14.212813 0.000000
71.533529 -0.140666 31.135697 0.000000 35.000000 14.445295 2.000000
72.525775 0.035365 33.096702 0.000000 36.000000 14.177382 0.000000
73.671278 -0.335648 34.088381 0.000000 41.000000 14.141075 0.000000
72.094800 -1.363042 30.938098 0.000000 27.000000 14.116095 0.000000
69.110298 2.641303 32.166467 0.000000 29.000000 14.216809 0.000000
72.520772 0.245118 33.338659 0.000000 35.000000 14.185367 0.000000
73.671458 -0.153182 34.369769 0.000000 49.000000 14.115504 0.000000
72.515576 0.327006 33.481217 0.000000 30.000000 14.162630 0.000000
73.677695 -0.131580 34.573417 0.000000 32.000000 14.031557 0.000000
72.506574 0.430961 33.604455 0.000000 30.000000 14.161014 0.000000
73.666528 -0.001861 34.681793 0.000000 32.000000 14.052147 0.000000
73.238399 1.282081 34.341046 0.000000 57.000000 14.767477 10.000000
73.635905 0.230695 34.700960 0.000000 41.000000 14.169723 0.000000
71.863104 0.886125 32.807866 0.000000 54.000000 14.454852 9.000000
73.277584 1.783612 34.830262 0.000000 34.000000 14.861710 16.000000
72.461016 0.785241 33.936986 0.000000 49.000000 14.190033 0.000000
71.066005 -0.298893 30.719680 0.000000 29.000000 14.271964 0.000000
69.150216 1.558428 30.792882 0.000000 28.000000 14.245913 0.000000
73.582380 0.572257 35.071426 0.000000 36.000000 14.167141 0.000000
72.426267 0.918685 34.252367 0.000000 32.000000 14.095895 0.000000
71.530400 2.500638 34.139613 0.000000 60.000000 14.603165 24.000000
72.402216 1.031324 34.366212 0.000000 40.000000 14.095333 0.000000
72.374870 1.133277 34.493381 0.000000 35.000000 14.079482 0.000000
70.639248 1.870110 32.348067 0.000000 53.000000 14.563252 30.000000
72.267849 1.580032 34.733760 0.000000 36.000000 14.175211 0.000000
71.360912 2.440784 34.333321 0.000000 32.000000 14.367539 24.000000
68.810839 2.094325 31.326576 0.000000 35.000000 14.111941 0.000000
68.873504 2.044346 31.203554 0.000000 37.000000 14.179487 0.000000
71.685567 -0.448950 31.223470 0.000000 35.000000 14.300184 2.000000
68.994431 1.849594 31.033795 0.000000 40.000000 14.214703 0.000000
73.272087 0.676749 34.750214 0.000000 37.000000 14.205610 0.000000
69.119124 1.616170 30.897231 0.000000 33.000000 14.211488 0.000000
74.321629 -1.090941 33.148553 0.000000 50.000000 14.526581 14.000000
69.471731 1.073658 30.554048 0.000000 30.000000 14.254589 0.000000
69.854464 1.816815 31.049963 0.000000 56.000000 14.703231 17.000000
72.543015 1.136163 34.293682 0.000000 58.000000 14.281632 10.000000
69.499921 1.681275 30.977115 0.000000 58.000000 14.441467 17.000000
71.842039 1.506673 33.401551 0.000000 40.000000 14.535410 19.000000
70.220468 3.006915 32.992523 0.000000 64.000000 14.702490 22.000000
70.204431 2.912153 33.857133 0.000000 41.000000 14.203842 0.000000
69.352955 3.003165 32.901909 0.000000 42.000000 14.223607 0.000000
69.423099 2.910934 32.808175 0.000000 49.000000 14.254655 0.000000
69.489687 2.754556 32.774215 0.000000 39.000000 14.213720 0.000000
70.569988 2.205409 33.606786 0.000000 39.000000 14.105828 0.000000
70.342879 2.329476 32.021378 0.000000 46.000000 14.834864 11.000000
70.556110 2.797805 33.901301 0.000000 42.000000 14.321779 21.000000
70.205194 1.640488 32.240209 0.000000 39.000000 14.212215 0.000000
73.484983 0.451476 34.735571 0.000000 28.000000 14.199929 0.000000
71.473208 0.942579 33.039250 0.000000 36.000000 14.140762 0.000000
71.212446 2.591577 33.413334 0.000000 49.000000 14.829866 25.000000
70.673057 0.945419 32.045259 0.000000 39.000000 14.155483 0.000000
71.677766 0.770415 32.870627 0.000000 46.000000 14.239828 0.000000
70.776584 0.850282 31.977298 0.000000 36.000000 14.191974 0.000000
70.878397 0.719006 31.938743 0.000000 32.000000 14.190207 0.000000
70.984296 0.580496 31.906980 0.000000 31.000000 14.182995 0.000000
72.010125 0.299012 32.812892 0.000000 33.000000 14.173382 0.000000
71.708742 3.082421 34.640248 0.000000 64.000000 14.825603 12.000000
72.129288 0.097092 32.832730 0.000000 29.000000 14.108822 0.000000
71.200450 0.329970 31.831898 0.000000 33.000000 14.193510 0.000000
72.396954 1.622145 34.701306 0.000000 51.000000 14.295312 16.000000
71.313265 0.176729 31.817987 0.000000 31.000000 14.172367 0.000000
72.370204 -0.214295 32.801547 0.000000 28.000000 14.074326 0.000000
71.430457 -0.056417 31.861879 0.000000 22.000000 14.075128 0.000000
72.564350 2.704618 35.435208 0.000000 84.000000 14.708523 23.000000
70.409502 0.585484 30.019627 0.000000 35.000000 14.778552 29.000000
72.608491 -0.371000 32.659466 0.000000 42.000000 14.190152 0.000000
71.574665 -0.662923 30.419114 0.000000 58.000000 14.499386 5.000000
72.736620 -0.499993 32.630501 0.000000 47.000000 14.200869 0.000000
71.782463 -0.327492 31.700666 0.000000 41.000000 14.197271 0.000000
71.346181 2.501840 33.291855 0.000000 74.000000 14.914497 25.000000
72.386167 -1.230347 29.321582 0.000000 34.000000 15.177712 6.000000
72.289280 2.164428 34.324399 0.000000 53.000000 14.757213 23.000000
72.032972 -0.586435 31.658742 0.000000 39.000000 14.206696 0.000000
72.060022 -0.795130 31.257660 0.000000 36.000000 14.291713 0.000000
72.160886 -0.712133 31.640656 0.000000 36.000000 14.213938 0.000000
73.295381 -1.235550 32.696559 0.000000 25.000000 14.043731 0.000000
73.520544 -0.939276 33.070302 0.000000 31.000000 14.178738 0.000000
72.436894 -1.140545 31.730217 0.000000 19.000000 14.067306 0.000000
72.571694 -1.288085 31.731862 0.000000 27.000000 14.055216 0.000000
72.706971 -1.377712 31.698577 0.000000 26.000000 14.097010 0.000000
71.064010 1.628147 32.974496 0.000000 51.000000 14.355894 19.000000
72.839154 -1.435274 31.649151 0.000000 32.000000 14.165029 0.000000
71.339582 -1.054847 29.105645 0.000000 46.000000 14.765612 3.000000
72.980118 -1.561948 31.647819 0.000000 35.000000 14.171180 0.000000
73.122802 -1.678123 31.642047 0.000000 32.000000 14.187142 0.000000
73.200979 1.734518 34.755956 0.000000 34.000000 14.821865 16.000000
70.271086 -0.218919 29.876803 0.000000 33.000000 14.262990 0.000000
71.972367 2.696057 35.815080 0.000000 43.000000 14.158454 0.000000
71.054801 2.821497 34.805746 0.000000 43.000000 14.186920 0.000000
69.484699 1.593739 30.492731 0.000000 49.000000 14.618282 17.000000
71.277413 2.557829 34.744424 0.000000 41.000000 14.186256 0.000000
69.040765 2.034187 31.309498 0.000000 41.000000 14.221038 0.000000
73.616396 -1.025385 32.643202 0.000000 38.000000 14.394756 15.000000
71.918547 2.346907 33.980417 0.000000 66.000000 14.819458 24.000000
72.249915 1.486273 34.590681 0.000000 48.000000 14.176873 0.000000
72.658966 1.069596 34.569565 0.000000 32.000000 14.172578 0.000000
73.113846 1.785847 35.339746 0.000000 53.000000 14.511451 16.000000
73.541661 0.208795 34.605688 0.000000 34.000000 14.146709 0.000000
71.021230 2.692338 33.839419 0.000000 70.000000 14.566185 20.000000
69.527116 2.948576 32.476732 0.000000 52.000000 14.505474 22.000000
70.354257 2.405156 32.520753 0.000000 68.000000 14.640869 11.000000
74.174259 -0.324906 34.643315 0.000000 46.000000 14.174398 0.000000
71.924901 0.834150 32.971253 0.000000 50.000000 14.378281 9.000000
70.457823 1.602603 31.813436 0.000000 62.000000 14.552504 18.000000
70.960465 2.366175 33.033554 0.000000 73.000000 14.726082 25.000000
72.562029 2.678147 35.409470 0.000000 49.000000 14.703356 23.000000
69.365402 1.846395 31.391590 0.000000 28.000000 14.257914 0.000000
73.117792 1.228403 34.165418 0.000000 76.000000 14.748666 10.000000
69.388615 1.994265 31.689470 0.000000 42.000000 14.216348 0.000000
69.440483 2.075802 31.796850 0.000000 48.000000 14.245183 0.000000
68.658626 2.101671 31.233463 0.000000 28.000000 14.071301 0.000000
72.163526 2.742029 35.900299 0.000000 39.000000 14.259795 0.000000
69.523333 2.052670 32.165760 0.000000 32.000000 14.097172 0.000000
69.778880 2.795594 33.017179 0.000000 48.000000 14.292515 22.000000
74.322558 -0.478287 33.887912 0.000000 48.000000 14.543022 8.000000
72.329788 -0.535376 30.703464 0.000000 51.000000 14.891872 5.000000
72.051732 -0.910169 30.744792 0.000000 68.000000 14.469644 5.000000
68.999423 2.808200 32.293352 0.000000 31.000000 14.191516 0.000000
71.020808 1.809562 32.160636 0.000000 69.000000 14.847923 30.000000
69.050191 2.953081 32.549982 0.000000 31.000000 14.185148 0.000000
72.637400 -1.313634 29.950636 0.000000 44.000000 14.964005 6.000000
72.475402 0.822096 33.855492 0.000000 33.000000 14.262245 0.000000
71.061400 -0.902004 30.063028 0.000000 32.000000 14.218177 0.000000
75.258775 -1.209205 33.518401 0.000000 53.000000 14.832202 13.000000
71.826060 1.637107 33.390786 0.000000 61.000000 14.612768 19.000000
71.282883 -0.822205 30.418085 0.000000 34.000000 14.224806 0.000000
72.172190 -1.273202 29.616201 0.000000 43.000000 14.875822 6.000000
70.475826 -0.540723 29.838801 0.000000 29.000000 14.203615 0.000000
70.537630 -0.495110 29.959735 0.000000 36.000000 14.209209 0.000000
70.597988 -0.462969 30.091511 0.000000 28.000000 14.200116 0.000000
71.549997 -0.689690 30.922521 0.000000 45.000000 14.217613 0.000000
70.655125 -0.404350 30.211011 0.000000 31.000000 14.211755 0.000000
70.503673 0.347645 30.381366 0.000000 29.000000 14.506565 29.000000
70.709896 -0.369837 30.346930 0.000000 28.000000 14.198729 0.000000
71.670093 -0.604688 31.183501 0.000000 34.000000 14.213298 0.000000
70.763990 -0.325653 30.480018 0.000000 32.000000 14.192752 0.000000
72.209621 1.341032 33.210669 0.000000 54.000000 14.747635 9.000000
70.862105 -0.290003 30.787444 0.000000 26.000000 14.121258 0.000000
71.833899 -0.477231 31.594978 0.000000 32.000000 14.187029 0.000000
70.908269 -0.265575 30.942158 0.000000 25.000000 14.087405 0.000000
71.361243 -0.901123 30.028831 0.000000 47.000000 14.415997 3.000000
70.952473 -0.237661 31.095128 0.000000 26.000000 14.055421 0.000000
71.314221 2.712572 34.845717 0.000000 57.000000 14.254868 12.000000
72.363723 2.341893 34.614440 0.000000 70.000000 14.768861 23.000000
71.974776 -0.315477 32.004399 0.000000 32.000000 14.169457 0.000000
72.018293 -0.289372 32.165453 0.000000 35.000000 14.131910 0.000000
71.037167 2.452032 33.733291 0.000000 51.000000 14.478150 25.000000
70.935470 -0.567592 29.350546 0.000000 57.000000 14.705815 3.000000
71.778796 2.610846 34.739265 0.000000 46.000000 14.523438 12.000000
73.631432 0.385422 34.718545 0.000000 42.000000 14.255109 0.000000
72.020362 -1.278543 29.665925 0.000000 48.000000 14.756485 6.000000
72.162878 -0.072819 32.751970 0.000000 17.000000 14.062840 0.000000
72.377512 -1.368034 30.469712 0.000000 50.000000 14.515734 6.000000
72.189051 0.051231 32.852325 0.000000 33.000000 14.106318 0.000000
71.208794 0.467887 32.044552 0.000000 31.000000 14.179134 0.000000
72.212284 0.172802 32.954478 0.000000 30.000000 14.145585 0.000000
71.230166 0.559881 32.164773 0.000000 31.000000 14.189796 0.000000
72.538813 2.577391 34.911951 0.000000 52.000000 14.873621 23.000000
71.247837 0.659809 32.279794 0.000000 34.000000 14.205780 0.000000
72.254659 0.368647 33.195587 0.000000 36.000000 14.173774 0.000000
71.265775 0.765087 32.394291 0.000000 45.000000 14.225534 0.000000
72.270143 0.482890 33.306708 0.000000 38.000000 14.199339 0.000000
72.286293 0.566463 33.443540 0.000000 43.000000 14.193336 0.000000
71.729133 1.511156 33.978285 0.000000 35.000000 14.183695 0.000000
69.133131 2.878908 31.769166 0.000000 58.000000 14.576669 7.000000
71.308553 0.962579 33.033324 0.000000 30.000000 14.057227 0.000000
72.317740 0.823039 33.850924 0.000000 45.000000 14.170316 0.000000
70.209448 2.385985 32.467168 0.000000 54.000000 14.568442 11.000000
72.334028 0.905458 34.207328 0.000000 31.000000 14.054546 0.000000
70.482614 2.390599 32.410777 0.000000 52.000000 14.763590 11.000000
72.675983 2.148178 34.823832 0.000000 71.000000 14.731322 23.000000
72.304516 1.462642 34.574584 0.000000 53.000000 14.202913 0.000000
72.295304 1.544603 34.719419 0.000000 42.000000 14.176676 0.000000
71.684636 -0.734819 30.389267 0.000000 20.000000 14.535351 5.000000
71.081073 2.776014 34.773853 0.000000 44.000000 14.190107 0.000000
70.178272 0.775799 30.599934 0.000000 47.000000 14.470200 4.000000
72.014135 2.810441 35.974269 0.000000 42.000000 14.176021 0.000000
71.537348 -0.249476 31.138118 0.000000 46.000000 14.378304 2.000000
74.492267 -1.420914 33.929215 0.000000 25.000000 14.034714 0.000000
69.271749 1.661822 30.668745 0.000000 58.000000 14.445372 17.000000
69.920205 2.407395 32.113716 0.000000 53.000000 14.583604 11.000000
69.771248 1.039309 30.443565 0.000000 78.000000 14.468084 4.000000
71.906491 3.202595 34.594376 0.000000 58.000000 15.042487 12.000000
68.874078 2.708737 31.961470 0.000000 38.000000 14.218866 0.000000
69.886962 2.152896 32.769647 0.000000 36.000000 14.078375 0.000000
71.422744 -0.654641 29.411396 0.000000 38.000000 14.914067 3.000000
68.647887 3.155496 31.361332 0.000000 34.000000 14.660687 7.000000
71.462549 0.985010 32.958220 0.000000 41.000000 14.201175 0.000000
73.106522 1.172922 33.993223 0.000000 43.000000 14.792755 10.000000
69.317445 1.893180 31.459212 0.000000 40.000000 14.224747 0.000000
69.879965 1.840985 31.279447 0.000000 77.000000 14.619633 17.000000
69.463473 1.662717 31.322759 0.000000 38.000000 14.236156 0.000000
70.635724 0.918276 32.124564 0.000000 33.000000 14.076639 0.000000
70.134960 1.729857 31.167524 0.000000 56.000000 14.759034 17.000000
71.815327 -1.246330 29.271424 0.000000 46.000000 14.849436 6.000000
70.872919 2.318858 33.597333 0.000000 49.000000 14.363642 25.000000
70.904810 0.649545 31.879145 0.000000 34.000000 14.192245 0.000000
70.997265 0.521300 31.831478 0.000000 36.000000 14.191277 0.000000
70.121566 0.642701 30.911445 0.000000 29.000000 14.198004 0.000000
71.092129 0.392689 31.787274 0.000000 40.000000 14.189807 0.000000
71.535599 2.457183 34.679697 0.000000 62.000000 14.310678 12.000000
71.192590 0.260505 31.743966 0.000000 38.000000 14.189022 0.000000
70.067467 2.958255 32.812102 0.000000 69.000000 14.669724 22.000000
71.296223 0.047797 31.760126 0.000000 21.000000 14.110203 0.000000
70.409553 0.272766 30.772908 0.000000 34.000000 14.208529 0.000000
71.399484 -0.116133 31.744423 0.000000 18.000000 14.077517 0.000000
70.505972 0.089585 30.771235 0.000000 23.000000 14.152711 0.000000
71.504523 -0.247290 31.706695 0.000000 28.000000 14.077353 0.000000
73.721519 -1.468221 32.440246 0.000000 35.000000 14.281739 0.000000
70.815368 -0.275993 30.655436 0.000000 30.000000 14.167533 0.000000
71.496661 0.945114 32.673210 0.000000 45.000000 14.338371 0.000000
70.502304 3.168278 33.557812 0.000000 51.000000 14.691954 21.000000
71.178708 2.542884 33.344434 0.000000 67.000000 14.813357 25.000000
74.284072 -0.571149 33.600019 0.000000 50.000000 14.604862 8.000000
71.147475 -0.594103 30.528762 0.000000 46.000000 14.231115 0.000000
72.032036 3.021563 35.175487 0.000000 52.000000 14.715881 26.000000
71.261239 -0.723603 30.507618 0.000000 32.000000 14.228992 0.000000
72.014572 1.033547 33.469512 0.000000 32.000000 14.309323 9.000000
71.377687 -0.836620 30.478548 0.000000 35.000000 14.242735 0.000000
73.699011 0.137918 34.705463 0.000000 26.000000 14.147374 0.000000
71.498407 -1.003435 30.485834 0.000000 19.000000 14.207315 0.000000
71.896964 2.926458 35.794837 0.000000 51.000000 14.267346 0.000000
71.654041 0.828731 32.727951 0.000000 50.000000 14.332963 0.000000
72.821294 -1.586490 31.364698 0.000000 36.000000 14.201047 0.000000
72.955957 -1.727769 31.363215 0.000000 35.000000 14.194347 0.000000
72.121801 -1.597695 30.421174 0.000000 37.000000 14.242415 0.000000
71.295352 2.805840 35.045079 0.000000 45.000000 14.202799 0.000000
70.410904 2.883239 34.086691 0.000000 36.000000 14.195796 0.000000
71.675381 2.282519 34.841295 0.000000 50.000000 14.205114 0.000000
70.875546 2.227217 33.855878 0.000000 36.000000 14.179383 0.000000
72.206338 1.580570 34.657201 0.000000 36.000000 14.176615 0.000000
70.116514 2.392602 31.972121 0.000000 58.000000 14.762747 11.000000
71.851786 0.958679 33.597089 0.000000 35.000000 14.101200 0.000000
72.050790 2.874813 35.523385 0.000000 57.000000 14.462427 26.000000
69.887530 0.848208 30.249825 0.000000 58.000000 14.514710 4.000000
72.646970 2.287770 34.801944 0.000000 61.000000 14.812102 23.000000
70.894198 0.448736 31.258852 0.000000 50.000000 14.368502 1.000000
71.706264 0.849736 32.767251 0.000000 37.000000 14.357972 0.000000
69.554065 2.197490 31.705839 0.000000 72.000000 14.434846 11.000000
72.751028 -0.068118 33.514128 0.000000 24.000000 14.040599 0.000000
75.042247 -1.250505 32.905242 0.000000 61.000000 14.980919 13.000000
72.889509 -0.206887 33.501684 0.000000 31.000000 14.043212 0.000000
73.063689 1.865041 35.045832 0.000000 63.000000 14.676924 16.000000
73.023128 -0.296659 33.457085 0.000000 30.000000 14.089541 0.000000
74.180800 -0.551033 34.343086 0.000000 35.000000 14.186054 0.000000
72.943827 -1.248056 30.519904 0.000000 55.000000 14.906343 6.000000
74.331549 -0.673081 34.320348 0.000000 43.000000 14.211622 0.000000
73.299990 -0.477195 33.370575 0.000000 40.000000 14.186029 0.000000
72.274097 -0.426043 30.443576 0.000000 46.000000 15.055964 5.000000
69.138549 2.389370 32.023433 0.000000 31.000000 14.147245 0.000000
73.664330 -1.182844 32.629656 0.000000 42.000000 14.331783 15.000000
73.921092 -1.161637 33.481051 0.000000 31.000000 14.076280 0.000000
71.736732 0.574814 32.616867 0.000000 34.000000 14.279008 0.000000
69.278503 1.503841 30.795364 0.000000 46.000000 14.287653 17.000000
72.003434 2.891269 36.051149 0.000000 37.000000 14.181953 0.000000
72.138098 2.749470 36.058297 0.000000 40.000000 14.170638 0.000000
72.273454 2.613442 36.059497 0.000000 48.000000 14.166306 0.000000
72.417116 2.403185 36.145710 0.000000 42.000000 14.078271 0.000000
70.324010 0.293512 30.606282 0.000000 39.000000 14.252892 0.000000
71.454143 1.602043 33.024145 0.000000 43.000000 14.549443 19.000000
69.912366 1.608690 31.740563 0.000000 40.000000 14.264587 18.000000
70.509253 0.349259 31.022933 0.000000 36.000000 14.192071 0.000000
72.607300 2.310222 35.391754 0.000000 56.000000 14.509163 23.000000
74.427199 -0.740977 33.931104 0.000000 31.000000 14.420100 8.000000
69.813451 1.114620 30.695105 0.000000 30.000000 14.415565 4.000000
71.574959 -1.082776 29.732340 0.000000 50.000000 14.578183 3.000000
69.912700 1.787313 31.677302 0.000000 47.000000 14.407996 18.000000
75.053359 -1.282526 33.045062 0.000000 63.000000 14.898073 13.000000
70.827544 0.660588 31.795209 0.000000 42.000000 14.194416 0.000000
70.874201 0.716168 31.929492 0.000000 33.000000 14.190506 0.000000
71.311302 0.341533 31.660646 0.000000 52.000000 14.352505 0.000000
70.916840 0.786586 32.054311 0.000000 36.000000 14.198168 0.000000
70.062122 1.004322 31.376141 0.000000 31.000000 14.157582 0.000000
71.799243 -0.855366 30.286466 0.000000 55.000000 14.579920 5.000000
70.099729 1.105419 31.478294 0.000000 29.000000 14.192679 0.000000
70.996616 0.911602 32.319920 0.000000 44.000000 14.192348 0.000000
69.668035 1.684225 31.307637 0.000000 47.000000 14.380118 17.000000
72.531661 2.579707 35.286658 0.000000 69.000000 14.684541 23.000000
71.068153 1.023190 32.603703 0.000000 47.000000 14.164139 0.000000
72.042982 1.572350 34.314634 0.000000 45.000000 14.243514 0.000000
71.617857 1.920677 33.330485 0.000000 53.000000 14.694994 19.000000
71.562566 0.754016 32.675609 0.000000 68.000000 14.257230 0.000000
73.749539 -0.593835 33.591169 0.000000 42.000000 14.273691 8.000000
73.227098 1.792592 35.215719 0.000000 57.000000 14.645403 16.000000
73.499632 0.458226 34.634978 0.000000 54.000000 14.262955 0.000000
73.779932 -0.444774 33.773694 0.000000 47.000000 14.294518 8.000000
74.408213 -0.587716 33.746271 0.000000 36.000000 14.596446 8.000000
69.727903 2.315097 31.794072 0.000000 67.000000 14.569098 11.000000
72.231382 -0.534088 30.751754 0.000000 48.000000 14.809513 5.000000
72.705828 -1.546979 31.272261 0.000000 35.000000 14.202289 0.000000
72.702803 1.571756 34.523177 0.000000 25.000000 14.536197 16.000000
72.799410 -1.470180 31.568215 0.000000 27.000000 14.159518 0.000000
70.468757 3.142574 33.054554 0.000000 60.000000 14.905822 22.000000
71.998651 1.619536 33.488458 0.000000 59.000000 14.656996 19.000000
73.974540 -1.741077 32.594789 0.000000 37.000000 14.186324 0.000000
72.879289 -1.393986 31.872780 0.000000 28.000000 14.103850 0.000000
74.016813 -1.677824 32.736457 0.000000 35.000000 14.180908 0.000000
73.280004 0.815014 34.823709 0.000000 53.000000 14.260357 0.000000
69.012489 2.944118 32.435984 0.000000 33.000000 14.213529 0.000000
72.944368 -1.247817 32.139723 0.000000 26.000000 14.101766 0.000000
72.726628 2.348902 34.834874 0.000000 53.000000 14.881879 23.000000
71.522149 2.244607 34.616709 0.000000 27.000000 14.200884 0.000000
73.005926 -0.888619 32.455138 0.000000 34.000000 14.206770 0.000000
73.024386 -0.807489 32.589312 0.000000 42.000000 14.201948 0.000000
74.211753 -1.350624 33.667493 0.000000 25.000000 14.040120 0.000000
70.838424 1.823699 32.010148 0.000000 46.000000 14.821908 30.000000
71.136976 1.628317 32.494665 0.000000 79.000000 14.638346 30.000000
71.996669 0.781051 32.812211 0.000000 41.000000 14.467249 9.000000
73.063100 -0.550534 32.988481 0.000000 31.000000 14.187617 0.000000
72.185564 2.977586 34.876936 0.000000 48.000000 14.929049 26.000000
73.074520 -0.366722 33.250061 0.000000 36.000000 14.179491 0.000000
72.836634 -1.230677 31.967517 0.000000 30.000000 14.133305 0.000000
74.245807 -0.618352 34.349671 0.000000 41.000000 14.179743 0.000000
73.085596 -0.269209 33.585725 0.000000 31.000000 14.080340 0.000000
71.651749 0.583118 32.447976 0.000000 36.000000 14.317049 0.000000
73.082256 -0.193583 33.731893 0.000000 29.000000 14.053007 0.000000
74.240454 -0.410387 34.609045 0.000000 45.000000 14.177742 0.000000
69.802274 2.830632 32.646156 0.000000 48.000000 14.512903 22.000000
73.783088 -0.874710 32.696467 0.000000 48.000000 14.562782 15.000000
73.364838 1.443002 35.216265 0.000000 41.000000 14.509201 16.000000
72.279830 2.505761 36.013374 0.000000 31.000000 14.125686 0.000000
70.628161 3.010927 33.443597 0.000000 60.000000 14.725931 21.000000
70.254021 1.760369 31.971673 0.000000 54.000000 14.450045 18.000000
68.850773 2.999654 32.354098 0.000000 39.000000 14.191749 0.000000
74.590980 -1.460865 32.831951 0.000000 46.000000 14.614406 14.000000
68.932576 2.782964 32.180728 0.000000 40.000000 14.191510 0.000000
68.977206 2.682769 32.088006 0.000000 41.000000 14.201732 0.000000
69.026778 2.598761 31.980603 0.000000 34.000000 14.232350 0.000000
71.528464 -0.399082 30.986717 0.000000 33.000000 14.354599 0.000000
69.162940 2.151739 31.833063 0.000000 43.000000 14.107834 0.000000
69.218304 2.072982 31.729103 0.000000 34.000000 14.143510 0.000000
69.036711 2.048042 31.315869 0.000000 47.000000 14.224103 0.000000
71.064415 1.782962 32.925733 0.000000 69.000000 14.477243 19.000000
73.128393 -1.731555 31.527064 0.000000 31.000000 14.214218 0.000000
69.460404 1.674289 31.385104 0.000000 41.000000 14.210566 0.000000
72.164596 -0.679443 31.644528 0.000000 36.000000 14.234699 0.000000
70.513224 2.350865 32.312397 0.000000 66.000000 14.806026 11.000000
72.676015 -1.180954 30.144513 0.000000 45.000000 14.973884 6.000000
70.118083 0.630572 30.806073 0.000000 29.000000 14.240691 0.000000
71.007757 3.025873 33.696796 0.000000 59.000000 14.837666 20.000000
72.346551 -1.320429 30.601939 0.000000 30.000000 14.461189 6.000000
72.064600 2.202846 34.229201 0.000000 63.000000 14.693481 24.000000
72.176389 -1.375567 29.864265 0.000000 54.000000 14.691007 6.000000
70.844324 -0.400897 30.484276 0.000000 36.000000 14.191854 0.000000
70.945825 -0.506098 30.437937 0.000000 40.000000 14.210084 0.000000
70.377387 1.854528 31.761659 0.000000 79.000000 14.687510 18.000000
71.155831 -0.767885 30.384204 0.000000 32.000000 14.199247 0.000000
72.597447 -1.120848 30.335996 0.000000 37.000000 14.869089 6.000000
71.375931 -1.113452 30.393175 0.000000 25.000000 14.110892 0.000000
71.488170 -1.222011 30.363220 0.000000 25.000000 14.125334 0.000000
69.372141 1.555847 30.710465 0.000000 60.000000 14.418686 17.000000
72.126806 2.776207 35.712181 0.000000 31.000000 14.352599 26.000000
69.868498 2.854148 32.380699 0.000000 74.000000 14.699365 22.000000
72.468125 1.337867 34.469642 0.000000 46.000000 14.275362 16.000000
69.811820 2.861086 33.332067 0.000000 36.000000 14.196799 0.000000
71.432886 0.086777 31.943891 0.000000 16.000000 14.125427 0.000000
70.179845 2.127858 33.118769 0.000000 33.000000 14.065284 0.000000
73.191242 1.113769 34.337165 0.000000 58.000000 14.635739 10.000000
70.076556 2.748170 32.502402 0.000000 60.000000 14.697657 22.000000
73.231345 0.577866 34.600559 0.000000 26.000000 14.193621 0.000000
72.302080 2.146645 34.603957 0.000000 50.000000 14.614841 23.000000
71.298993 0.721582 32.410459 0.000000 48.000000 14.210248 0.000000
72.329187 0.408737 33.348210 0.000000 35.000000 14.167813 0.000000
69.890052 2.395804 31.682428 0.000000 56.000000 14.772573 11.000000
72.442427 0.287891 33.298877 0.000000 42.000000 14.184799 0.000000
71.516123 0.433895 32.356634 0.000000 36.000000 14.187534 0.000000
69.707850 1.553988 30.618294 0.000000 56.000000 14.665169 17.000000
72.555552 1.138849 34.261497 0.000000 44.000000 14.306846 10.000000
70.706753 1.752974 32.978242 0.000000 34.000000 14.217346 0.000000
72.961103 1.470118 34.467393 0.000000 33.000000 14.655623 16.000000
72.799670 -0.106561 33.192365 0.000000 38.000000 14.205705 0.000000
69.863482 2.864234 32.492211 0.000000 49.000000 14.647239 22.000000
71.440381 1.951234 33.117502 0.000000 70.000000 14.713264 19.000000
71.980917 -0.181029 32.297846 0.000000 32.000000 14.111431 0.000000
71.874812 -0.995492 29.487121 0.000000 42.000000 14.934951 3.000000
71.080611 2.981205 34.014447 0.000000 64.000000 14.695646 20.000000
73.185482 -0.563331 33.148366 0.000000 30.000000 14.173726 0.000000
71.021911 2.660716 33.846953 0.000000 61.000000 14.543064 20.000000
73.314890 -0.686901 33.115176 0.000000 37.000000 14.190705 0.000000
75.108456 -1.246039 33.031687 0.000000 49.000000 14.960677 13.000000
72.767168 2.168263 35.478569 0.000000 54.000000 14.473307 23.000000
72.505236 2.052731 34.696225 0.000000 33.000000 14.632363 23.000000
70.938024 1.858863 32.037082 0.000000 48.000000 14.890406 30.000000
72.603975 -0.772666 32.142703 0.000000 40.000000 14.192940 0.000000
72.737897 -0.905285 32.127891 0.000000 33.000000 14.197838 0.000000
72.079413 -0.831153 30.768122 0.000000 44.000000 14.524133 5.000000
73.024603 -1.307494 32.200145 0.000000 32.000000 14.082635 0.000000
74.173572 -1.562425 33.065778 0.000000 33.000000 14.183690 0.000000
70.611942 2.417580 32.691950 0.000000 63.000000 14.718484 11.000000
73.298626 -1.484067 32.131587 0.000000 36.000000 14.170974 0.000000
73.440026 -1.605318 32.124876 0.000000 38.000000 14.183454 0.000000
73.976412 -1.222987 33.002338 0.000000 40.000000 14.309073 15.000000
72.283093 2.768342 36.238713 0.000000 50.000000 14.179954 0.000000
71.366405 2.911705 35.198724 0.000000 36.000000 14.235398 0.000000
72.395860 2.677588 36.160966 0.000000 54.000000 14.229607 0.000000
73.275643 0.838731 35.022130 0.000000 45.000000 14.173960 0.000000
73.422775 0.712963 35.010972 0.000000 49.000000 14.189270 0.000000
73.572322 0.566409 35.021833 0.000000 42.000000 14.182082 0.000000
71.397326 -1.113036 29.130430 0.000000 65.000000 14.751601 3.000000
69.088185 1.679951 30.973418 0.000000 32.000000 14.194930 0.000000
70.963734 -0.654232 29.279396 0.000000 44.000000 14.703958 3.000000
71.698003 2.256737 33.618634 0.000000 42.000000 14.810247 24.000000
69.225053 1.863057 31.346770 0.000000 36.000000 14.206234 0.000000
69.268220 1.931907 31.470322 0.000000 41.000000 14.213862 0.000000
71.889742 2.976774 34.590032 0.000000 50.000000 14.893277 12.000000
72.093445 -0.407233 30.411510 0.000000 39.000000 14.975058 5.000000
70.158801 3.120537 33.005963 0.000000 40.000000 14.729829 22.000000
69.403329 2.075623 32.081955 0.000000 33.000000 14.081036 0.000000
69.027362 1.848883 30.909427 0.000000 44.000000 14.295868 0.000000
70.187359 0.954539 31.167287 0.000000 30.000000 14.305528 0.000000
72.469151 -1.241344 30.465635 0.000000 45.000000 14.652127 6.000000
70.053943 3.065297 32.959913 0.000000 71.000000 14.655108 22.000000
71.672716 0.735318 32.627231 0.000000 41.000000 14.335800 0.000000
71.004462 -1.371504 29.331104 0.000000 36.000000 14.253939 0.000000
74.625645 -0.451692 34.034423 0.000000 47.000000 14.669071 28.000000
71.165208 -1.022832 30.135499 0.000000 26.000000 14.168967 0.000000
71.225958 -0.958571 30.248019 0.000000 29.000000 14.189778 0.000000
71.286883 -0.948194 30.396144 0.000000 27.000000 14.159283 0.000000
70.728234 2.950478 34.324467 0.000000 45.000000 14.310480 0.000000
71.342256 -0.848237 30.491164 0.000000 32.000000 14.207893 0.000000
73.408290 0.944764 35.341980 0.000000 38.000000 14.161091 0.000000
71.796126 -0.974965 29.672108 0.000000 59.000000 14.808548 3.000000
72.453652 -1.181989 31.721243 0.000000 26.000000 14.055909 0.000000
71.459039 2.325620 33.571646 0.000000 61.000000 14.733029 25.000000
72.503806 -1.100233 31.834376 0.000000 29.000000 14.080992 0.000000
71.544978 -0.644950 31.018847 0.000000 35.000000 14.194716 0.000000
72.275767 0.884819 33.405025 0.000000 55.000000 14.405349 9.000000
69.753284 2.894227 32.335092 0.000000 37.000000 14.677840 22.000000
72.591690 -0.817844 31.988665 0.000000 36.000000 14.233843 0.000000
72.639222 -0.797725 32.152329 0.000000 41.000000 14.193668 0.000000
72.087704 2.271461 34.251878 0.000000 48.000000 14.739036 24.000000
72.255758 2.922011 36.261854 0.000000 51.000000 14.248171 0.000000
73.206625 0.965979 34.494806 0.000000 69.000000 14.474165 10.000000
72.204918 2.765838 35.484469 0.000000 72.000000 14.506247 26.000000
70.331360 1.745298 31.427349 0.000000 62.000000 14.757643 18.000000
72.795021 -0.541310 32.703666 0.000000 42.000000 14.173766 0.000000
72.213785 0.384525 33.132146 0.000000 27.000000 14.190664 0.000000
69.758959 0.946353 30.260719 0.000000 51.000000 14.493406 4.000000
70.214502 2.055318 31.975120 0.000000 55.000000 14.609126 11.000000
69.785279 2.888863 32.663783 0.000000 45.000000 14.530360 22.000000
72.736518 2.220180 35.376678 0.000000 58.000000 14.538005 23.000000
71.385804 2.938130 34.377011 0.000000 57.000000 14.671988 20.000000
70.893698 2.409046 33.331225 0.000000 66.000000 14.564823 25.000000
72.910765 -0.269047 33.275924 0.000000 35.000000 14.129300 0.000000
71.893089 0.143886 32.469100 0.000000 28.000000 14.176817 0.000000
72.937895 -0.258807 33.466541 0.000000 29.000000 14.057282 0.000000
71.909489 0.214316 32.607091 0.000000 30.000000 14.162164 0.000000
72.958924 -0.198946 33.620934 0.000000 33.000000 14.030648 0.000000
73.732981 -0.777375 32.707325 0.000000 43.000000 14.588163 15.000000
72.973918 -0.115082 33.760483 0.000000 31.000000 14.022781 0.000000
72.978905 0.051249 33.831101 0.000000 28.000000 14.094757 0.000000
71.940930 0.484272 32.988678 0.000000 31.000000 14.160334 0.000000
74.325769 -1.371205 32.651310 0.000000 69.000000 14.600834 14.000000
72.987072 0.324105 34.025124 0.000000 38.000000 14.173968 0.000000
70.905612 -0.477323 30.406412 0.000000 28.000000 14.219580 0.000000
70.063810 2.341786 31.927903 0.000000 59.000000 14.721240 11.000000
72.509171 -1.257858 29.615299 0.000000 45.000000 15.088473 6.000000
72.530708 2.275270 34.788374 0.000000 58.000000 14.741125 23.000000
71.163936 -1.557298 29.378363 0.000000 32.000000 14.210077 0.000000
72.920385 1.062631 34.167647 0.000000 69.000000 14.525145 10.000000
69.158515 3.010608 32.711724 0.000000 43.000000 14.205885 0.000000
69.832764 1.027778 30.651632 0.000000 53.000000 14.394444 4.000000
69.209526 2.889116 32.636415 0.000000 36.000000 14.197964 0.000000
70.105191 2.711268 33.479762 0.000000 48.000000 14.206033 0.000000
69.266783 2.792871 32.537859 0.000000 40.000000 14.221148 0.000000
71.831152 -1.076465 29.671425 0.000000 60.000000 14.766437 3.000000
73.960837 -0.398177 33.578843 0.000000 48.000000 14.529281 8.000000
73.785781 -1.454779 32.537786 0.000000 48.000000 14.280309 0.000000
70.461016 1.837172 31.759709 0.000000 73.000000 14.727899 18.000000
70.697470 1.620835 32.829002 0.000000 44.000000 14.203256 0.000000
71.784260 -0.199120 31.528225 0.000000 40.000000 14.364379 2.000000
71.100911 0.902605 32.593324 0.000000 44.000000 14.113541 0.000000
69.701198 1.100543 30.634910 0.000000 43.000000 14.369184 0.000000
72.174200 0.831691 33.163537 0.000000 40.000000 14.431061 9.000000
69.919939 0.938507 30.651893 0.000000 47.000000 14.390868 4.000000
71.659069 2.382479 33.720303 0.000000 59.000000 14.814988 24.000000
70.403628 0.832924 31.494673 0.000000 37.000000 14.196747 0.000000
71.370518 0.589224 32.374774 0.000000 38.000000 14.188168 0.000000
70.492842 0.691999 31.451239 0.000000 31.000000 14.183793 0.000000
72.262356 -1.288629 29.456705 0.000000 40.000000 14.999649 6.000000
70.534717 1.898169 32.042081 0.000000 62.000000 14.670037 30.000000
70.768599 2.409845 33.309512 0.000000 65.000000 14.500901 25.000000
70.481634 2.957959 33.858242 0.000000 49.000000 14.398614 21.000000
70.907311 -0.324141 29.387964 0.000000 55.000000 14.822619 3.000000
72.268886 1.444656 34.405999 0.000000 42.000000 14.254025 0.000000
70.080825 2.341799 31.925988 0.000000 51.000000 14.732430 11.000000
71.871251 -0.057638 32.131790 0.000000 31.000000 14.205235 0.000000
73.264481 1.314525 35.304570 0.000000 46.000000 14.324586 16.000000
72.092223 2.642367 35.111406 0.000000 57.000000 14.546647 26.000000
70.638593 2.030423 33.141735 0.000000 44.000000 14.268714 0.000000
71.182962 -0.299886 31.202119 0.000000 27.000000 14.101888 0.000000
72.200606 -0.480441 32.033776 0.000000 38.000000 14.187411 0.000000
70.423561 2.888460 33.909495 0.000000 37.000000 14.294740 21.000000
72.907550 -1.363480 31.875515 0.000000 29.000000 14.138570 0.000000
71.054208 2.427214 33.107422 0.000000 72.000000 14.783924 25.000000
71.483721 2.360010 33.444382 0.000000 62.000000 14.832638 25.000000
72.551667 -0.869805 31.931152 0.000000 37.000000 14.205851 0.000000
71.626832 -0.706060 31.000280 0.000000 35.000000 14.214919 0.000000
72.676359 -1.043830 31.931250 0.000000 39.000000 14.171881 0.000000
70.565218 0.056665 30.760910 0.000000 26.000000 14.172864 0.000000
72.935447 -1.415711 31.952416 0.000000 29.000000 14.084441 0.000000
73.056872 -1.459540 31.871893 0.000000 43.000000 14.170040 0.000000
69.872833 2.949794 32.866254 0.000000 71.000000 14.520497 22.000000
71.520096 -0.038901 31.326160 0.000000 50.000000 14.406234 2.000000
69.610164 1.629290 30.737661 0.000000 48.000000 14.594229 17.000000
70.877631 2.762757 34.498384 0.000000 41.000000 14.196405 0.000000
71.897883 1.499908 34.040479 0.000000 55.000000 14.247204 0.000000
68.773443 2.732185 31.716886 0.000000 54.000000 14.294592 7.000000
71.257114 2.047154 33.114639 0.000000 64.000000 14.664520 19.000000
71.128923 -0.204221 31.292537 0.000000 26.000000 14.084319 0.000000
72.257105 0.927518 34.098515 0.000000 31.000000 14.076182 0.000000
71.332599 2.135511 33.296529 0.000000 58.000000 14.674790 25.000000
71.608690 2.804519 34.609422 0.000000 74.000000 14.606882 12.000000
71.394947 -0.816244 30.486129 0.000000 28.000000 14.262093 5.000000
74.134659 -0.434778 33.671870 0.000000 39.000000 14.564650 8.000000
71.756165 1.813899 33.259485 0.000000 52.000000 14.746623 19.000000
69.582554 1.581827 30.719055 0.000000 62.000000 14.557178 17.000000
75.131174 -1.728132 33.666833 0.000000 39.000000 14.357015 13.000000
72.750498 0.494249 33.910147 0.000000 34.000000 14.195339 0.000000
73.882493 0.100260 34.947131 0.000000 31.000000 14.114016 0.000000
72.883778 0.342409 33.905773 0.000000 33.000000 14.182635 0.000000
69.306374 1.582668 30.635876 0.000000 69.000000 14.432998 17.000000
70.743853 2.899495 34.357119 0.000000 47.000000 14.271742 0.000000
73.304380 -0.183225 33.955436 0.000000 36.000000 14.081933 0.000000
71.826372 -1.448330 29.633836 0.000000 43.000000 14.549563 6.000000
73.578359 -0.362551 33.860500 0.000000 43.000000 14.181633 0.000000
74.256867 -1.462849 32.980754 0.000000 61.000000 14.338333 14.000000
74.521851 -1.343951 33.984295 0.000000 33.000000 14.073282 0.000000
71.153762 1.798903 32.945437 0.000000 59.000000 14.531142 19.000000
74.830571 -1.513493 33.926848 0.000000 37.000000 14.181360 0.000000
69.865230 2.345530 31.586054 0.000000 60.000000 14.774090 11.000000
72.039508 2.393396 34.383881 0.000000 56.000000 14.720749 24.000000
68.870090 2.018691 31.240496 0.000000 31.000000 14.143022 0.000000
68.935578 2.068214 31.355910 0.000000 37.000000 14.156021 0.000000
72.046292 1.681843 34.401189 0.000000 36.000000 14.270998 0.000000
71.450493 1.349367 32.918629 0.000000 28.000000 14.441587 19.000000
71.615610 2.073727 33.480471 0.000000 54.000000 14.714866 25.000000
69.171292 2.200815 31.887718 0.000000 43.000000 14.116400 0.000000
71.620074 -0.116762 31.139523 0.000000 53.000000 14.510384 2.000000
74.121051 -0.394478 33.937049 0.000000 52.000000 14.449891 8.000000
69.325672 2.272358 32.336417 0.000000 26.000000 14.030978 0.000000
69.469090 2.775055 32.155054 0.000000 49.000000 14.521887 22.000000
71.819152 2.745344 34.617149 0.000000 51.000000 14.692550 12.000000
68.798324 2.828285 32.022825 0.000000 30.000000 14.217630 0.000000
72.108972 2.320399 34.173242 0.000000 57.000000 14.821526 24.000000
68.836770 2.871809 32.166843 0.000000 37.000000 14.196401 0.000000
72.115577 0.774671 33.356013 0.000000 59.000000 14.264477 9.000000
68.876183 2.942064 32.291389 0.000000 35.000000 14.202158 0.000000
71.192261 2.258496 33.829792 0.000000 51.000000 14.402337 25.000000
72.917306 2.112237 35.672967 0.000000 46.000000 14.431901 27.000000
69.713479 2.941034 33.221060 0.000000 41.000000 14.242869 0.000000
69.736931 1.007431 30.489028 0.000000 69.000000 14.404909 4.000000
74.015550 -0.316414 33.466541 0.000000 69.000000 14.669150 8.000000
71.535840 -0.620825 30.563648 0.000000 55.000000 14.430551 5.000000
70.687707 -0.513376 30.137138 0.000000 31.000000 14.199840 0.000000
71.644262 0.830094 32.868355 0.000000 32.000000 14.258156 0.000000
70.836006 -0.474837 30.380604 0.000000 34.000000 14.192113 0.000000
70.004654 2.363181 32.165299 0.000000 69.000000 14.581075 11.000000
70.977918 -0.408188 30.618542 0.000000 39.000000 14.200882 0.000000
70.154920 -0.272968 29.958196 0.000000 25.000000 14.118876 0.000000
71.045591 -0.388996 30.751719 0.000000 31.000000 14.187388 0.000000
70.215207 -0.276927 30.108767 0.000000 26.000000 14.077811 0.000000
