26.278510 4.541481 21.105199 0.000000 51.000000 14.788441 19.000000
26.826559 3.298775 21.216843 0.000000 42.000000 14.776439 25.000000
28.538804 2.018772 21.540658 0.000000 62.000000 14.714568 16.000000
28.713283 3.721233 21.259235 0.000000 39.000000 14.401589 0.000000
28.377126 4.271264 21.645451 0.000000 48.000000 14.852444 8.000000
28.120454 3.350995 21.587005 0.000000 48.000000 14.852058 24.000000
28.862263 3.254792 21.137023 0.000000 29.000000 14.249523 0.000000
29.162842 2.630561 21.399407 0.000000 42.000000 14.439138 0.000000
23.837443 6.181355 20.125193 0.000000 28.000000 14.371058 0.000000
25.072601 2.819317 21.165232 0.000000 73.000000 15.113010 28.000000
27.981330 2.107529 21.526089 0.000000 66.000000 14.823333 16.000000
24.199054 6.787520 20.266077 0.000000 27.000000 14.428703 0.000000
25.056203 7.871425 20.461889 0.000000 31.000000 14.430610 0.000000
27.686821 3.205713 21.256868 0.000000 50.000000 14.625710 25.000000
25.318145 8.080608 20.535912 0.000000 28.000000 14.445027 0.000000
27.134751 4.781816 21.452043 0.000000 52.000000 14.937860 18.000000
29.336956 8.169439 21.417625 0.000000 35.000000 14.418499 0.000000
26.727146 6.093189 21.373847 0.000000 56.000000 14.951505 17.000000
26.764878 4.909866 21.531689 0.000000 53.000000 15.097135 18.000000
28.375339 4.965077 21.892134 0.000000 52.000000 15.093445 4.000000
26.698116 4.325630 21.683560 0.000000 43.000000 15.259992 19.000000
26.825544 4.906126 21.486740 0.000000 36.000000 15.039911 18.000000
27.780641 3.086869 20.936128 0.000000 27.000000 14.292175 0.000000
28.203022 5.079308 21.318058 0.000000 28.000000 14.571522 0.000000
28.219192 3.574020 21.729452 0.000000 55.000000 14.969215 24.000000
28.198211 4.312102 21.848142 0.000000 58.000000 15.089610 8.000000
23.830344 4.156054 20.534298 0.000000 58.000000 14.771651 7.000000
27.532138 5.326115 21.008315 0.000000 36.000000 14.417402 0.000000
24.086826 5.559219 20.390520 0.000000 50.000000 14.574837 0.000000
23.662216 2.655458 20.533204 0.000000 49.000000 14.807672 23.000000
27.723611 2.159498 21.623203 0.000000 66.000000 14.974905 16.000000
25.063282 2.156894 20.997711 0.000000 55.000000 14.951671 22.000000
26.284600 6.186491 21.361853 0.000000 57.000000 15.037429 14.000000
24.054093 5.151275 20.553383 0.000000 32.000000 14.740909 6.000000
29.527539 5.419417 21.435929 0.000000 30.000000 14.394311 0.000000
26.789901 4.071522 21.462863 0.000000 57.000000 15.024485 19.000000
28.651631 6.247860 21.247294 0.000000 33.000000 14.403542 0.000000
26.455184 6.395623 21.147229 0.000000 48.000000 14.790462 14.000000
25.091976 2.542881 20.641152 0.000000 48.000000 14.597566 28.000000
28.833885 2.619969 21.691066 0.000000 62.000000 14.796178 15.000000
24.261587 2.595484 20.513249 0.000000 49.000000 14.655992 23.000000
24.851028 3.731256 21.106186 0.000000 54.000000 15.104296 20.000000
26.390421 6.386312 21.139471 0.000000 37.000000 14.797182 14.000000
23.670569 3.797612 20.193272 0.000000 33.000000 14.474271 0.000000
29.074526 2.081552 22.039786 0.000000 47.000000 15.083224 26.000000
26.805918 4.892996 21.449219 0.000000 43.000000 15.007644 18.000000
25.014079 2.026137 20.947467 0.000000 71.000000 14.913519 22.000000
23.702419 5.158095 20.518613 0.000000 49.000000 14.784572 30.000000
27.997268 3.284980 21.371833 0.000000 49.000000 14.669361 24.000000
27.098100 2.076543 21.481244 0.000000 76.000000 14.974426 21.000000
23.667917 7.736098 20.147612 0.000000 30.000000 14.430321 0.000000
27.134979 3.398644 21.319044 0.000000 43.000000 14.808087 25.000000
27.967389 2.153671 21.640763 0.000000 56.000000 14.938257 16.000000
25.912695 5.588336 20.872789 0.000000 55.000000 14.642452 0.000000
27.144624 3.095098 21.507355 0.000000 40.000000 14.989631 27.000000
28.602433 3.320853 21.067397 0.000000 27.000000 14.238929 0.000000
25.418850 4.613751 21.153851 0.000000 46.000000 15.025529 13.000000
27.515719 2.844198 21.641836 0.000000 59.000000 15.038939 27.000000
29.012154 8.157926 21.355757 0.000000 40.000000 14.429804 0.000000
29.158175 8.042045 21.373389 0.000000 32.000000 14.414791 0.000000
29.293469 7.931101 21.381482 0.000000 29.000000 14.392839 0.000000
29.449909 7.784901 21.433989 0.000000 29.000000 14.409543 0.000000
27.765263 3.214629 21.269212 0.000000 49.000000 14.620446 25.000000
29.596975 7.643688 21.475171 0.000000 31.000000 14.417269 0.000000
26.221670 4.161589 21.364270 0.000000 66.000000 15.053668 19.000000
28.285472 7.803802 21.174020 0.000000 39.000000 14.412845 0.000000
28.413512 7.669871 21.169352 0.000000 35.000000 14.380047 0.000000
26.203467 3.585082 21.509255 0.000000 72.000000 15.199097 25.000000
24.796618 4.334513 21.009157 0.000000 68.000000 15.021659 13.000000
26.943889 3.599031 21.707601 0.000000 61.000000 15.229225 25.000000
26.408327 4.300506 21.597139 0.000000 57.000000 15.239625 19.000000
29.106264 6.832588 21.354810 0.000000 32.000000 14.408120 0.000000
24.253215 2.952698 20.830098 0.000000 53.000000 14.966882 23.000000
29.343893 6.501665 21.399159 0.000000 35.000000 14.398958 0.000000
29.445343 6.351642 21.393153 0.000000 31.000000 14.370720 0.000000
29.520099 6.227269 21.337194 0.000000 22.000000 14.299649 0.000000
24.174397 2.191756 20.247063 0.000000 39.000000 14.415596 0.000000
28.277654 3.614112 21.707782 0.000000 59.000000 14.935183 24.000000
24.378554 3.677886 20.312007 0.000000 43.000000 14.433905 0.000000
28.389871 4.904274 21.695081 0.000000 53.000000 14.898040 4.000000
29.485117 2.596261 21.854051 0.000000 58.000000 14.811491 10.000000
25.267865 5.827215 20.536604 0.000000 28.000000 14.456794 0.000000
27.091918 5.515544 20.904033 0.000000 37.000000 14.412798 0.000000
27.183702 5.654437 20.922948 0.000000 37.000000 14.411000 0.000000
26.859857 2.170711 21.554126 0.000000 72.000000 15.098068 21.000000
27.248464 5.823649 20.880575 0.000000 21.000000 14.355385 0.000000
27.146299 3.962399 21.283399 0.000000 45.000000 14.770823 25.000000
27.297476 6.004930 20.810554 0.000000 21.000000 14.276277 0.000000
27.089106 3.876372 21.333211 0.000000 37.000000 14.832024 25.000000
27.515032 6.248758 20.869517 0.000000 23.000000 14.285797 0.000000
25.590417 4.889758 20.794629 0.000000 37.000000 14.637310 0.000000
27.806571 6.411296 21.048093 0.000000 36.000000 14.395662 0.000000
25.228528 7.111989 20.927680 0.000000 47.000000 14.846913 12.000000
28.296137 6.818925 21.171049 0.000000 33.000000 14.407594 0.000000
24.545972 2.525651 20.677543 0.000000 48.000000 14.753505 28.000000
24.112091 4.662824 20.429820 0.000000 41.000000 14.607596 0.000000
24.775510 4.279088 21.112942 0.000000 51.000000 15.127544 13.000000
26.012923 3.465119 21.314383 0.000000 68.000000 15.051058 25.000000
27.042946 3.484303 21.493288 0.000000 57.000000 14.998340 25.000000
28.685381 7.081559 21.259599 0.000000 36.000000 14.408099 0.000000
24.713145 2.861770 20.909407 0.000000 45.000000 14.942780 28.000000
28.478374 8.184544 21.449489 0.000000 43.000000 14.638975 1.000000
27.321909 7.720665 20.954325 0.000000 41.000000 14.411117 0.000000
25.328995 3.939979 21.067417 0.000000 58.000000 14.961046 20.000000
26.922753 4.886345 21.390263 0.000000 53.000000 14.924367 18.000000
25.881128 6.525353 21.305899 0.000000 61.000000 15.071856 14.000000
25.556747 2.094582 21.302791 0.000000 60.000000 15.140381 22.000000
27.962884 3.216550 21.611692 0.000000 47.000000 14.910896 24.000000
27.066587 5.110260 21.549550 0.000000 54.000000 15.048001 18.000000
28.076398 7.969189 21.130381 0.000000 34.000000 14.416401 0.000000
28.231063 8.005759 21.159436 0.000000 30.000000 14.410622 0.000000
26.708434 5.698319 21.480557 0.000000 51.000000 15.059714 17.000000
28.540384 8.055056 21.225836 0.000000 30.000000 14.407153 0.000000
28.690079 8.079954 21.245831 0.000000 29.000000 14.393633 0.000000
27.656479 3.265551 21.531083 0.000000 48.000000 14.899863 25.000000
28.504959 4.463520 21.769472 0.000000 67.000000 14.945211 8.000000
29.161917 8.085509 21.353886 0.000000 36.000000 14.394942 0.000000
29.318907 8.073380 21.392842 0.000000 36.000000 14.398308 0.000000
24.653202 4.670348 20.583428 0.000000 31.000000 14.638054 0.000000
26.712451 3.302269 21.252627 0.000000 46.000000 14.836513 25.000000
28.158376 2.009953 21.109826 0.000000 41.000000 14.378269 0.000000
24.218688 4.809557 20.654301 0.000000 39.000000 14.803032 6.000000
28.536572 2.535776 21.264740 0.000000 35.000000 14.445939 0.000000
27.064451 5.665924 21.544019 0.000000 51.000000 15.043078 17.000000
26.861975 5.716149 21.417120 0.000000 30.000000 14.963970 17.000000
29.029734 3.386989 21.195261 0.000000 30.000000 14.269384 0.000000
29.190699 3.454491 21.338892 0.000000 40.000000 14.373969 0.000000
24.644595 7.797539 20.665269 0.000000 33.000000 14.719778 9.000000
26.958896 2.719430 21.554453 0.000000 57.000000 15.076539 27.000000
24.808540 6.127656 20.582152 0.000000 43.000000 14.602543 0.000000
23.858563 6.294291 20.196843 0.000000 39.000000 14.436284 0.000000
23.994198 6.180256 20.131598 0.000000 26.000000 14.342726 0.000000
24.202008 6.004836 20.185563 0.000000 24.000000 14.349521 0.000000
27.410961 3.176010 21.256899 0.000000 44.000000 14.686593 25.000000
26.718579 3.395364 21.358705 0.000000 51.000000 14.938626 25.000000
27.079007 8.127416 20.932719 0.000000 22.000000 14.443626 0.000000
28.700770 2.625536 22.133486 0.000000 49.000000 15.257063 15.000000
26.374482 6.114858 21.184287 0.000000 58.000000 14.844410 14.000000
27.583361 7.689248 21.050916 0.000000 38.000000 14.447654 0.000000
25.949277 6.134511 20.795605 0.000000 36.000000 14.559100 14.000000
28.982627 2.051973 21.629308 0.000000 83.000000 14.703130 26.000000
24.933694 2.026844 21.092680 0.000000 74.000000 15.072887 22.000000
23.662979 4.897639 20.493317 0.000000 53.000000 14.768599 30.000000
26.091913 3.486538 21.300468 0.000000 66.000000 15.020061 25.000000
27.955779 7.349554 20.959620 0.000000 20.000000 14.276454 0.000000
28.795858 2.220805 21.790327 0.000000 48.000000 14.901382 26.000000
28.319433 3.361116 21.432128 0.000000 54.000000 14.657103 24.000000
26.605437 7.486511 20.699166 0.000000 26.000000 14.320292 0.000000
28.340491 6.924943 21.201456 0.000000 42.000000 14.427468 0.000000
28.146075 3.749252 21.781834 0.000000 52.000000 15.036436 24.000000
25.525944 3.403253 20.779021 0.000000 40.000000 14.636309 20.000000
28.738691 6.459022 21.259745 0.000000 35.000000 14.396481 0.000000
26.610521 6.469407 21.219446 0.000000 48.000000 14.826634 14.000000
28.662714 5.047210 21.825087 0.000000 36.000000 14.964656 4.000000
27.551448 2.426424 21.496656 0.000000 40.000000 14.889453 21.000000
27.550784 6.357374 20.997671 0.000000 35.000000 14.402907 0.000000
29.134031 5.943442 21.378457 0.000000 28.000000 14.425060 0.000000
27.631942 6.232008 20.924766 0.000000 24.000000 14.313895 0.000000
25.387673 5.660244 20.700135 0.000000 44.000000 14.589867 0.000000
27.758168 6.055589 20.948018 0.000000 24.000000 14.308730 0.000000
27.704981 2.328280 21.417454 0.000000 42.000000 14.778334 21.000000
28.528092 2.213932 21.646729 0.000000 62.000000 14.820389 16.000000
29.469159 5.452336 21.423586 0.000000 30.000000 14.395150 0.000000
28.078100 5.612719 21.142481 0.000000 39.000000 14.427828 0.000000
28.821335 4.339862 21.330818 0.000000 42.000000 14.447573 0.000000
28.886615 4.184376 21.298910 0.000000 34.000000 14.402050 0.000000
27.232939 2.933565 21.574387 0.000000 59.000000 15.035530 27.000000
23.447909 4.998895 20.496859 0.000000 51.000000 14.819497 30.000000
26.186945 7.023308 21.226828 0.000000 44.000000 14.927272 14.000000
29.211069 3.469693 21.376132 0.000000 41.000000 14.405798 0.000000
24.400151 3.071115 20.826406 0.000000 51.000000 14.930868 23.000000
29.597057 2.413306 21.478940 0.000000 40.000000 14.420927 0.000000
25.410229 3.486436 21.056556 0.000000 47.000000 14.932533 20.000000
26.425301 6.458937 21.330815 0.000000 39.000000 14.976118 14.000000
24.301927 3.647076 20.322872 0.000000 38.000000 14.461406 0.000000
24.393317 4.388633 20.334734 0.000000 41.000000 14.452815 0.000000
28.313724 3.573305 21.948456 0.000000 46.000000 15.161971 24.000000
27.269866 4.577202 21.516605 0.000000 62.000000 14.971026 19.000000
24.621848 4.181089 20.501512 0.000000 32.000000 14.565073 0.000000
23.611493 7.735907 20.156405 0.000000 29.000000 14.451344 0.000000
23.707307 7.882400 20.151521 0.000000 27.000000 14.425445 0.000000
23.756145 2.593787 20.726248 0.000000 46.000000 14.975241 23.000000
26.278173 7.768669 20.731763 0.000000 32.000000 14.424278 0.000000
26.420194 7.848948 20.781129 0.000000 30.000000 14.441099 0.000000
25.465148 3.762947 21.236946 0.000000 63.000000 15.096364 20.000000
27.319262 2.819182 21.426052 0.000000 64.000000 14.871807 27.000000
28.341772 5.033619 21.584620 0.000000 56.000000 14.800911 4.000000
27.256733 4.953118 21.288164 0.000000 53.000000 14.751110 18.000000
27.119886 8.225211 20.948924 0.000000 35.000000 14.450414 0.000000
28.038752 2.223407 21.625955 0.000000 57.000000 14.908072 16.000000
27.824386 3.699313 21.559891 0.000000 39.000000 14.890923 24.000000
28.191882 2.099069 21.134014 0.000000 37.000000 14.394470 0.000000
28.304153 2.408902 21.157602 0.000000 31.000000 14.392710 0.000000
24.333598 4.833655 20.603685 0.000000 59.000000 14.728315 6.000000
28.929522 2.617993 21.706180 0.000000 52.000000 14.789823 15.000000
28.777867 3.456941 21.233464 0.000000 32.000000 14.362206 0.000000
24.998760 2.193498 21.188977 0.000000 37.000000 15.152459 22.000000
26.104900 2.236756 21.388236 0.000000 66.000000 15.102802 21.000000
29.050540 3.848899 21.331033 0.000000 34.000000 14.397221 0.000000
27.853778 2.422282 21.582106 0.000000 37.000000 14.906107 16.000000
23.946746 2.855494 20.872553 0.000000 52.000000 15.075896 23.000000
24.339794 7.933298 20.693503 0.000000 29.000000 14.814553 9.000000
29.242788 4.102527 21.392989 0.000000 37.000000 14.415243 0.000000
24.911159 7.608311 20.842249 0.000000 33.000000 14.833596 9.000000
29.430705 4.358880 21.421265 0.000000 39.000000 14.401369 0.000000
27.509101 3.314680 21.726538 0.000000 50.000000 15.123014 25.000000
24.858206 4.142777 20.960586 0.000000 57.000000 14.960699 13.000000
24.909804 4.275489 21.061835 0.000000 59.000000 15.048072 13.000000
28.871225 5.556729 21.292827 0.000000 36.000000 14.399512 0.000000
27.226152 3.406034 21.488596 0.000000 40.000000 14.953350 25.000000
26.261754 5.857746 20.991001 0.000000 47.000000 14.680752 14.000000
29.542919 5.940024 21.499419 0.000000 24.000000 14.452844 0.000000
26.966139 2.625226 21.770117 0.000000 18.000000 15.285293 27.000000
29.151764 2.638030 21.626695 0.000000 43.000000 14.663271 15.000000
24.505263 3.543938 20.305949 0.000000 39.000000 14.400045 0.000000
25.400791 2.672836 20.537595 0.000000 34.000000 14.428438 0.000000
26.252303 4.070290 21.296662 0.000000 79.000000 14.980968 19.000000
23.824356 4.151777 20.592943 0.000000 45.000000 14.830172 7.000000
23.950858 2.701397 20.456027 0.000000 52.000000 14.668724 23.000000
23.524342 8.197347 20.137864 0.000000 27.000000 14.452485 0.000000
24.950983 3.391476 20.786236 0.000000 52.000000 14.770178 20.000000
25.275363 6.543356 20.522383 0.000000 33.000000 14.441269 0.000000
25.434898 6.365108 20.544482 0.000000 26.000000 14.427631 0.000000
27.058063 5.971400 20.772544 0.000000 22.000000 14.292017 0.000000
25.480268 4.750744 20.796922 0.000000 59.000000 14.663844 29.000000
27.265303 5.736967 20.917598 0.000000 35.000000 14.387782 0.000000
26.568252 2.665517 21.327257 0.000000 57.000000 14.941113 27.000000
25.583763 4.908547 20.839592 0.000000 61.000000 14.682633 0.000000
27.557981 5.379718 21.003549 0.000000 36.000000 14.407053 0.000000
28.527546 3.992054 21.205010 0.000000 33.000000 14.389672 0.000000
28.657083 3.793098 21.281897 0.000000 34.000000 14.436090 0.000000
28.511472 4.853909 21.735455 0.000000 67.000000 14.910596 4.000000
28.815325 3.483428 21.237348 0.000000 32.000000 14.357731 0.000000
28.104328 2.443826 21.453341 0.000000 61.000000 14.725244 16.000000
28.150422 3.784381 21.530695 0.000000 67.000000 14.790524 24.000000
26.864749 3.734511 21.714829 0.000000 63.000000 15.253733 25.000000
27.830826 2.852080 21.058442 0.000000 38.000000 14.400406 0.000000
23.527607 5.671391 20.551544 0.000000 51.000000 14.855254 5.000000
27.935466 2.659667 21.112474 0.000000 37.000000 14.430024 0.000000
27.169603 5.004254 21.496793 0.000000 50.000000 14.973819 18.000000
29.432368 2.249264 21.433801 0.000000 42.000000 14.413229 0.000000
29.503572 2.077432 21.451496 0.000000 45.000000 14.414781 0.000000
29.049507 8.211376 21.373076 0.000000 40.000000 14.438457 0.000000
29.190389 8.117576 21.381037 0.000000 36.000000 14.415144 0.000000
29.340157 8.003008 21.411616 0.000000 33.000000 14.411932 0.000000
29.489576 7.880533 21.447321 0.000000 31.000000 14.413797 0.000000
25.146477 4.735498 20.949902 0.000000 48.000000 14.886688 29.000000
24.649752 6.855600 20.909137 0.000000 44.000000 14.956501 12.000000
25.516408 4.515399 21.064873 0.000000 62.000000 14.917222 13.000000
29.488807 6.941901 21.940748 0.000000 48.000000 14.895238 2.000000
26.080374 2.208531 21.290868 0.000000 66.000000 15.013243 21.000000
28.855723 7.422854 21.167477 0.000000 23.000000 14.280670 0.000000
29.045400 7.185492 21.326801 0.000000 34.000000 14.394228 0.000000
26.108477 6.313586 21.208114 0.000000 49.000000 14.926329 14.000000
29.321249 6.838599 21.434763 0.000000 45.000000 14.438680 0.000000
25.222879 3.093633 21.106195 0.000000 50.000000 15.022277 28.000000
29.578284 3.960440 21.691108 0.000000 26.000000 14.632010 0.000000
29.372753 2.024659 21.732068 0.000000 61.000000 14.717299 26.000000
29.293611 2.398604 21.964893 0.000000 74.000000 14.961847 26.000000
27.589710 5.318202 21.025284 0.000000 36.000000 14.421253 0.000000
24.031638 4.888041 20.833111 0.000000 58.000000 15.018699 6.000000
26.705466 4.328704 21.673158 0.000000 65.000000 15.248225 19.000000
26.892136 4.219755 21.640134 0.000000 56.000000 15.174837 19.000000
23.937454 2.692889 20.439967 0.000000 57.000000 14.656016 23.000000
26.863897 6.680435 20.928918 0.000000 39.000000 14.487370 0.000000
25.784325 3.366096 20.976633 0.000000 48.000000 14.772056 20.000000
28.677924 6.463298 21.277076 0.000000 40.000000 14.426790 0.000000
27.562400 2.047817 21.407840 0.000000 50.000000 14.800409 21.000000
26.258578 6.086401 21.101166 0.000000 52.000000 14.788904 14.000000
27.172955 2.889617 21.655870 0.000000 63.000000 15.128238 27.000000
27.392876 7.274859 20.840113 0.000000 21.000000 14.284064 0.000000
26.997970 2.581501 21.137892 0.000000 57.000000 14.661621 27.000000
23.510176 4.341365 20.388306 0.000000 25.000000 14.699882 7.000000
26.493685 2.602882 21.156840 0.000000 47.000000 14.791344 27.000000
26.914984 3.523525 21.568308 0.000000 53.000000 15.099740 25.000000
29.285340 2.313906 21.700688 0.000000 61.000000 14.705975 26.000000
26.410731 2.176747 21.293464 0.000000 45.000000 14.942901 21.000000
27.975240 7.529063 20.996355 0.000000 33.000000 14.307991 0.000000
25.915396 2.717346 20.800354 0.000000 40.000000 14.571206 0.000000
27.094532 3.496765 21.528970 0.000000 51.000000 15.021764 25.000000
28.445630 7.627835 21.164094 0.000000 36.000000 14.367834 0.000000
28.489230 2.128928 21.641324 0.000000 53.000000 14.823690 16.000000
28.747645 7.692265 21.232691 0.000000 30.000000 14.368118 0.000000
28.903776 7.707205 21.281187 0.000000 24.000000 14.380978 0.000000
27.644807 3.447239 21.571922 0.000000 69.000000 14.942271 25.000000
28.217827 3.573708 21.764847 0.000000 74.000000 15.004039 24.000000
25.966002 2.884703 21.297610 0.000000 61.000000 15.045049 27.000000
29.530007 7.716526 21.460917 0.000000 31.000000 14.418139 0.000000
23.668098 6.886532 20.624963 0.000000 54.000000 14.895873 11.000000
25.867584 3.795305 21.160552 0.000000 47.000000 14.933078 20.000000
24.595818 2.120648 20.563249 0.000000 52.000000 14.631031 0.000000
26.115827 3.546277 21.337223 0.000000 69.000000 15.050636 25.000000
26.619842 2.845857 21.572225 0.000000 42.000000 15.168667 27.000000
24.790886 5.943448 20.254044 0.000000 20.000000 14.286412 0.000000
27.683566 2.196770 21.276570 0.000000 45.000000 14.645645 21.000000
27.005036 5.448324 21.159121 0.000000 41.000000 14.680768 18.000000
25.460053 5.320636 20.579907 0.000000 36.000000 14.456635 0.000000
24.173096 5.294360 20.248668 0.000000 35.000000 14.417449 0.000000
24.577990 3.987405 20.513537 0.000000 40.000000 14.586476 0.000000
27.222669 8.199953 20.964798 0.000000 37.000000 14.443224 0.000000
24.598652 2.575358 20.673982 0.000000 47.000000 14.738411 28.000000
27.555745 7.930638 21.045131 0.000000 41.000000 14.448103 0.000000
27.721034 7.787488 21.089744 0.000000 42.000000 14.455156 0.000000
26.178774 8.188457 20.731753 0.000000 35.000000 14.446195 0.000000
27.854508 7.675569 21.078773 0.000000 41.000000 14.415012 0.000000
26.347045 8.033035 20.760199 0.000000 37.000000 14.436821 0.000000
26.884518 5.864520 21.363533 0.000000 40.000000 14.906730 17.000000
24.823392 4.195648 20.747778 0.000000 73.000000 14.760813 13.000000
28.093421 7.474215 21.001090 0.000000 21.000000 14.286540 0.000000
26.661495 7.728994 20.794999 0.000000 37.000000 14.401398 0.000000
24.725306 4.229616 20.749207 0.000000 77.000000 14.783844 13.000000
27.060867 5.113615 21.413776 0.000000 39.000000 14.916834 18.000000
24.778028 2.581522 20.974219 0.000000 48.000000 14.991683 28.000000
28.100936 3.789045 21.558655 0.000000 65.000000 14.828712 24.000000
28.602614 6.918848 21.260679 0.000000 41.000000 14.427410 0.000000
27.109008 7.247033 20.863064 0.000000 37.000000 14.369069 0.000000
24.742560 3.101801 20.583887 0.000000 29.000000 14.618790 0.000000
25.219484 2.942415 21.276705 0.000000 47.000000 15.189335 28.000000
28.862975 6.618845 21.294301 0.000000 27.000000 14.402770 0.000000
27.446652 6.850552 21.011275 0.000000 44.000000 14.439147 0.000000
25.045724 2.012752 20.930300 0.000000 82.000000 14.889794 22.000000
23.526543 7.284043 20.368909 0.000000 36.000000 14.677353 0.000000
24.960737 2.074444 20.673504 0.000000 54.000000 14.658072 22.000000
26.849133 2.699336 21.469442 0.000000 56.000000 15.017835 27.000000
29.206396 6.183628 21.296892 0.000000 31.000000 14.329541 0.000000
27.877665 6.302095 21.147894 0.000000 36.000000 14.477322 0.000000
29.315909 6.034265 21.300752 0.000000 31.000000 14.309148 0.000000
26.417242 3.612800 21.417009 0.000000 41.000000 15.061966 25.000000
29.576022 5.660589 21.426703 0.000000 29.000000 14.374617 0.000000
28.206034 5.824337 21.139232 0.000000 28.000000 14.396437 0.000000
28.340521 5.625371 21.205298 0.000000 30.000000 14.431209 0.000000
25.190915 2.748483 21.108965 0.000000 63.000000 15.032030 28.000000
28.282928 3.583204 21.704092 0.000000 42.000000 14.930420 24.000000
29.045016 4.386308 21.361511 0.000000 40.000000 14.428167 0.000000
25.107359 3.425035 20.707328 0.000000 52.000000 14.658718 20.000000
26.146689 4.026150 21.263451 0.000000 54.000000 14.971873 19.000000
29.312126 3.835149 21.470815 0.000000 41.000000 14.475856 0.000000
25.146178 3.762629 21.184381 0.000000 53.000000 15.115456 20.000000
24.467327 6.721628 20.691185 0.000000 64.000000 14.784160 12.000000
25.062734 5.465327 20.493409 0.000000 40.000000 14.459913 0.000000
24.751422 5.124870 20.534819 0.000000 29.000000 14.568976 0.000000
23.758214 5.669478 20.584679 0.000000 45.000000 14.836703 5.000000
27.164032 2.674433 21.084982 0.000000 37.000000 14.573382 27.000000
23.519796 6.831702 20.139424 0.000000 44.000000 14.455009 0.000000
25.509748 6.402440 20.548645 0.000000 19.000000 14.415180 0.000000
24.115846 7.693736 20.213681 0.000000 29.000000 14.395953 0.000000
26.307134 7.451881 20.641798 0.000000 36.000000 14.330141 0.000000
24.660652 8.099560 20.389323 0.000000 28.000000 14.447088 0.000000
26.475311 2.620525 21.300958 0.000000 52.000000 14.935965 27.000000
24.790169 8.201593 20.407812 0.000000 35.000000 14.436551 0.000000
26.561482 7.645426 20.709391 0.000000 21.000000 14.339961 0.000000
26.727047 7.696019 20.805955 0.000000 33.000000 14.397624 0.000000
26.004231 6.501068 21.028433 0.000000 62.000000 14.774070 14.000000
26.819026 3.092496 21.379177 0.000000 48.000000 14.936435 27.000000
24.483372 6.323328 20.547262 0.000000 49.000000 14.640243 0.000000
27.281807 7.988457 20.953861 0.000000 37.000000 14.419511 0.000000
25.159465 2.779505 20.964641 0.000000 46.000000 14.898198 28.000000
25.967984 6.667482 21.152164 0.000000 46.000000 14.902749 14.000000
24.610787 2.557891 20.858629 0.000000 76.000000 14.915833 28.000000
29.353342 8.201394 21.417012 0.000000 38.000000 14.414287 0.000000
29.502703 8.111648 21.448939 0.000000 32.000000 14.412479 0.000000
26.501690 6.955750 21.314968 0.000000 59.000000 14.943810 14.000000
26.323058 2.060412 21.298692 0.000000 68.000000 14.967340 21.000000
28.935458 2.773371 21.803197 0.000000 61.000000 14.883140 15.000000
28.700667 3.254758 21.078584 0.000000 26.000000 14.228171 0.000000
23.569354 7.310377 20.366129 0.000000 33.000000 14.665197 0.000000
28.935111 3.463213 21.267871 0.000000 31.000000 14.361078 0.000000
29.054570 3.564580 21.362189 0.000000 40.000000 14.426721 0.000000
26.726761 4.167058 21.462132 0.000000 56.000000 15.037700 19.000000
26.838257 5.903948 21.077851 0.000000 38.000000 14.638290 17.000000
24.692226 2.656700 21.099644 0.000000 68.000000 15.132946 28.000000
25.923981 6.737244 20.841875 0.000000 45.000000 14.609810 14.000000
27.173301 3.360684 21.444958 0.000000 66.000000 14.922446 25.000000
25.277749 3.085598 21.004427 0.000000 54.000000 14.910912 28.000000
23.661329 4.293402 20.394690 0.000000 54.000000 14.672766 7.000000
29.128153 5.442789 21.339931 0.000000 32.000000 14.388779 0.000000
29.266563 5.513359 21.396018 0.000000 40.000000 14.412952 0.000000
29.388319 5.608438 21.401945 0.000000 30.000000 14.391875 0.000000
29.508282 5.698254 21.403500 0.000000 28.000000 14.366929 0.000000
24.802526 3.542547 20.850016 0.000000 56.000000 14.865135 20.000000
27.944279 7.941948 22.033817 0.000000 5.000000 15.326726 1.000000
26.241229 4.228785 21.269914 0.000000 64.000000 14.957322 19.000000
27.392766 2.293611 21.554096 0.000000 26.000000 14.980483 21.000000
25.372796 7.773010 20.551933 0.000000 38.000000 14.448598 0.000000
26.773516 6.476939 20.899024 0.000000 37.000000 14.478150 0.000000
26.997558 2.786351 21.816686 0.000000 5.000000 15.323784 27.000000
25.373586 6.652995 20.555160 0.000000 26.000000 14.451571 0.000000
26.980844 6.250507 20.778826 0.000000 26.000000 14.315178 0.000000
28.238485 3.402779 21.690630 0.000000 42.000000 14.927094 24.000000
27.123308 6.088534 20.797515 0.000000 21.000000 14.301980 0.000000
25.692286 6.290784 20.609862 0.000000 26.000000 14.434623 0.000000
26.529908 5.600610 21.276259 0.000000 46.000000 14.899830 17.000000
27.465302 5.682254 20.976889 0.000000 28.000000 14.401494 0.000000
27.616417 5.495875 21.033978 0.000000 44.000000 14.423841 0.000000
27.744924 5.327038 21.057490 0.000000 43.000000 14.418427 0.000000
27.881467 5.147288 21.101140 0.000000 31.000000 14.430881 0.000000
27.968452 5.013627 21.051312 0.000000 32.000000 14.363092 0.000000
28.595516 4.079963 21.309179 0.000000 36.000000 14.476281 0.000000
26.419684 4.410349 21.519259 0.000000 58.000000 15.161159 19.000000
28.880125 2.647158 21.738831 0.000000 70.000000 14.832566 15.000000
28.848795 3.604567 21.280977 0.000000 32.000000 14.392902 0.000000
26.453448 4.871325 21.339677 0.000000 41.000000 14.978552 18.000000
26.042769 4.098723 21.076489 0.000000 67.000000 14.812441 19.000000
27.740430 3.199856 20.990289 0.000000 38.000000 14.353872 0.000000
27.032538 5.703372 21.442039 0.000000 52.000000 14.950650 17.000000
25.470561 3.643277 21.176914 0.000000 57.000000 15.036617 20.000000
29.356731 2.565903 21.416617 0.000000 39.000000 14.413154 0.000000
29.423019 2.400216 21.421809 0.000000 32.000000 14.403595 0.000000
29.499983 2.221125 21.459338 0.000000 50.000000 14.423222 0.000000
26.566697 6.270312 21.445421 0.000000 59.000000 15.056710 14.000000
27.054674 4.898691 21.325763 0.000000 43.000000 14.832355 18.000000
23.583811 8.115108 20.139093 0.000000 25.000000 14.440565 0.000000
24.397857 2.207321 20.560013 0.000000 77.000000 14.671543 0.000000
29.172036 8.106615 21.376498 0.000000 40.000000 14.414765 0.000000
29.318124 7.998403 21.406594 0.000000 34.000000 14.411894 0.000000
26.925304 3.561994 21.712056 0.000000 56.000000 15.237670 25.000000
29.597088 7.772945 21.463637 0.000000 27.000000 14.405994 0.000000
28.353092 7.921374 21.209017 0.000000 37.000000 14.432063 0.000000
28.485459 7.797463 21.213314 0.000000 38.000000 14.407055 0.000000
27.217766 4.014849 21.163815 0.000000 35.000000 14.638420 0.000000
28.724670 7.564820 21.182117 0.000000 29.000000 14.323858 0.000000
26.969813 4.831981 21.304702 0.000000 44.000000 14.830533 18.000000
26.516268 5.536754 21.653126 0.000000 5.000000 15.270422 17.000000
29.150353 7.058743 21.344834 0.000000 38.000000 14.388664 0.000000
26.410293 2.839236 21.575818 0.000000 70.000000 15.218396 27.000000
28.145171 2.259687 21.351137 0.000000 36.000000 14.616548 16.000000
29.503955 6.589471 21.424297 0.000000 29.000000 14.388168 0.000000
28.764825 5.632436 21.676414 0.000000 58.000000 14.797121 3.000000
28.976087 2.143332 21.876534 0.000000 48.000000 14.945708 26.000000
26.382530 4.264754 21.367104 0.000000 68.000000 15.020948 19.000000
27.090740 2.100439 21.564015 0.000000 53.000000 15.056782 21.000000
27.712724 5.461717 21.049986 0.000000 38.000000 14.418210 0.000000
25.401546 7.641699 20.699581 0.000000 28.000000 14.586267 0.000000
27.909684 5.712892 21.075848 0.000000 34.000000 14.399987 0.000000
28.005224 5.845816 21.070871 0.000000 26.000000 14.374057 0.000000
24.961798 6.640307 20.886733 0.000000 44.000000 14.865814 12.000000
26.827531 6.541406 20.911603 0.000000 36.000000 14.478504 0.000000
26.945292 6.647336 20.926467 0.000000 33.000000 14.467024 0.000000
27.062414 6.750166 20.939611 0.000000 44.000000 14.454008 0.000000
27.600842 2.288587 21.466045 0.000000 46.000000 14.848701 21.000000
23.669743 3.093387 20.489650 0.000000 45.000000 14.763531 23.000000
28.718178 6.443175 21.251494 0.000000 35.000000 14.392958 0.000000
23.696548 6.995499 20.657793 0.000000 41.000000 14.921618 11.000000
27.171394 4.080966 21.300917 0.000000 50.000000 14.782373 19.000000
27.451539 7.012059 21.012614 0.000000 45.000000 14.439375 0.000000
24.531264 6.314142 20.600534 0.000000 47.000000 14.681638 0.000000
27.558355 7.123978 20.980167 0.000000 24.000000 14.384164 0.000000
26.546209 2.657064 21.123290 0.000000 62.000000 14.747034 27.000000
27.674915 7.221029 20.966155 0.000000 24.000000 14.344785 0.000000
28.435185 6.079510 21.424395 0.000000 51.000000 14.624026 0.000000
27.357493 2.776916 21.463791 0.000000 60.000000 14.900183 27.000000
29.376943 6.813822 21.421810 0.000000 41.000000 14.413760 0.000000
27.188359 7.020722 21.135299 0.000000 49.000000 14.617093 0.000000
28.878658 2.891738 21.879305 0.000000 48.000000 14.969903 15.000000
25.133260 5.102913 20.889016 0.000000 70.000000 14.830217 29.000000
28.240622 7.456140 21.074904 0.000000 34.000000 14.326064 0.000000
25.326046 3.470083 20.868475 0.000000 54.000000 14.767655 20.000000
23.416829 2.649641 20.871378 0.000000 46.000000 15.191646 23.000000
28.689869 7.557686 21.182049 0.000000 21.000000 14.331469 0.000000
26.896007 5.599793 21.450070 0.000000 55.000000 14.988601 17.000000
29.006075 7.576640 21.286902 0.000000 33.000000 14.363986 0.000000
29.465195 7.577253 21.418697 0.000000 23.000000 14.391256 0.000000
24.092180 6.425941 20.442139 0.000000 63.000000 14.624003 0.000000
28.440503 2.056657 21.196081 0.000000 40.000000 14.400164 0.000000
23.624358 2.096763 20.133503 0.000000 46.000000 14.426169 0.000000
24.021663 6.801317 20.673153 0.000000 53.000000 14.864882 11.000000
26.870150 5.494311 21.108326 0.000000 39.000000 14.660979 17.000000
27.585870 3.397243 21.639593 0.000000 50.000000 15.021276 25.000000
24.320910 6.145635 20.228042 0.000000 34.000000 14.364724 0.000000
24.456698 6.012733 20.191961 0.000000 26.000000 14.299578 0.000000
25.673290 6.081797 20.747168 0.000000 36.000000 14.572737 0.000000
27.509947 3.680966 21.521892 0.000000 49.000000 14.923223 25.000000
27.018056 3.983458 21.491056 0.000000 58.000000 15.001654 25.000000
27.172065 8.048479 20.951026 0.000000 31.000000 14.440954 0.000000
24.533103 2.728770 20.908652 0.000000 52.000000 14.981760 28.000000
26.247565 6.705006 21.364139 0.000000 34.000000 15.047828 14.000000
25.632273 3.589301 21.293572 0.000000 50.000000 15.114729 20.000000
23.571045 7.302036 20.386347 0.000000 36.000000 14.684544 0.000000
26.654082 3.426376 21.409384 0.000000 51.000000 15.002284 25.000000
26.741178 5.087088 21.485732 0.000000 53.000000 15.057538 18.000000
26.232055 4.178021 21.621574 0.000000 60.000000 15.302343 19.000000
27.842670 7.435143 20.923833 0.000000 22.000000 14.266500 0.000000
27.184033 3.637486 21.651140 0.000000 63.000000 15.121181 25.000000
26.681392 6.486079 21.149109 0.000000 37.000000 14.742396 14.000000
27.114670 3.595688 21.547374 0.000000 53.000000 15.035272 25.000000
23.953061 4.342626 20.725561 0.000000 50.000000 14.931132 7.000000
28.339129 6.858487 21.185323 0.000000 33.000000 14.412033 0.000000
25.430032 2.243158 21.318002 0.000000 51.000000 15.183170 22.000000
27.235777 4.444103 21.320573 0.000000 54.000000 14.787343 19.000000
29.014778 2.603821 21.867661 0.000000 39.000000 14.928519 15.000000
28.727503 6.365409 21.285127 0.000000 33.000000 14.423706 0.000000
27.869706 3.234362 21.545775 0.000000 48.000000 14.867157 24.000000
27.430161 6.423641 20.992554 0.000000 33.000000 14.424525 0.000000
27.509821 6.299123 20.929619 0.000000 28.000000 14.345568 0.000000
25.618826 6.694027 20.896944 0.000000 47.000000 14.730837 12.000000
24.003277 7.054553 20.686730 0.000000 55.000000 14.882180 11.000000
23.803184 5.625785 20.682811 0.000000 59.000000 14.922497 5.000000
29.470317 5.806247 21.625910 0.000000 31.000000 14.592235 0.000000
23.756240 6.808261 20.583740 0.000000 60.000000 14.836222 11.000000
23.524133 2.481397 20.362332 0.000000 50.000000 14.671470 23.000000
24.816677 2.566613 21.162751 0.000000 55.000000 15.167045 28.000000
27.167557 4.334622 21.414026 0.000000 60.000000 14.893543 19.000000
24.582791 2.770038 20.937882 0.000000 38.000000 14.999309 28.000000
26.590358 2.292176 21.426593 0.000000 48.000000 15.033126 21.000000
28.959629 3.572783 21.336739 0.000000 43.000000 14.422841 0.000000
28.994928 3.427524 21.287907 0.000000 36.000000 14.367425 0.000000
26.290821 2.999054 21.419777 0.000000 48.000000 15.092554 27.000000
29.314631 2.512686 21.470096 0.000000 43.000000 14.474602 0.000000
29.332545 2.366133 21.417606 0.000000 36.000000 14.419453 0.000000
26.011217 2.966259 21.327554 0.000000 49.000000 15.064281 27.000000
29.413553 2.027253 21.437135 0.000000 48.000000 14.420632 0.000000
29.356656 6.969325 21.903662 0.000000 60.000000 14.888217 2.000000
23.941854 2.192732 20.201323 0.000000 38.000000 14.422280 0.000000
26.623882 5.451779 21.500356 0.000000 51.000000 15.097677 17.000000
23.989848 3.496644 20.210274 0.000000 32.000000 14.420424 0.000000
24.046600 3.657453 20.268703 0.000000 35.000000 14.464894 0.000000
24.039614 3.864258 20.219597 0.000000 28.000000 14.418539 0.000000
24.080878 4.037097 20.241401 0.000000 24.000000 14.430703 0.000000
28.302001 8.162809 21.639109 0.000000 34.000000 14.862831 1.000000
24.616010 5.737969 20.347123 0.000000 26.000000 14.415775 0.000000
24.617926 5.955000 20.242776 0.000000 22.000000 14.313576 0.000000
27.461868 3.882278 21.251232 0.000000 52.000000 14.669836 0.000000
23.515530 4.532979 20.626909 0.000000 48.000000 14.931427 7.000000
29.229361 2.910363 21.830294 0.000000 76.000000 14.844737 10.000000
23.823031 7.853759 20.181533 0.000000 29.000000 14.429190 0.000000
24.375018 8.249359 20.325660 0.000000 27.000000 14.448002 0.000000
26.182926 7.644450 20.697754 0.000000 34.000000 14.412118 0.000000
26.320265 7.723225 20.742564 0.000000 31.000000 14.425528 0.000000
25.396506 3.603459 21.228563 0.000000 56.000000 15.103329 20.000000
29.017991 2.507769 21.497864 0.000000 45.000000 14.567123 15.000000
26.739224 7.944435 20.855487 0.000000 26.000000 14.443250 0.000000
27.316257 3.494011 21.684480 0.000000 61.000000 15.124532 25.000000
26.597093 2.254826 21.503540 0.000000 58.000000 15.106692 21.000000
26.664196 4.271307 21.570549 0.000000 76.000000 15.157248 19.000000
24.103800 4.154452 20.624964 0.000000 48.000000 14.799761 7.000000
24.883993 2.603523 21.035228 0.000000 35.000000 15.027814 28.000000
29.447152 8.209158 21.454796 0.000000 35.000000 14.430446 0.000000
24.928396 3.087328 20.837216 0.000000 42.000000 14.824885 28.000000
28.987238 8.161201 21.372480 0.000000 43.000000 14.451611 0.000000
26.973339 3.219368 21.420912 0.000000 40.000000 14.943102 25.000000
29.270008 7.989243 21.416322 0.000000 35.000000 14.431996 0.000000
24.934882 4.802597 20.707596 0.000000 41.000000 14.697027 29.000000
27.091589 4.143658 21.395053 0.000000 59.000000 14.891795 19.000000
28.006985 2.784822 21.103543 0.000000 35.000000 14.405536 0.000000
26.942098 2.364422 21.140021 0.000000 59.000000 14.676022 21.000000
28.741188 5.218499 21.715217 0.000000 60.000000 14.840182 4.000000
27.873711 3.289501 21.566041 0.000000 48.000000 14.886040 24.000000
27.288931 4.123614 21.002896 0.000000 46.000000 14.465766 0.000000
28.716096 3.849773 21.281655 0.000000 31.000000 14.422836 0.000000
25.491276 6.812041 21.128119 0.000000 35.000000 14.984454 12.000000
26.229637 3.609122 21.436637 0.000000 63.000000 15.122495 25.000000
28.899724 4.116129 21.283368 0.000000 30.000000 14.384000 0.000000
25.818001 2.222762 21.313231 0.000000 59.000000 15.092933 22.000000
29.009567 4.223948 21.323168 0.000000 33.000000 14.398588 0.000000
28.193525 3.389486 21.706395 0.000000 67.000000 14.952388 24.000000
29.122102 4.331918 21.361634 0.000000 36.000000 14.411282 0.000000
28.733887 4.947275 21.584843 0.000000 53.000000 14.714631 4.000000
29.338323 4.560207 21.395273 0.000000 32.000000 14.396396 0.000000
29.394413 2.785297 21.846229 0.000000 39.000000 14.823870 10.000000
29.421285 4.703073 21.346865 0.000000 29.000000 14.330880 0.000000
26.904587 3.812981 21.583828 0.000000 64.000000 15.117171 25.000000
29.540821 4.800373 21.380248 0.000000 31.000000 14.337072 0.000000
28.791673 5.514275 21.276158 0.000000 33.000000 14.400802 0.000000
28.236694 4.298131 21.434141 0.000000 64.000000 14.677318 8.000000
26.049329 6.844421 21.093136 0.000000 57.000000 14.827230 14.000000
27.909626 2.331885 21.664049 0.000000 53.000000 14.973711 16.000000
27.013088 3.370528 21.520235 0.000000 32.000000 15.031210 25.000000
25.679899 6.734178 21.008077 0.000000 50.000000 14.825760 12.000000
28.371114 5.329016 21.396435 0.000000 52.000000 14.610889 4.000000
24.225418 3.533984 20.317379 0.000000 44.000000 14.472925 0.000000
26.056380 3.724255 21.398923 0.000000 55.000000 15.123929 25.000000
23.870160 2.298280 20.182364 0.000000 43.000000 14.419604 0.000000
24.012313 2.113215 20.210526 0.000000 44.000000 14.415714 0.000000
28.010139 7.973625 21.722393 0.000000 37.000000 15.008446 1.000000
24.826874 7.977479 20.426330 0.000000 40.000000 14.446516 0.000000
23.494795 8.116656 20.114384 0.000000 26.000000 14.436101 0.000000
27.920426 3.747971 21.723474 0.000000 56.000000 15.029290 24.000000
27.910925 8.062455 21.744405 0.000000 65.000000 15.051801 1.000000
24.917570 6.595426 20.436547 0.000000 26.000000 14.436474 0.000000
25.392924 4.786570 20.910209 0.000000 53.000000 14.793608 29.000000
27.188733 3.662810 21.605931 0.000000 56.000000 15.076049 25.000000
23.992796 5.413015 20.390282 0.000000 49.000000 14.595347 0.000000
27.122851 5.419866 20.902989 0.000000 40.000000 14.404956 0.000000
27.987998 8.049999 21.847477 0.000000 43.000000 15.135332 1.000000
24.727028 7.598125 20.925807 0.000000 64.000000 14.955714 9.000000
27.709755 4.511398 21.064745 0.000000 49.000000 14.433261 0.000000
27.287524 5.061270 21.173923 0.000000 32.000000 14.632890 18.000000
28.036029 2.240052 21.616189 0.000000 61.000000 14.899147 16.000000
28.552961 5.626401 21.533345 0.000000 51.000000 14.704312 3.000000
28.794152 8.055392 21.312317 0.000000 35.000000 14.435524 0.000000
26.707623 2.094590 21.478266 0.000000 60.000000 15.057658 21.000000
29.059304 7.828442 21.337124 0.000000 23.000000 14.401229 0.000000
28.654730 4.178257 21.399535 0.000000 46.000000 14.551349 8.000000
29.179386 7.721227 21.331378 0.000000 29.000000 14.369135 0.000000
27.801069 7.946787 21.105883 0.000000 37.000000 14.453242 0.000000
26.981357 2.810015 21.608295 0.000000 69.000000 15.124100 27.000000
28.055170 7.676777 21.121936 0.000000 41.000000 14.412847 0.000000
28.157123 7.567627 21.085082 0.000000 32.000000 14.354411 0.000000
28.271011 7.432924 21.079573 0.000000 33.000000 14.323914 0.000000
24.733851 2.530391 20.991552 0.000000 48.000000 15.018334 28.000000
23.380724 2.841199 20.862983 0.000000 57.000000 15.191422 23.000000
28.688588 6.876569 21.285950 0.000000 35.000000 14.433093 0.000000
23.561599 2.561635 20.318372 0.000000 53.000000 14.620328 23.000000
28.225924 3.440599 21.867994 0.000000 53.000000 15.102859 24.000000
23.734804 4.895774 20.415358 0.000000 31.000000 14.676717 30.000000
23.528412 8.015885 20.265506 0.000000 53.000000 14.576085 0.000000
26.376988 6.136869 21.247000 0.000000 48.000000 14.905025 14.000000
26.108996 3.654534 21.333839 0.000000 54.000000 15.048842 25.000000
28.545789 2.498806 21.762855 0.000000 49.000000 14.929750 15.000000
26.863251 5.643867 21.093807 0.000000 39.000000 14.648340 17.000000
29.559399 5.401926 21.454865 0.000000 32.000000 14.405752 0.000000
23.566754 2.289293 20.134003 0.000000 40.000000 14.439363 0.000000
27.069952 2.054310 21.501779 0.000000 73.000000 15.000665 21.000000
23.836826 3.547060 20.188264 0.000000 38.000000 14.432712 0.000000
29.438474 7.020383 21.917619 0.000000 53.000000 14.883782 2.000000
24.022126 4.052103 20.241055 0.000000 31.000000 14.443326 0.000000
23.565210 5.474033 20.556474 0.000000 51.000000 14.851768 5.000000
24.263377 4.520787 20.336953 0.000000 39.000000 14.483644 0.000000
26.350801 7.180293 20.993298 0.000000 43.000000 14.663349 14.000000
27.896924 8.075965 21.515598 0.000000 75.000000 14.831719 1.000000
24.286438 7.785542 20.666738 0.000000 38.000000 14.800218 9.000000
25.117007 6.054067 20.395255 0.000000 30.000000 14.352205 0.000000
24.109232 7.022475 20.445003 0.000000 38.000000 14.623035 11.000000
27.464510 4.291734 21.137310 0.000000 41.000000 14.558137 19.000000
25.660722 6.463020 20.622720 0.000000 31.000000 14.454127 0.000000
26.887126 5.045099 21.481944 0.000000 51.000000 15.021649 18.000000
26.406702 7.040124 21.115847 0.000000 36.000000 14.770548 14.000000
27.461697 6.294332 20.908815 0.000000 21.000000 14.335892 0.000000
27.616979 6.355119 21.004512 0.000000 32.000000 14.394977 0.000000
26.954055 2.616692 21.261455 0.000000 52.000000 14.791827 27.000000
26.433148 2.572420 20.998169 0.000000 48.000000 14.649935 0.000000
28.041180 6.574294 21.178087 0.000000 36.000000 14.470701 0.000000
28.301247 6.738454 21.226413 0.000000 34.000000 14.460467 0.000000
27.902248 3.234384 21.451689 0.000000 69.000000 14.768210 24.000000
24.152189 4.305842 20.621218 0.000000 56.000000 14.785433 7.000000
28.559454 6.898970 21.251122 0.000000 37.000000 14.427609 0.000000
27.081071 7.486869 20.787754 0.000000 24.000000 14.301776 0.000000
23.787327 5.406422 20.391572 0.000000 48.000000 14.641930 5.000000
27.244113 7.519381 20.849549 0.000000 30.000000 14.326083 0.000000
28.832438 7.024940 21.300594 0.000000 30.000000 14.415644 0.000000
26.572408 3.204190 21.358969 0.000000 57.000000 14.971128 27.000000
23.397352 2.799493 20.963370 0.000000 42.000000 15.285668 23.000000
27.557231 7.590872 20.942274 0.000000 27.000000 14.347452 0.000000
26.667072 5.405460 20.984523 0.000000 59.000000 14.585023 17.000000
27.985724 3.360614 21.601077 0.000000 49.000000 14.895504 24.000000
26.036503 6.843410 20.844603 0.000000 58.000000 14.587649 14.000000
29.358820 2.430290 21.823865 0.000000 58.000000 14.809909 26.000000
23.692102 3.348317 20.307539 0.000000 23.000000 14.580973 0.000000
28.188583 7.670917 21.121904 0.000000 30.000000 14.383386 0.000000
27.146807 3.971077 21.091350 0.000000 30.000000 14.583393 25.000000
28.504863 7.675381 21.211163 0.000000 37.000000 14.400677 0.000000
27.359591 5.002899 21.267231 0.000000 56.000000 14.708002 18.000000
28.807861 7.678282 21.270189 0.000000 30.000000 14.391409 0.000000
28.964546 7.661809 21.312122 0.000000 34.000000 14.397746 0.000000
25.167774 2.791041 20.977441 0.000000 52.000000 14.908850 28.000000
29.263693 7.629395 21.372877 0.000000 23.000000 14.391015 0.000000
29.416125 7.601446 21.407504 0.000000 22.000000 14.391163 0.000000
24.027398 2.724364 20.957588 0.000000 66.000000 15.141045 23.000000
28.075309 3.324998 21.523802 0.000000 53.000000 14.800371 24.000000
28.058334 2.768310 21.117819 0.000000 35.000000 14.408133 0.000000
24.161635 2.738377 20.900580 0.000000 64.000000 15.055830 23.000000
25.452215 3.424858 21.131166 0.000000 54.000000 14.996043 20.000000
25.369531 4.817852 20.950983 0.000000 54.000000 14.838538 29.000000
28.860404 3.534279 21.281266 0.000000 33.000000 14.390623 0.000000
28.997130 3.613117 21.344802 0.000000 46.000000 14.422433 0.000000
23.987091 2.880586 20.895466 0.000000 60.000000 15.089345 23.000000
25.646212 4.863011 20.819973 0.000000 36.000000 14.649721 0.000000
27.143338 2.191057 21.555253 0.000000 68.000000 15.036633 21.000000
29.306012 7.014093 21.945960 0.000000 59.000000 14.940645 2.000000
27.492045 2.006740 21.418300 0.000000 48.000000 14.826132 21.000000
23.994216 6.106254 20.143188 0.000000 27.000000 14.354027 0.000000
24.213910 5.880553 20.259768 0.000000 37.000000 14.419272 0.000000
25.459800 4.994760 20.785741 0.000000 50.000000 14.657454 29.000000
28.724405 2.499506 22.032253 0.000000 60.000000 15.153111 15.000000
26.997248 7.839100 20.901264 0.000000 35.000000 14.430981 0.000000
26.565764 4.841524 21.727668 0.000000 22.000000 15.332210 18.000000
26.311434 6.051383 21.090535 0.000000 42.000000 14.766875 14.000000
24.737522 2.470526 20.576591 0.000000 62.000000 14.612785 28.000000
27.249693 7.565040 20.893481 0.000000 35.000000 14.367702 0.000000
28.133598 4.177603 21.439141 0.000000 55.000000 14.704937 8.000000
25.393764 6.689619 20.819077 0.000000 59.000000 14.704536 12.000000
25.902033 7.679288 20.645028 0.000000 43.000000 14.422654 0.000000
27.489836 7.280124 20.884846 0.000000 21.000000 14.306306 0.000000
28.354866 3.900071 21.567968 0.000000 37.000000 14.781780 24.000000
23.784626 2.489658 20.515760 0.000000 55.000000 14.763655 23.000000
27.952269 6.666226 21.146681 0.000000 38.000000 14.459682 0.000000
26.612889 4.414048 21.629716 0.000000 47.000000 15.226275 19.000000
26.838630 6.389477 20.866885 0.000000 41.000000 14.432439 0.000000
23.995947 5.420979 20.375631 0.000000 49.000000 14.580362 5.000000
24.832879 2.527398 20.734745 0.000000 52.000000 14.746008 28.000000
27.272445 5.655278 20.962300 0.000000 36.000000 14.429807 0.000000
29.063431 2.027464 21.795762 0.000000 29.000000 14.847659 26.000000
29.005404 4.820381 21.291253 0.000000 36.000000 14.368378 0.000000
23.993324 2.676938 21.058739 0.000000 43.000000 15.247221 23.000000
29.189683 4.428814 21.405082 0.000000 42.000000 14.438752 0.000000
29.250239 4.266310 21.397620 0.000000 39.000000 14.418116 0.000000
28.444681 4.835916 21.422289 0.000000 35.000000 14.619878 4.000000
24.819821 2.457372 20.661703 0.000000 41.000000 14.677646 28.000000
25.914222 2.881226 21.314217 0.000000 70.000000 15.072669 27.000000
28.223700 3.334582 21.104747 0.000000 36.000000 14.358905 0.000000
28.452501 2.587771 21.252584 0.000000 33.000000 14.452628 0.000000
28.464378 2.440271 21.202108 0.000000 33.000000 14.400775 0.000000
26.514645 4.990374 21.229422 0.000000 47.000000 14.857514 18.000000
29.045016 6.082065 21.507391 0.000000 26.000000 14.570453 3.000000
23.642207 6.445094 20.139159 0.000000 36.000000 14.427748 0.000000
27.720407 2.393352 21.376350 0.000000 34.000000 14.734840 21.000000
28.801591 2.292476 21.562999 0.000000 38.000000 14.678390 26.000000
26.188776 5.958784 21.020606 0.000000 40.000000 14.725726 14.000000
26.501811 4.176288 21.496064 0.000000 57.000000 15.120419 19.000000
28.625682 2.749647 21.750014 0.000000 56.000000 14.899602 15.000000
25.310167 8.119247 20.509579 0.000000 29.000000 14.421103 0.000000
