-11.105532 3.720296 10.299845 0.000000 69.000000 15.139761 24.000000
-10.203126 2.862918 7.006655 0.000000 55.000000 14.562372 7.000000
-13.849630 -0.545495 10.096961 0.000000 42.000000 14.855212 10.000000
-12.480454 2.852712 10.638584 0.000000 59.000000 14.657643 21.000000
-13.455827 1.741402 10.456220 0.000000 52.000000 14.324103 0.000000
-12.938233 1.918440 10.068334 0.000000 50.000000 14.442370 0.000000
-11.502462 -0.525096 6.414771 0.000000 40.000000 14.782942 12.000000
-11.871777 3.732716 10.639135 0.000000 66.000000 14.727824 24.000000
-12.529651 2.158078 10.566642 0.000000 63.000000 14.890166 19.000000
-11.809829 2.653094 8.986736 0.000000 46.000000 14.430262 0.000000
-11.787982 3.243604 10.444800 0.000000 58.000000 14.909209 26.000000
-11.305700 2.992089 8.466120 0.000000 45.000000 14.401604 0.000000
-11.930012 0.601864 7.626097 0.000000 47.000000 14.567251 14.000000
-12.050859 4.056691 10.944382 0.000000 52.000000 14.602426 0.000000
-11.924184 2.397361 8.954582 0.000000 23.000000 14.440907 0.000000
-10.298124 3.232390 8.570918 0.000000 70.000000 15.103358 25.000000
-11.047170 0.476297 5.888581 0.000000 41.000000 14.424041 0.000000
-11.095922 3.425945 9.408011 0.000000 51.000000 14.834683 27.000000
-10.422532 0.712726 5.249145 0.000000 43.000000 14.471942 0.000000
-12.715975 2.724557 10.867842 0.000000 32.000000 14.650848 21.000000
-11.523497 0.562216 6.593653 0.000000 36.000000 14.378278 0.000000
-12.567868 2.326773 10.563816 0.000000 63.000000 14.786039 21.000000
-12.767541 0.402316 8.591232 0.000000 47.000000 14.504799 0.000000
-13.035481 0.392902 8.968343 0.000000 49.000000 14.494758 0.000000
-10.643137 3.630975 8.581341 0.000000 56.000000 14.674834 25.000000
-10.812878 3.044030 8.613367 0.000000 55.000000 14.821170 25.000000
-9.608033 3.902480 6.826795 0.000000 40.000000 14.462985 0.000000
-11.831511 -1.042110 6.086323 0.000000 47.000000 14.600669 0.000000
-10.093716 3.924745 7.554011 0.000000 41.000000 14.449122 0.000000
-12.579860 1.902417 11.081203 0.000000 12.000000 15.219542 19.000000
-10.126152 2.109546 6.639705 0.000000 51.000000 14.769225 6.000000
-10.625283 -1.012792 5.138183 0.000000 48.000000 15.022703 4.000000
-11.097275 3.234384 9.539187 0.000000 62.000000 14.982729 27.000000
-11.007203 3.809375 9.693815 0.000000 69.000000 14.874325 24.000000
-9.952445 3.913854 7.531343 0.000000 35.000000 14.548594 0.000000
-11.272366 3.825890 10.410349 0.000000 43.000000 15.023024 24.000000
-11.096612 1.546143 7.030481 0.000000 42.000000 14.482529 0.000000
-12.498934 1.938070 10.722588 0.000000 45.000000 15.087011 19.000000
-10.789327 1.932200 6.677595 0.000000 40.000000 14.368670 0.000000
-9.871934 2.423732 5.938849 0.000000 34.000000 14.474865 0.000000
-11.547118 3.770969 9.700739 0.000000 41.000000 14.489837 0.000000
-11.437073 -0.346414 6.509635 0.000000 54.000000 14.800468 12.000000
-9.813230 2.546227 6.721589 0.000000 49.000000 14.852612 7.000000
-11.012667 -0.229412 5.396538 0.000000 33.000000 14.516192 0.000000
-12.514222 2.439451 10.837412 0.000000 46.000000 14.912233 21.000000
-11.233376 2.318324 7.814188 0.000000 42.000000 14.428923 0.000000
-11.477559 2.294650 8.180707 0.000000 43.000000 14.437712 0.000000
-13.131289 1.442041 10.335734 0.000000 56.000000 14.639215 15.000000
-9.770803 2.442334 5.754497 0.000000 23.000000 14.451246 0.000000
-10.097247 2.748887 6.447059 0.000000 37.000000 14.414774 0.000000
-12.252648 2.252838 9.336808 0.000000 44.000000 14.447351 0.000000
-10.520564 0.860901 6.095294 0.000000 58.000000 14.752299 5.000000
-11.133319 2.784138 8.097302 0.000000 41.000000 14.439557 0.000000
-12.396178 2.748572 10.939128 0.000000 51.000000 14.915350 21.000000
-11.574297 2.829243 8.804475 0.000000 42.000000 14.439258 0.000000
-9.212337 3.696249 6.618479 0.000000 65.000000 14.747067 28.000000
-11.911285 2.873715 9.473146 0.000000 47.000000 14.498137 0.000000
-12.281451 2.932306 9.915684 0.000000 44.000000 14.413987 0.000000
-11.674848 2.946639 9.811329 0.000000 51.000000 14.810804 27.000000
-11.764875 -0.836559 5.987826 0.000000 58.000000 14.511601 0.000000
-11.915944 -1.433273 6.378407 0.000000 55.000000 14.853741 3.000000
-12.293094 2.333700 9.440059 0.000000 27.000000 14.432639 0.000000
-11.711362 0.403556 7.080483 0.000000 40.000000 14.548128 14.000000
-10.908875 0.019837 5.419614 0.000000 39.000000 14.495981 0.000000
-12.022589 -0.210681 6.993411 0.000000 45.000000 14.541411 1.000000
-9.602732 3.603851 6.850537 0.000000 55.000000 14.609846 22.000000
-13.829248 0.136883 9.869634 0.000000 33.000000 14.458303 0.000000
-12.065461 1.537482 8.548768 0.000000 45.000000 14.511662 0.000000
-11.535995 0.515054 6.515178 0.000000 25.000000 14.350766 0.000000
-10.745994 -0.896525 5.031565 0.000000 54.000000 14.828365 4.000000
-11.385398 2.083502 7.964004 0.000000 43.000000 14.492237 0.000000
-10.863763 3.212177 9.110394 0.000000 58.000000 14.955257 25.000000
-11.001195 2.435286 7.590313 0.000000 42.000000 14.440794 0.000000
-11.908213 0.111634 7.589208 0.000000 45.000000 14.780598 14.000000
-10.398276 3.830605 8.778240 0.000000 48.000000 14.868230 23.000000
-10.895211 0.954294 6.869762 0.000000 45.000000 14.813841 13.000000
-12.326707 2.778254 9.911608 0.000000 47.000000 14.445687 0.000000
-10.260785 2.309415 6.585963 0.000000 53.000000 14.553917 6.000000
-9.330743 3.323957 6.788597 0.000000 46.000000 14.905999 22.000000
-11.566895 0.680106 6.898699 0.000000 40.000000 14.445000 0.000000
-9.665499 3.137142 7.448622 0.000000 56.000000 15.063833 22.000000
-10.367635 3.065342 8.925023 0.000000 50.000000 15.299912 25.000000
-9.312914 3.251522 6.969100 0.000000 63.000000 15.040538 22.000000
-14.037244 0.193808 10.301865 0.000000 51.000000 14.491363 0.000000
-12.136344 0.872486 7.900967 0.000000 44.000000 14.429812 0.000000
-12.475772 2.704023 10.668688 0.000000 61.000000 14.741349 21.000000
-12.732430 2.307854 10.288646 0.000000 34.000000 14.534739 19.000000
-9.349515 4.227739 6.640573 0.000000 38.000000 14.421776 0.000000
-11.493056 0.549608 7.080125 0.000000 36.000000 14.647484 14.000000
-10.621348 3.605005 8.681412 0.000000 51.000000 14.752117 25.000000
-12.548436 -0.851869 7.086615 0.000000 39.000000 14.474878 0.000000
-11.226525 0.370311 6.257718 0.000000 40.000000 14.518872 0.000000
-10.786628 1.144250 6.175015 0.000000 37.000000 14.467874 0.000000
-11.654051 0.420527 7.534844 0.000000 47.000000 14.808591 14.000000
-13.269619 0.170799 9.091523 0.000000 47.000000 14.477736 0.000000
-10.663482 0.545854 5.831453 0.000000 34.000000 14.652869 5.000000
-11.189566 4.012592 10.237355 0.000000 60.000000 14.917469 24.000000
-10.871310 -1.098456 5.028944 0.000000 32.000000 14.821788 4.000000
-12.109942 0.071696 7.505772 0.000000 28.000000 14.605589 14.000000
-12.189336 1.006981 8.251482 0.000000 44.000000 14.504560 0.000000
-12.054617 1.215699 8.093634 0.000000 44.000000 14.435760 0.000000
-11.406243 1.798523 7.497689 0.000000 42.000000 14.370881 0.000000
-12.848356 1.693869 10.888720 0.000000 63.000000 15.014528 19.000000
-10.043307 2.644345 6.339527 0.000000 37.000000 14.447882 0.000000
-11.653332 -0.781108 5.734747 0.000000 41.000000 14.445580 0.000000
-9.210235 3.319509 6.280350 0.000000 55.000000 14.746671 28.000000
-11.513313 1.355468 7.878447 0.000000 53.000000 14.673671 8.000000
-12.994396 -1.279459 7.388509 0.000000 43.000000 14.477763 0.000000
-13.253486 -1.375037 7.733608 0.000000 45.000000 14.496344 0.000000
-10.721724 2.910736 7.970705 0.000000 37.000000 14.629866 0.000000
-9.747095 2.379425 5.659772 0.000000 34.000000 14.449747 0.000000
-10.098917 3.290812 7.796731 0.000000 61.000000 14.843761 25.000000
-10.522349 1.027144 6.014441 0.000000 57.000000 14.637932 5.000000
-12.805986 -1.031380 7.301488 0.000000 44.000000 14.466997 0.000000
-13.088172 -1.080007 7.649809 0.000000 41.000000 14.449241 0.000000
-12.206992 3.553415 11.324525 0.000000 56.000000 14.894571 26.000000
-9.889071 2.212044 5.905295 0.000000 53.000000 14.538361 6.000000
-9.951475 2.186312 6.458936 0.000000 54.000000 14.776977 6.000000
-12.435712 3.042299 11.236538 0.000000 64.000000 14.903975 26.000000
-12.354514 2.697481 10.811734 0.000000 55.000000 14.905950 21.000000
-10.168553 3.685333 8.354623 0.000000 66.000000 14.894519 23.000000
-9.777814 2.015208 6.070125 0.000000 66.000000 14.789811 6.000000
-9.531169 3.086199 5.838579 0.000000 36.000000 14.389799 0.000000
-11.412992 2.637324 8.441175 0.000000 42.000000 14.464599 0.000000
-11.947980 1.356924 8.736454 0.000000 50.000000 14.771946 17.000000
-11.727621 3.826993 10.686889 0.000000 58.000000 14.818142 24.000000
-10.033511 3.092457 6.496558 0.000000 32.000000 14.336197 0.000000
-11.280153 -1.397679 5.061904 0.000000 42.000000 14.662986 4.000000
-9.510386 4.128241 6.818645 0.000000 38.000000 14.433021 0.000000
-12.479460 1.980070 10.077239 0.000000 49.000000 14.763664 20.000000
-10.389094 2.439393 6.775731 0.000000 44.000000 14.494599 0.000000
-12.421358 2.601739 9.976126 0.000000 46.000000 14.484179 0.000000
-11.377936 -0.528583 6.231959 0.000000 44.000000 14.787323 12.000000
-12.091779 3.484143 10.656937 0.000000 49.000000 14.680851 26.000000
-12.313069 -1.586714 7.004994 0.000000 42.000000 14.933607 29.000000
-11.980513 -1.853473 7.422100 0.000000 4.000000 15.506570 29.000000
-12.696731 -1.261527 7.016299 0.000000 43.000000 14.508774 0.000000
-11.336793 -1.278374 4.979803 0.000000 48.000000 14.527486 4.000000
-12.259442 -0.807505 6.746047 0.000000 42.000000 14.503448 0.000000
-11.131340 0.265978 5.992696 0.000000 42.000000 14.504838 0.000000
-10.920217 0.470019 5.838527 0.000000 40.000000 14.497195 0.000000
-10.019599 3.806829 8.434355 0.000000 61.000000 14.992316 23.000000
-12.016235 2.073604 8.839222 0.000000 44.000000 14.456948 0.000000
-9.832714 2.654095 7.036778 0.000000 54.000000 14.946685 7.000000
-11.535993 2.418307 8.427915 0.000000 42.000000 14.461993 0.000000
-9.979000 3.792923 8.565960 0.000000 31.000000 15.094015 23.000000
-12.157368 3.037763 11.105920 0.000000 46.000000 15.049977 26.000000
-10.864805 2.912317 7.809790 0.000000 34.000000 14.442236 0.000000
-10.807154 3.092033 7.672246 0.000000 33.000000 14.338445 0.000000
-9.183546 3.891308 6.245340 0.000000 35.000000 14.498262 0.000000
-10.262734 1.381132 5.489322 0.000000 37.000000 14.417145 0.000000
-10.665727 3.075516 8.408976 0.000000 60.000000 14.816473 25.000000
-10.418197 2.491531 6.796967 0.000000 39.000000 14.460399 0.000000
-10.931458 1.179593 6.407541 0.000000 57.000000 14.458894 0.000000
-11.201681 3.755230 10.060552 0.000000 54.000000 14.933865 24.000000
-10.196877 1.468841 5.533208 0.000000 36.000000 14.449732 0.000000
-12.323985 0.901715 8.168881 0.000000 43.000000 14.408942 0.000000
-9.301536 3.363915 6.538905 0.000000 47.000000 14.786731 28.000000
-12.996695 -0.434150 8.819135 0.000000 35.000000 14.813136 11.000000
-11.704919 -0.039066 6.566576 0.000000 30.000000 14.492892 0.000000
-11.572970 3.066340 10.044394 0.000000 63.000000 14.950009 27.000000
-13.537907 -0.461418 9.884458 0.000000 65.000000 14.946787 10.000000
-12.413523 0.662853 9.261149 0.000000 59.000000 14.987471 18.000000
-12.283436 1.263812 8.441745 0.000000 34.000000 14.415431 0.000000
-12.358003 1.245242 8.718867 0.000000 44.000000 14.504882 0.000000
-9.949130 3.726119 7.232304 0.000000 49.000000 14.485467 0.000000
-13.130500 -0.188455 8.788360 0.000000 47.000000 14.589697 11.000000
-13.516093 1.275370 10.504069 0.000000 49.000000 14.507253 0.000000
-10.177355 3.173865 8.358977 0.000000 68.000000 15.114670 25.000000
-11.435127 3.579753 9.907678 0.000000 38.000000 14.760218 27.000000
-11.366966 1.160272 7.057231 0.000000 25.000000 14.462528 0.000000
-12.052860 0.972425 8.836257 0.000000 56.000000 14.911567 18.000000
-13.980120 -0.571351 10.151226 0.000000 37.000000 14.795603 10.000000
-11.394344 0.725186 7.154580 0.000000 41.000000 14.681252 14.000000
-9.758581 3.739101 8.019278 0.000000 69.000000 15.012244 23.000000
-11.789208 0.005358 7.185927 0.000000 25.000000 14.716825 14.000000
-10.453140 1.856922 6.125987 0.000000 37.000000 14.380674 0.000000
-10.265164 2.025825 5.961660 0.000000 37.000000 14.366078 0.000000
-12.481102 2.443112 10.354796 0.000000 48.000000 14.696519 21.000000
-11.876881 0.056141 7.730037 0.000000 46.000000 14.898179 14.000000
-11.917784 -0.857462 6.320932 0.000000 48.000000 14.571060 0.000000
-11.422587 2.149722 8.081823 0.000000 42.000000 14.493608 0.000000
-11.280003 2.335808 7.902306 0.000000 37.000000 14.429915 0.000000
-10.996672 2.500427 7.655315 0.000000 40.000000 14.447762 0.000000
-13.321827 0.956181 10.452777 0.000000 66.000000 14.767662 16.000000
-10.720171 3.324880 9.093113 0.000000 65.000000 15.004864 25.000000
-9.629287 3.873822 6.789594 0.000000 32.000000 14.441217 0.000000
-11.861808 -0.465230 6.250978 0.000000 40.000000 14.406157 0.000000
-12.153965 3.069314 11.347970 0.000000 47.000000 15.158510 26.000000
-12.194744 -0.657622 6.822420 0.000000 42.000000 14.523947 0.000000
-11.993223 1.937415 10.037588 0.000000 55.000000 15.127300 20.000000
-12.862545 -0.835985 7.544632 0.000000 40.000000 14.459171 0.000000
-13.108487 -0.922267 7.880565 0.000000 41.000000 14.478990 0.000000
-12.007901 0.496291 7.767441 0.000000 32.000000 14.625193 0.000000
-13.381548 -1.008154 8.234037 0.000000 45.000000 14.486987 0.000000
-11.529949 -0.329299 5.928178 0.000000 45.000000 14.435451 0.000000
-13.657929 -1.090718 8.596611 0.000000 46.000000 14.495543 0.000000
-11.682091 3.072763 10.415679 0.000000 50.000000 15.049198 26.000000
-12.551706 -0.397619 7.820400 0.000000 39.000000 14.636246 0.000000
-11.176636 3.627262 9.474816 0.000000 56.000000 14.718843 27.000000
-9.898187 3.815654 8.265870 0.000000 45.000000 14.996050 23.000000
-11.997473 -0.363312 7.098296 0.000000 45.000000 14.679190 1.000000
-12.789655 -0.281550 8.768605 0.000000 62.000000 14.876330 11.000000
-9.818176 3.190044 6.182077 0.000000 31.000000 14.299089 0.000000
-10.043839 3.165430 6.498740 0.000000 27.000000 14.297491 0.000000
-10.092261 3.114528 6.753885 0.000000 38.000000 14.409860 0.000000
-10.491764 3.120516 7.152833 0.000000 34.000000 14.305233 0.000000
-10.737224 3.105107 7.497581 0.000000 30.000000 14.298656 0.000000
-9.985954 2.256401 6.093130 0.000000 45.000000 14.539244 6.000000
-9.405281 3.403533 6.373994 0.000000 64.000000 14.609909 28.000000
-13.510039 -1.308164 8.121609 0.000000 43.000000 14.466734 0.000000
-11.551802 3.028261 10.037225 0.000000 60.000000 14.979050 27.000000
-11.860838 -1.207218 6.037379 0.000000 28.000000 14.626952 3.000000
-12.300765 -0.186141 7.347397 0.000000 42.000000 14.497337 0.000000
-9.844857 1.903499 6.554770 0.000000 44.000000 15.028543 6.000000
-10.754620 1.225945 6.190523 0.000000 37.000000 14.463675 0.000000
-12.127001 2.004722 9.932314 0.000000 50.000000 14.945330 20.000000
-10.254974 1.585335 5.816350 0.000000 37.000000 14.495202 0.000000
-10.098071 1.769022 5.661256 0.000000 37.000000 14.455389 0.000000
-13.534137 1.774205 10.608558 0.000000 40.000000 14.326409 0.000000
-12.340706 2.481813 9.670396 0.000000 39.000000 14.445942 0.000000
-12.022991 2.641031 9.419768 0.000000 44.000000 14.490139 0.000000
-12.953383 -0.210792 8.923262 0.000000 63.000000 14.799080 11.000000
-11.711085 2.989007 9.062950 0.000000 40.000000 14.394520 0.000000
-10.100831 3.992691 8.553180 0.000000 68.000000 14.908629 23.000000
-9.996696 3.990951 7.445390 0.000000 30.000000 14.439010 0.000000
-10.212955 1.782536 5.809815 0.000000 37.000000 14.436875 0.000000
-10.563417 1.733860 6.158486 0.000000 31.000000 14.368127 0.000000
-10.746302 1.670090 6.446518 0.000000 37.000000 14.401620 0.000000
-10.953404 1.608813 6.752589 0.000000 38.000000 14.424794 0.000000
-9.101593 3.507116 6.507707 0.000000 60.000000 14.858303 28.000000
-10.438951 3.595360 8.467760 0.000000 49.000000 14.787320 25.000000
-11.805217 -0.814283 6.182620 0.000000 59.000000 14.568015 0.000000
-10.436826 3.126969 8.435097 0.000000 55.000000 14.978420 25.000000
-10.901818 3.819256 9.944682 0.000000 54.000000 15.073196 24.000000
-11.910614 3.016831 10.648697 0.000000 42.000000 15.017797 26.000000
-11.109128 3.841675 10.421957 0.000000 61.000000 15.144222 24.000000
-12.733229 -0.283889 8.593592 0.000000 34.000000 14.833014 11.000000
-11.394794 1.740534 7.692712 0.000000 47.000000 14.501482 0.000000
-11.715388 0.797154 7.566537 0.000000 50.000000 14.612914 14.000000
-12.036521 1.738775 8.434794 0.000000 42.000000 14.388541 0.000000
-12.142825 1.724718 8.718639 0.000000 42.000000 14.455544 0.000000
-12.635602 2.556401 10.928729 0.000000 59.000000 14.815089 21.000000
-11.839957 1.458753 8.794756 0.000000 68.000000 14.837082 17.000000
-10.317955 3.696229 8.195325 0.000000 62.000000 14.698860 23.000000
-11.536649 0.218486 7.539226 0.000000 21.000000 14.987498 14.000000
-12.970488 2.329005 10.899250 0.000000 47.000000 14.649280 0.000000
-12.054683 -0.364738 7.110788 0.000000 39.000000 14.643110 1.000000
-12.015869 1.670362 8.986241 0.000000 49.000000 14.707080 17.000000
-11.966993 0.998177 7.781638 0.000000 40.000000 14.442505 0.000000
-9.946630 2.043049 5.804473 0.000000 30.000000 14.519501 0.000000
-11.421530 0.196738 7.418190 0.000000 64.000000 15.023430 14.000000
-11.204529 1.739146 7.154973 0.000000 32.000000 14.378507 0.000000
-10.267033 0.845511 5.682496 0.000000 68.000000 14.744760 5.000000
-10.809323 1.895116 6.907672 0.000000 38.000000 14.483872 0.000000
-11.621561 2.933931 9.255328 0.000000 57.000000 14.581065 0.000000
-12.877529 1.880320 9.638571 0.000000 27.000000 14.291850 0.000000
-12.654683 2.060299 10.545248 0.000000 46.000000 14.828773 19.000000
-10.898147 0.744305 5.922786 0.000000 28.000000 14.435014 0.000000
-10.003580 2.549043 6.211415 0.000000 35.000000 14.456087 0.000000
-11.844567 2.394621 8.824622 0.000000 36.000000 14.437457 0.000000
-12.331986 1.461645 9.144355 0.000000 45.000000 14.640015 17.000000
-10.024201 2.365728 6.264945 0.000000 36.000000 14.547626 6.000000
-11.111899 2.898623 8.130237 0.000000 40.000000 14.421649 0.000000
-11.063437 3.086044 7.979801 0.000000 33.000000 14.301203 0.000000
-12.120137 1.985374 10.132945 0.000000 10.000000 15.058302 20.000000
-12.666678 0.980165 9.598929 0.000000 51.000000 14.825573 30.000000
-10.579279 0.480761 5.161494 0.000000 35.000000 14.412891 0.000000
-11.754008 -0.463057 7.117632 0.000000 46.000000 14.915092 1.000000
-10.953233 0.291650 5.692529 0.000000 36.000000 14.478485 0.000000
-9.475611 3.680344 6.659753 0.000000 48.000000 14.577106 28.000000
-12.279663 3.183734 11.457628 0.000000 51.000000 15.068320 26.000000
-12.510410 -0.232329 7.584008 0.000000 41.000000 14.477590 0.000000
-11.461694 2.903250 9.826584 0.000000 52.000000 14.997214 27.000000
-11.604223 2.239519 8.316174 0.000000 31.000000 14.434027 0.000000
-11.101173 2.687992 8.003987 0.000000 28.000000 14.459677 0.000000
-11.326636 3.576289 10.058765 0.000000 54.000000 14.917877 27.000000
-10.823523 2.878015 8.554059 0.000000 50.000000 14.856726 25.000000
-13.226422 1.403852 10.403987 0.000000 37.000000 14.618454 15.000000
-10.326426 3.975844 8.821809 0.000000 49.000000 14.879891 23.000000
-10.164350 3.180234 8.288352 0.000000 52.000000 15.086657 25.000000
-12.798250 -0.131897 8.669649 0.000000 56.000000 14.755180 11.000000
-10.137621 3.870053 7.481602 0.000000 32.000000 14.404374 0.000000
-12.149820 2.140098 9.824509 0.000000 57.000000 14.815403 20.000000
-12.022087 -0.560724 6.291581 0.000000 31.000000 14.348029 0.000000
-12.046520 2.027281 9.859348 0.000000 54.000000 14.959637 20.000000
-13.452961 -0.639123 8.707468 0.000000 45.000000 14.505791 0.000000
-9.954992 2.386787 6.307527 0.000000 52.000000 14.611348 6.000000
-10.293495 3.667496 8.248156 0.000000 59.000000 14.755971 23.000000
-12.167198 2.219654 9.687090 0.000000 77.000000 14.699406 20.000000
-12.521583 0.272977 8.207211 0.000000 40.000000 14.555866 0.000000
-10.928347 1.814211 6.763661 0.000000 32.000000 14.358867 0.000000
-10.524390 1.327480 5.897278 0.000000 27.000000 14.446513 0.000000
-9.878693 2.478647 5.957423 0.000000 31.000000 14.454880 0.000000
-13.327653 0.902857 10.414975 0.000000 53.000000 14.767995 16.000000
-11.164460 3.730480 9.150768 0.000000 39.000000 14.522215 0.000000
-11.597048 -1.662490 6.339194 0.000000 47.000000 15.174060 3.000000
-12.900067 0.532292 9.162289 0.000000 41.000000 14.631091 0.000000
-13.722855 -0.393734 9.804196 0.000000 62.000000 14.738672 10.000000
-10.252407 3.561322 7.472637 0.000000 34.000000 14.449448 0.000000
-9.920960 2.389366 5.929884 0.000000 29.000000 14.448763 0.000000
-11.971856 -0.537246 7.135803 0.000000 25.000000 14.793342 1.000000
-10.017908 2.347193 6.177347 0.000000 49.000000 14.517115 0.000000
-9.212831 3.814492 6.462692 0.000000 47.000000 14.617646 28.000000
-12.240636 1.820182 9.047669 0.000000 42.000000 14.503194 0.000000
-11.956083 3.068368 11.209419 0.000000 70.000000 15.238685 26.000000
-12.678730 2.658075 10.842907 0.000000 36.000000 14.695619 21.000000
-13.104176 1.791750 9.937884 0.000000 32.000000 14.309009 0.000000
-10.963887 2.280256 7.416507 0.000000 46.000000 14.450791 0.000000
-13.299357 1.758600 10.284909 0.000000 45.000000 14.349044 0.000000
-9.962096 2.120427 6.528938 0.000000 59.000000 14.832602 6.000000
-11.377521 2.253471 8.043150 0.000000 35.000000 14.462690 0.000000
-12.231133 1.058595 9.035538 0.000000 47.000000 14.838737 18.000000
-10.541143 0.829260 6.115714 0.000000 49.000000 14.760874 5.000000
-12.143235 3.669816 10.624596 0.000000 54.000000 14.544731 26.000000
-10.321239 3.123759 9.022903 0.000000 64.000000 15.357503 25.000000
-10.370400 3.644376 8.193926 0.000000 39.000000 14.681618 25.000000
-11.586183 -0.389360 5.966036 0.000000 37.000000 14.438408 0.000000
-11.425562 3.173790 10.033055 0.000000 59.000000 15.007726 27.000000
-11.446005 3.511574 10.241122 0.000000 51.000000 14.947084 27.000000
-10.759501 0.425755 5.477840 0.000000 35.000000 14.458551 0.000000
-10.640207 0.627467 5.376454 0.000000 40.000000 14.409217 0.000000
-14.377633 -0.598532 10.019041 0.000000 48.000000 14.444076 0.000000
-11.429200 -0.509825 6.150140 0.000000 47.000000 14.700146 12.000000
-12.316125 1.222793 8.673817 0.000000 41.000000 14.523832 0.000000
-11.996191 -1.557948 6.467660 0.000000 26.000000 14.892514 3.000000
-11.381727 3.447738 10.348129 0.000000 66.000000 15.076283 27.000000
-12.920347 2.136862 10.951036 0.000000 39.000000 14.796883 19.000000
-11.617969 1.967170 8.075056 0.000000 40.000000 14.423939 0.000000
-12.100291 0.915613 8.682569 0.000000 57.000000 14.824866 18.000000
-10.815499 1.161779 6.823985 0.000000 57.000000 14.759829 13.000000
-11.021016 0.029084 6.585042 0.000000 40.000000 14.984837 9.000000
-10.595633 2.612925 7.291829 0.000000 50.000000 14.519068 0.000000
-12.619126 2.448581 10.074157 0.000000 44.000000 14.451698 0.000000
-9.156385 3.139377 6.202759 0.000000 43.000000 14.827728 28.000000
-12.050139 2.789126 9.574668 0.000000 43.000000 14.481444 0.000000
-10.316250 3.126597 6.880130 0.000000 28.000000 14.299136 0.000000
-10.123706 4.005366 7.676453 0.000000 36.000000 14.451856 0.000000
-11.629300 0.630305 6.746638 0.000000 31.000000 14.344799 0.000000
-11.876178 0.547638 7.050637 0.000000 28.000000 14.346519 0.000000
-10.298531 0.712775 6.048330 0.000000 57.000000 14.960552 5.000000
-12.915571 0.146705 8.589974 0.000000 42.000000 14.505438 0.000000
-9.955157 2.222312 6.110469 0.000000 51.000000 14.585886 6.000000
-9.181134 3.511528 6.046989 0.000000 49.000000 14.568636 28.000000
-13.507802 0.007677 9.319640 0.000000 45.000000 14.483735 0.000000
-11.951933 -1.520253 6.454536 0.000000 53.000000 14.902645 3.000000
-11.008498 0.228979 6.247067 0.000000 55.000000 14.739117 9.000000
-10.269999 2.270229 6.621661 0.000000 41.000000 14.581890 6.000000
-12.758431 0.436582 8.556567 0.000000 38.000000 14.479419 0.000000
-13.692352 -0.118970 9.699533 0.000000 55.000000 14.589069 10.000000
-10.232838 3.587582 8.015911 0.000000 40.000000 14.721556 25.000000
-10.779422 2.292775 7.123166 0.000000 29.000000 14.438360 0.000000
-9.091433 4.037786 6.134849 0.000000 46.000000 14.448296 0.000000
-9.237593 4.007577 6.405616 0.000000 34.000000 14.486037 0.000000
-9.533603 4.005173 6.743082 0.000000 34.000000 14.432247 0.000000
-9.722522 3.986426 7.039172 0.000000 35.000000 14.445435 0.000000
-12.177269 0.816464 9.192727 0.000000 58.000000 15.063265 18.000000
-10.107222 3.956653 7.654030 0.000000 36.000000 14.474504 0.000000
-12.983919 -1.157466 7.544354 0.000000 40.000000 14.509205 0.000000
-12.803683 -0.946379 7.454010 0.000000 40.000000 14.506910 0.000000
-11.433521 0.806057 7.288032 0.000000 53.000000 14.682439 14.000000
-13.056057 -0.098055 8.746003 0.000000 44.000000 14.584841 11.000000
-13.372213 -0.301819 9.095974 0.000000 59.000000 14.610558 11.000000
-12.080021 3.346967 11.115876 0.000000 48.000000 14.977118 26.000000
-11.526442 0.083209 7.332902 0.000000 44.000000 14.952403 14.000000
-11.906913 -0.304517 7.005961 0.000000 47.000000 14.675552 1.000000
-12.286393 2.879756 10.597596 0.000000 40.000000 14.770964 26.000000
-10.193700 1.736473 5.794001 0.000000 42.000000 14.463708 0.000000
-10.020596 1.908656 5.656895 0.000000 34.000000 14.449998 0.000000
-10.040248 4.003435 8.503331 0.000000 64.000000 14.924651 23.000000
-11.984892 -0.530944 6.374441 0.000000 27.000000 14.403860 0.000000
-13.287223 0.503675 10.173767 0.000000 29.000000 14.854173 16.000000
-12.430693 0.411196 8.189769 0.000000 47.000000 14.554677 0.000000
-9.967413 3.030805 6.537367 0.000000 48.000000 14.433028 0.000000
-9.908411 3.207082 6.403130 0.000000 31.000000 14.333397 0.000000
-10.814573 0.765341 6.494349 0.000000 25.000000 14.771406 13.000000
-10.230554 3.545184 8.183174 0.000000 70.000000 14.824696 25.000000
-11.769326 -0.791042 5.984890 0.000000 60.000000 14.486823 0.000000
-11.365645 3.749227 10.544989 0.000000 69.000000 15.053415 24.000000
-12.541160 -1.128087 6.858701 0.000000 39.000000 14.488786 0.000000
-11.409453 3.112478 9.819437 0.000000 58.000000 14.940966 27.000000
-12.079270 0.965800 7.928862 0.000000 26.000000 14.445436 0.000000
-11.774518 3.036629 11.161667 0.000000 47.000000 15.365102 26.000000
-11.665142 -0.783639 5.727611 0.000000 51.000000 14.434304 0.000000
-11.749369 -0.865287 5.951070 0.000000 62.000000 14.517644 0.000000
-12.514444 -1.094650 6.827967 0.000000 39.000000 14.478917 0.000000
-10.881073 1.113160 6.444260 0.000000 50.000000 14.544019 13.000000
-11.197376 -1.815345 6.325902 0.000000 37.000000 15.534239 3.000000
-13.198134 -1.298927 7.716809 0.000000 41.000000 14.496104 0.000000
-11.499795 -0.660982 6.783803 0.000000 12.000000 15.027314 1.000000
-10.042882 2.711116 6.392267 0.000000 33.000000 14.444991 0.000000
-11.471903 0.624756 7.461677 0.000000 55.000000 14.819245 14.000000
-10.936895 2.521684 7.600984 0.000000 37.000000 14.456344 0.000000
-12.020881 3.566121 10.699552 0.000000 39.000000 14.719105 26.000000
-11.452421 2.447133 8.267208 0.000000 38.000000 14.432426 0.000000
-12.116425 0.805459 8.900858 0.000000 60.000000 14.969212 18.000000
-9.153394 3.913886 6.280343 0.000000 41.000000 14.528282 28.000000
-12.847579 -0.230720 8.666922 0.000000 44.000000 14.760242 11.000000
-12.183493 2.344029 9.294337 0.000000 35.000000 14.438127 0.000000
-10.814658 2.758983 7.654938 0.000000 49.000000 14.470497 0.000000
-11.504117 -0.251374 6.248077 0.000000 58.000000 14.578977 12.000000
-11.245379 2.744496 8.281545 0.000000 38.000000 14.464168 0.000000
-12.226780 0.821705 8.460218 0.000000 51.000000 14.661188 18.000000
-10.207088 1.058134 5.903102 0.000000 47.000000 14.805555 5.000000
-11.856576 2.742525 9.233978 0.000000 40.000000 14.478351 0.000000
-13.324501 1.552921 10.779196 0.000000 57.000000 14.665226 15.000000
-12.995268 -0.332260 9.091019 0.000000 29.000000 14.904071 11.000000
-11.080629 0.644492 6.375988 0.000000 34.000000 14.566409 0.000000
-11.416905 -1.335353 5.032922 0.000000 35.000000 14.518744 0.000000
-13.244313 0.587763 10.159797 0.000000 36.000000 14.842502 16.000000
-11.120900 0.152073 6.601388 0.000000 39.000000 14.864039 9.000000
-9.437031 3.210065 7.020843 0.000000 61.000000 14.991308 22.000000
-10.524457 1.225709 5.829099 0.000000 34.000000 14.457397 0.000000
-12.113868 -1.753911 7.508142 0.000000 0.000000 15.405472 29.000000
-10.076159 1.585978 5.530940 0.000000 47.000000 14.487676 0.000000
-13.060209 1.366484 9.745847 0.000000 43.000000 14.433637 0.000000
-11.619952 3.711039 10.401943 0.000000 47.000000 14.808708 24.000000
-12.117068 2.094115 9.034358 0.000000 40.000000 14.468955 0.000000
-11.988211 2.277999 8.896222 0.000000 35.000000 14.416425 0.000000
-11.747666 2.445834 8.704820 0.000000 31.000000 14.428304 0.000000
-10.875094 -0.736539 4.980192 0.000000 34.000000 14.635891 4.000000
-11.290441 2.773684 8.328871 0.000000 39.000000 14.440999 0.000000
-13.437560 0.379385 9.664209 0.000000 51.000000 14.543766 0.000000
-11.056795 3.116188 8.034063 0.000000 37.000000 14.319811 0.000000
-11.564926 1.432554 7.891250 0.000000 53.000000 14.607464 8.000000
-9.554209 3.927016 6.770974 0.000000 34.000000 14.464927 0.000000
-9.978329 2.042996 6.590844 0.000000 40.000000 14.885082 6.000000
-9.190980 4.188929 6.392462 0.000000 41.000000 14.434836 0.000000
-10.213500 3.174237 7.557779 0.000000 37.000000 14.690745 25.000000
-10.318501 1.450382 5.743757 0.000000 33.000000 14.470895 0.000000
-11.382682 0.805373 7.261529 0.000000 42.000000 14.707733 14.000000
-12.071909 1.651194 9.205597 0.000000 60.000000 14.782083 17.000000
-10.937434 0.176215 6.307019 0.000000 38.000000 14.845246 9.000000
-11.247302 4.038381 10.268587 0.000000 65.000000 14.878322 24.000000
-10.253824 1.443081 5.562052 0.000000 33.000000 14.432631 0.000000
-12.459694 2.873651 11.015844 0.000000 60.000000 14.850789 26.000000
-10.467907 1.382674 5.829752 0.000000 33.000000 14.431191 0.000000
-10.244385 3.674277 7.797214 0.000000 48.000000 14.566556 25.000000
-11.373952 3.268532 10.139612 0.000000 63.000000 15.057570 27.000000
-12.652164 0.749691 8.489298 0.000000 41.000000 14.388293 0.000000
-11.614650 3.257229 10.306887 0.000000 73.000000 14.964896 26.000000
-11.003002 1.209735 6.618997 0.000000 53.000000 14.496711 0.000000
-13.742545 0.482696 9.887648 0.000000 40.000000 14.380372 0.000000
-10.826388 1.152783 7.070403 0.000000 50.000000 14.877614 13.000000
-11.335939 1.532697 7.973214 0.000000 63.000000 14.775743 8.000000
-12.231248 0.995280 8.150840 0.000000 39.000000 14.428450 0.000000
-10.107758 0.829798 5.849646 0.000000 55.000000 14.953824 5.000000
-13.562101 -1.099488 8.441101 0.000000 36.000000 14.494246 0.000000
-11.369289 0.612710 7.398379 0.000000 18.000000 14.870128 14.000000
-9.855441 3.975975 7.885605 0.000000 47.000000 14.769432 23.000000
-10.505443 2.323721 6.728287 0.000000 27.000000 14.434675 0.000000
-12.586556 0.690914 9.536194 0.000000 61.000000 14.981596 30.000000
-10.953362 1.640104 6.799487 0.000000 33.000000 14.434303 0.000000
-11.373874 3.004551 9.564476 0.000000 72.000000 14.888804 27.000000
-12.147971 1.930651 8.803440 0.000000 40.000000 14.403242 0.000000
-11.968756 3.568027 10.543440 0.000000 41.000000 14.680058 26.000000
-10.988288 4.081773 9.526499 0.000000 70.000000 14.686055 24.000000
-11.522569 -1.572309 6.242379 0.000000 35.000000 15.142366 3.000000
-12.798643 -0.084276 8.641432 0.000000 50.000000 14.720004 11.000000
-11.343604 2.449411 8.172652 0.000000 37.000000 14.466193 0.000000
-11.040089 2.608768 7.943366 0.000000 50.000000 14.510248 0.000000
-11.079293 1.505269 7.172883 0.000000 54.000000 14.583963 0.000000
-10.726723 2.949804 7.601550 0.000000 31.000000 14.426199 0.000000
-9.238551 3.273013 6.685458 0.000000 47.000000 14.946424 22.000000
-9.950957 2.813419 6.371882 0.000000 24.000000 14.458893 0.000000
-10.836241 0.037356 5.308059 0.000000 35.000000 14.487514 0.000000
-12.598666 2.086545 10.757320 0.000000 77.000000 14.964239 19.000000
-12.685993 -0.735033 7.271408 0.000000 39.000000 14.411934 0.000000
-10.974956 -0.165928 5.310953 0.000000 34.000000 14.474215 0.000000
-12.914861 -0.841127 7.560532 0.000000 39.000000 14.430079 0.000000
-11.199148 -0.249974 5.569834 0.000000 43.000000 14.471211 0.000000
-10.653927 3.496814 8.692074 0.000000 53.000000 14.780480 25.000000
-11.523842 -0.329834 5.864574 0.000000 49.000000 14.408775 0.000000
-10.238360 3.400635 8.339036 0.000000 55.000000 14.959482 25.000000
-13.656254 -1.152586 8.483807 0.000000 42.000000 14.468118 0.000000
-13.930762 -1.252930 8.815221 0.000000 43.000000 14.470458 0.000000
-13.844265 -1.385470 9.398831 0.000000 46.000000 14.882444 2.000000
-11.595823 -0.217168 6.422567 0.000000 53.000000 14.581592 0.000000
-13.097288 -0.851936 7.830290 0.000000 31.000000 14.431612 0.000000
-10.146998 3.266604 7.861023 0.000000 58.000000 14.850175 25.000000
-9.356398 3.387529 6.498799 0.000000 43.000000 14.715375 28.000000
-10.328007 3.151935 8.974707 0.000000 55.000000 15.316195 25.000000
-14.164728 -1.134685 9.342902 0.000000 44.000000 14.504378 0.000000
-11.586756 -1.590194 6.366617 0.000000 26.000000 15.163606 3.000000
-11.429407 -0.343944 6.302633 0.000000 44.000000 14.702647 12.000000
-9.068842 3.479200 6.120362 0.000000 65.000000 14.703344 28.000000
-13.516581 -0.988354 8.635318 0.000000 49.000000 14.575727 0.000000
-10.553913 2.931083 7.314359 0.000000 45.000000 14.421792 0.000000
-10.794984 2.888219 7.622925 0.000000 35.000000 14.412648 0.000000
-10.987196 2.841308 7.918610 0.000000 46.000000 14.435534 0.000000
-12.916552 -0.301479 9.003874 0.000000 46.000000 14.906425 11.000000
-10.750644 1.147190 6.955631 0.000000 52.000000 14.880034 13.000000
-11.478622 0.425861 7.298100 0.000000 32.000000 14.820561 14.000000
-10.049685 2.572296 6.507561 0.000000 40.000000 14.557930 7.000000
-12.037000 3.048211 11.213960 0.000000 45.000000 15.189120 26.000000
-11.146435 3.999034 10.042873 0.000000 61.000000 14.859473 24.000000
-11.495435 3.000184 9.734536 0.000000 57.000000 14.883781 27.000000
-11.277483 -0.203577 5.963019 0.000000 51.000000 14.586770 0.000000
-10.482665 3.138785 7.177617 0.000000 34.000000 14.316303 0.000000
-12.183412 2.671369 9.565762 0.000000 40.000000 14.428827 0.000000
-10.749405 3.131123 7.493280 0.000000 26.000000 14.275970 0.000000
-12.899189 -0.433687 8.843466 0.000000 45.000000 14.898081 11.000000
-12.443254 2.745266 10.398243 0.000000 51.000000 14.613723 21.000000
-12.389185 1.363021 8.985816 0.000000 50.000000 14.561949 17.000000
-10.941411 1.814531 6.734472 0.000000 32.000000 14.334481 0.000000
-11.158976 3.066384 8.315067 0.000000 38.000000 14.404196 0.000000
-11.313205 2.509200 8.160291 0.000000 35.000000 14.456610 0.000000
-9.868754 2.073432 6.213489 0.000000 49.000000 14.767043 6.000000
-11.829955 -0.739210 6.026564 0.000000 51.000000 14.439241 0.000000
-13.279247 -0.511810 9.192344 0.000000 57.000000 14.820177 11.000000
-13.139607 -0.526840 8.855985 0.000000 36.000000 14.764940 11.000000
-13.561842 -1.053163 8.429517 0.000000 41.000000 14.468363 0.000000
-13.356083 0.984966 10.145887 0.000000 50.000000 14.577402 16.000000
-10.272151 3.479130 8.070529 0.000000 72.000000 14.766747 25.000000
-13.529085 -0.657531 9.012228 0.000000 48.000000 14.607687 11.000000
-9.255677 3.439173 6.873199 0.000000 60.000000 14.953569 22.000000
-12.536696 0.784729 9.841098 0.000000 56.000000 15.128736 30.000000
-10.899749 0.234786 5.571129 0.000000 41.000000 14.483449 0.000000
-11.746743 0.355603 7.268202 0.000000 41.000000 14.635597 14.000000
-11.008301 1.059640 7.104521 0.000000 57.000000 14.799024 13.000000
-11.035141 1.411358 6.836586 0.000000 35.000000 14.491806 0.000000
-9.458707 4.070655 6.706238 0.000000 36.000000 14.441402 0.000000
-9.943509 2.278701 6.159192 0.000000 51.000000 14.593979 6.000000
-11.395677 0.568528 7.188800 0.000000 50.000000 14.765985 14.000000
-10.293849 3.119736 8.568648 0.000000 55.000000 15.154907 25.000000
-12.616067 2.405129 10.139137 0.000000 41.000000 14.505242 0.000000
-12.585723 2.550057 10.255922 0.000000 33.000000 14.522171 0.000000
-12.262061 2.755318 9.798309 0.000000 40.000000 14.448131 0.000000
-10.172878 3.122604 7.949226 0.000000 37.000000 14.937673 25.000000
-12.605133 0.898834 9.853380 0.000000 58.000000 15.033402 30.000000
-10.518514 0.844300 6.221775 0.000000 60.000000 14.823745 5.000000
-11.570143 1.585134 7.944870 0.000000 47.000000 14.563100 8.000000
-10.468707 1.802168 6.159439 0.000000 33.000000 14.409608 0.000000
-11.467815 -0.189168 6.210855 0.000000 44.000000 14.560450 12.000000
-11.945156 1.755874 8.193893 0.000000 23.000000 14.330262 0.000000
-11.093885 1.551051 6.959081 0.000000 42.000000 14.447069 0.000000
-11.248687 3.547220 10.141967 0.000000 65.000000 15.030273 27.000000
-10.656770 2.412697 7.071376 0.000000 33.000000 14.452012 0.000000
-11.811578 -0.512862 7.140748 0.000000 19.000000 14.905245 1.000000
-12.036110 1.239116 8.140312 0.000000 37.000000 14.462462 0.000000
-9.774668 4.029929 7.392110 0.000000 41.000000 14.561973 0.000000
-12.246719 1.162648 8.437809 0.000000 39.000000 14.485432 0.000000
-9.652851 3.855989 8.242883 0.000000 17.000000 15.150888 23.000000
-10.724337 1.019161 6.635270 0.000000 53.000000 14.797370 13.000000
-11.122411 1.533451 7.018325 0.000000 46.000000 14.462742 0.000000
-10.218408 1.272378 5.403246 0.000000 34.000000 14.455517 0.000000
-11.764821 -0.841754 5.980932 0.000000 57.000000 14.510510 0.000000
-11.806888 -0.628145 5.971186 0.000000 42.000000 14.380348 0.000000
-9.757358 2.718420 7.010393 0.000000 69.000000 14.961871 7.000000
-11.641382 0.500973 7.591369 0.000000 46.000000 14.810749 14.000000
-13.212556 0.940737 9.802391 0.000000 36.000000 14.534367 30.000000
-10.999025 1.386330 6.973083 0.000000 51.000000 14.597451 13.000000
-10.834788 0.386790 5.505895 0.000000 35.000000 14.433107 0.000000
-10.669197 0.582183 5.413403 0.000000 45.000000 14.425661 0.000000
-14.351205 -0.930459 9.752431 0.000000 38.000000 14.477647 0.000000
-12.710874 1.834151 11.098038 0.000000 56.000000 15.159631 19.000000
-11.333132 -0.437959 5.898890 0.000000 32.000000 14.616220 0.000000
-11.819492 -0.702314 6.046091 0.000000 34.000000 14.440552 0.000000
-10.392821 4.030873 8.857803 0.000000 52.000000 14.823770 23.000000
-13.391478 1.759384 10.460245 0.000000 42.000000 14.366442 0.000000
-11.468448 3.501793 10.303913 0.000000 59.000000 14.965640 27.000000
-12.304338 1.073093 9.168218 0.000000 50.000000 14.843176 18.000000
-12.016291 1.317569 9.008346 0.000000 57.000000 14.872624 17.000000
-11.958170 2.642534 9.330157 0.000000 46.000000 14.493710 0.000000
-11.134370 0.027529 6.264830 0.000000 53.000000 14.742004 9.000000
-9.216510 3.993660 6.306627 0.000000 40.000000 14.458946 0.000000
-11.572833 2.984944 8.945585 0.000000 38.000000 14.441847 0.000000
-12.019981 -0.983144 6.356337 0.000000 40.000000 14.567159 0.000000
-9.972865 4.001237 7.450010 0.000000 33.000000 14.454647 0.000000
-12.535795 1.760962 9.079005 0.000000 26.000000 14.323429 0.000000
-11.206448 0.400482 6.141275 0.000000 48.000000 14.463026 0.000000
-10.786101 0.593141 5.864008 0.000000 33.000000 14.556293 5.000000
-10.767908 0.440191 5.424176 0.000000 32.000000 14.419340 0.000000
-12.413011 -0.159796 7.489231 0.000000 51.000000 14.471838 0.000000
-12.130408 3.217529 11.051610 0.000000 36.000000 14.964363 26.000000
-11.514840 0.440828 6.480746 0.000000 24.000000 14.382173 0.000000
-9.585417 3.191812 7.374835 0.000000 31.000000 15.063334 22.000000
-10.018531 2.470894 6.349809 0.000000 59.000000 14.547712 0.000000
-11.975829 -0.087250 6.930579 0.000000 53.000000 14.491159 0.000000
-12.178015 3.058061 10.298247 0.000000 47.000000 14.625715 26.000000
-12.489244 -0.246487 7.509723 0.000000 37.000000 14.462897 0.000000
-11.292281 3.886838 10.538916 0.000000 60.000000 15.044983 24.000000
-13.412268 -0.538938 8.682506 0.000000 45.000000 14.479948 0.000000
-14.492285 -0.783244 9.989649 0.000000 44.000000 14.424678 0.000000
-9.477552 3.592640 6.810167 0.000000 55.000000 14.688631 22.000000
-11.860192 3.300248 10.699488 0.000000 37.000000 14.956292 26.000000
-13.824000 -1.087250 8.980604 0.000000 43.000000 14.559625 2.000000
-12.716590 -0.910598 7.350594 0.000000 40.000000 14.505293 0.000000
-9.931371 3.722763 7.946014 0.000000 74.000000 14.853604 23.000000
-10.987545 3.308422 9.349618 0.000000 53.000000 14.938631 27.000000
-11.673828 0.492861 6.765998 0.000000 29.000000 14.381354 0.000000
-13.370733 0.084678 9.168736 0.000000 41.000000 14.477974 0.000000
-11.595171 3.009020 10.055991 0.000000 33.000000 14.964276 27.000000
-11.470141 3.654260 9.929580 0.000000 62.000000 14.712093 27.000000
-10.794891 1.221257 6.266454 0.000000 33.000000 14.473134 0.000000
-11.788063 -0.360596 7.057813 0.000000 43.000000 14.814952 1.000000
-11.313732 -1.240579 5.249891 0.000000 27.000000 14.661896 4.000000
-11.431493 0.415545 7.531458 0.000000 52.000000 14.975956 14.000000
-10.062518 2.841063 6.925355 0.000000 46.000000 14.637133 7.000000
-12.569872 0.552501 9.034131 0.000000 49.000000 14.806318 18.000000
-11.452224 -0.153737 6.317626 0.000000 54.000000 14.609441 0.000000
-11.581363 1.880973 7.846686 0.000000 36.000000 14.376171 0.000000
-11.396922 2.062399 7.694362 0.000000 35.000000 14.359367 0.000000
-10.999284 2.216266 7.459183 0.000000 39.000000 14.473481 0.000000
-11.836382 -0.382783 6.968863 0.000000 40.000000 14.744431 1.000000
-10.892012 0.053708 5.666020 0.000000 38.000000 14.615743 0.000000
-10.365300 0.911412 5.901299 0.000000 46.000000 14.750477 5.000000
-11.339626 1.773450 7.310132 0.000000 26.000000 14.338976 0.000000
-9.962737 2.391780 5.954821 0.000000 39.000000 14.428728 0.000000
-9.239438 3.382162 6.278084 0.000000 69.000000 14.696144 28.000000
-12.378288 2.039985 10.209573 0.000000 49.000000 14.878720 20.000000
-11.500624 1.921990 7.614722 0.000000 29.000000 14.303848 0.000000
-9.897843 2.267429 5.769545 0.000000 40.000000 14.440256 0.000000
-12.679518 0.398062 8.529171 0.000000 58.000000 14.541932 0.000000
-9.978026 2.189702 5.978505 0.000000 49.000000 14.517727 0.000000
-13.024965 0.718180 10.260796 0.000000 45.000000 14.999685 16.000000
-11.692731 3.643436 10.176902 0.000000 58.000000 14.672414 27.000000
-12.765243 0.600807 9.516640 0.000000 50.000000 14.877519 30.000000
-11.209893 0.974154 6.795540 0.000000 52.000000 14.532454 13.000000
-11.563273 1.889191 7.692656 0.000000 35.000000 14.309866 0.000000
-13.311682 -0.859291 8.479749 0.000000 46.000000 14.595648 0.000000
-11.652726 1.826550 7.933695 0.000000 36.000000 14.389644 0.000000
-13.561539 1.263638 10.389012 0.000000 41.000000 14.421370 0.000000
-12.696893 1.516606 9.300185 0.000000 26.000000 14.419456 0.000000
-12.140069 1.738524 8.539515 0.000000 37.000000 14.362866 0.000000
-13.266459 1.557358 10.094819 0.000000 45.000000 14.367965 0.000000
-13.312402 1.513982 10.343211 0.000000 64.000000 14.475544 0.000000
-13.058974 -1.312583 7.479278 0.000000 43.000000 14.488832 0.000000
-12.536799 0.686372 9.204200 0.000000 43.000000 14.856527 18.000000
-12.441181 2.728811 10.244384 0.000000 51.000000 14.546329 0.000000
-12.072577 0.693934 8.962416 0.000000 48.000000 15.081534 18.000000
-12.169033 3.443839 11.487855 0.000000 60.000000 15.052009 26.000000
-9.798004 3.586472 7.439277 0.000000 49.000000 14.762558 22.000000
-10.537937 1.517473 6.090147 0.000000 38.000000 14.448414 0.000000
-10.621171 -0.056042 6.361444 0.000000 49.000000 15.211284 9.000000
-10.342570 1.892783 5.900127 0.000000 32.000000 14.336002 0.000000
-11.821869 1.410234 8.072236 0.000000 37.000000 14.514237 0.000000
-12.311358 1.956294 9.140653 0.000000 38.000000 14.436439 0.000000
-10.859642 4.093681 9.156648 0.000000 51.000000 14.594164 0.000000
-10.089137 0.723648 5.587063 0.000000 48.000000 14.884395 5.000000
-10.578375 2.926665 8.608666 0.000000 4.000000 15.046188 25.000000
-11.771130 3.384200 10.377815 0.000000 55.000000 14.826941 26.000000
-11.197358 2.774279 8.264416 0.000000 35.000000 14.478612 0.000000
-11.061939 2.940180 8.114659 0.000000 39.000000 14.433144 0.000000
-12.625229 2.809475 10.937467 0.000000 62.000000 14.716063 21.000000
-11.122191 -0.008541 6.689568 0.000000 34.000000 14.977256 9.000000
-10.360055 0.630029 5.510236 0.000000 60.000000 14.684358 5.000000
-12.492349 0.834548 9.629300 0.000000 67.000000 15.035248 30.000000
-10.343220 1.198361 5.525784 0.000000 49.000000 14.455114 0.000000
-11.621659 0.661953 6.779540 0.000000 32.000000 14.352920 0.000000
-11.879003 0.555491 7.049555 0.000000 34.000000 14.340416 0.000000
-11.991210 1.221657 8.695212 0.000000 67.000000 14.778515 17.000000
-12.916230 0.020666 8.380970 0.000000 37.000000 14.456815 0.000000
-12.017196 3.575031 10.637186 0.000000 65.000000 14.687078 26.000000
-12.491706 2.402013 10.868451 0.000000 55.000000 14.960920 21.000000
-12.439927 0.451572 9.910692 0.000000 6.000000 15.382034 30.000000
-9.237205 3.718306 6.641142 0.000000 67.000000 14.729957 28.000000
-10.229904 3.683384 7.589170 0.000000 39.000000 14.470414 0.000000
-12.039096 0.330631 7.709149 0.000000 50.000000 14.645690 14.000000
-13.675394 -1.159642 8.491604 0.000000 35.000000 14.460727 0.000000
-13.492234 -0.949693 8.407496 0.000000 39.000000 14.464211 0.000000
-12.112613 3.148471 11.346730 0.000000 48.000000 15.154139 26.000000
-9.466649 3.210589 6.987623 0.000000 69.000000 14.952426 22.000000
-12.703711 -0.130335 8.009674 0.000000 47.000000 14.498625 0.000000
-11.598273 0.233500 7.577943 0.000000 65.000000 14.953873 14.000000
-13.862596 0.491410 10.022992 0.000000 37.000000 14.353549 0.000000
-11.120163 1.556853 6.991059 0.000000 43.000000 14.440653 0.000000
-11.790007 3.615749 10.030833 0.000000 47.000000 14.539326 27.000000
-12.200511 1.853145 8.824505 0.000000 37.000000 14.408315 0.000000
-11.951191 2.029234 8.639159 0.000000 36.000000 14.426147 0.000000
-11.613064 1.040171 7.338403 0.000000 34.000000 14.469968 0.000000
-11.931639 1.418048 9.030173 0.000000 45.000000 14.902773 17.000000
-12.105781 1.392988 9.031277 0.000000 44.000000 14.783768 17.000000
-11.244122 2.535289 8.090597 0.000000 44.000000 14.462440 0.000000
-13.862349 0.001207 10.014177 0.000000 42.000000 14.564626 0.000000
-11.985387 1.280879 8.911247 0.000000 63.000000 14.863832 17.000000
-11.790781 -0.272858 6.890533 0.000000 45.000000 14.691569 1.000000
-9.199035 3.993022 6.287822 0.000000 46.000000 14.463018 0.000000
-9.058449 4.128616 6.122567 0.000000 45.000000 14.427059 0.000000
-9.676846 3.699390 6.928897 0.000000 49.000000 14.551124 22.000000
-12.331773 2.129343 10.058781 0.000000 46.000000 14.799699 20.000000
-12.401265 1.925785 10.074483 0.000000 61.000000 14.844760 20.000000
-9.788225 3.620861 7.135977 0.000000 42.000000 14.604629 22.000000
-11.932964 -0.594045 6.135195 0.000000 33.000000 14.352053 0.000000
-11.097770 3.113437 8.669086 0.000000 38.000000 14.604692 25.000000
-11.831600 3.241436 10.750571 0.000000 67.000000 15.028844 26.000000
-12.427390 -0.998547 6.794528 0.000000 39.000000 14.485427 0.000000
-13.186524 0.804579 10.275878 0.000000 50.000000 14.848090 16.000000
-12.939090 -1.266025 7.316671 0.000000 50.000000 14.477761 0.000000
-11.596270 -0.737269 5.588228 0.000000 46.000000 14.396570 0.000000
-13.140996 -1.398094 7.569331 0.000000 45.000000 14.509472 0.000000
-12.014520 3.090358 10.965563 0.000000 63.000000 15.064487 26.000000
-11.811531 0.274421 7.733358 0.000000 54.000000 14.852966 14.000000
-10.429364 3.085375 8.916858 0.000000 49.000000 15.240794 25.000000
-9.905456 1.881907 6.520874 0.000000 56.000000 14.975811 6.000000
-10.800129 0.538597 5.778580 0.000000 44.000000 14.527433 0.000000
-11.327453 0.643424 7.157338 0.000000 49.000000 14.768669 14.000000
-11.548151 2.918602 8.768056 0.000000 23.000000 14.401590 0.000000
-11.719522 -1.423245 6.169772 0.000000 48.000000 14.893305 3.000000
-13.184467 1.557782 10.530437 0.000000 41.000000 14.644919 15.000000
-11.533788 3.348996 10.219231 0.000000 74.000000 14.941825 27.000000
-10.630927 3.144496 8.960796 0.000000 39.000000 15.085472 25.000000
-11.374273 2.189576 8.062846 0.000000 45.000000 14.502934 0.000000
-9.172649 3.750463 6.323545 0.000000 75.000000 14.606997 28.000000
-11.674944 2.128001 8.375657 0.000000 43.000000 14.459426 0.000000
-12.953523 2.456765 10.887676 0.000000 50.000000 14.600168 0.000000
-13.704316 -1.555709 8.985478 0.000000 43.000000 14.857474 2.000000
-10.096954 3.170938 8.258653 0.000000 70.000000 15.126563 25.000000
-12.028848 3.067063 10.937624 0.000000 44.000000 15.050142 26.000000
