34.719635 2.544112 -19.505778 0.000000 27.000000 14.187407 0.000000
37.172363 5.889836 -18.662818 0.000000 53.000000 14.549281 18.000000
40.128319 3.427961 -19.267608 0.000000 48.000000 14.268470 0.000000
36.302948 5.624135 -18.378079 0.000000 31.000000 14.190410 0.000000
34.958630 1.848037 -20.317659 0.000000 74.000000 14.709620 28.000000
35.816666 2.807026 -19.452928 0.000000 49.000000 14.228415 0.000000
35.757584 5.241481 -18.583395 0.000000 34.000000 14.251254 0.000000
35.371288 5.217106 -18.795006 0.000000 52.000000 14.441497 11.000000
34.360020 2.653339 -19.425091 0.000000 32.000000 14.149312 0.000000
37.775452 6.445015 -18.211464 0.000000 42.000000 14.316939 0.000000
35.254417 4.920557 -18.762061 0.000000 33.000000 14.308358 0.000000
36.229980 3.093655 -19.434601 0.000000 35.000000 14.310004 0.000000
35.299500 4.802945 -18.802699 0.000000 31.000000 14.305969 0.000000
34.401325 3.978474 -19.038781 0.000000 53.000000 14.243412 0.000000
38.888039 4.087489 -19.013902 0.000000 33.000000 14.257632 0.000000
35.861988 2.646679 -19.445498 0.000000 22.000000 14.166173 0.000000
38.816650 2.036203 -20.311259 0.000000 72.000000 14.768468 29.000000
38.016605 1.631621 -20.082582 0.000000 26.000000 14.414356 30.000000
35.974548 1.665372 -20.232662 0.000000 66.000000 14.566872 28.000000
39.069038 1.717321 -20.238788 0.000000 68.000000 14.590528 29.000000
35.863083 6.678930 -18.063271 0.000000 46.000000 14.258452 0.000000
39.590839 6.375253 -18.174710 0.000000 35.000000 14.258392 0.000000
36.296772 2.740309 -19.487658 0.000000 31.000000 14.238021 0.000000
35.700523 4.000650 -19.013686 0.000000 29.000000 14.227498 0.000000
39.312721 2.516276 -20.092313 0.000000 64.000000 14.728407 23.000000
38.213474 1.643524 -20.186413 0.000000 45.000000 14.515927 29.000000
38.316849 3.358197 -19.298588 0.000000 47.000000 14.273506 0.000000
33.999424 3.195360 -19.527187 0.000000 56.000000 14.431972 6.000000
36.131435 4.801263 -18.792317 0.000000 32.000000 14.295643 0.000000
34.667789 1.433846 -19.974381 0.000000 29.000000 14.244617 0.000000
39.274437 3.759000 -19.201726 0.000000 44.000000 14.320725 0.000000
38.865688 2.015705 -19.908192 0.000000 47.000000 14.383035 29.000000
36.086330 3.359902 -19.334588 0.000000 40.000000 14.307888 0.000000
37.295116 3.372638 -19.299299 0.000000 41.000000 14.279151 0.000000
37.494564 6.862320 -18.142716 0.000000 33.000000 14.396238 4.000000
39.085106 4.466267 -18.898797 0.000000 51.000000 14.280134 0.000000
38.686199 3.655501 -19.221060 0.000000 40.000000 14.303201 0.000000
34.525970 2.103075 -19.799025 0.000000 46.000000 14.310671 0.000000
40.144390 3.953704 -19.542248 0.000000 58.000000 14.707490 15.000000
38.416542 4.256434 -18.923348 0.000000 27.000000 14.230857 0.000000
38.144562 2.526519 -19.964619 0.000000 69.000000 14.612068 23.000000
38.903419 3.860202 -19.321039 0.000000 65.000000 14.467609 26.000000
36.565174 3.612373 -19.242502 0.000000 68.000000 14.308464 0.000000
40.048542 4.668988 -18.985403 0.000000 56.000000 14.431306 19.000000
37.228722 6.717867 -18.389884 0.000000 43.000000 14.578471 4.000000
34.321125 6.467153 -18.211923 0.000000 45.000000 14.325001 0.000000
37.604527 3.070635 -19.587370 0.000000 68.000000 14.445477 24.000000
38.111588 2.390537 -19.727922 0.000000 54.000000 14.343005 0.000000
37.816780 5.983817 -18.519615 0.000000 41.000000 14.447246 18.000000
34.364594 2.315459 -19.750541 0.000000 48.000000 14.338361 0.000000
35.752552 1.603604 -20.279432 0.000000 50.000000 14.589487 28.000000
37.975285 4.960605 -18.689738 0.000000 48.000000 14.254271 0.000000
39.101185 6.851417 -17.826863 0.000000 25.000000 14.095981 0.000000
38.483788 6.671428 -18.386653 0.000000 59.000000 14.559432 20.000000
40.146427 6.521469 -18.146454 0.000000 33.000000 14.282265 0.000000
39.507042 4.732822 -18.802377 0.000000 31.000000 14.281497 0.000000
36.303638 4.654908 -18.838615 0.000000 25.000000 14.288659 0.000000
39.000156 4.146264 -18.887857 0.000000 48.000000 14.159569 0.000000
37.483562 1.891770 -20.212596 0.000000 59.000000 14.626069 30.000000
39.067432 3.894025 -19.007165 0.000000 36.000000 14.184626 0.000000
39.427143 7.009568 -17.912010 0.000000 34.000000 14.230421 0.000000
38.800365 2.631725 -20.151319 0.000000 70.000000 14.823589 23.000000
38.835026 5.753111 -18.416413 0.000000 33.000000 14.270849 0.000000
39.405533 4.913060 -18.724996 0.000000 58.000000 14.270981 0.000000
38.609459 3.938746 -19.233853 0.000000 47.000000 14.412837 26.000000
38.543949 2.353436 -20.027927 0.000000 68.000000 14.611839 23.000000
36.863983 2.634512 -20.269743 0.000000 69.000000 14.935717 10.000000
36.252228 7.022859 -17.875494 0.000000 35.000000 14.200724 0.000000
33.976921 4.641076 -19.140289 0.000000 56.000000 14.567080 2.000000
35.279854 2.293162 -19.776499 0.000000 48.000000 14.355043 21.000000
35.232414 3.186872 -19.626490 0.000000 45.000000 14.522264 9.000000
36.446819 6.412438 -18.211672 0.000000 46.000000 14.305906 0.000000
35.463631 2.155919 -19.823973 0.000000 48.000000 14.352305 21.000000
36.854610 3.300631 -19.311956 0.000000 41.000000 14.266213 0.000000
38.406654 2.003191 -20.488740 0.000000 61.000000 14.923695 29.000000
35.071842 4.155122 -19.014843 0.000000 37.000000 14.281826 0.000000
34.038742 3.987499 -19.018632 0.000000 33.000000 14.227608 0.000000
34.051991 3.896914 -19.148747 0.000000 38.000000 14.318528 0.000000
39.786690 5.792771 -18.394778 0.000000 32.000000 14.264210 0.000000
40.062489 2.205928 -19.858585 0.000000 51.000000 14.402032 22.000000
34.258644 3.394925 -19.323704 0.000000 36.000000 14.309742 0.000000
34.925743 6.372866 -18.212237 0.000000 44.000000 14.292797 0.000000
38.934399 2.327591 -19.843348 0.000000 52.000000 14.429663 23.000000
39.006390 3.540856 -19.231525 0.000000 30.000000 14.273510 0.000000
34.601532 2.806608 -19.500297 0.000000 37.000000 14.272737 0.000000
39.145878 1.448757 -19.946829 0.000000 31.000000 14.223893 0.000000
34.332035 2.695130 -19.413560 0.000000 39.000000 14.152892 0.000000
37.241631 5.622924 -18.338798 0.000000 34.000000 14.153118 0.000000
35.513931 3.314040 -19.707139 0.000000 65.000000 14.641802 9.000000
35.376778 6.962403 -17.875581 0.000000 35.000000 14.179968 0.000000
35.096771 2.168377 -19.757136 0.000000 33.000000 14.293857 0.000000
38.528168 5.227251 -18.630974 0.000000 43.000000 14.291013 0.000000
35.175045 2.083267 -19.795289 0.000000 34.000000 14.300337 0.000000
38.847916 4.175929 -19.184799 0.000000 67.000000 14.448539 26.000000
36.885967 2.705438 -19.839547 0.000000 61.000000 14.556328 10.000000
36.899338 3.856167 -19.183043 0.000000 26.000000 14.336678 0.000000
35.679466 3.703495 -19.315847 0.000000 58.000000 14.408722 8.000000
34.225044 1.970364 -19.834074 0.000000 46.000000 14.297831 0.000000
37.675022 7.027526 -17.870693 0.000000 40.000000 14.197826 0.000000
34.262283 3.198028 -19.536819 0.000000 56.000000 14.441933 6.000000
39.191032 6.453960 -18.206121 0.000000 56.000000 14.315007 0.000000
34.124664 1.872686 -19.865684 0.000000 43.000000 14.293837 0.000000
37.393906 4.731067 -18.823671 0.000000 25.000000 14.300881 0.000000
35.830719 3.918251 -19.124392 0.000000 51.000000 14.303020 0.000000
38.715927 6.172734 -18.244328 0.000000 30.000000 14.253942 0.000000
36.030666 1.304456 -19.937329 0.000000 38.000000 14.165238 0.000000
36.238712 6.508112 -18.194727 0.000000 48.000000 14.322976 0.000000
39.534161 3.889528 -19.115387 0.000000 36.000000 14.284666 0.000000
35.221230 1.966796 -20.128117 0.000000 54.000000 14.572626 28.000000
36.832233 5.634586 -18.384254 0.000000 37.000000 14.199809 0.000000
39.041790 3.116009 -19.386135 0.000000 47.000000 14.272213 0.000000
36.682648 4.651780 -18.856240 0.000000 44.000000 14.304126 0.000000
39.082874 4.175167 -18.891175 0.000000 34.000000 14.172645 0.000000
37.389477 5.849000 -18.560530 0.000000 62.000000 14.439186 18.000000
38.713112 5.781433 -18.499296 0.000000 52.000000 14.358415 3.000000
36.499130 6.320644 -18.229356 0.000000 40.000000 14.290868 0.000000
34.834888 4.072749 -18.948056 0.000000 31.000000 14.190740 0.000000
36.046314 2.926309 -19.468549 0.000000 52.000000 14.284192 0.000000
38.416668 5.167123 -18.648565 0.000000 54.000000 14.286802 0.000000
35.720409 4.105446 -18.880657 0.000000 67.000000 14.138741 0.000000
39.485474 4.561728 -18.880840 0.000000 46.000000 14.296180 0.000000
39.966915 1.891483 -20.301669 0.000000 76.000000 14.709585 17.000000
37.349705 6.212846 -18.241061 0.000000 45.000000 14.264701 0.000000
37.973698 1.987392 -19.819201 0.000000 45.000000 14.289738 0.000000
39.224178 4.673575 -18.819160 0.000000 42.000000 14.276831 0.000000
38.097569 4.634082 -18.853691 0.000000 44.000000 14.295634 0.000000
36.179184 1.689878 -20.112114 0.000000 43.000000 14.462157 27.000000
37.966404 4.687384 -18.827019 0.000000 39.000000 14.288968 0.000000
35.936466 3.315570 -19.310789 0.000000 43.000000 14.270267 0.000000
37.833950 4.740369 -18.802139 0.000000 34.000000 14.283875 0.000000
38.816895 4.826254 -18.749673 0.000000 36.000000 14.264226 0.000000
37.802818 6.669207 -18.053216 0.000000 33.000000 14.245661 0.000000
36.667744 3.044451 -19.594054 0.000000 35.000000 14.442727 25.000000
37.278049 2.441752 -20.075295 0.000000 55.000000 14.686745 10.000000
36.803272 1.623604 -20.079622 0.000000 55.000000 14.408813 30.000000
35.943150 3.134023 -19.413842 0.000000 51.000000 14.304431 0.000000
38.214500 4.243493 -19.378955 0.000000 39.000000 14.654086 26.000000
38.989079 2.592885 -19.847626 0.000000 56.000000 14.525118 23.000000
38.247635 5.000110 -18.724158 0.000000 41.000000 14.300198 0.000000
37.141956 4.971896 -18.737311 0.000000 40.000000 14.302820 0.000000
38.717773 2.032969 -19.970325 0.000000 56.000000 14.447311 29.000000
39.914055 3.650090 -19.354861 0.000000 62.000000 14.426938 15.000000
37.976452 5.069852 -18.685774 0.000000 45.000000 14.288204 0.000000
35.852749 4.532286 -18.902792 0.000000 60.000000 14.306640 0.000000
34.776680 2.667169 -19.457981 0.000000 30.000000 14.184953 0.000000
36.725952 5.081753 -18.713492 0.000000 42.000000 14.318326 0.000000
39.213726 6.164242 -18.257527 0.000000 30.000000 14.263405 0.000000
37.442314 2.070103 -19.780297 0.000000 40.000000 14.281726 0.000000
35.511852 5.059659 -18.711544 0.000000 49.000000 14.308882 0.000000
35.745537 2.647668 -19.403077 0.000000 35.000000 14.126692 0.000000
37.848515 3.665911 -19.269480 0.000000 63.000000 14.352242 26.000000
39.246193 4.646491 -18.863846 0.000000 44.000000 14.309443 0.000000
35.558796 2.599553 -19.920794 0.000000 69.000000 14.596101 21.000000
36.554310 3.622122 -19.271896 0.000000 46.000000 14.339417 0.000000
35.043297 1.508786 -20.083011 0.000000 46.000000 14.372420 28.000000
35.800491 5.250939 -18.550203 0.000000 23.000000 14.223356 0.000000
35.676590 5.264084 -18.496679 0.000000 23.000000 14.177643 0.000000
35.514870 5.278895 -18.573019 0.000000 25.000000 14.254410 0.000000
34.327084 3.130609 -19.434893 0.000000 53.000000 14.323015 0.000000
37.334602 2.653721 -20.006396 0.000000 61.000000 14.695128 10.000000
36.255131 5.286472 -18.475450 0.000000 28.000000 14.165431 0.000000
37.047142 2.645025 -20.213832 0.000000 72.000000 14.886856 10.000000
35.853420 1.757280 -20.263120 0.000000 76.000000 14.627142 28.000000
37.854469 5.950083 -18.455138 0.000000 62.000000 14.375092 18.000000
36.289680 1.277808 -19.963882 0.000000 33.000000 14.180979 0.000000
38.312672 2.311528 -19.927862 0.000000 75.000000 14.503462 23.000000
35.917675 6.770108 -17.962832 0.000000 25.000000 14.195594 0.000000
37.784569 2.930083 -19.437463 0.000000 27.000000 14.256312 0.000000
34.437099 5.287747 -18.640863 0.000000 32.000000 14.321147 0.000000
36.643768 5.899747 -18.577940 0.000000 64.000000 14.473020 18.000000
38.856552 4.100748 -19.171997 0.000000 57.000000 14.410609 26.000000
38.992123 5.142460 -18.619424 0.000000 29.000000 14.250946 0.000000
36.933407 6.102255 -18.322256 0.000000 47.000000 14.302803 0.000000
37.190739 4.780054 -18.732013 0.000000 30.000000 14.231724 0.000000
34.494678 5.053521 -18.725777 0.000000 39.000000 14.320127 0.000000
35.105228 3.887949 -19.441559 0.000000 58.000000 14.590307 8.000000
34.278748 4.980205 -18.748445 0.000000 35.000000 14.316136 0.000000
35.902756 3.562991 -19.277957 0.000000 53.000000 14.324726 0.000000
35.406128 5.689953 -18.326555 0.000000 33.000000 14.164729 0.000000
39.850601 4.574976 -19.129636 0.000000 68.000000 14.534297 19.000000
38.405849 5.845246 -18.375443 0.000000 29.000000 14.264146 0.000000
39.739658 1.776562 -19.892042 0.000000 37.000000 14.285448 0.000000
34.961983 1.797737 -20.220968 0.000000 60.000000 14.601517 28.000000
35.257267 3.623027 -19.342103 0.000000 50.000000 14.405634 8.000000
38.897640 2.133423 -19.770539 0.000000 41.000000 14.294391 0.000000
39.896637 2.164322 -19.722399 0.000000 42.000000 14.259851 0.000000
35.783539 4.504076 -18.923027 0.000000 47.000000 14.315911 0.000000
34.433453 4.242363 -18.972712 0.000000 48.000000 14.272347 0.000000
39.320427 2.552390 -19.918135 0.000000 73.000000 14.577349 23.000000
34.366882 2.245756 -19.737170 0.000000 56.000000 14.301785 0.000000
36.048813 1.911093 -20.133240 0.000000 34.000000 14.558236 27.000000
37.909988 2.664383 -19.438015 0.000000 44.000000 14.165251 0.000000
36.079948 2.763755 -19.399062 0.000000 35.000000 14.162935 0.000000
37.778484 2.680251 -19.401778 0.000000 39.000000 14.136703 0.000000
38.878872 2.011055 -19.830609 0.000000 39.000000 14.308603 0.000000
40.235359 2.692269 -19.483265 0.000000 42.000000 14.217339 0.000000
36.277714 4.832552 -18.785655 0.000000 42.000000 14.300174 0.000000
34.266773 3.169410 -19.593989 0.000000 70.000000 14.485736 6.000000
38.284172 2.702208 -19.384155 0.000000 38.000000 14.127728 0.000000
37.515518 5.073129 -18.721440 0.000000 42.000000 14.322814 0.000000
37.204807 2.749536 -19.393068 0.000000 36.000000 14.152408 0.000000
36.102303 2.799050 -19.435629 0.000000 39.000000 14.209427 0.000000
34.237011 6.952899 -17.946217 0.000000 39.000000 14.243000 0.000000
36.800911 2.424563 -20.173042 0.000000 72.000000 14.772578 10.000000
36.917164 2.774401 -19.411128 0.000000 36.000000 14.177931 0.000000
39.576275 3.497922 -19.259132 0.000000 35.000000 14.284627 0.000000
38.804634 7.037768 -17.925368 0.000000 32.000000 14.252680 0.000000
35.671677 2.839420 -19.466369 0.000000 30.000000 14.252197 0.000000
35.949928 3.687228 -19.222768 0.000000 65.000000 14.315740 0.000000
34.739231 3.469963 -19.328247 0.000000 48.000000 14.339870 0.000000
36.445309 2.817912 -19.563945 0.000000 39.000000 14.336381 0.000000
40.068886 1.429971 -20.037880 0.000000 41.000000 14.302889 0.000000
39.295883 5.345645 -18.507420 0.000000 36.000000 14.215837 0.000000
35.231861 2.868942 -19.546941 0.000000 31.000000 14.338008 0.000000
38.041962 2.677088 -19.415990 0.000000 37.000000 14.148954 0.000000
34.723995 1.808853 -20.337252 0.000000 58.000000 14.714507 28.000000
36.828659 2.333203 -20.002506 0.000000 62.000000 14.581002 10.000000
39.378277 3.936326 -18.968861 0.000000 38.000000 14.163249 0.000000
35.960064 2.781934 -19.410799 0.000000 38.000000 14.180219 0.000000
34.855759 2.845976 -19.438513 0.000000 26.000000 14.228308 0.000000
39.024822 4.864441 -18.758831 0.000000 35.000000 14.285985 0.000000
36.803482 3.194135 -19.407849 0.000000 49.000000 14.319524 0.000000
35.681248 4.447172 -18.970557 0.000000 47.000000 14.340916 7.000000
37.888256 1.960298 -19.821127 0.000000 36.000000 14.282208 0.000000
35.937965 5.087735 -18.689849 0.000000 38.000000 14.298193 0.000000
35.439472 2.738182 -19.406451 0.000000 35.000000 14.161057 0.000000
34.642632 3.027388 -19.497289 0.000000 48.000000 14.346010 9.000000
38.802238 5.406746 -18.419396 0.000000 26.000000 14.154267 0.000000
34.193142 2.796703 -19.448313 0.000000 32.000000 14.220524 0.000000
38.399918 4.106769 -18.954361 0.000000 26.000000 14.208384 0.000000
37.075974 6.513160 -18.336812 0.000000 58.000000 14.458094 4.000000
36.795368 1.801618 -19.873428 0.000000 32.000000 14.276611 0.000000
36.396664 3.368779 -19.330183 0.000000 56.000000 14.306812 0.000000
39.816895 2.901255 -19.433668 0.000000 36.000000 14.242813 0.000000
34.686348 2.617262 -19.465096 0.000000 32.000000 14.174431 0.000000
34.082977 2.629577 -20.106910 0.000000 75.000000 14.781161 1.000000
34.446545 2.562080 -19.493979 0.000000 33.000000 14.182524 0.000000
34.327736 2.529908 -19.507847 0.000000 30.000000 14.184454 0.000000
39.380432 6.910953 -17.842137 0.000000 26.000000 14.130840 0.000000
38.060371 3.191476 -19.327365 0.000000 42.000000 14.243055 0.000000
34.773952 5.843911 -18.454097 0.000000 43.000000 14.337520 12.000000
38.695202 6.379849 -18.193640 0.000000 39.000000 14.277747 0.000000
36.550110 3.201956 -19.427019 0.000000 55.000000 14.340215 0.000000
35.272442 3.150835 -19.764861 0.000000 74.000000 14.639735 9.000000
34.026760 6.400172 -18.223102 0.000000 48.000000 14.312408 0.000000
36.068016 2.537323 -19.909479 0.000000 60.000000 14.564031 21.000000
39.442120 5.462650 -18.383186 0.000000 28.000000 14.139544 0.000000
39.421928 5.325358 -18.519730 0.000000 30.000000 14.220401 0.000000
39.428165 5.188268 -18.608038 0.000000 40.000000 14.256046 0.000000
38.961994 3.920700 -19.134960 0.000000 59.000000 14.313784 0.000000
38.870113 1.953866 -20.467640 0.000000 55.000000 14.886887 29.000000
39.497791 4.778880 -18.785318 0.000000 46.000000 14.281358 0.000000
39.525837 4.644332 -18.844128 0.000000 42.000000 14.290189 0.000000
38.262024 1.339002 -19.989107 0.000000 34.000000 14.225751 0.000000
39.899151 3.520891 -19.295632 0.000000 49.000000 14.326807 0.000000
38.866856 4.347907 -18.972053 0.000000 51.000000 14.308106 0.000000
36.372925 2.568232 -19.650804 0.000000 50.000000 14.331860 0.000000
39.722786 3.982663 -19.086816 0.000000 48.000000 14.289947 0.000000
34.116272 2.086633 -19.791327 0.000000 47.000000 14.297778 0.000000
37.468727 3.325756 -19.295003 0.000000 45.000000 14.258959 0.000000
40.022072 3.209756 -19.392168 0.000000 46.000000 14.310188 0.000000
34.844730 3.568343 -19.252618 0.000000 50.000000 14.302784 0.000000
36.260727 2.546836 -20.116814 0.000000 62.000000 14.761939 21.000000
35.673550 3.186145 -19.447213 0.000000 57.000000 14.353722 9.000000
37.573097 6.932551 -17.945280 0.000000 34.000000 14.235107 0.000000
36.361633 6.791905 -17.930617 0.000000 24.000000 14.172865 0.000000
39.206707 3.855125 -19.107742 0.000000 50.000000 14.265632 0.000000
36.324116 6.527980 -18.186886 0.000000 34.000000 14.322463 0.000000
38.787186 3.236541 -19.345817 0.000000 48.000000 14.275909 0.000000
36.063869 4.350472 -18.954494 0.000000 55.000000 14.292507 0.000000
40.177891 6.438677 -18.154450 0.000000 38.000000 14.261235 0.000000
36.633434 3.086314 -19.529896 0.000000 59.000000 14.396929 25.000000
36.371666 6.140884 -18.303480 0.000000 32.000000 14.298491 0.000000
37.061089 5.619102 -18.436634 0.000000 35.000000 14.243642 0.000000
36.439545 5.756907 -18.439578 0.000000 29.000000 14.293903 0.000000
37.602627 2.979301 -19.469862 0.000000 56.000000 14.303690 0.000000
35.493458 3.964691 -19.117727 0.000000 26.000000 14.312769 0.000000
36.529942 6.058791 -18.495763 0.000000 48.000000 14.450697 18.000000
39.081135 3.919750 -19.029815 0.000000 40.000000 14.214754 0.000000
39.468868 2.084588 -19.778813 0.000000 41.000000 14.285326 0.000000
36.534351 5.378522 -18.562004 0.000000 32.000000 14.278408 0.000000
38.852253 3.776672 -19.377516 0.000000 67.000000 14.491834 26.000000
38.818371 2.652956 -19.409487 0.000000 39.000000 14.134532 0.000000
40.203777 6.438579 -18.154956 0.000000 50.000000 14.261676 0.000000
39.937992 4.031474 -19.047145 0.000000 43.000000 14.269531 0.000000
36.013874 5.797057 -18.413430 0.000000 38.000000 14.283196 0.000000
37.909210 4.905007 -18.729707 0.000000 43.000000 14.272627 0.000000
34.496582 2.079145 -19.778194 0.000000 51.000000 14.282869 0.000000
37.557777 2.015781 -19.788100 0.000000 44.000000 14.270328 0.000000
37.996231 4.664502 -18.829250 0.000000 43.000000 14.283175 0.000000
39.857250 3.998366 -19.103536 0.000000 52.000000 14.311055 0.000000
35.799553 6.708021 -18.411173 0.000000 63.000000 14.595062 5.000000
36.932632 4.285285 -18.975675 0.000000 34.000000 14.289922 0.000000
34.506142 5.577834 -18.370410 0.000000 30.000000 14.167252 0.000000
35.743450 2.767397 -19.407161 0.000000 37.000000 14.171793 0.000000
35.939049 6.632661 -18.345342 0.000000 38.000000 14.507290 5.000000
35.632889 3.289070 -19.643590 0.000000 34.000000 14.573541 9.000000
36.791763 5.284094 -18.838061 0.000000 46.000000 14.505003 14.000000
35.677780 2.397568 -19.916345 0.000000 64.000000 14.522306 21.000000
40.073906 2.018570 -20.053498 0.000000 67.000000 14.520424 17.000000
38.168125 3.698073 -19.495678 0.000000 62.000000 14.575665 26.000000
35.006168 2.143727 -19.758207 0.000000 46.000000 14.286366 0.000000
37.854977 6.771640 -18.260299 0.000000 31.000000 14.475361 4.000000
38.159382 3.306708 -19.282749 0.000000 46.000000 14.240891 0.000000
37.427456 5.756764 -18.382461 0.000000 27.000000 14.240237 0.000000
36.052944 2.436034 -19.993458 0.000000 59.000000 14.607952 21.000000
39.710308 2.972546 -19.413355 0.000000 23.000000 14.248317 0.000000
38.004387 6.917864 -17.834566 0.000000 19.000000 14.126115 0.000000
40.237709 5.157574 -18.618704 0.000000 45.000000 14.255479 0.000000
37.862236 5.139114 -18.668473 0.000000 49.000000 14.295836 0.000000
37.239288 1.489250 -20.202655 0.000000 61.000000 14.477999 30.000000
36.754768 5.823982 -18.504990 0.000000 42.000000 14.378426 18.000000
35.501450 5.174351 -18.698822 0.000000 52.000000 14.336471 0.000000
38.056156 2.591221 -19.442074 0.000000 36.000000 14.143844 0.000000
39.209507 2.639848 -19.574181 0.000000 45.000000 14.284616 0.000000
38.723003 1.782786 -20.318504 0.000000 65.000000 14.687923 29.000000
36.360153 2.892815 -19.471133 0.000000 48.000000 14.275073 0.000000
35.607548 2.603162 -20.220639 0.000000 56.000000 14.878816 21.000000
38.794651 5.439720 -18.407285 0.000000 27.000000 14.154263 0.000000
39.787483 2.015184 -19.767895 0.000000 44.000000 14.251155 0.000000
37.692554 6.547554 -18.349263 0.000000 53.000000 14.481637 4.000000
39.094463 1.499102 -19.912917 0.000000 36.000000 14.209411 0.000000
37.305382 6.003072 -18.668908 0.000000 42.000000 14.594027 18.000000
39.350533 1.291040 -19.912378 0.000000 39.000000 14.137192 0.000000
39.751041 2.062826 -19.778498 0.000000 41.000000 14.277529 0.000000
39.306404 2.586495 -19.683143 0.000000 50.000000 14.368512 23.000000
33.962223 6.903684 -17.916872 0.000000 24.000000 14.198490 0.000000
37.225769 2.130406 -20.118464 0.000000 63.000000 14.619956 30.000000
35.758266 2.385600 -19.921981 0.000000 42.000000 14.523472 21.000000
34.426342 4.953764 -18.711608 0.000000 48.000000 14.272443 0.000000
39.297802 4.882890 -18.797603 0.000000 61.000000 14.328740 0.000000
40.101563 4.475023 -19.032531 0.000000 48.000000 14.408691 19.000000
38.260162 3.518733 -19.396588 0.000000 66.000000 14.420833 26.000000
34.962894 5.777630 -18.407906 0.000000 26.000000 14.271315 0.000000
34.983646 5.665680 -18.355381 0.000000 28.000000 14.183422 0.000000
36.035641 6.488333 -18.177629 0.000000 61.000000 14.300108 0.000000
34.633892 4.655807 -19.106207 0.000000 55.000000 14.540164 7.000000
34.991695 5.119211 -18.710597 0.000000 39.000000 14.328519 0.000000
35.018444 5.008433 -18.719129 0.000000 38.000000 14.298346 0.000000
39.134232 3.922267 -19.031283 0.000000 36.000000 14.217000 0.000000
35.059689 4.789551 -18.815536 0.000000 37.000000 14.313402 0.000000
37.741333 2.392145 -19.972913 0.000000 72.000000 14.573539 10.000000
34.955849 5.573579 -18.402485 0.000000 42.000000 14.195895 0.000000
39.095619 3.188154 -19.360257 0.000000 49.000000 14.272787 0.000000
35.268806 4.139580 -19.034258 0.000000 40.000000 14.294695 0.000000
38.327915 3.321639 -19.359385 0.000000 44.000000 14.317977 0.000000
35.893837 2.557227 -20.136835 0.000000 41.000000 14.784315 21.000000
35.560390 3.515826 -19.300764 0.000000 37.000000 14.329879 0.000000
35.627495 3.410478 -19.311847 0.000000 39.000000 14.303972 0.000000
34.068764 5.645104 -18.377618 0.000000 29.000000 14.197205 0.000000
37.253002 1.567645 -20.486216 0.000000 55.000000 14.771205 30.000000
38.469906 6.666000 -18.019619 0.000000 28.000000 14.213018 0.000000
37.593906 3.930924 -19.471090 0.000000 67.000000 14.632841 26.000000
36.500248 1.912311 -20.320143 0.000000 56.000000 14.734106 27.000000
35.800640 1.851761 -20.349015 0.000000 80.000000 14.740338 28.000000
36.690063 4.021218 -19.109924 0.000000 43.000000 14.324928 0.000000
36.902042 2.001034 -19.823075 0.000000 36.000000 14.298077 0.000000
34.945198 2.684691 -19.477864 0.000000 28.000000 14.209657 0.000000
37.154427 4.135775 -19.065361 0.000000 55.000000 14.322580 0.000000
38.971668 2.079612 -20.187778 0.000000 78.000000 14.667516 29.000000
36.713528 3.200021 -19.642918 0.000000 62.000000 14.542217 25.000000
36.333485 2.439033 -19.697794 0.000000 42.000000 14.331439 0.000000
34.261028 3.174183 -19.617850 0.000000 68.000000 14.509780 6.000000
36.593586 2.164179 -19.782210 0.000000 40.000000 14.315947 0.000000
37.149109 3.269990 -19.325758 0.000000 36.000000 14.268609 0.000000
36.677261 2.078571 -19.831774 0.000000 40.000000 14.332968 0.000000
36.923306 5.039347 -18.692513 0.000000 57.000000 14.284016 0.000000
39.269150 4.342585 -18.928455 0.000000 38.000000 14.265345 0.000000
37.384663 4.696751 -18.835810 0.000000 48.000000 14.300449 0.000000
36.344318 1.332227 -19.948518 0.000000 41.000000 14.185314 0.000000
38.246620 4.100863 -19.433960 0.000000 33.000000 14.656559 26.000000
34.274269 4.137866 -19.025942 0.000000 34.000000 14.286297 0.000000
34.163406 2.602148 -19.977546 0.000000 72.000000 14.650270 1.000000
39.606388 4.990805 -18.694097 0.000000 37.000000 14.268772 0.000000
38.309990 2.110697 -19.749878 0.000000 35.000000 14.267163 0.000000
38.945564 3.462377 -19.264497 0.000000 35.000000 14.277412 0.000000
39.247860 5.216928 -18.565435 0.000000 29.000000 14.225932 0.000000
38.756588 4.244738 -18.914670 0.000000 51.000000 14.218680 0.000000
36.076946 4.911693 -18.709781 0.000000 50.000000 14.256227 0.000000
35.972309 1.620672 -20.225255 0.000000 50.000000 14.544512 28.000000
35.292454 5.005612 -18.706062 0.000000 49.000000 14.285107 0.000000
36.613274 2.658717 -20.202632 0.000000 79.000000 14.881061 10.000000
38.619938 3.694113 -19.356494 0.000000 55.000000 14.443645 26.000000
34.174351 2.002499 -19.818858 0.000000 43.000000 14.294623 0.000000
39.760368 5.636624 -18.375953 0.000000 47.000000 14.192719 0.000000
35.860245 2.827978 -19.464995 0.000000 60.000000 14.246964 0.000000
38.723812 2.603151 -19.397697 0.000000 44.000000 14.106298 0.000000
39.680405 5.674040 -18.388875 0.000000 28.000000 14.217745 0.000000
35.368374 5.418206 -18.409883 0.000000 40.000000 14.149287 0.000000
40.093929 2.705020 -19.451173 0.000000 32.000000 14.191609 0.000000
38.189484 5.722723 -18.393780 0.000000 28.000000 14.239129 0.000000
39.252079 6.438653 -18.171608 0.000000 51.000000 14.277333 0.000000
35.199650 4.703686 -19.260213 0.000000 55.000000 14.701236 7.000000
35.250336 5.931129 -18.528820 0.000000 41.000000 14.437726 12.000000
38.600475 6.032212 -18.366138 0.000000 35.000000 14.319854 0.000000
36.823669 2.923980 -19.453491 0.000000 59.000000 14.269254 0.000000
36.006367 1.578160 -20.165588 0.000000 35.000000 14.473849 27.000000
37.857967 2.150741 -19.729165 0.000000 47.000000 14.261521 0.000000
34.193146 6.772875 -18.004367 0.000000 36.000000 14.235537 0.000000
38.058086 6.165373 -18.297573 0.000000 38.000000 14.301387 0.000000
34.306705 2.529952 -19.531955 0.000000 47.000000 14.207099 0.000000
38.679062 1.377323 -19.935866 0.000000 42.000000 14.188980 0.000000
36.403996 6.239327 -18.262498 0.000000 44.000000 14.293951 0.000000
34.728638 3.275241 -19.349099 0.000000 49.000000 14.292329 0.000000
39.366142 1.833068 -20.307568 0.000000 65.000000 14.694988 29.000000
37.664192 6.236015 -18.230601 0.000000 35.000000 14.262867 0.000000
34.120270 2.413806 -19.925413 0.000000 76.000000 14.536415 1.000000
35.863667 2.082106 -19.787304 0.000000 26.000000 14.292441 0.000000
36.389984 6.208194 -18.273233 0.000000 30.000000 14.293298 0.000000
34.513988 4.698116 -18.817088 0.000000 27.000000 14.283344 0.000000
39.727158 2.671211 -19.522303 0.000000 45.000000 14.246727 0.000000
36.863335 4.923336 -18.710954 0.000000 56.000000 14.261341 0.000000
35.202938 2.095604 -19.794007 0.000000 42.000000 14.303386 0.000000
35.448402 3.030594 -19.643094 0.000000 62.000000 14.483986 9.000000
37.058681 4.840802 -18.751991 0.000000 25.000000 14.271416 0.000000
37.735813 2.483444 -19.742745 0.000000 25.000000 14.388943 10.000000
35.837318 6.263694 -18.288471 0.000000 34.000000 14.326731 0.000000
39.255989 1.998264 -20.035161 0.000000 59.000000 14.496212 29.000000
35.892391 6.717679 -18.112299 0.000000 46.000000 14.317831 0.000000
36.720673 6.302440 -18.223081 0.000000 38.000000 14.278703 0.000000
35.227596 7.055212 -17.905814 0.000000 23.000000 14.240337 0.000000
34.575905 5.271588 -18.628043 0.000000 48.000000 14.303544 0.000000
35.225399 5.823096 -18.557163 0.000000 41.000000 14.427097 12.000000
36.458885 6.295771 -18.225569 0.000000 31.000000 14.278740 0.000000
38.865124 3.014598 -19.415598 0.000000 48.000000 14.264917 0.000000
36.036804 1.762825 -20.242803 0.000000 38.000000 14.609981 27.000000
35.183857 6.271579 -18.256043 0.000000 27.000000 14.299008 0.000000
34.368710 6.562031 -18.180793 0.000000 37.000000 14.328480 0.000000
37.672718 2.479550 -19.961377 0.000000 74.000000 14.592835 10.000000
36.072559 6.264186 -18.252078 0.000000 35.000000 14.292738 0.000000
38.201065 6.638300 -18.061627 0.000000 23.000000 14.242904 0.000000
35.948849 6.247977 -18.263200 0.000000 35.000000 14.297592 0.000000
40.059967 2.788045 -19.368590 0.000000 34.000000 14.142703 0.000000
34.036068 2.043802 -19.780828 0.000000 43.000000 14.273160 0.000000
35.336411 3.219185 -19.699554 0.000000 61.000000 14.601988 9.000000
38.102585 3.382487 -19.315341 0.000000 28.000000 14.297605 0.000000
34.554173 6.208701 -18.268539 0.000000 29.000000 14.289066 0.000000
37.696045 4.773142 -18.807014 0.000000 30.000000 14.299747 0.000000
38.513756 4.762783 -18.794628 0.000000 37.000000 14.284550 0.000000
34.221771 2.252624 -19.758386 0.000000 47.000000 14.324068 0.000000
38.164688 3.197319 -19.397420 0.000000 28.000000 14.310832 0.000000
35.362915 6.127286 -18.287712 0.000000 28.000000 14.279003 0.000000
35.785110 5.996856 -18.400276 0.000000 44.000000 14.339713 12.000000
37.932510 2.253594 -19.723066 0.000000 50.000000 14.291247 0.000000
35.620476 2.860256 -19.419297 0.000000 43.000000 14.215192 0.000000
38.779366 1.617077 -20.286484 0.000000 57.000000 14.600750 29.000000
38.993908 5.124835 -18.610423 0.000000 30.000000 14.236421 0.000000
37.410980 1.625559 -20.601393 0.000000 60.000000 14.899286 30.000000
34.918076 1.888916 -20.162699 0.000000 49.000000 14.578246 28.000000
34.436604 5.741413 -18.399760 0.000000 29.000000 14.251185 0.000000
34.358761 5.684745 -18.352512 0.000000 25.000000 14.187300 0.000000
39.201256 3.139167 -19.406739 0.000000 42.000000 14.299536 0.000000
35.764404 2.174131 -19.737539 0.000000 47.000000 14.277444 0.000000
35.388386 6.177388 -18.245655 0.000000 47.000000 14.256792 0.000000
39.159565 5.758685 -18.568012 0.000000 44.000000 14.415080 3.000000
34.288525 1.943738 -19.853981 0.000000 48.000000 14.307341 0.000000
34.066807 1.327878 -19.953179 0.000000 36.000000 14.188190 0.000000
39.642647 2.575855 -19.540943 0.000000 32.000000 14.231358 0.000000
39.867214 2.021789 -20.074294 0.000000 47.000000 14.541056 17.000000
36.921223 6.469794 -18.151505 0.000000 45.000000 14.269195 0.000000
36.587162 5.899052 -18.468477 0.000000 56.000000 14.370025 18.000000
34.882915 3.162675 -19.709174 0.000000 74.000000 14.591541 9.000000
35.739517 1.708610 -20.190739 0.000000 51.000000 14.542421 28.000000
40.070801 2.925158 -19.457159 0.000000 43.000000 14.273103 0.000000
38.973866 2.901194 -19.410378 0.000000 36.000000 14.220929 0.000000
35.362991 1.912239 -19.983137 0.000000 41.000000 14.417725 28.000000
38.669903 3.030836 -19.431497 0.000000 42.000000 14.285438 0.000000
36.835567 5.936915 -18.530376 0.000000 53.000000 14.441181 18.000000
33.998402 1.698068 -19.963731 0.000000 38.000000 14.325690 0.000000
36.786922 2.449623 -20.166133 0.000000 68.000000 14.774730 10.000000
39.365383 3.200055 -19.356909 0.000000 46.000000 14.273746 0.000000
35.418907 5.362967 -18.474175 0.000000 22.000000 14.190600 0.000000
36.174339 5.635401 -18.417273 0.000000 41.000000 14.231085 0.000000
35.980129 5.742028 -18.393028 0.000000 20.000000 14.245077 0.000000
39.085373 3.294518 -19.326046 0.000000 45.000000 14.277333 0.000000
37.969673 3.292531 -19.375360 0.000000 39.000000 14.322940 0.000000
38.945263 3.337596 -19.312346 0.000000 44.000000 14.279320 0.000000
34.044579 4.480600 -19.169508 0.000000 41.000000 14.539197 2.000000
34.554928 3.994944 -19.062158 0.000000 64.000000 14.271033 0.000000
38.633133 4.196299 -19.058894 0.000000 40.000000 14.337370 0.000000
37.853310 6.803421 -17.867889 0.000000 28.000000 14.117950 0.000000
38.518578 3.457631 -19.269595 0.000000 44.000000 14.280562 0.000000
37.499352 6.264052 -18.227957 0.000000 37.000000 14.270049 0.000000
37.272594 6.779006 -18.260907 0.000000 41.000000 14.478470 4.000000
33.975338 4.282446 -18.981221 0.000000 62.000000 14.294150 0.000000
34.053963 5.269507 -18.624921 0.000000 44.000000 14.299896 0.000000
37.653328 3.643730 -19.264657 0.000000 46.000000 14.340069 0.000000
35.229633 1.977714 -20.313706 0.000000 69.000000 14.750606 28.000000
35.185841 4.409203 -19.132412 0.000000 52.000000 14.479766 7.000000
37.388546 3.682584 -19.218162 0.000000 50.000000 14.309816 0.000000
36.343536 1.890513 -19.985209 0.000000 57.000000 14.412182 27.000000
36.123318 3.590491 -19.214537 0.000000 58.000000 14.274671 0.000000
37.690796 3.127798 -19.628882 0.000000 42.000000 14.504148 24.000000
38.563938 2.326012 -19.943385 0.000000 74.000000 14.523026 23.000000
35.144966 1.894542 -19.863454 0.000000 41.000000 14.299277 0.000000
33.970875 2.522098 -19.613186 0.000000 41.000000 14.280646 0.000000
39.463306 1.454759 -19.917268 0.000000 37.000000 14.198212 0.000000
38.606880 2.200327 -20.658461 0.000000 10.000000 15.150964 29.000000
35.842525 3.259754 -19.366144 0.000000 49.000000 14.302992 0.000000
39.359024 4.447423 -18.919825 0.000000 41.000000 14.293379 0.000000
37.943546 5.684090 -18.458732 0.000000 43.000000 14.286786 0.000000
34.218384 3.987790 -19.031052 0.000000 40.000000 14.239367 0.000000
34.903553 3.642403 -19.260672 0.000000 39.000000 14.335871 0.000000
39.998337 6.474105 -18.128597 0.000000 43.000000 14.249177 0.000000
37.822811 5.090415 -18.714351 0.000000 50.000000 14.322117 0.000000
34.439346 3.529816 -19.297491 0.000000 41.000000 14.331628 0.000000
38.804478 6.247603 -18.211317 0.000000 40.000000 14.248759 0.000000
36.990200 4.913174 -18.736844 0.000000 51.000000 14.282142 0.000000
38.581844 2.117671 -20.217909 0.000000 48.000000 14.708918 29.000000
39.142582 3.775139 -19.190649 0.000000 62.000000 14.315890 0.000000
39.240112 1.646181 -20.239361 0.000000 74.000000 14.566546 29.000000
39.163704 1.268405 -19.935854 0.000000 38.000000 14.151428 0.000000
38.029469 1.320285 -19.972823 0.000000 36.000000 14.204013 0.000000
39.017551 1.956325 -20.439883 0.000000 48.000000 14.861679 29.000000
38.668594 1.522524 -20.110798 0.000000 37.000000 14.403240 29.000000
39.370964 1.677542 -20.153040 0.000000 67.000000 14.496324 29.000000
35.789364 3.357475 -19.305431 0.000000 49.000000 14.279681 0.000000
34.543697 1.904878 -19.866399 0.000000 34.000000 14.305604 0.000000
38.909863 2.118912 -19.966161 0.000000 43.000000 14.473024 29.000000
36.312580 3.254942 -19.355247 0.000000 57.000000 14.291104 0.000000
39.967674 3.699803 -19.316101 0.000000 63.000000 14.407688 15.000000
39.469738 3.274613 -19.317608 0.000000 30.000000 14.262551 0.000000
35.982681 1.530353 -19.986781 0.000000 33.000000 14.289520 0.000000
39.505512 5.875093 -18.758290 0.000000 73.000000 14.633821 3.000000
36.074005 3.026661 -19.473706 0.000000 56.000000 14.323622 0.000000
36.531872 1.438979 -19.953560 0.000000 38.000000 14.226841 0.000000
36.768173 5.343695 -18.850667 0.000000 57.000000 14.537379 14.000000
33.990711 6.926063 -17.935896 0.000000 44.000000 14.224062 0.000000
37.223953 2.830611 -19.445476 0.000000 39.000000 14.229548 0.000000
38.058990 3.318662 -19.319608 0.000000 59.000000 14.279611 0.000000
39.195240 6.215018 -18.251923 0.000000 35.000000 14.275646 0.000000
36.003036 1.380447 -19.938131 0.000000 35.000000 14.192183 0.000000
38.772530 6.691440 -18.162891 0.000000 33.000000 14.356279 20.000000
37.475769 4.882109 -18.740105 0.000000 45.000000 14.274496 0.000000
40.001709 2.256025 -19.838879 0.000000 46.000000 14.400801 22.000000
34.514126 1.394075 -19.929372 0.000000 34.000000 14.188658 0.000000
35.445126 3.234719 -19.488963 0.000000 43.000000 14.409656 9.000000
37.625114 4.017107 -19.082680 0.000000 28.000000 14.297936 0.000000
39.950653 1.785422 -20.221706 0.000000 69.000000 14.597965 17.000000
39.329708 5.830501 -18.580445 0.000000 55.000000 14.451504 3.000000
38.286167 4.286421 -19.284145 0.000000 44.000000 14.579881 26.000000
37.792633 7.017422 -17.832167 0.000000 25.000000 14.158178 0.000000
35.453320 3.804976 -19.455280 0.000000 73.000000 14.574589 8.000000
35.780537 4.506310 -18.938431 0.000000 65.000000 14.331141 0.000000
39.048729 6.784538 -17.895038 0.000000 27.000000 14.136928 0.000000
39.012589 6.642201 -18.032303 0.000000 29.000000 14.216722 0.000000
38.194035 1.355565 -20.032296 0.000000 43.000000 14.272002 0.000000
38.001896 5.380534 -18.418968 0.000000 33.000000 14.144831 0.000000
36.489281 6.347722 -18.180818 0.000000 47.000000 14.254637 0.000000
34.690468 2.487809 -19.618335 0.000000 38.000000 14.273661 0.000000
37.275269 5.895009 -18.654332 0.000000 56.000000 14.543098 18.000000
36.507538 6.270624 -18.261211 0.000000 37.000000 14.303530 0.000000
39.162266 1.492797 -19.922906 0.000000 23.000000 14.216615 0.000000
35.695930 4.683224 -18.830571 0.000000 39.000000 14.290868 0.000000
35.315975 3.447523 -19.264723 0.000000 42.000000 14.272504 0.000000
39.171116 5.550691 -18.353250 0.000000 33.000000 14.141788 0.000000
35.213116 4.890514 -18.760484 0.000000 45.000000 14.296523 0.000000
36.850937 1.998325 -19.924652 0.000000 41.000000 14.392496 30.000000
35.536461 2.682882 -19.445574 0.000000 34.000000 14.178722 0.000000
34.387302 3.444385 -19.314526 0.000000 51.000000 14.318174 0.000000
34.601604 2.741479 -19.451009 0.000000 45.000000 14.204021 0.000000
39.135643 2.720167 -19.366151 0.000000 44.000000 14.117017 0.000000
37.034149 3.218093 -19.365274 0.000000 38.000000 14.287816 0.000000
35.413628 1.566477 -20.268435 0.000000 66.000000 14.566366 28.000000
38.040730 4.869519 -18.740639 0.000000 49.000000 14.270658 0.000000
39.238171 4.905968 -18.788128 0.000000 45.000000 14.327800 0.000000
35.023396 4.212161 -18.983681 0.000000 49.000000 14.272234 0.000000
37.721542 4.501052 -18.891255 0.000000 39.000000 14.285044 0.000000
38.083504 3.633539 -19.512442 0.000000 60.000000 14.569159 26.000000
40.021278 3.815218 -19.355355 0.000000 47.000000 14.484317 15.000000
39.378418 4.524626 -18.892539 0.000000 45.000000 14.294375 0.000000
38.611309 2.595201 -19.743694 0.000000 47.000000 14.428353 23.000000
36.071072 6.273447 -18.256392 0.000000 43.000000 14.299980 0.000000
34.031139 3.055292 -19.552238 0.000000 47.000000 14.407210 6.000000
35.150536 5.298255 -18.721659 0.000000 40.000000 14.400614 11.000000
38.222340 6.865507 -17.862900 0.000000 23.000000 14.134666 0.000000
39.635342 3.902136 -19.118840 0.000000 43.000000 14.292253 0.000000
38.530552 3.629967 -19.207555 0.000000 49.000000 14.281723 0.000000
35.332745 5.425582 -18.413605 0.000000 30.000000 14.155323 0.000000
35.737072 1.392668 -20.159400 0.000000 51.000000 14.404106 28.000000
38.656994 3.391838 -19.293191 0.000000 35.000000 14.280035 0.000000
39.889629 3.416243 -19.280105 0.000000 44.000000 14.276162 0.000000
35.421223 2.644823 -19.948281 0.000000 76.000000 14.637507 21.000000
39.955986 3.296858 -19.322320 0.000000 45.000000 14.274642 0.000000
36.418530 1.635250 -20.241519 0.000000 79.000000 14.564804 27.000000
34.865952 4.739354 -18.836984 0.000000 46.000000 14.316235 0.000000
36.599670 2.511806 -20.180758 0.000000 74.000000 14.809891 10.000000
35.290192 2.676840 -19.422106 0.000000 39.000000 14.154610 0.000000
39.721245 2.550083 -19.928323 0.000000 70.000000 14.586118 23.000000
39.047550 2.615060 -19.425260 0.000000 30.000000 14.136277 0.000000
34.053989 2.881536 -19.521791 0.000000 53.000000 14.318740 0.000000
37.482861 4.090734 -18.985096 0.000000 38.000000 14.231709 0.000000
39.684456 1.913747 -19.814951 0.000000 42.000000 14.260365 0.000000
38.851826 2.919720 -19.401344 0.000000 34.000000 14.218834 0.000000
39.862125 1.703895 -19.913849 0.000000 46.000000 14.280873 0.000000
35.836224 3.622635 -19.279619 0.000000 56.000000 14.346844 8.000000
37.206722 2.997138 -19.471425 0.000000 46.000000 14.311305 0.000000
37.035530 2.571150 -20.129913 0.000000 67.000000 14.782616 10.000000
36.212929 6.980259 -17.904259 0.000000 28.000000 14.213043 0.000000
38.214455 1.368305 -19.978541 0.000000 39.000000 14.225932 0.000000
36.205280 6.864625 -17.910326 0.000000 26.000000 14.178882 0.000000
36.332790 2.049654 -20.318350 0.000000 47.000000 14.779761 27.000000
36.192448 3.270169 -19.340567 0.000000 51.000000 14.282572 0.000000
36.492836 5.201981 -18.662500 0.000000 48.000000 14.311897 0.000000
34.909508 6.406074 -18.227367 0.000000 31.000000 14.318446 0.000000
37.111839 3.268238 -19.322833 0.000000 46.000000 14.265259 0.000000
36.672493 1.889718 -19.852834 0.000000 38.000000 14.287645 0.000000
34.858932 4.858945 -18.752461 0.000000 40.000000 14.278111 0.000000
34.959106 2.407892 -19.897587 0.000000 44.000000 14.508256 21.000000
34.550419 2.318424 -19.666260 0.000000 49.000000 14.260267 0.000000
36.125881 6.036585 -18.371272 0.000000 39.000000 14.326180 0.000000
36.921776 6.330348 -18.208974 0.000000 37.000000 14.275079 0.000000
34.002277 2.242811 -19.804368 0.000000 61.000000 14.363850 1.000000
36.040455 2.830280 -19.420790 0.000000 25.000000 14.206261 0.000000
39.052158 3.456530 -19.272959 0.000000 43.000000 14.283340 0.000000
38.511868 4.682212 -18.801960 0.000000 46.000000 14.263662 0.000000
37.285641 3.490998 -19.263113 0.000000 42.000000 14.285978 0.000000
35.142933 2.614015 -19.473726 0.000000 38.000000 14.181413 0.000000
39.515579 3.897728 -19.097787 0.000000 32.000000 14.270971 0.000000
38.769398 6.901166 -17.926960 0.000000 27.000000 14.207092 0.000000
36.410789 1.864262 -20.275272 0.000000 66.000000 14.675423 27.000000
40.087372 2.635573 -19.712550 0.000000 51.000000 14.413033 22.000000
36.298279 4.987852 -18.754229 0.000000 38.000000 14.324201 0.000000
37.810020 3.193477 -19.374465 0.000000 55.000000 14.287959 0.000000
36.343723 4.870482 -18.758871 0.000000 42.000000 14.288105 0.000000
38.584087 1.282161 -19.935040 0.000000 42.000000 14.155405 0.000000
35.716957 3.959356 -19.368253 0.000000 44.000000 14.546105 8.000000
36.416798 4.641030 -18.844278 0.000000 39.000000 14.289192 0.000000
37.421680 4.995190 -18.726894 0.000000 42.000000 14.301071 0.000000
35.364883 5.919607 -18.603217 0.000000 67.000000 14.503593 12.000000
39.637150 4.424081 -18.913486 0.000000 44.000000 14.279383 0.000000
36.110760 2.574457 -19.625556 0.000000 46.000000 14.310305 0.000000
39.052731 3.614914 -19.218920 0.000000 32.000000 14.287203 0.000000
37.201271 4.888775 -18.748828 0.000000 44.000000 14.284982 0.000000
38.765369 1.326709 -19.948476 0.000000 37.000000 14.183372 0.000000
34.648254 1.278474 -20.004873 0.000000 44.000000 14.219688 0.000000
37.292072 2.594860 -20.130896 0.000000 63.000000 14.791711 10.000000
38.766842 6.176417 -18.275120 0.000000 26.000000 14.284116 0.000000
35.738049 3.527225 -19.287020 0.000000 40.000000 14.320906 0.000000
40.025291 2.371983 -20.043758 0.000000 75.000000 14.633093 22.000000
35.682640 3.237471 -19.357251 0.000000 56.000000 14.286963 0.000000
34.816658 6.336092 -18.222350 0.000000 52.000000 14.289616 0.000000
39.364220 6.119725 -18.848815 0.000000 40.000000 14.803117 3.000000
40.225460 2.116722 -19.936438 0.000000 66.000000 14.444368 17.000000
37.345032 1.980200 -19.915937 0.000000 56.000000 14.378068 30.000000
35.501019 2.559742 -19.994192 0.000000 63.000000 14.651280 21.000000
39.126122 1.902413 -20.115773 0.000000 51.000000 14.538847 29.000000
40.022507 2.408643 -20.089626 0.000000 66.000000 14.688786 22.000000
36.181171 2.888663 -19.469330 0.000000 32.000000 14.271950 0.000000
37.342804 2.924916 -19.529839 0.000000 42.000000 14.341246 0.000000
36.683884 2.590497 -20.263344 0.000000 54.000000 14.914539 10.000000
37.473190 2.802566 -19.429073 0.000000 37.000000 14.204484 0.000000
38.170395 2.544733 -19.972182 0.000000 61.000000 14.625445 23.000000
36.503220 6.334599 -18.175383 0.000000 39.000000 14.245012 0.000000
37.228489 3.750485 -19.211623 0.000000 29.000000 14.327081 0.000000
35.994282 1.905271 -20.205763 0.000000 66.000000 14.624308 27.000000
37.163765 2.729022 -19.899290 0.000000 66.000000 14.620539 10.000000
38.701439 3.201262 -19.368194 0.000000 45.000000 14.284755 0.000000
35.602741 5.878571 -18.447639 0.000000 53.000000 14.343405 12.000000
38.144142 2.043260 -19.790247 0.000000 41.000000 14.281815 0.000000
37.276340 2.999991 -19.443226 0.000000 34.000000 14.285817 0.000000
36.192184 2.092621 -19.767694 0.000000 41.000000 14.277657 0.000000
34.935715 1.530620 -20.098430 0.000000 62.000000 14.394420 28.000000
40.088463 6.050731 -18.275802 0.000000 29.000000 14.241436 0.000000
33.984848 2.565338 -20.067236 0.000000 47.000000 14.721777 1.000000
37.958183 1.736379 -20.184552 0.000000 53.000000 14.546184 30.000000
38.897240 5.390453 -18.459137 0.000000 31.000000 14.185957 0.000000
36.437637 6.801198 -18.082641 0.000000 47.000000 14.318777 0.000000
37.865513 4.057748 -19.615108 0.000000 67.000000 14.811747 26.000000
34.214104 3.206539 -19.516899 0.000000 53.000000 14.426167 6.000000
34.627548 1.830151 -19.889939 0.000000 40.000000 14.301945 0.000000
35.277153 3.633423 -19.350181 0.000000 30.000000 14.416800 8.000000
40.186531 6.840367 -17.859886 0.000000 27.000000 14.123172 0.000000
34.740868 6.694000 -18.355538 0.000000 62.000000 14.538003 5.000000
39.333591 5.953574 -18.753574 0.000000 42.000000 14.656444 3.000000
39.462719 3.081219 -19.435059 0.000000 47.000000 14.306148 0.000000
38.686596 6.810811 -17.979140 0.000000 30.000000 14.224931 0.000000
35.655006 2.021657 -19.792933 0.000000 42.000000 14.276890 0.000000
38.582191 6.867419 -17.887018 0.000000 26.000000 14.157966 0.000000
34.884617 2.664074 -19.458480 0.000000 29.000000 14.184355 0.000000
39.828636 3.406743 -19.302861 0.000000 47.000000 14.294250 0.000000
37.550056 3.040332 -19.546459 0.000000 37.000000 14.396629 24.000000
39.984653 5.614034 -18.331384 0.000000 46.000000 14.143095 0.000000
40.230198 2.599386 -20.018110 0.000000 66.000000 14.687396 22.000000
34.430649 6.987264 -17.918667 0.000000 28.000000 14.228983 0.000000
35.550220 6.960814 -17.851428 0.000000 24.000000 14.156747 0.000000
37.556389 3.539944 -19.302896 0.000000 50.000000 14.340193 0.000000
35.432758 6.903982 -17.942579 0.000000 25.000000 14.222724 0.000000
34.224739 6.888815 -17.945560 0.000000 25.000000 14.220295 0.000000
36.869781 6.588241 -18.329711 0.000000 59.000000 14.477307 4.000000
34.131828 6.836007 -17.934304 0.000000 22.000000 14.191527 0.000000
40.081558 1.358971 -20.168073 0.000000 38.000000 14.400633 17.000000
34.031673 6.778364 -17.980657 0.000000 22.000000 14.215172 0.000000
39.370392 6.227063 -18.202802 0.000000 39.000000 14.233686 0.000000
39.295326 2.643300 -19.925648 0.000000 60.000000 14.615736 23.000000
34.657837 6.312909 -18.246186 0.000000 29.000000 14.304001 0.000000
38.647362 2.795120 -19.484904 0.000000 40.000000 14.254328 0.000000
34.528206 6.157459 -18.288365 0.000000 28.000000 14.290015 0.000000
34.799248 3.876800 -19.199320 0.000000 59.000000 14.359069 8.000000
35.243870 6.704102 -18.149363 0.000000 27.000000 14.347944 5.000000
36.175121 2.518976 -19.906964 0.000000 54.000000 14.555346 21.000000
37.436752 1.636915 -20.373956 0.000000 72.000000 14.689700 30.000000
37.634090 2.491401 -20.042847 0.000000 38.000000 14.673398 10.000000
