-39.943488 -18.920263 67.370121 0.000000 39.000000 14.098835 0.000000
-41.178344 -17.837640 66.405881 0.000000 45.000000 14.074256 0.000000
-42.139945 -18.037571 66.591305 0.000000 69.000000 14.550551 8.000000
-39.981187 -18.138058 65.773179 0.000000 42.000000 14.094381 0.000000
-38.649743 -18.933184 66.017535 0.000000 42.000000 14.125564 0.000000
-40.563877 -18.987808 68.113706 0.000000 34.000000 14.109722 0.000000
-41.987272 -18.332986 68.262491 0.000000 37.000000 14.076739 0.000000
-41.813885 -18.872319 69.141695 0.000000 45.000000 14.108313 0.000000
-40.956420 -18.947058 68.408659 0.000000 43.000000 14.116532 0.000000
-40.402464 -18.448825 66.936404 0.000000 35.000000 14.062153 0.000000
-41.321158 -17.223148 64.239285 0.000000 69.000000 14.474793 23.000000
-40.500202 -18.536929 67.225640 0.000000 33.000000 14.060312 0.000000
-43.734292 -17.564078 68.497147 0.000000 43.000000 14.044599 0.000000
-41.523051 -19.842539 70.859296 0.000000 42.000000 14.120016 0.000000
-42.623468 -18.833551 69.921654 0.000000 40.000000 14.092319 0.000000
-40.657976 -18.771180 67.705981 0.000000 32.000000 14.128275 0.000000
-42.345183 -17.865512 66.474312 0.000000 81.000000 14.535965 8.000000
-41.703618 -18.410335 66.989967 0.000000 36.000000 14.528338 18.000000
-40.858483 -18.925904 68.384224 0.000000 35.000000 14.069551 0.000000
-43.261278 -18.381630 69.834063 0.000000 31.000000 14.006960 0.000000
-41.015049 -19.145401 68.956472 0.000000 41.000000 14.088649 0.000000
-43.069777 -17.484545 67.835816 0.000000 33.000000 13.973814 0.000000
-42.487339 -18.747871 69.543729 0.000000 35.000000 14.115746 0.000000
-41.256854 -19.449494 69.923721 0.000000 50.000000 14.056398 0.000000
-41.346363 -17.323401 64.627420 0.000000 58.000000 14.415161 24.000000
-41.784490 -19.766377 71.029256 0.000000 37.000000 14.094370 0.000000
-41.455832 -19.797771 70.867649 0.000000 30.000000 14.052831 0.000000
-40.548305 -19.151943 68.384099 0.000000 49.000000 14.133059 0.000000
-38.623445 -18.908242 66.019777 0.000000 37.000000 14.093531 0.000000
-43.338152 -17.229882 67.183131 0.000000 41.000000 14.126785 0.000000
-38.750145 -19.208102 66.831019 0.000000 32.000000 14.073235 0.000000
-42.776194 -17.379766 66.912343 0.000000 43.000000 14.133261 0.000000
-38.785131 -19.491514 67.216751 0.000000 54.000000 14.170151 0.000000
-38.869345 -19.660308 67.892178 0.000000 33.000000 14.077789 0.000000
-38.895187 -19.771347 68.182421 0.000000 33.000000 14.065863 0.000000
-39.812294 -19.134227 67.742539 0.000000 32.000000 14.077168 0.000000
-40.533039 -17.205271 64.299044 0.000000 29.000000 14.122025 0.000000
-43.749840 -17.970748 69.210482 0.000000 38.000000 14.106943 0.000000
-41.412401 -17.286774 65.305941 0.000000 51.000000 14.144191 0.000000
-40.074467 -18.337250 66.480030 0.000000 25.000000 14.018448 0.000000
-41.912575 -17.816836 66.651924 0.000000 38.000000 14.253160 8.000000
-40.525422 -18.429298 66.576384 0.000000 62.000000 14.236697 6.000000
-40.035810 -19.592930 68.763411 0.000000 48.000000 14.144575 0.000000
-42.628443 -18.950215 70.064040 0.000000 33.000000 14.134904 0.000000
-42.979521 -18.127347 68.793929 0.000000 36.000000 14.093204 0.000000
-38.858539 -18.839082 66.068554 0.000000 40.000000 14.110856 0.000000
-38.900897 -19.755911 68.047208 0.000000 39.000000 14.108559 0.000000
-39.844435 -17.861324 64.985182 0.000000 41.000000 14.120674 0.000000
-41.780398 -17.475123 65.190689 0.000000 75.000000 14.492364 24.000000
-42.261826 -16.821161 65.561522 0.000000 36.000000 13.996892 0.000000
-40.849114 -20.149090 70.837213 0.000000 41.000000 14.113714 0.000000
-42.838054 -17.080852 65.378465 0.000000 72.000000 14.513915 13.000000
-40.421713 -20.021938 70.259151 0.000000 37.000000 14.065328 0.000000
-41.362284 -17.036030 64.546387 0.000000 71.000000 14.215385 23.000000
-42.568975 -16.803324 65.785960 0.000000 25.000000 14.016356 0.000000
-41.492555 -18.248566 67.514778 0.000000 42.000000 14.103642 0.000000
-42.223287 -16.819318 65.536940 0.000000 39.000000 13.989662 0.000000
-38.229033 -19.825771 67.415745 0.000000 38.000000 14.146823 0.000000
-39.219952 -19.726546 68.352861 0.000000 27.000000 14.091269 0.000000
-40.644148 -19.996503 70.352612 0.000000 38.000000 14.096235 0.000000
-40.853351 -16.866595 63.783570 0.000000 44.000000 14.172146 0.000000
-44.232810 -16.998151 67.827937 0.000000 32.000000 14.038094 0.000000
-40.249306 -17.592070 64.995614 0.000000 30.000000 14.055099 0.000000
-42.869262 -17.282669 66.824247 0.000000 47.000000 14.124638 0.000000
-41.341335 -19.040456 68.994159 0.000000 29.000000 14.117083 0.000000
-38.997908 -20.199269 68.605325 0.000000 59.000000 14.294867 29.000000
-41.462912 -16.794521 64.739690 0.000000 31.000000 13.979445 0.000000
-38.265900 -19.297104 66.823836 0.000000 26.000000 13.956570 0.000000
-38.116898 -19.235290 66.550385 0.000000 26.000000 13.953520 0.000000
-41.053091 -19.783812 70.378241 0.000000 41.000000 14.073153 0.000000
-39.691566 -19.009396 67.313402 0.000000 39.000000 14.094464 0.000000
-41.358311 -17.088797 64.477881 0.000000 74.000000 14.284459 23.000000
-41.100430 -17.162145 64.081691 0.000000 59.000000 14.398210 23.000000
-42.643270 -17.421349 66.985173 0.000000 35.000000 14.086010 0.000000
-38.560868 -19.216169 66.458362 0.000000 45.000000 14.151030 0.000000
-43.109355 -17.288880 67.055698 0.000000 46.000000 14.134505 0.000000
-41.038178 -17.210706 64.870262 0.000000 34.000000 14.103308 0.000000
-40.492596 -17.302141 64.475057 0.000000 46.000000 14.116864 0.000000
-41.167909 -17.450376 65.417970 0.000000 53.000000 14.138063 0.000000
-41.047939 -18.962345 68.634796 0.000000 28.000000 14.076729 0.000000
-44.174250 -17.185594 67.452036 0.000000 63.000000 14.317886 21.000000
-43.198412 -18.058733 68.816123 0.000000 44.000000 14.114976 0.000000
-42.589515 -17.554304 66.404081 0.000000 65.000000 14.403328 8.000000
-43.533495 -17.391354 67.890952 0.000000 37.000000 14.059950 0.000000
-44.204375 -17.842938 68.557654 0.000000 58.000000 14.439311 9.000000
-43.704512 -17.483038 68.179135 0.000000 50.000000 14.090727 0.000000
-41.092551 -17.814364 65.202105 0.000000 44.000000 14.494405 7.000000
-40.792427 -19.306716 69.409337 0.000000 31.000000 13.955242 0.000000
-44.106330 -17.591027 68.932666 0.000000 40.000000 14.043990 0.000000
-42.330209 -17.569984 67.418287 0.000000 22.000000 13.913789 0.000000
-42.432400 -17.707933 67.595826 0.000000 34.000000 13.998960 0.000000
-40.323189 -17.332065 64.328036 0.000000 46.000000 14.131907 0.000000
-41.543416 -17.282017 64.671504 0.000000 63.000000 14.442160 24.000000
-40.798352 -19.920054 70.232908 0.000000 45.000000 14.141542 0.000000
-39.084214 -19.270376 67.469718 0.000000 34.000000 14.006788 0.000000
-43.361843 -18.364248 69.675384 0.000000 38.000000 14.095124 0.000000
-44.215219 -17.623812 68.948454 0.000000 40.000000 14.108377 0.000000
-40.866598 -19.513568 69.601118 0.000000 42.000000 14.080697 0.000000
-39.272493 -19.492669 67.893154 0.000000 45.000000 14.099408 0.000000
-40.699095 -17.422263 64.242455 0.000000 75.000000 14.390268 25.000000
-38.409610 -19.419874 66.978606 0.000000 41.000000 14.054693 0.000000
-39.790159 -20.219788 69.412137 0.000000 26.000000 14.310496 29.000000
-40.780674 -18.317258 65.814914 0.000000 65.000000 14.545364 10.000000
-40.405353 -18.730800 67.264585 0.000000 34.000000 14.167717 0.000000
-38.898612 -18.702070 65.851385 0.000000 40.000000 14.098817 0.000000
-41.134256 -17.475189 65.459473 0.000000 57.000000 14.128857 0.000000
-38.959863 -18.789413 66.120658 0.000000 42.000000 14.089643 0.000000
-40.675929 -18.984121 68.263081 0.000000 35.000000 14.092599 0.000000
-42.753141 -17.667428 66.537805 0.000000 73.000000 14.509690 8.000000
-42.987354 -16.857951 66.255040 0.000000 41.000000 14.043955 0.000000
-42.962193 -17.030657 66.496592 0.000000 48.000000 14.081914 0.000000
-41.420689 -19.413351 70.034255 0.000000 22.000000 14.048338 0.000000
-39.686753 -20.048651 69.139066 0.000000 53.000000 14.234943 0.000000
-41.281654 -17.354393 64.094818 0.000000 69.000000 14.624579 23.000000
-40.991084 -17.690207 65.300317 0.000000 60.000000 14.312445 7.000000
-39.248679 -19.219910 67.592519 0.000000 32.000000 13.982289 0.000000
-40.735553 -17.247935 64.612409 0.000000 49.000000 14.114860 0.000000
-40.555505 -18.077471 65.612442 0.000000 73.000000 14.336591 10.000000
-38.744875 -19.217738 66.394271 0.000000 59.000000 14.250963 3.000000
-39.535453 -18.452412 66.038218 0.000000 29.000000 14.072614 0.000000
-44.255313 -16.828382 67.685979 0.000000 37.000000 13.962319 0.000000
-40.368116 -17.732718 65.604754 0.000000 38.000000 13.979311 0.000000
-41.208871 -19.908313 70.779581 0.000000 40.000000 14.080506 0.000000
-38.809727 -19.241943 67.094203 0.000000 53.000000 14.021478 0.000000
-39.389468 -19.854186 68.766115 0.000000 34.000000 14.102013 0.000000
-38.964422 -18.552773 65.770003 0.000000 46.000000 14.033442 0.000000
-40.568605 -18.186293 65.651535 0.000000 74.000000 14.416566 10.000000
-42.335216 -17.460897 65.440733 0.000000 72.000000 14.603558 24.000000
-43.118560 -18.287441 69.179163 0.000000 53.000000 14.129694 0.000000
-41.512621 -20.249838 71.249195 0.000000 57.000000 14.299781 28.000000
-40.894537 -17.245586 64.763132 0.000000 43.000000 14.117040 0.000000
-44.005116 -17.305988 67.960775 0.000000 38.000000 14.149943 0.000000
-43.030818 -18.703733 70.178708 0.000000 33.000000 14.046180 0.000000
-43.462293 -17.272261 67.490433 0.000000 37.000000 14.090499 0.000000
-43.187701 -17.274669 67.222583 0.000000 36.000000 14.088328 0.000000
-41.635499 -17.092101 64.282988 0.000000 70.000000 14.474475 15.000000
-41.150664 -17.173437 64.886028 0.000000 37.000000 14.111117 0.000000
-41.767201 -18.330900 67.861943 0.000000 51.000000 14.144812 0.000000
-42.384489 -17.276717 66.403425 0.000000 44.000000 14.091875 0.000000
-42.601154 -17.694715 67.697629 0.000000 38.000000 14.015285 0.000000
-41.778706 -19.762014 70.429017 0.000000 55.000000 14.324629 11.000000
-41.621584 -17.302007 65.553742 0.000000 35.000000 14.142764 0.000000
-41.394702 -17.279529 65.324307 0.000000 40.000000 14.123902 0.000000
-40.430834 -19.827971 69.776365 0.000000 34.000000 14.098281 0.000000
-40.947667 -17.249816 64.841623 0.000000 35.000000 14.110857 0.000000
-43.075747 -18.172305 68.893880 0.000000 42.000000 14.129504 0.000000
-37.512597 -20.043125 67.450747 0.000000 31.000000 14.027225 0.000000
-41.047323 -17.521737 65.467906 0.000000 59.000000 14.129407 0.000000
-39.715594 -19.184437 67.630230 0.000000 59.000000 14.124363 0.000000
-42.713403 -17.643088 67.774054 0.000000 22.000000 13.987240 0.000000
-41.091847 -19.385897 69.842826 0.000000 34.000000 13.969719 0.000000
-41.681292 -19.013514 69.334950 0.000000 37.000000 14.096313 0.000000
-42.497956 -17.100850 66.122543 0.000000 45.000000 14.102007 0.000000
-41.217637 -18.952872 68.732475 0.000000 32.000000 14.098155 0.000000
-42.044394 -19.323125 70.735810 0.000000 29.000000 13.946412 0.000000
-44.320629 -17.377974 68.578887 0.000000 44.000000 14.092237 0.000000
-40.883426 -17.132180 64.482577 0.000000 27.000000 14.129071 0.000000
-40.929361 -17.788032 64.985817 0.000000 67.000000 14.492590 7.000000
-42.064716 -19.088930 69.835565 0.000000 39.000000 14.114775 0.000000
-42.210286 -17.914221 66.319543 0.000000 74.000000 14.583385 8.000000
-42.359613 -17.803768 66.586149 0.000000 61.000000 14.446578 8.000000
-43.122429 -17.032869 66.683571 0.000000 37.000000 14.074105 0.000000
-41.651215 -17.349600 65.704175 0.000000 41.000000 14.134813 0.000000
-39.765705 -18.693838 66.729260 0.000000 37.000000 14.092532 0.000000
-38.724349 -19.404663 67.243937 0.000000 37.000000 14.063269 0.000000
-41.148213 -17.582811 65.684211 0.000000 47.000000 14.135134 0.000000
-41.456092 -17.861055 66.797070 0.000000 34.000000 14.050542 0.000000
-39.421054 -18.577166 66.261448 0.000000 41.000000 14.042462 0.000000
-40.723778 -18.832156 67.835529 0.000000 48.000000 14.154058 0.000000
-42.729484 -17.573767 67.820462 0.000000 24.000000 13.917981 0.000000
-37.933936 -19.719904 66.996917 0.000000 32.000000 14.106199 0.000000
-41.901099 -17.480016 64.769910 0.000000 70.000000 14.710141 24.000000
-40.042403 -19.885325 69.475289 0.000000 33.000000 14.109272 0.000000
-39.844699 -18.485618 66.551510 0.000000 32.000000 14.021533 0.000000
-42.439034 -17.422231 65.527891 0.000000 71.000000 14.578661 24.000000
-37.699513 -19.829864 66.974320 0.000000 30.000000 14.112633 0.000000
-41.229544 -17.332658 64.167040 0.000000 62.000000 14.557367 23.000000
-41.929477 -16.973538 64.778591 0.000000 31.000000 14.298561 15.000000
-40.924096 -17.380772 65.023714 0.000000 46.000000 14.138268 0.000000
-44.131769 -16.732280 67.512651 0.000000 25.000000 13.901632 0.000000
-44.291229 -16.836697 67.736538 0.000000 33.000000 13.963642 0.000000
-39.460719 -19.992703 69.505341 0.000000 22.000000 13.954299 0.000000
-41.021056 -18.885369 68.309361 0.000000 46.000000 14.130299 0.000000
-40.759898 -17.363949 64.889449 0.000000 40.000000 14.111651 0.000000
-41.533202 -17.578967 66.517669 0.000000 22.000000 13.957608 0.000000
-38.896115 -18.612448 65.740939 0.000000 50.000000 14.067050 0.000000
-39.989275 -17.742312 64.950191 0.000000 29.000000 14.093661 0.000000
-40.182696 -18.088600 65.157667 0.000000 58.000000 14.376007 10.000000
-42.005387 -17.062119 64.984493 0.000000 75.000000 14.321196 24.000000
-42.274027 -18.185794 68.115682 0.000000 51.000000 14.127006 0.000000
-40.519561 -18.138469 66.267893 0.000000 34.000000 14.114866 0.000000
-41.171216 -17.419295 65.334761 0.000000 47.000000 14.146381 0.000000
-42.384611 -18.342554 68.469219 0.000000 49.000000 14.161853 0.000000
-42.145452 -17.765813 67.304856 0.000000 28.000000 14.046901 0.000000
-41.051103 -18.094801 66.209689 0.000000 61.000000 14.313678 19.000000
-42.921731 -18.651578 69.773280 0.000000 39.000000 14.118985 0.000000
-42.616557 -18.088706 68.341252 0.000000 52.000000 14.094501 0.000000
-41.665628 -18.376247 66.486219 0.000000 44.000000 14.683161 19.000000
-41.118040 -18.632367 68.031362 0.000000 49.000000 14.068833 0.000000
-40.225943 -19.755121 68.866235 0.000000 62.000000 14.314310 30.000000
-41.286087 -18.847202 68.584659 0.000000 30.000000 14.096107 0.000000
-38.779986 -19.323883 67.290865 0.000000 28.000000 14.000097 0.000000
-43.291786 -17.375674 67.538296 0.000000 71.000000 14.089287 0.000000
-42.278049 -18.560181 69.145847 0.000000 40.000000 14.033347 0.000000
-42.124143 -17.221351 65.119594 0.000000 78.000000 14.447302 24.000000
-41.762700 -19.265779 70.390110 0.000000 24.000000 13.922549 0.000000
-41.776519 -19.460600 70.505259 0.000000 33.000000 14.044113 0.000000
-39.365140 -18.974802 66.923445 0.000000 39.000000 14.089012 0.000000
-39.583534 -18.793666 66.630273 0.000000 44.000000 14.141479 0.000000
-41.858046 -18.595237 68.503686 0.000000 48.000000 14.147483 0.000000
-40.708482 -18.777528 67.057536 0.000000 54.000000 14.408833 6.000000
-41.035669 -17.340569 64.450389 0.000000 71.000000 14.375076 23.000000
-39.004779 -19.813565 68.304026 0.000000 23.000000 14.096706 0.000000
-40.671015 -17.344514 64.312934 0.000000 69.000000 14.286938 25.000000
-39.300732 -19.292704 67.722008 0.000000 33.000000 14.012398 0.000000
-43.123007 -17.584316 67.706535 0.000000 44.000000 14.128555 0.000000
-39.298593 -19.618335 68.025112 0.000000 49.000000 14.161982 0.000000
-39.347846 -19.681149 68.425202 0.000000 30.000000 14.076232 0.000000
-40.273138 -20.042464 70.126261 0.000000 24.000000 14.075339 0.000000
-41.651005 -19.112815 69.757848 0.000000 36.000000 14.000073 0.000000
-37.805410 -19.761820 66.987294 0.000000 28.000000 14.093422 0.000000
-43.323227 -17.211430 67.183856 0.000000 48.000000 14.105262 0.000000
-42.433037 -16.712998 65.428302 0.000000 36.000000 14.028037 0.000000
-43.810776 -18.058442 69.516692 0.000000 35.000000 14.083401 0.000000
-40.025535 -19.289229 68.437349 0.000000 39.000000 14.017235 0.000000
-43.260527 -18.041824 68.950174 0.000000 37.000000 14.073008 0.000000
-43.263554 -17.596833 68.248601 0.000000 42.000000 13.981708 0.000000
-41.164071 -18.328912 67.179217 0.000000 34.000000 14.171164 0.000000
-41.514373 -19.907513 70.968375 0.000000 51.000000 14.127448 0.000000
-41.824841 -17.743295 65.873148 0.000000 44.000000 14.463676 8.000000
-41.544118 -18.473438 67.979142 0.000000 39.000000 14.127747 0.000000
-43.872175 -17.921535 68.044475 0.000000 53.000000 14.573789 9.000000
-41.264161 -18.681288 68.187996 0.000000 38.000000 14.106019 0.000000
-38.018387 -20.135123 67.489336 0.000000 58.000000 14.290041 27.000000
-40.015324 -17.859139 65.105067 0.000000 43.000000 14.139875 0.000000
-44.392249 -17.460099 67.963325 0.000000 63.000000 14.431041 21.000000
-39.354178 -19.334566 67.990504 0.000000 34.000000 13.962747 0.000000
-39.362896 -18.462902 65.360335 0.000000 68.000000 14.279186 2.000000
-38.438853 -20.098559 67.971541 0.000000 44.000000 14.237780 26.000000
-38.160373 -19.789950 67.327323 0.000000 37.000000 14.124552 0.000000
-40.737781 -17.838030 66.023228 0.000000 35.000000 14.049366 0.000000
-42.737071 -17.417201 66.985773 0.000000 46.000000 14.119764 0.000000
-40.871011 -18.085961 65.076355 0.000000 71.000000 14.680442 7.000000
-40.632917 -18.473614 66.617871 0.000000 45.000000 14.299966 6.000000
-40.750533 -17.494620 64.859649 0.000000 50.000000 14.227868 7.000000
-44.845038 -16.713958 68.105490 0.000000 24.000000 13.937772 0.000000
-40.841930 -17.264527 64.700496 0.000000 53.000000 14.136384 0.000000
-38.842853 -19.954245 68.421540 0.000000 34.000000 14.102378 0.000000
-38.313061 -19.284083 66.790893 0.000000 32.000000 13.977564 0.000000
-41.159516 -18.263947 66.383570 0.000000 67.000000 14.428608 19.000000
-40.334462 -19.770487 69.606887 0.000000 32.000000 14.078905 0.000000
-41.596829 -19.170936 69.839930 0.000000 23.000000 13.994299 0.000000
-38.678577 -19.415874 67.181527 0.000000 47.000000 14.078849 0.000000
-38.541239 -19.333782 66.942853 0.000000 44.000000 14.049974 0.000000
-38.416091 -19.227407 66.754092 0.000000 43.000000 13.986211 0.000000
-42.171885 -16.755886 65.343215 0.000000 47.000000 13.992842 0.000000
-41.097140 -18.145317 66.415113 0.000000 52.000000 14.293055 19.000000
-39.546013 -19.323329 68.190799 0.000000 24.000000 13.951168 0.000000
-41.030675 -18.442563 67.392518 0.000000 39.000000 14.128142 0.000000
-42.805167 -18.579835 68.670132 0.000000 59.000000 14.447121 1.000000
-38.790628 -19.070287 66.450957 0.000000 39.000000 14.124788 0.000000
-41.821125 -17.672724 67.037984 0.000000 21.000000 13.945407 0.000000
-41.591157 -17.671975 66.761519 0.000000 24.000000 13.961816 0.000000
-40.665835 -17.562635 65.599249 0.000000 23.000000 13.959392 0.000000
-41.201213 -19.396923 69.986117 0.000000 30.000000 13.966105 0.000000
-43.506828 -17.230473 67.354768 0.000000 44.000000 14.127038 0.000000
-41.646480 -17.287357 65.616671 0.000000 39.000000 14.115803 0.000000
-41.400970 -18.386680 67.870324 0.000000 38.000000 14.041594 0.000000
-41.794659 -17.344994 65.893431 0.000000 43.000000 14.113763 0.000000
-40.858004 -17.577842 65.726007 0.000000 35.000000 13.998783 0.000000
-39.228738 -19.843810 68.573474 0.000000 34.000000 14.105091 0.000000
-44.243536 -17.285371 67.589261 0.000000 45.000000 14.374175 21.000000
-42.712708 -17.689093 67.767784 0.000000 36.000000 14.027533 0.000000
-40.327955 -17.312932 64.279103 0.000000 52.000000 14.137215 0.000000
-41.096423 -17.288899 64.307217 0.000000 60.000000 14.412855 23.000000
-44.325903 -16.763488 67.536223 0.000000 24.000000 13.995661 0.000000
-40.643499 -18.493216 65.659252 0.000000 53.000000 14.697618 10.000000
-40.108999 -18.840678 67.354381 0.000000 40.000000 14.105150 0.000000
-40.814869 -18.303292 65.709826 0.000000 71.000000 14.588789 10.000000
-39.918051 -17.656593 64.882484 0.000000 38.000000 14.020888 0.000000
-40.201474 -19.745530 69.374820 0.000000 34.000000 14.096487 0.000000
-42.248514 -18.266587 68.200861 0.000000 32.000000 14.150226 0.000000
-43.117491 -18.549601 70.166761 0.000000 30.000000 13.957803 0.000000
-40.285706 -17.690191 65.423906 0.000000 16.000000 13.982367 0.000000
-39.244396 -18.458241 65.363241 0.000000 51.000000 14.226903 2.000000
-43.780184 -17.108663 67.433178 0.000000 45.000000 14.104362 0.000000
-44.967049 -16.901596 67.749616 0.000000 48.000000 14.281890 22.000000
-42.486480 -18.786203 69.707085 0.000000 40.000000 14.082875 0.000000
-39.204837 -18.495737 65.808678 0.000000 30.000000 14.066906 0.000000
-44.257431 -17.186574 67.544418 0.000000 65.000000 14.315536 21.000000
-39.253369 -18.606990 66.026986 0.000000 43.000000 14.092515 0.000000
-40.932204 -18.803925 68.088545 0.000000 41.000000 14.114279 0.000000
-44.376028 -16.670074 67.568548 0.000000 45.000000 13.925572 0.000000
-41.022242 -18.884677 68.443924 0.000000 35.000000 14.077252 0.000000
-41.374580 -19.670000 70.388073 0.000000 42.000000 14.103290 0.000000
-43.612293 -17.956590 68.991323 0.000000 44.000000 14.126572 0.000000
-40.906082 -18.418058 67.149752 0.000000 44.000000 14.153658 0.000000
-38.794970 -19.882429 68.223370 0.000000 27.000000 14.101768 0.000000
-40.978411 -17.722741 64.948503 0.000000 58.000000 14.472766 7.000000
-41.992768 -17.219883 65.872148 0.000000 44.000000 14.097557 0.000000
-42.307180 -17.866171 67.607011 0.000000 35.000000 14.075658 0.000000
-40.949334 -19.381014 69.605247 0.000000 28.000000 14.002296 0.000000
-39.581766 -19.128024 67.759649 0.000000 28.000000 13.973320 0.000000
-41.338415 -19.462429 69.928280 0.000000 47.000000 14.097859 0.000000
-42.035662 -17.313145 65.101329 0.000000 76.000000 14.495214 24.000000
-42.950761 -17.360342 67.091533 0.000000 41.000000 14.116316 0.000000
-43.930764 -17.744106 69.165622 0.000000 27.000000 14.009066 0.000000
-39.215358 -18.699957 66.094829 0.000000 42.000000 14.127654 0.000000
-45.043193 -16.940060 67.899173 0.000000 40.000000 14.285281 22.000000
-41.175210 -17.336191 64.404413 0.000000 47.000000 14.445215 23.000000
-40.810467 -19.130170 69.010829 0.000000 24.000000 13.973020 0.000000
-39.712961 -19.901555 69.126753 0.000000 48.000000 14.128413 0.000000
-38.041694 -19.821677 67.233238 0.000000 34.000000 14.140499 0.000000
-43.684329 -17.921565 69.001364 0.000000 38.000000 14.122353 0.000000
-43.711965 -17.142209 67.454958 0.000000 36.000000 14.096358 0.000000
-42.457206 -16.942564 65.183099 0.000000 66.000000 14.324298 14.000000
-40.091097 -19.375074 68.676526 0.000000 36.000000 14.020383 0.000000
-39.499035 -20.000548 69.079604 0.000000 59.000000 14.143602 0.000000
-42.854813 -17.626350 67.936855 0.000000 35.000000 13.965738 0.000000
-43.391928 -17.351293 67.459198 0.000000 30.000000 14.140172 0.000000
-43.740169 -17.317395 67.864212 0.000000 48.000000 14.091676 0.000000
-43.449081 -17.332963 67.539071 0.000000 45.000000 14.116366 0.000000
-43.401375 -17.492391 67.755034 0.000000 58.000000 14.144400 0.000000
-41.431537 -17.220108 65.192527 0.000000 45.000000 14.141236 0.000000
-39.890827 -18.131196 65.261954 0.000000 44.000000 14.253800 10.000000
-38.784200 -19.625859 67.634799 0.000000 36.000000 14.116558 0.000000
-40.607131 -17.312432 64.539121 0.000000 36.000000 14.145877 0.000000
-40.021257 -19.964995 69.749636 0.000000 19.000000 14.058872 0.000000
-41.084927 -19.227355 69.415838 0.000000 33.000000 14.003657 0.000000
-42.718960 -18.518240 69.651532 0.000000 36.000000 13.975552 0.000000
-41.941543 -17.278280 65.910118 0.000000 39.000000 14.110546 0.000000
-40.312592 -18.258278 66.185368 0.000000 35.000000 14.163991 0.000000
-41.483451 -17.256266 65.380155 0.000000 37.000000 14.118069 0.000000
-40.949115 -20.013063 70.711054 0.000000 27.000000 14.090590 0.000000
-41.055905 -17.221477 64.881444 0.000000 35.000000 14.114902 0.000000
-40.850625 -17.198589 64.639127 0.000000 37.000000 14.109388 0.000000
-37.867997 -19.800124 67.094713 0.000000 30.000000 14.107852 0.000000
-40.248792 -17.646478 64.640584 0.000000 41.000000 14.239653 7.000000
-41.916423 -19.094762 69.715062 0.000000 45.000000 14.107854 0.000000
-42.764501 -18.698621 69.716035 0.000000 43.000000 14.117741 0.000000
-42.064169 -19.136303 69.922021 0.000000 36.000000 14.119775 0.000000
-38.649423 -20.099442 68.020940 0.000000 49.000000 14.303088 26.000000
-43.772403 -17.625376 68.661066 0.000000 38.000000 14.046076 0.000000
-41.257479 -17.463759 65.600618 0.000000 47.000000 14.113017 0.000000
-42.147941 -17.349136 65.745156 0.000000 54.000000 14.316490 24.000000
-40.200119 -19.130689 67.994826 0.000000 51.000000 14.129704 0.000000
-41.209044 -19.088767 68.932326 0.000000 49.000000 14.128644 0.000000
-41.021244 -17.268322 64.267378 0.000000 52.000000 14.381493 23.000000
-42.252342 -19.118916 70.133858 0.000000 38.000000 14.097099 0.000000
-38.844853 -20.045909 68.562865 0.000000 41.000000 14.123488 0.000000
-38.942614 -19.478237 67.607562 0.000000 40.000000 14.068213 0.000000
-41.787688 -19.029816 69.417735 0.000000 37.000000 14.119691 0.000000
-40.854877 -17.927428 65.143260 0.000000 35.000000 14.516375 7.000000
-39.504017 -18.475555 66.107486 0.000000 32.000000 14.051985 0.000000
-40.286313 -17.987915 65.391322 0.000000 40.000000 14.242019 10.000000
-39.047356 -19.718166 67.945043 0.000000 46.000000 14.175931 0.000000
-41.157029 -18.878221 68.430655 0.000000 35.000000 14.130903 0.000000
-38.048897 -19.526795 66.599349 0.000000 50.000000 14.148560 0.000000
-39.771485 -18.378001 66.241249 0.000000 30.000000 14.025269 0.000000
-40.879865 -18.143284 65.951202 0.000000 38.000000 14.387220 10.000000
-41.743624 -19.079167 69.476898 0.000000 49.000000 14.119706 0.000000
-42.839907 -18.974469 70.367820 0.000000 44.000000 14.119833 0.000000
-42.550602 -17.581918 65.763360 0.000000 58.000000 14.662783 24.000000
-43.961068 -16.761632 67.322213 0.000000 48.000000 13.932768 0.000000
-42.752936 -18.451991 69.147149 0.000000 32.000000 14.132700 0.000000
-40.817106 -19.716832 69.865788 0.000000 40.000000 14.125161 0.000000
-43.074634 -17.861503 68.302611 0.000000 31.000000 14.104291 0.000000
-43.846764 -16.825807 67.254448 0.000000 43.000000 13.966979 0.000000
-39.224305 -20.250619 68.786484 0.000000 42.000000 14.356445 29.000000
-42.137095 -19.632253 71.098250 0.000000 34.000000 14.096819 0.000000
-37.910903 -19.783081 67.098036 0.000000 32.000000 14.109547 0.000000
-40.334495 -19.690609 69.409338 0.000000 36.000000 14.090490 0.000000
-39.620677 -19.819690 68.307085 0.000000 55.000000 14.346310 30.000000
-44.113829 -17.127933 67.512267 0.000000 30.000000 14.222322 21.000000
-44.345865 -17.649887 67.851414 0.000000 66.000000 14.613759 21.000000
-38.374705 -19.929793 67.733317 0.000000 54.000000 14.166142 0.000000
-39.519240 -19.240416 67.965240 0.000000 30.000000 13.960566 0.000000
-43.592627 -17.037072 67.174723 0.000000 31.000000 14.071931 0.000000
-39.705951 -19.782934 68.885616 0.000000 35.000000 14.122251 0.000000
-40.000177 -19.311590 68.335830 0.000000 38.000000 14.065583 0.000000
-37.831462 -19.831459 67.082235 0.000000 39.000000 14.124137 0.000000
-40.708535 -17.253761 64.596933 0.000000 53.000000 14.114995 0.000000
-41.476743 -19.666512 70.365917 0.000000 43.000000 14.149880 0.000000
-38.632245 -19.975164 68.107585 0.000000 55.000000 14.159209 0.000000
-39.473820 -18.748524 66.513021 0.000000 34.000000 14.106452 0.000000
-40.296904 -18.952328 67.810504 0.000000 44.000000 14.093120 0.000000
-42.630307 -17.160882 66.310042 0.000000 46.000000 14.130757 0.000000
-44.546349 -16.952661 67.971697 0.000000 42.000000 14.068948 0.000000
-41.217408 -19.501957 69.977517 0.000000 31.000000 14.062944 0.000000
-41.270868 -17.525524 65.747522 0.000000 26.000000 14.111712 0.000000
-40.822685 -19.025211 68.451342 0.000000 41.000000 14.111109 0.000000
-43.337970 -17.432283 67.680407 0.000000 64.000000 14.098683 0.000000
-42.822969 -16.913815 65.931512 0.000000 48.000000 14.151937 0.000000
-41.515325 -20.341246 71.162189 0.000000 63.000000 14.410803 28.000000
-43.115432 -18.588787 70.153800 0.000000 27.000000 13.994537 0.000000
-44.217968 -17.418353 68.541795 0.000000 31.000000 14.099315 0.000000
-44.296164 -17.821479 67.748034 0.000000 11.000000 14.776727 21.000000
-42.754861 -18.577996 68.648732 0.000000 45.000000 14.433946 1.000000
-41.907707 -19.060522 69.495764 0.000000 47.000000 14.162306 0.000000
-39.565177 -19.157039 67.469164 0.000000 45.000000 14.105032 0.000000
-43.269131 -18.414596 69.933977 0.000000 39.000000 13.998083 0.000000
-44.707948 -16.749863 67.996440 0.000000 42.000000 13.955722 0.000000
-42.243632 -18.528975 69.160812 0.000000 37.000000 13.987881 0.000000
-39.187140 -18.729497 66.159860 0.000000 47.000000 14.115273 0.000000
-41.908158 -17.947434 66.428021 0.000000 69.000000 14.447665 8.000000
-40.864856 -17.245234 64.460697 0.000000 42.000000 14.223908 25.000000
-41.440006 -17.262406 64.221441 0.000000 72.000000 14.561748 23.000000
-39.095979 -19.230507 67.384769 0.000000 35.000000 14.011886 0.000000
-42.540205 -17.130883 66.159249 0.000000 45.000000 14.129295 0.000000
-39.352703 -18.990306 66.887075 0.000000 44.000000 14.111201 0.000000
-41.682369 -19.779200 71.018860 0.000000 32.000000 14.068337 0.000000
-38.809613 -18.743027 65.797819 0.000000 46.000000 14.118307 0.000000
-40.052857 -18.276845 65.967576 0.000000 34.000000 14.161435 0.000000
-40.701935 -17.645059 65.817398 0.000000 24.000000 13.956226 0.000000
-41.001964 -17.431307 65.226485 0.000000 56.000000 14.131405 0.000000
-42.734033 -18.933898 70.246147 0.000000 38.000000 14.091864 0.000000
-40.304755 -18.991945 66.949463 0.000000 67.000000 14.467865 4.000000
-41.540602 -17.435795 64.856323 0.000000 65.000000 14.495681 24.000000
-43.193610 -18.157340 69.024483 0.000000 45.000000 14.112746 0.000000
-37.724804 -19.794775 66.980271 0.000000 24.000000 14.091320 0.000000
-43.605690 -18.014927 69.002453 0.000000 42.000000 14.167876 0.000000
-42.437115 -18.113184 68.171157 0.000000 45.000000 14.110108 0.000000
-41.412846 -19.665678 70.344451 0.000000 48.000000 14.132142 0.000000
-41.547949 -18.923490 68.598775 0.000000 52.000000 14.258217 5.000000
-42.524095 -18.178210 68.316798 0.000000 49.000000 14.141363 0.000000
-38.817141 -18.807645 65.862787 0.000000 41.000000 14.149266 0.000000
-40.561474 -17.323391 64.548691 0.000000 47.000000 14.132972 0.000000
-37.719417 -20.115477 67.603958 0.000000 39.000000 14.109383 0.000000
-42.603470 -17.164317 66.388166 0.000000 33.000000 14.092154 0.000000
-40.136610 -19.240917 68.176999 0.000000 39.000000 14.123980 0.000000
-40.736007 -17.095783 64.194588 0.000000 32.000000 14.153425 0.000000
-40.348801 -17.634855 65.469886 0.000000 25.000000 13.943617 0.000000
-41.247824 -17.441799 65.437612 0.000000 53.000000 14.155116 0.000000
-41.535830 -17.476543 65.900421 0.000000 45.000000 14.116698 0.000000
-44.986529 -16.795528 68.355101 0.000000 39.000000 13.963568 0.000000
-39.136424 -18.932157 66.427153 0.000000 46.000000 14.157717 0.000000
-42.687349 -17.672806 67.788025 0.000000 36.000000 13.995961 0.000000
-39.024344 -18.989827 66.408050 0.000000 48.000000 14.168280 0.000000
-40.046767 -17.667660 65.007484 0.000000 30.000000 14.032225 0.000000
-40.154808 -18.463310 66.699393 0.000000 42.000000 14.068597 0.000000
-39.770398 -18.116330 65.361753 0.000000 45.000000 14.154170 0.000000
-39.587670 -19.957296 69.123391 0.000000 45.000000 14.125914 0.000000
-41.295351 -19.523676 70.109407 0.000000 36.000000 14.060135 0.000000
-43.790135 -16.977448 66.688375 0.000000 39.000000 14.292717 0.000000
-40.416142 -19.998277 70.111833 0.000000 37.000000 14.101475 0.000000
-42.177380 -17.550429 65.338192 0.000000 71.000000 14.655086 24.000000
-38.684793 -19.387896 67.195585 0.000000 45.000000 14.052625 0.000000
-38.549316 -19.317579 66.925823 0.000000 45.000000 14.046477 0.000000
-43.853058 -16.824666 66.842312 0.000000 46.000000 14.130711 0.000000
-41.471134 -16.974439 64.507725 0.000000 52.000000 14.223014 23.000000
-41.937050 -17.217877 64.853159 0.000000 40.000000 14.474614 24.000000
-39.842106 -20.178848 69.791012 0.000000 41.000000 14.148235 0.000000
-42.340140 -18.963234 69.854888 0.000000 33.000000 14.112955 0.000000
-41.891597 -17.424442 65.140216 0.000000 70.000000 14.514614 24.000000
-41.990622 -17.066942 65.090221 0.000000 60.000000 14.277699 24.000000
-38.848872 -19.017873 66.463145 0.000000 29.000000 14.099819 0.000000
-41.187257 -17.511149 65.707149 0.000000 28.000000 14.082333 0.000000
-42.161540 -16.846867 65.330850 0.000000 32.000000 14.068935 0.000000
-43.118303 -16.949781 65.951215 0.000000 50.000000 14.291807 0.000000
-40.510590 -19.272682 68.902790 0.000000 32.000000 14.013919 0.000000
-42.545137 -16.892229 65.989573 0.000000 33.000000 14.000363 0.000000
-43.028618 -17.119659 66.758686 0.000000 33.000000 14.079003 0.000000
-43.209702 -17.172581 67.077252 0.000000 34.000000 14.069737 0.000000
-39.852223 -20.106074 69.432957 0.000000 60.000000 14.232883 0.000000
-41.182777 -19.188302 69.121908 0.000000 44.000000 14.126007 0.000000
-42.142870 -18.013843 67.589259 0.000000 53.000000 14.139393 0.000000
-41.763696 -17.337864 65.883194 0.000000 38.000000 14.099531 0.000000
-43.729327 -17.372895 68.010241 0.000000 46.000000 14.075858 0.000000
-42.077537 -17.949826 66.075337 0.000000 75.000000 14.655998 8.000000
-42.378202 -18.685561 69.316718 0.000000 44.000000 14.109918 0.000000
-41.747820 -17.943066 66.115622 0.000000 53.000000 14.502996 8.000000
-39.763614 -19.989828 69.607468 0.000000 30.000000 14.032584 0.000000
-44.283788 -17.474655 67.798761 0.000000 56.000000 14.464575 21.000000
-41.102250 -19.343922 69.628964 0.000000 34.000000 14.023254 0.000000
-43.167050 -17.568183 68.021078 0.000000 35.000000 14.009000 0.000000
-43.330019 -17.461097 68.009347 0.000000 25.000000 13.989945 0.000000
-42.324416 -17.425922 65.514208 0.000000 71.000000 14.541371 24.000000
-43.332008 -18.293722 69.370358 0.000000 47.000000 14.144828 0.000000
-38.903183 -20.012037 68.470376 0.000000 30.000000 14.155099 0.000000
-39.898165 -18.630510 66.732377 0.000000 34.000000 14.091704 0.000000
-40.076463 -17.809091 65.178479 0.000000 40.000000 14.093931 0.000000
-40.409735 -18.155254 66.214047 0.000000 44.000000 14.106136 0.000000
-42.611854 -17.058658 66.127732 0.000000 37.000000 14.110463 0.000000
-40.723646 -18.518869 67.336846 0.000000 40.000000 14.090748 0.000000
-39.159369 -18.496760 65.531735 0.000000 40.000000 14.158583 0.000000
-39.541578 -19.769402 68.783832 0.000000 48.000000 14.085510 0.000000
-40.805483 -18.970555 68.386752 0.000000 40.000000 14.084391 0.000000
-41.951653 -18.193177 66.821575 0.000000 63.000000 14.513699 18.000000
-43.426412 -17.817517 68.680348 0.000000 42.000000 14.059583 0.000000
-41.892246 -19.778358 70.454672 0.000000 64.000000 14.373372 11.000000
-44.179425 -16.792853 67.465749 0.000000 38.000000 13.989270 0.000000
-40.596304 -17.609384 64.884087 0.000000 35.000000 14.251770 7.000000
-39.364345 -18.846279 66.589150 0.000000 43.000000 14.113784 0.000000
-42.147066 -17.526403 64.358453 0.000000 56.000000 15.008597 15.000000
-39.416841 -18.923284 66.890503 0.000000 23.000000 14.079932 0.000000
-41.119098 -19.143603 69.084840 0.000000 35.000000 14.078164 0.000000
-39.713146 -19.286079 67.837147 0.000000 39.000000 14.126153 0.000000
-42.600816 -17.424182 66.832782 0.000000 53.000000 14.131381 0.000000
-42.582235 -17.509921 67.098588 0.000000 47.000000 14.090391 0.000000
-41.291290 -19.273795 69.918992 0.000000 30.000000 13.926477 0.000000
-38.218003 -20.236466 67.792499 0.000000 42.000000 14.334333 27.000000
-41.269351 -19.504231 69.949425 0.000000 40.000000 14.096605 0.000000
-41.142404 -19.392176 69.675237 0.000000 39.000000 14.061034 0.000000
-41.310766 -19.634441 70.227825 0.000000 37.000000 14.111431 0.000000
-44.773774 -17.539452 68.136497 0.000000 51.000000 14.580848 21.000000
-44.233698 -17.416830 68.460972 0.000000 49.000000 14.136132 0.000000
-43.767386 -17.582951 68.654237 0.000000 40.000000 14.011624 0.000000
-40.823953 -17.790560 66.018644 0.000000 31.000000 14.046234 0.000000
-42.141839 -17.283111 66.078239 0.000000 50.000000 14.128310 0.000000
-40.089828 -18.437760 66.844195 0.000000 30.000000 13.964533 0.000000
-39.257280 -18.602470 65.400414 0.000000 50.000000 14.336874 2.000000
-40.371031 -17.417151 64.467303 0.000000 53.000000 14.166669 0.000000
-40.336902 -19.903452 69.775562 0.000000 31.000000 14.123636 0.000000
-42.791513 -18.768422 69.920270 0.000000 32.000000 14.105968 0.000000
-42.364994 -16.865177 65.775657 0.000000 35.000000 13.990254 0.000000
-40.730441 -17.209882 64.467115 0.000000 49.000000 14.138472 0.000000
-44.481667 -17.374742 68.753330 0.000000 33.000000 14.085172 0.000000
-39.345632 -18.964256 66.750140 0.000000 33.000000 14.140685 0.000000
-38.037304 -19.714122 67.019489 0.000000 22.000000 14.133771 0.000000
-40.192147 -19.865406 69.638016 0.000000 34.000000 14.088491 0.000000
-43.625845 -17.652087 68.847091 0.000000 23.000000 13.936528 0.000000
-42.749671 -16.786983 65.674547 0.000000 36.000000 14.118755 0.000000
-42.136055 -19.671869 71.177948 0.000000 44.000000 14.097857 0.000000
-43.116088 -17.349963 67.311188 0.000000 53.000000 14.087253 0.000000
-42.270814 -17.545711 67.187610 0.000000 34.000000 13.960754 0.000000
-39.644221 -18.087880 65.270006 0.000000 44.000000 14.116364 0.000000
-42.244619 -18.745627 69.305172 0.000000 36.000000 14.110913 0.000000
-40.074342 -19.811567 69.407722 0.000000 40.000000 14.087512 0.000000
-43.049605 -17.284375 67.010544 0.000000 50.000000 14.124701 0.000000
-39.988811 -19.253478 68.177521 0.000000 40.000000 14.075208 0.000000
-39.096605 -18.439580 65.554490 0.000000 39.000000 14.077228 0.000000
-41.688289 -17.286639 65.669830 0.000000 41.000000 14.110972 0.000000
-39.787486 -18.836497 66.960962 0.000000 23.000000 14.128209 0.000000
-39.047424 -19.338210 66.804324 0.000000 68.000000 14.310110 3.000000
-38.474452 -20.029714 68.568309 0.000000 30.000000 13.960148 0.000000
-41.460963 -17.203265 64.505315 0.000000 50.000000 14.409428 24.000000
-39.335078 -19.974935 69.353327 0.000000 25.000000 13.949268 0.000000
-42.543984 -19.271496 70.673256 0.000000 39.000000 14.127593 0.000000
-40.682444 -17.275786 64.076705 0.000000 63.000000 14.327524 25.000000
-41.742632 -18.302145 67.252626 0.000000 61.000000 14.350946 18.000000
-41.731237 -19.869843 71.165901 0.000000 32.000000 14.105051 0.000000
-42.170971 -17.377208 65.367883 0.000000 72.000000 14.497377 24.000000
-39.786999 -19.177407 67.932846 0.000000 36.000000 14.027957 0.000000
-42.254125 -18.011373 67.772711 0.000000 42.000000 14.109553 0.000000
-41.883606 -19.183024 69.999430 0.000000 37.000000 14.055971 0.000000
-40.149841 -18.970158 67.340420 0.000000 44.000000 14.234179 4.000000
-40.215820 -19.770291 69.369780 0.000000 31.000000 14.124702 0.000000
-39.959841 -18.351450 66.318470 0.000000 28.000000 14.048045 0.000000
-43.515245 -17.761341 68.733477 0.000000 34.000000 14.027593 0.000000
-42.028632 -19.139482 69.864036 0.000000 37.000000 14.131045 0.000000
-44.906590 -16.680153 68.005376 0.000000 35.000000 13.973724 0.000000
-42.216992 -17.660471 67.360959 0.000000 35.000000 13.966120 0.000000
-41.408782 -18.965142 68.911068 0.000000 35.000000 14.114309 0.000000
-44.835482 -17.087676 68.413294 0.000000 47.000000 14.122375 0.000000
-41.209688 -18.911829 68.589517 0.000000 40.000000 14.117240 0.000000
-41.441943 -18.524908 68.170816 0.000000 30.000000 14.054191 0.000000
-41.852886 -18.980836 68.832252 0.000000 63.000000 14.335510 5.000000
-39.542857 -18.628252 66.309506 0.000000 42.000000 14.114461 0.000000
-41.011040 -18.273378 67.019560 0.000000 45.000000 14.126932 0.000000
-40.911383 -20.115543 70.515549 0.000000 40.000000 14.237340 20.000000
-43.588883 -17.184637 67.297355 0.000000 34.000000 14.144404 0.000000
-40.457080 -17.690650 64.645397 0.000000 64.000000 14.357449 7.000000
-41.106160 -17.615703 65.344634 0.000000 61.000000 14.279213 7.000000
-42.402091 -18.963975 69.946818 0.000000 36.000000 14.102114 0.000000
-40.577648 -19.208245 69.047482 0.000000 27.000000 13.930372 0.000000
-41.371491 -18.258119 66.877279 0.000000 63.000000 14.314093 19.000000
-39.830434 -18.488454 66.166247 0.000000 46.000000 14.169783 0.000000
-40.576494 -17.324238 64.563796 0.000000 52.000000 14.133723 0.000000
-40.339957 -18.958100 67.119882 0.000000 37.000000 14.386822 4.000000
-41.880588 -18.093336 67.531645 0.000000 40.000000 14.123256 0.000000
-41.496279 -17.309755 65.436393 0.000000 49.000000 14.145361 0.000000
-40.690459 -17.271237 64.532080 0.000000 49.000000 14.147775 0.000000
-40.266702 -19.690149 69.247561 0.000000 42.000000 14.126716 0.000000
-41.962260 -19.228935 70.431604 0.000000 28.000000 13.955328 0.000000
-42.356405 -19.345227 70.915613 0.000000 31.000000 14.018457 0.000000
-40.707696 -17.234927 64.453586 0.000000 42.000000 14.155464 0.000000
-40.873101 -17.650594 66.015982 0.000000 22.000000 13.950965 0.000000
-42.113342 -17.587084 65.213216 0.000000 63.000000 14.709071 24.000000
-44.491552 -17.787129 67.990913 0.000000 39.000000 14.730666 21.000000
-41.685638 -17.547913 66.642175 0.000000 20.000000 13.943718 0.000000
-41.820725 -17.601148 66.969178 0.000000 20.000000 13.913038 0.000000
-40.230463 -17.599729 65.300297 0.000000 21.000000 13.934039 0.000000
-41.968600 -17.639965 67.092312 0.000000 21.000000 13.955738 0.000000
-40.310914 -17.708288 65.498420 0.000000 27.000000 13.978094 0.000000
-42.320378 -18.177724 68.156016 0.000000 53.000000 14.122944 0.000000
-41.128051 -18.145795 66.397637 0.000000 38.000000 14.312660 19.000000
-38.980678 -19.383746 66.573955 0.000000 64.000000 14.411839 3.000000
-44.700294 -17.440047 68.572718 0.000000 43.000000 14.297556 0.000000
-40.824622 -18.023318 65.946747 0.000000 65.000000 14.267571 10.000000
-42.672026 -19.241499 70.636636 0.000000 50.000000 14.168244 0.000000
-43.336408 -16.766480 66.398193 0.000000 32.000000 14.051135 0.000000
-41.579824 -17.329896 64.684440 0.000000 48.000000 14.491252 24.000000
-42.546273 -17.062429 66.107682 0.000000 38.000000 14.095310 0.000000
-41.189099 -18.766789 68.262675 0.000000 34.000000 14.117502 0.000000
-42.063341 -17.384754 64.964522 0.000000 69.000000 14.619398 24.000000
-40.181444 -18.109262 65.814105 0.000000 53.000000 14.134327 0.000000
-44.108273 -17.527028 68.121258 0.000000 39.000000 14.311029 0.000000
-42.685801 -18.780528 68.719314 0.000000 44.000000 14.546366 1.000000
-40.205010 -18.753086 67.164019 0.000000 47.000000 14.145812 0.000000
-40.394117 -17.398536 64.543535 0.000000 51.000000 14.130466 0.000000
-41.426735 -17.292489 65.047376 0.000000 41.000000 14.256382 24.000000
-41.351479 -17.574716 64.637580 0.000000 76.000000 14.621354 24.000000
-41.767787 -20.034831 71.370641 0.000000 40.000000 14.175724 0.000000
-41.001960 -17.759601 65.527195 0.000000 63.000000 14.284988 7.000000
-42.358970 -17.265823 65.951757 0.000000 59.000000 14.250391 24.000000
-41.424762 -17.400871 64.735672 0.000000 56.000000 14.468010 24.000000
-39.627824 -19.675663 68.548312 0.000000 38.000000 14.134955 0.000000
-40.016939 -18.183170 65.490588 0.000000 55.000000 14.257202 10.000000
-40.637659 -18.160196 65.649784 0.000000 65.000000 14.423192 10.000000
-39.664377 -18.034554 65.165894 0.000000 39.000000 14.121205 0.000000
-40.569326 -18.054799 66.192584 0.000000 34.000000 14.095054 0.000000
-40.945023 -17.842688 65.023424 0.000000 63.000000 14.529310 7.000000
-39.380004 -19.292115 67.804251 0.000000 32.000000 14.011178 0.000000
-40.557496 -18.661984 66.610427 0.000000 27.000000 14.428820 6.000000
-39.375868 -19.681332 68.469918 0.000000 26.000000 14.069969 0.000000
-41.702530 -17.735096 66.055159 0.000000 57.000000 14.336467 8.000000
-39.608959 -18.515811 65.568754 0.000000 65.000000 14.339175 2.000000
-37.861743 -19.772412 67.026688 0.000000 26.000000 14.109170 0.000000
-37.832722 -19.912447 67.185231 0.000000 52.000000 14.151191 0.000000
-39.909329 -18.129682 65.610086 0.000000 46.000000 14.122947 0.000000
-40.369672 -18.151775 65.421240 0.000000 70.000000 14.399221 10.000000
-43.366181 -18.228043 69.219784 0.000000 47.000000 14.163312 0.000000
-40.726997 -17.231085 64.543462 0.000000 44.000000 14.124619 0.000000
-40.856779 -19.382511 69.498118 0.000000 32.000000 14.008761 0.000000
-41.761472 -18.983905 69.345597 0.000000 51.000000 14.099590 0.000000
-40.179275 -17.495247 64.787118 0.000000 38.000000 14.029003 0.000000
-43.882227 -16.912920 67.340901 0.000000 33.000000 14.019262 0.000000
-42.802571 -16.953065 66.203579 0.000000 28.000000 14.069255 0.000000
-39.479525 -18.998345 66.628511 0.000000 36.000000 14.270199 0.000000
-43.604189 -17.506604 68.036869 0.000000 31.000000 14.126196 0.000000
-40.127884 -17.884635 65.204693 0.000000 43.000000 14.166701 0.000000
-41.500521 -18.369819 66.504711 0.000000 56.000000 14.604686 19.000000
-42.487453 -16.851811 65.868896 0.000000 31.000000 13.991355 0.000000
-40.676209 -17.849749 65.715823 0.000000 38.000000 14.155462 0.000000
-40.620958 -17.307849 64.589326 0.000000 47.000000 14.127844 0.000000
-43.298232 -17.203136 67.106324 0.000000 48.000000 14.118927 0.000000
-42.795594 -18.939795 70.224987 0.000000 34.000000 14.129636 0.000000
-39.649862 -19.697673 68.759671 0.000000 28.000000 14.078812 0.000000
-41.999878 -17.256813 65.860604 0.000000 50.000000 14.135523 0.000000
-40.000569 -19.990756 69.633278 0.000000 43.000000 14.117738 0.000000
-39.821807 -19.936862 69.304707 0.000000 42.000000 14.131063 0.000000
-40.308258 -17.822643 65.626592 0.000000 38.000000 14.021315 0.000000
-41.925447 -19.590301 70.771175 0.000000 35.000000 14.106325 0.000000
-39.503651 -19.783524 68.759784 0.000000 40.000000 14.091537 0.000000
-40.997072 -17.696191 65.272349 0.000000 55.000000 14.330795 7.000000
-40.680361 -19.971162 70.323735 0.000000 39.000000 14.101058 0.000000
-41.092136 -17.560402 66.058909 0.000000 29.000000 13.946765 0.000000
-42.388613 -17.813461 65.744049 0.000000 57.000000 14.797524 24.000000
-42.580479 -17.550385 65.831749 0.000000 53.000000 14.621677 24.000000
-38.065261 -20.231299 67.530451 0.000000 56.000000 14.372222 27.000000
-38.651107 -19.348550 67.140383 0.000000 46.000000 14.028318 0.000000
-38.523796 -19.277951 66.876132 0.000000 35.000000 14.023026 0.000000
-44.336796 -17.752935 68.412928 0.000000 76.000000 14.474547 9.000000
-38.418955 -19.157701 66.719571 0.000000 25.000000 13.943202 0.000000
-38.614467 -19.669375 67.057136 0.000000 40.000000 14.312176 17.000000
-38.634473 -18.909141 66.005453 0.000000 45.000000 14.104312 0.000000
-40.972753 -18.735812 67.870713 0.000000 47.000000 14.159755 0.000000
-39.214273 -19.168097 67.306114 0.000000 33.000000 14.038342 0.000000
-41.572429 -18.044489 66.593799 0.000000 51.000000 14.328869 19.000000
-40.164264 -19.637879 69.070124 0.000000 32.000000 14.112370 0.000000
-38.742261 -18.902563 66.119942 0.000000 28.000000 14.096821 0.000000
-41.884088 -19.471397 70.675406 0.000000 25.000000 14.029025 0.000000
-40.130850 -17.587153 65.008774 0.000000 33.000000 13.998587 0.000000
-41.187402 -17.143133 64.813610 0.000000 42.000000 14.129171 0.000000
-40.143243 -18.837284 67.387860 0.000000 46.000000 14.102828 0.000000
-39.286752 -18.930603 66.680319 0.000000 29.000000 14.116793 0.000000
-39.593085 -19.243954 68.109091 0.000000 26.000000 13.936357 0.000000
-41.050585 -18.982004 68.667601 0.000000 37.000000 14.081159 0.000000
-39.199037 -18.578458 65.787566 0.000000 37.000000 14.141412 0.000000
-41.993740 -17.435275 65.403474 0.000000 65.000000 14.460754 24.000000
-43.473886 -17.346121 67.659169 0.000000 46.000000 14.089905 0.000000
-38.441946 -19.138506 66.243165 0.000000 43.000000 14.123933 0.000000
-41.009810 -18.770647 68.070473 0.000000 30.000000 14.124791 0.000000
-41.859892 -17.430280 66.174797 0.000000 40.000000 14.099716 0.000000
-43.768962 -17.535700 68.207513 0.000000 58.000000 14.148892 0.000000
-41.667077 -19.760276 70.388992 0.000000 51.000000 14.294400 11.000000
-44.138515 -17.622765 68.990003 0.000000 38.000000 14.060558 0.000000
-39.116742 -18.996229 66.622798 0.000000 23.000000 14.125949 0.000000
-39.496944 -19.405684 67.997721 0.000000 51.000000 14.075772 0.000000
-41.100509 -18.685086 68.092562 0.000000 27.000000 14.081422 0.000000
-38.080018 -19.773820 67.263871 0.000000 28.000000 14.104099 0.000000
-42.858252 -18.031864 68.496984 0.000000 35.000000 14.082577 0.000000
-41.576786 -17.204810 64.620369 0.000000 56.000000 14.411648 24.000000
-39.842765 -18.461893 66.153744 0.000000 30.000000 14.157623 0.000000
