-17.925583 14.811124 -45.599033 0.000000 38.000000 14.263226 0.000000
-17.064505 16.576211 -43.024058 0.000000 67.000000 14.757712 26.000000
-16.578249 16.841765 -42.838265 0.000000 47.000000 14.444812 26.000000
-16.246515 17.154494 -41.891153 0.000000 60.000000 14.521115 7.000000
-15.252521 18.329059 -40.831918 0.000000 51.000000 14.264253 0.000000
-17.362549 15.678680 -43.326650 0.000000 63.000000 14.690442 11.000000
-15.414563 18.091694 -40.945880 0.000000 53.000000 14.311763 0.000000
-15.520165 17.980213 -40.974278 0.000000 66.000000 14.368719 0.000000
-16.677794 15.344178 -41.008404 0.000000 54.000000 14.692694 22.000000
-15.730934 18.242063 -41.388184 0.000000 66.000000 14.504139 6.000000
-16.614141 14.786939 -40.132053 0.000000 53.000000 14.753696 21.000000
-15.548055 17.182795 -40.362901 0.000000 50.000000 14.365522 0.000000
-16.396674 17.615846 -43.480323 0.000000 34.000000 14.292157 0.000000
-18.117848 12.626305 -44.121647 0.000000 38.000000 14.298813 0.000000
-18.061126 14.081966 -45.688678 0.000000 32.000000 14.159814 0.000000
-16.743467 14.426996 -41.447589 0.000000 74.000000 14.366134 0.000000
-17.077818 15.660299 -43.347572 0.000000 49.000000 14.419598 11.000000
-16.996801 17.267480 -44.212166 0.000000 44.000000 14.517201 5.000000
-17.871974 14.495601 -44.216758 0.000000 66.000000 14.555936 29.000000
-16.797768 14.661056 -40.600137 0.000000 55.000000 14.741740 21.000000
-17.961223 15.126868 -44.066648 0.000000 82.000000 14.856077 20.000000
-17.072581 16.781138 -44.034875 0.000000 47.000000 14.508262 4.000000
-16.530148 15.098194 -41.429274 0.000000 53.000000 14.360803 0.000000
-17.393206 17.463059 -44.930256 0.000000 69.000000 14.709489 5.000000
-18.265632 15.254620 -45.651308 0.000000 42.000000 14.677908 24.000000
-18.199208 13.428137 -45.245874 0.000000 35.000000 14.244040 0.000000
-17.129315 18.127123 -44.699600 0.000000 74.000000 14.721848 13.000000
-16.598551 18.244303 -42.815757 0.000000 58.000000 14.853305 14.000000
-16.159389 18.240398 -42.764288 0.000000 68.000000 14.468148 14.000000
-16.601279 15.063514 -40.540986 0.000000 41.000000 14.690980 22.000000
-17.587943 17.761069 -45.623716 0.000000 57.000000 14.753681 19.000000
-17.914881 13.807928 -44.670055 0.000000 46.000000 14.266951 0.000000
-15.902685 18.296688 -41.132196 0.000000 46.000000 14.754708 6.000000
-16.185078 17.448852 -40.657598 0.000000 73.000000 14.927236 7.000000
-17.067796 16.714273 -44.740920 0.000000 38.000000 14.267174 0.000000
-16.912114 15.952384 -40.898374 0.000000 74.000000 15.106275 27.000000
-16.885029 18.199195 -44.373098 0.000000 50.000000 14.620048 13.000000
-17.777414 12.786942 -42.269879 0.000000 41.000000 14.605578 18.000000
-17.173580 13.789325 -42.305034 0.000000 28.000000 14.318444 0.000000
-16.852989 14.380663 -40.875622 0.000000 61.000000 14.630221 8.000000
-16.767570 17.089443 -44.158807 0.000000 31.000000 14.276290 0.000000
-17.033046 16.263998 -43.077039 0.000000 52.000000 14.627398 11.000000
-17.785128 14.710246 -44.431622 0.000000 53.000000 14.468966 29.000000
-16.208903 16.061091 -40.406774 0.000000 39.000000 14.647548 27.000000
-16.780657 14.636770 -39.910028 0.000000 64.000000 14.933058 21.000000
-18.085344 12.688659 -44.033520 0.000000 24.000000 14.313505 0.000000
-16.359791 17.116971 -43.099650 0.000000 43.000000 14.240107 0.000000
-17.606929 14.792501 -44.280157 0.000000 25.000000 14.375983 20.000000
-18.288795 13.538815 -45.495031 0.000000 35.000000 14.278772 0.000000
-17.146935 15.833314 -42.669100 0.000000 64.000000 14.739741 11.000000
-16.950557 18.222552 -42.761260 0.000000 23.000000 15.184856 14.000000
-15.858608 16.332560 -40.666444 0.000000 63.000000 14.322268 0.000000
-18.588955 13.269938 -45.422652 0.000000 73.000000 14.501142 9.000000
-16.648968 16.003952 -41.544554 0.000000 53.000000 14.680725 27.000000
-17.142985 13.092875 -41.589379 0.000000 43.000000 14.321815 0.000000
-16.220488 15.494643 -40.892374 0.000000 49.000000 14.353146 0.000000
-18.012003 17.038714 -45.740993 0.000000 86.000000 14.906376 19.000000
-17.287943 18.116325 -45.698232 0.000000 83.000000 14.554386 16.000000
-17.865121 13.325704 -44.021502 0.000000 36.000000 14.290609 0.000000
-17.795717 13.482315 -43.903040 0.000000 41.000000 14.306817 0.000000
-17.714174 17.550549 -45.443940 0.000000 74.000000 14.866793 19.000000
-18.247008 13.565375 -45.324188 0.000000 48.000000 14.300827 0.000000
-17.193570 12.959978 -40.993772 0.000000 53.000000 14.515892 23.000000
-16.554944 18.291613 -44.914675 0.000000 39.000000 14.177048 0.000000
-16.492494 17.557600 -41.802573 0.000000 71.000000 14.882666 7.000000
-17.414564 14.009079 -43.619959 0.000000 41.000000 14.191091 0.000000
-17.341838 15.804995 -43.215166 0.000000 72.000000 14.740570 11.000000
-18.618724 13.316786 -45.477375 0.000000 79.000000 14.524119 9.000000
-16.007806 16.912387 -41.193393 0.000000 44.000000 14.453468 26.000000
-16.364121 17.687083 -43.416845 0.000000 30.000000 14.301601 0.000000
-17.609547 15.583905 -45.248923 0.000000 31.000000 14.294741 0.000000
-16.734031 15.369207 -42.319955 0.000000 57.000000 14.344927 0.000000
-16.581577 15.448216 -42.326049 0.000000 42.000000 14.225755 0.000000
-15.534935 16.755842 -40.247384 0.000000 28.000000 14.272713 0.000000
-17.442510 17.119001 -45.762455 0.000000 65.000000 14.402932 19.000000
-15.829289 16.639086 -40.871902 0.000000 48.000000 14.315702 0.000000
-17.047125 14.747550 -42.819462 0.000000 33.000000 14.305777 0.000000
-17.998654 14.882024 -45.776742 0.000000 34.000000 14.294159 0.000000
-15.639993 16.922337 -40.453561 0.000000 52.000000 14.350080 0.000000
-15.438620 17.610391 -40.456456 0.000000 60.000000 14.353670 0.000000
-17.924600 17.752070 -45.529347 0.000000 77.000000 15.087072 19.000000
-17.869649 15.842567 -45.264073 0.000000 47.000000 14.597612 25.000000
-16.901938 16.804771 -44.160056 0.000000 46.000000 14.320550 0.000000
-15.650216 17.833917 -41.046208 0.000000 58.000000 14.424967 6.000000
-16.325559 16.195055 -41.791993 0.000000 54.000000 14.361770 0.000000
-17.600602 15.441473 -44.014964 0.000000 49.000000 14.629513 20.000000
-18.103879 14.302084 -44.316060 0.000000 67.000000 14.683593 29.000000
-16.922133 13.400335 -41.310328 0.000000 52.000000 14.290963 0.000000
-17.970326 13.003567 -43.126208 0.000000 61.000000 14.575486 18.000000
-16.318430 17.729840 -41.625939 0.000000 78.000000 14.825811 7.000000
-17.555288 13.082018 -41.200736 0.000000 54.000000 14.814657 23.000000
-16.318408 17.467445 -43.037802 0.000000 53.000000 14.317265 0.000000
-16.047635 18.284482 -41.287702 0.000000 49.000000 14.835287 6.000000
-16.268696 16.069373 -40.349720 0.000000 48.000000 14.721927 27.000000
-17.595939 12.474602 -41.509762 0.000000 60.000000 14.590178 23.000000
-18.345060 12.719231 -45.044469 0.000000 49.000000 14.245607 0.000000
-16.311549 16.754962 -40.841481 0.000000 64.000000 14.796033 26.000000
-16.485961 18.348413 -43.328835 0.000000 61.000000 14.620424 14.000000
-16.540360 15.412180 -40.712994 0.000000 37.000000 14.677489 22.000000
-15.330657 17.696305 -40.358348 0.000000 57.000000 14.309151 0.000000
-15.922509 16.376971 -39.968032 0.000000 45.000000 14.608708 10.000000
-16.553968 15.534248 -41.132264 0.000000 63.000000 14.593489 27.000000
-15.620684 16.779327 -40.651580 0.000000 51.000000 14.232164 0.000000
-15.826891 17.800768 -41.870036 0.000000 31.000000 14.321928 0.000000
-15.812072 16.645720 -40.876122 0.000000 51.000000 14.300525 0.000000
-16.516682 16.955665 -41.963723 0.000000 70.000000 14.690444 26.000000
-17.287552 17.278423 -44.893568 0.000000 51.000000 14.574180 5.000000
-17.579752 15.460828 -45.131911 0.000000 35.000000 14.270196 0.000000
-17.159967 14.461534 -40.847923 0.000000 69.000000 14.940493 8.000000
-17.134131 16.645655 -43.233306 0.000000 61.000000 14.775350 26.000000
-18.141371 15.284472 -44.815279 0.000000 77.000000 14.831565 24.000000
-16.531287 16.877496 -41.932498 0.000000 75.000000 14.692061 26.000000
-17.070607 16.069627 -41.641744 0.000000 56.000000 15.052644 27.000000
-17.971532 16.226219 -45.104110 0.000000 62.000000 14.844686 25.000000
-16.856567 17.709642 -44.880230 0.000000 34.000000 14.303506 0.000000
-15.928493 17.361585 -40.476923 0.000000 74.000000 14.725595 7.000000
-17.344335 13.981465 -43.082331 0.000000 38.000000 14.285937 0.000000
-17.908006 14.624673 -45.239734 0.000000 24.000000 14.307471 0.000000
-15.760600 18.345893 -42.130634 0.000000 82.000000 14.329785 0.000000
-16.203556 17.304153 -42.349350 0.000000 40.000000 14.381080 12.000000
-15.747963 17.631638 -41.240873 0.000000 45.000000 14.398524 7.000000
-17.276747 16.496137 -43.469679 0.000000 66.000000 14.791281 11.000000
-17.026062 16.030948 -41.794056 0.000000 78.000000 14.954377 27.000000
-16.973721 16.658826 -43.351361 0.000000 58.000000 14.596307 26.000000
-16.368867 16.444659 -41.195983 0.000000 69.000000 14.653806 26.000000
-17.358106 16.701144 -44.818665 0.000000 56.000000 14.503966 4.000000
-16.763578 13.470332 -40.709430 0.000000 52.000000 14.351590 0.000000
-16.564030 17.372371 -43.240036 0.000000 56.000000 14.452452 28.000000
-16.826407 12.835075 -40.632441 0.000000 41.000000 14.259150 0.000000
-17.230100 16.413439 -44.889940 0.000000 37.000000 14.286743 0.000000
-17.322504 15.361786 -43.344926 0.000000 72.000000 14.561767 15.000000
-16.336708 17.310875 -43.006611 0.000000 27.000000 14.300826 0.000000
-16.478379 18.241635 -43.716817 0.000000 47.000000 14.464306 14.000000
-17.601483 16.589641 -45.632802 0.000000 51.000000 14.443283 19.000000
-17.635998 16.018131 -45.691034 0.000000 28.000000 14.300623 0.000000
-16.985299 16.489449 -43.245467 0.000000 59.000000 14.593362 26.000000
-15.721694 16.657516 -40.789490 0.000000 36.000000 14.248231 0.000000
-17.022198 17.064827 -44.929289 0.000000 42.000000 14.263092 0.000000
-15.591615 16.757307 -40.458320 0.000000 49.000000 14.259472 0.000000
-16.898893 16.475197 -42.934290 0.000000 69.000000 14.607052 26.000000
-17.813431 15.904928 -45.615558 0.000000 46.000000 14.454677 24.000000
-15.648465 16.921202 -40.950269 0.000000 43.000000 14.203793 0.000000
-16.336401 13.839405 -39.992877 0.000000 43.000000 14.285005 0.000000
-18.303056 15.271160 -45.516486 0.000000 49.000000 14.758231 24.000000
-16.527359 12.777355 -39.767299 0.000000 45.000000 14.238692 0.000000
-18.154431 14.305816 -43.816511 0.000000 67.000000 14.885231 29.000000
-18.025662 13.701362 -43.662884 0.000000 46.000000 14.650398 30.000000
-16.108359 17.364064 -40.714920 0.000000 64.000000 14.816463 7.000000
-17.327138 18.129905 -44.985724 0.000000 73.000000 14.814264 13.000000
-16.650179 13.423517 -40.494783 0.000000 36.000000 14.301931 0.000000
-17.575497 16.068396 -43.859947 0.000000 59.000000 14.825825 17.000000
-17.715936 13.233339 -41.248232 0.000000 64.000000 14.987616 23.000000
-17.694126 16.147440 -43.970059 0.000000 65.000000 14.921396 17.000000
-16.946425 16.819074 -43.039374 0.000000 65.000000 14.711745 26.000000
-16.084681 15.423355 -40.493740 0.000000 50.000000 14.333322 0.000000
-17.182945 18.237313 -44.828831 0.000000 60.000000 14.760803 13.000000
-15.965749 16.385735 -40.982740 0.000000 46.000000 14.336511 0.000000
-17.358314 17.537027 -45.079245 0.000000 51.000000 14.651807 5.000000
-17.273174 16.630502 -45.239414 0.000000 22.000000 14.277122 0.000000
-16.210709 17.177022 -42.652243 0.000000 41.000000 14.259152 0.000000
-16.164409 17.649188 -42.763574 0.000000 50.000000 14.311481 0.000000
-17.617991 13.351914 -41.939822 0.000000 64.000000 14.716789 18.000000
-18.039489 13.145521 -44.134068 0.000000 70.000000 14.365395 1.000000
-15.697281 17.823015 -41.556865 0.000000 42.000000 14.306849 0.000000
-17.966026 14.417061 -44.370983 0.000000 53.000000 14.572434 29.000000
-16.633826 16.200378 -42.646901 0.000000 36.000000 14.379483 11.000000
-17.745091 16.196750 -44.727468 0.000000 67.000000 14.746924 25.000000
-16.906191 18.218382 -44.092023 0.000000 68.000000 14.731535 13.000000
-16.927340 17.688732 -45.290775 0.000000 42.000000 14.235227 0.000000
-16.795232 16.829483 -42.918700 0.000000 65.000000 14.614211 26.000000
-15.796084 16.621668 -40.806151 0.000000 47.000000 14.301044 0.000000
-16.387171 16.345136 -41.649430 0.000000 48.000000 14.502991 26.000000
-17.635225 17.675841 -45.515721 0.000000 79.000000 14.806888 19.000000
-17.205740 16.304273 -44.767291 0.000000 52.000000 14.272692 0.000000
-17.419144 16.537028 -44.579041 0.000000 44.000000 14.588888 4.000000
-17.236342 13.402869 -40.884070 0.000000 53.000000 14.709751 23.000000
-17.812535 16.342661 -44.822064 0.000000 67.000000 14.818934 25.000000
-17.634434 16.283474 -45.848672 0.000000 50.000000 14.322886 0.000000
-16.458675 13.761926 -40.212282 0.000000 23.000000 14.307330 0.000000
-16.963697 16.830954 -43.128981 0.000000 52.000000 14.702995 26.000000
-17.129666 18.247917 -44.607708 0.000000 72.000000 14.783591 13.000000
-17.644802 13.812674 -43.523862 0.000000 70.000000 14.376903 30.000000
-17.339806 17.348537 -45.642203 0.000000 54.000000 14.409278 19.000000
-16.125104 17.917331 -42.745917 0.000000 62.000000 14.354373 0.000000
-15.978836 16.822397 -41.078709 0.000000 70.000000 14.437990 26.000000
-16.860690 16.808763 -42.695532 0.000000 62.000000 14.737229 26.000000
-16.682950 16.779927 -42.312365 0.000000 65.000000 14.686019 26.000000
-18.199004 16.201248 -45.781772 0.000000 72.000000 14.835377 24.000000
-15.939014 17.687644 -41.948868 0.000000 53.000000 14.368769 0.000000
-16.767566 15.070089 -40.933885 0.000000 55.000000 14.722668 22.000000
-17.050221 16.696874 -44.094781 0.000000 70.000000 14.446347 4.000000
-16.262491 17.875579 -42.749932 0.000000 47.000000 14.466868 14.000000
-15.999861 16.307219 -41.083770 0.000000 46.000000 14.314878 0.000000
-16.071650 17.420077 -41.090649 0.000000 77.000000 14.682064 7.000000
-18.349385 13.914229 -43.780355 0.000000 2.000000 14.967051 30.000000
-17.250789 18.226306 -45.231112 0.000000 70.000000 14.695118 13.000000
-16.785204 14.834227 -42.149832 0.000000 45.000000 14.298075 0.000000
-16.587936 14.807953 -41.438413 0.000000 32.000000 14.331346 0.000000
-17.926439 13.451542 -44.377042 0.000000 32.000000 14.270815 0.000000
-17.105602 13.003895 -41.143516 0.000000 32.000000 14.401424 23.000000
-16.921170 14.183785 -42.201692 0.000000 55.000000 14.228238 0.000000
-16.606632 18.090134 -42.766693 0.000000 66.000000 14.833744 14.000000
-16.053998 17.297116 -40.796175 0.000000 68.000000 14.723522 7.000000
-16.090056 17.536261 -42.443109 0.000000 46.000000 14.312074 0.000000
-16.397116 16.240796 -41.627599 0.000000 53.000000 14.490308 27.000000
-18.299280 16.116763 -45.647251 0.000000 43.000000 14.945265 24.000000
-16.811071 13.454590 -40.860810 0.000000 66.000000 14.343710 0.000000
-18.411002 12.923815 -44.279630 0.000000 51.000000 14.598204 1.000000
-17.503622 14.691111 -42.506696 0.000000 48.000000 14.802948 3.000000
-17.082683 12.488302 -41.033253 0.000000 50.000000 14.273858 0.000000
-17.324930 15.622735 -43.385490 0.000000 70.000000 14.622691 11.000000
-17.257658 16.338809 -44.965848 0.000000 43.000000 14.267975 0.000000
-17.236669 16.396495 -44.632749 0.000000 48.000000 14.367680 0.000000
-16.986260 16.463844 -44.024185 0.000000 60.000000 14.346290 0.000000
-18.394886 15.568961 -45.553068 0.000000 72.000000 14.911886 24.000000
-18.599648 13.173949 -45.455835 0.000000 68.000000 14.474399 9.000000
-15.916526 16.549238 -40.947084 0.000000 56.000000 14.347361 0.000000
-15.846622 16.533912 -40.786977 0.000000 53.000000 14.329044 0.000000
-17.767787 16.157418 -44.651595 0.000000 70.000000 14.780332 25.000000
-17.335810 17.584181 -44.993792 0.000000 76.000000 14.670628 5.000000
-16.789447 12.581921 -40.339021 0.000000 41.000000 14.247139 0.000000
-18.078480 16.928040 -45.820230 0.000000 71.000000 14.912185 19.000000
-16.634531 16.279074 -40.992586 0.000000 71.000000 14.913504 27.000000
-17.784344 14.412061 -44.763458 0.000000 48.000000 14.284139 0.000000
-16.811556 13.502849 -40.951148 0.000000 33.000000 14.329378 0.000000
-17.901205 12.457420 -43.363098 0.000000 23.000000 14.290072 0.000000
-17.399752 15.431854 -44.828319 0.000000 35.000000 14.192266 0.000000
-16.229130 15.742749 -40.332150 0.000000 75.000000 14.602123 27.000000
-17.560531 17.539552 -45.817381 0.000000 50.000000 14.608290 19.000000
-17.373959 15.787019 -43.590173 0.000000 69.000000 14.648882 11.000000
-17.778701 15.268225 -43.608344 0.000000 64.000000 14.870240 20.000000
-16.583616 17.561366 -43.345448 0.000000 73.000000 14.489290 28.000000
-18.100961 14.020872 -44.310770 0.000000 54.000000 14.605772 29.000000
-18.348295 13.396463 -45.485773 0.000000 28.000000 14.296957 0.000000
-16.828787 14.768968 -42.258783 0.000000 44.000000 14.286239 0.000000
-17.282649 14.009993 -41.186336 0.000000 52.000000 14.824209 8.000000
-16.041052 16.270299 -41.133219 0.000000 36.000000 14.327014 0.000000
-17.266292 14.939377 -43.035530 0.000000 51.000000 14.490940 15.000000
-15.822138 16.834998 -41.255120 0.000000 52.000000 14.244115 0.000000
-16.961265 18.066334 -45.620472 0.000000 25.000000 14.267236 0.000000
-18.117653 13.039267 -44.087988 0.000000 67.000000 14.421832 1.000000
-18.315500 15.296420 -45.542172 0.000000 57.000000 14.768516 24.000000
-17.284182 15.514368 -43.173910 0.000000 64.000000 14.621448 15.000000
-16.199354 15.918385 -39.955517 0.000000 46.000000 14.739507 10.000000
-16.642061 14.380359 -40.212261 0.000000 67.000000 14.643272 21.000000
-18.054795 14.672508 -45.780405 0.000000 23.000000 14.286942 0.000000
-15.768468 18.147979 -41.886737 0.000000 47.000000 14.358369 0.000000
-17.910897 15.026720 -43.887514 0.000000 63.000000 14.838315 20.000000
-17.456685 16.610387 -44.243783 0.000000 62.000000 14.746854 4.000000
-15.863863 17.791481 -42.173420 0.000000 29.000000 14.259193 0.000000
-15.336864 18.290513 -41.164823 0.000000 46.000000 14.227541 0.000000
-18.244038 13.875213 -45.567831 0.000000 33.000000 14.307349 0.000000
-17.421385 16.750575 -44.054282 0.000000 71.000000 14.811623 4.000000
-15.917016 16.467138 -40.928949 0.000000 61.000000 14.330998 0.000000
-15.830308 16.519536 -40.718139 0.000000 57.000000 14.331558 0.000000
-17.283041 13.993344 -42.853766 0.000000 33.000000 14.304074 0.000000
-16.855196 16.788983 -44.045196 0.000000 51.000000 14.309203 0.000000
-18.143620 15.429587 -44.733456 0.000000 73.000000 14.898562 24.000000
-16.282999 17.006447 -42.992730 0.000000 43.000000 14.173059 0.000000
-18.285276 13.857801 -45.672631 0.000000 48.000000 14.307729 0.000000
-16.420136 18.181784 -43.028843 0.000000 70.000000 14.607785 14.000000
-16.703725 14.594887 -41.620218 0.000000 26.000000 14.322370 0.000000
-16.985495 16.913807 -45.108679 0.000000 37.000000 14.132910 0.000000
-16.886033 15.874226 -41.483570 0.000000 77.000000 14.880101 27.000000
-17.575559 14.635456 -42.609710 0.000000 45.000000 14.821397 3.000000
-17.993655 13.746089 -43.537721 0.000000 46.000000 14.672187 30.000000
-16.576000 16.300089 -41.200373 0.000000 72.000000 14.801634 27.000000
-17.202758 14.084419 -40.990602 0.000000 45.000000 14.832330 8.000000
-17.167656 17.070428 -45.781445 0.000000 51.000000 14.133436 0.000000
-17.947551 15.954987 -44.640267 0.000000 67.000000 14.892293 25.000000
-17.009861 16.058746 -42.649371 0.000000 41.000000 14.682555 11.000000
-17.138415 17.601963 -45.648875 0.000000 56.000000 14.292986 0.000000
-17.284833 17.499637 -44.458431 0.000000 49.000000 14.766760 5.000000
-15.685615 18.045125 -41.461140 0.000000 45.000000 14.386501 6.000000
-18.042514 14.655452 -45.308946 0.000000 59.000000 14.416980 2.000000
-17.295292 16.592405 -44.716424 0.000000 56.000000 14.448690 4.000000
-17.326758 16.628030 -45.426140 0.000000 36.000000 14.267477 0.000000
-16.522700 13.248706 -39.866536 0.000000 26.000000 14.332469 0.000000
-16.927179 15.971970 -41.636888 0.000000 58.000000 14.896832 27.000000
-17.232909 13.336169 -40.807634 0.000000 58.000000 14.712059 23.000000
-15.992219 17.681781 -42.358072 0.000000 56.000000 14.289013 0.000000
-16.650254 14.868102 -40.272477 0.000000 74.000000 14.765306 21.000000
-16.130174 17.054050 -42.518808 0.000000 44.000000 14.193501 0.000000
-16.990682 17.066883 -45.162708 0.000000 31.000000 14.162721 0.000000
-17.031325 12.524667 -40.771142 0.000000 23.000000 14.318112 0.000000
-17.247731 18.009030 -44.854943 0.000000 61.000000 14.749391 13.000000
-16.286298 17.031136 -43.041817 0.000000 37.000000 14.167618 0.000000
-17.850155 17.582843 -45.899690 0.000000 61.000000 14.858453 19.000000
-15.843339 17.703249 -41.913258 0.000000 45.000000 14.296903 0.000000
-16.842292 14.473839 -40.327894 0.000000 64.000000 14.815404 21.000000
-16.787481 14.520459 -41.816743 0.000000 61.000000 14.317524 0.000000
-16.883234 14.171000 -40.445293 0.000000 54.000000 14.733665 21.000000
-17.320895 14.012117 -43.442398 0.000000 39.000000 14.161544 0.000000
-17.457797 13.906278 -43.389647 0.000000 59.000000 14.273660 0.000000
-16.982470 13.890397 -42.178004 0.000000 37.000000 14.211278 0.000000
-16.888500 15.803593 -41.452637 0.000000 68.000000 14.872629 27.000000
-15.952585 16.672521 -40.846547 0.000000 83.000000 14.444984 26.000000
-17.608046 13.601880 -43.530708 0.000000 54.000000 14.283737 0.000000
-17.812698 15.489742 -44.573718 0.000000 55.000000 14.662993 20.000000
-16.220299 16.202888 -40.619978 0.000000 71.000000 14.630683 27.000000
-16.941335 17.681932 -45.135255 0.000000 42.000000 14.294239 0.000000
-16.509721 16.914528 -41.991594 0.000000 60.000000 14.664245 26.000000
-17.309513 12.545726 -40.917410 0.000000 33.000000 14.531996 23.000000
-17.971957 15.356771 -45.020159 0.000000 52.000000 14.633602 24.000000
-16.623044 14.444012 -40.698072 0.000000 47.000000 14.493011 21.000000
-16.678889 14.657744 -40.848141 0.000000 50.000000 14.555814 21.000000
-17.170876 17.113165 -45.780625 0.000000 45.000000 14.148294 0.000000
-16.485818 16.902576 -43.515606 0.000000 39.000000 14.167641 0.000000
-16.927341 17.604955 -44.468206 0.000000 39.000000 14.466872 5.000000
-17.804020 16.286887 -44.822426 0.000000 77.000000 14.795834 25.000000
-16.931053 17.082715 -44.791220 0.000000 54.000000 14.227679 0.000000
-18.158960 15.358182 -44.240285 0.000000 66.000000 15.045633 20.000000
-16.890844 16.898490 -44.554497 0.000000 53.000000 14.213990 0.000000
-16.014899 16.660202 -40.300580 0.000000 52.000000 14.667314 10.000000
-16.607829 16.783463 -43.466306 0.000000 44.000000 14.261501 0.000000
-17.814721 15.346203 -43.738454 0.000000 56.000000 14.884086 20.000000
-16.750235 18.284325 -45.587698 0.000000 38.000000 14.144691 0.000000
-17.430344 12.650694 -41.271193 0.000000 55.000000 14.561254 23.000000
-17.096892 15.597337 -44.008286 0.000000 29.000000 14.215335 0.000000
-16.984882 16.987738 -45.167982 0.000000 39.000000 14.134192 0.000000
-15.612620 17.613859 -40.716762 0.000000 47.000000 14.432562 7.000000
-17.846575 17.496606 -45.552271 0.000000 77.000000 14.939140 19.000000
-17.917860 15.257849 -43.775388 0.000000 47.000000 14.942474 20.000000
-17.139365 15.974864 -42.574774 0.000000 68.000000 14.800689 11.000000
-16.724060 15.791790 -40.821410 0.000000 71.000000 14.914941 27.000000
-17.900016 13.404375 -42.825069 0.000000 44.000000 14.714085 18.000000
-16.332182 16.857050 -42.965222 0.000000 42.000000 14.185569 0.000000
-16.579887 17.273016 -43.673418 0.000000 31.000000 14.305662 0.000000
-17.299896 13.499250 -42.435572 0.000000 36.000000 14.313888 0.000000
-17.296770 15.895664 -43.002228 0.000000 51.000000 14.790170 11.000000
-16.631916 15.431608 -41.436816 0.000000 38.000000 14.542222 27.000000
-17.142762 16.569031 -44.029088 0.000000 38.000000 14.516051 4.000000
-18.194684 16.576053 -45.594656 0.000000 70.000000 14.991700 19.000000
-17.684010 14.607429 -42.582510 0.000000 51.000000 14.920944 3.000000
-17.915138 12.407674 -43.365886 0.000000 41.000000 14.288315 0.000000
-18.436926 13.104028 -44.140347 0.000000 64.000000 14.714131 1.000000
-16.868422 16.827945 -42.941087 0.000000 47.000000 14.673529 26.000000
-15.818616 18.088060 -40.973499 0.000000 62.000000 14.670261 6.000000
-17.280000 13.312941 -40.795649 0.000000 52.000000 14.752318 23.000000
-17.506819 14.503829 -42.749811 0.000000 62.000000 14.679486 3.000000
-17.020245 18.349115 -45.165360 0.000000 44.000000 14.539009 13.000000
-17.555025 13.567229 -43.299304 0.000000 55.000000 14.297581 0.000000
-17.856803 15.005334 -44.647381 0.000000 38.000000 14.548080 20.000000
-17.530981 18.227611 -45.931424 0.000000 72.000000 14.733997 16.000000
-16.474117 16.944561 -41.912674 0.000000 53.000000 14.664436 26.000000
-17.271833 16.771083 -44.220789 0.000000 55.000000 14.629481 4.000000
-18.467719 12.513289 -44.904813 0.000000 24.000000 14.344302 0.000000
-17.271277 16.476050 -44.203586 0.000000 62.000000 14.553724 4.000000
-17.142882 18.204554 -45.373971 0.000000 62.000000 14.546686 13.000000
-16.670469 14.854832 -41.767742 0.000000 48.000000 14.317422 0.000000
-17.098160 14.846546 -43.085349 0.000000 50.000000 14.297027 0.000000
-17.889511 15.998487 -44.537117 0.000000 49.000000 14.883224 25.000000
-17.126703 16.089335 -42.977886 0.000000 75.000000 14.695685 11.000000
-17.952222 14.472387 -44.446156 0.000000 65.000000 14.551709 29.000000
-17.804180 15.500923 -44.163467 0.000000 52.000000 14.785230 20.000000
-16.742383 16.872241 -42.893312 0.000000 74.000000 14.585605 26.000000
-16.255132 15.716490 -40.275423 0.000000 76.000000 14.636189 27.000000
-15.837316 17.736034 -41.964492 0.000000 41.000000 14.284517 0.000000
-16.633799 15.027883 -41.071340 0.000000 60.000000 14.546766 22.000000
-17.140853 17.452049 -44.137140 0.000000 52.000000 14.722033 5.000000
-17.054293 16.010205 -42.108761 0.000000 72.000000 14.877049 11.000000
-16.903825 17.817254 -45.230994 0.000000 43.000000 14.267406 0.000000
-15.835378 16.312480 -40.530975 0.000000 57.000000 14.337542 0.000000
-15.868051 16.370220 -40.699012 0.000000 58.000000 14.331076 0.000000
-16.664972 18.256549 -44.074037 0.000000 68.000000 14.527807 13.000000
-16.701587 14.264594 -39.767272 0.000000 68.000000 14.803566 21.000000
-17.138797 17.639524 -43.981279 0.000000 55.000000 14.819587 5.000000
-16.222805 15.481085 -40.415528 0.000000 42.000000 14.499101 22.000000
-17.674328 15.089324 -43.593151 0.000000 54.000000 14.731014 20.000000
-16.618061 17.041272 -43.669721 0.000000 63.000000 14.278287 0.000000
-16.112565 17.048247 -42.513819 0.000000 36.000000 14.177420 0.000000
-16.874554 16.911641 -44.338073 0.000000 41.000000 14.269711 0.000000
-16.173932 17.143604 -42.639584 0.000000 38.000000 14.220444 0.000000
-16.141467 16.965266 -41.147279 0.000000 82.000000 14.603925 26.000000
-17.823074 16.001128 -45.415419 0.000000 25.000000 14.551661 25.000000
-16.373717 17.618172 -43.419532 0.000000 41.000000 14.290691 0.000000
-18.290300 15.711938 -45.598382 0.000000 70.000000 14.841648 24.000000
-16.402418 17.716354 -43.588399 0.000000 56.000000 14.291396 0.000000
-16.889931 17.791990 -45.193541 0.000000 44.000000 14.259439 0.000000
-16.048155 17.614010 -42.450325 0.000000 27.000000 14.292909 0.000000
-16.488817 17.558174 -43.196944 0.000000 61.000000 14.448021 28.000000
-17.334956 17.644174 -44.795616 0.000000 64.000000 14.747555 5.000000
-15.320763 18.006540 -40.464512 0.000000 50.000000 14.352015 0.000000
-15.726387 17.972859 -41.745306 0.000000 47.000000 14.315976 0.000000
-17.947589 14.575672 -43.728812 0.000000 61.000000 14.797661 29.000000
-15.609915 18.154006 -41.541469 0.000000 39.000000 14.322429 0.000000
-18.381264 13.426117 -45.664446 0.000000 39.000000 14.279799 0.000000
-16.286850 17.504312 -42.946022 0.000000 38.000000 14.326987 0.000000
-15.926405 17.699072 -42.171580 0.000000 37.000000 14.291492 0.000000
-16.379386 16.748339 -40.888223 0.000000 59.000000 14.841552 26.000000
-15.849484 16.837693 -41.144749 0.000000 51.000000 14.303911 0.000000
-18.438499 13.142137 -44.511533 0.000000 56.000000 14.611117 1.000000
-16.143326 17.244439 -41.765515 0.000000 56.000000 14.490563 7.000000
-16.630848 14.822994 -40.267985 0.000000 75.000000 14.736700 21.000000
-17.160874 16.311032 -43.731673 0.000000 64.000000 14.554116 11.000000
-17.185572 17.506040 -43.968705 0.000000 51.000000 14.829629 5.000000
-16.626626 16.660575 -41.443899 0.000000 52.000000 14.870844 26.000000
-17.149481 15.262096 -40.914136 0.000000 68.000000 15.129088 22.000000
-15.807708 16.479414 -40.269063 0.000000 61.000000 14.438970 10.000000
-17.558113 13.958757 -43.696724 0.000000 41.000000 14.284349 0.000000
-17.561111 16.188943 -43.996120 0.000000 47.000000 14.803509 17.000000
-16.609328 17.022523 -43.710683 0.000000 32.000000 14.252538 0.000000
-18.318432 13.520918 -45.494705 0.000000 41.000000 14.300981 0.000000
-16.564288 16.896428 -42.125375 0.000000 74.000000 14.667610 26.000000
-16.561836 18.258781 -43.462793 0.000000 52.000000 14.623607 14.000000
-16.920044 17.205195 -44.234760 0.000000 59.000000 14.423283 5.000000
-17.483414 15.707411 -44.358698 0.000000 52.000000 14.489038 20.000000
-17.833934 14.923432 -44.416363 0.000000 55.000000 14.576365 20.000000
-18.404067 12.753390 -45.174372 0.000000 38.000000 14.268488 0.000000
-16.869511 14.734132 -40.179332 0.000000 52.000000 14.957252 21.000000
-16.914156 17.796891 -45.146550 0.000000 45.000000 14.297383 0.000000
-16.437442 17.690182 -43.619146 0.000000 51.000000 14.306636 0.000000
-16.868175 17.713789 -44.942940 0.000000 46.000000 14.295808 0.000000
-17.056428 16.318955 -41.733329 0.000000 78.000000 15.079482 27.000000
-17.424956 17.647038 -45.660507 0.000000 32.000000 14.562696 19.000000
-18.089706 13.345880 -43.226903 0.000000 63.000000 14.746553 18.000000
-17.143814 17.235902 -45.176333 0.000000 37.000000 14.344147 0.000000
-15.652088 17.739621 -41.312283 0.000000 37.000000 14.318589 0.000000
-18.067702 14.606814 -44.348260 0.000000 61.000000 14.723899 29.000000
-16.074780 17.021595 -42.295511 0.000000 37.000000 14.203275 0.000000
-15.733632 17.231707 -40.394185 0.000000 50.000000 14.538235 7.000000
-16.296101 17.477810 -41.789818 0.000000 41.000000 14.685935 7.000000
-18.386744 15.580647 -45.512480 0.000000 58.000000 14.920221 24.000000
-17.301618 17.683606 -45.673733 0.000000 51.000000 14.456246 19.000000
-16.927580 16.795907 -43.523739 0.000000 51.000000 14.538378 26.000000
-17.514323 18.093193 -45.839279 0.000000 40.000000 14.710626 16.000000
-16.351809 16.310036 -42.049214 0.000000 57.000000 14.337492 0.000000
-15.937908 16.284796 -40.724759 0.000000 52.000000 14.363411 0.000000
-17.934139 14.141132 -44.085619 0.000000 47.000000 14.556330 29.000000
-16.652702 17.805226 -44.420318 0.000000 36.000000 14.286225 0.000000
-17.107966 14.491521 -42.024085 0.000000 29.000000 14.537383 3.000000
-17.271777 14.006677 -43.286929 0.000000 34.000000 14.163424 0.000000
-15.769728 16.788426 -41.153982 0.000000 38.000000 14.214952 0.000000
-17.646762 12.742641 -41.895603 0.000000 35.000000 14.590284 18.000000
-16.109606 17.611837 -41.212801 0.000000 70.000000 14.731210 7.000000
-17.178345 16.308411 -43.331702 0.000000 68.000000 14.693075 11.000000
-16.881899 14.380065 -41.474999 0.000000 65.000000 14.470928 8.000000
-16.504837 16.252384 -42.129737 0.000000 45.000000 14.436218 27.000000
-17.125387 18.069608 -45.697646 0.000000 62.000000 14.393743 16.000000
-16.616497 16.230302 -40.870886 0.000000 75.000000 14.921415 27.000000
-17.626681 17.761614 -45.626011 0.000000 69.000000 14.788404 19.000000
-16.888388 16.936676 -44.685530 0.000000 53.000000 14.181637 0.000000
-15.819867 16.519448 -40.651726 0.000000 46.000000 14.342574 0.000000
-18.316327 15.433999 -45.695426 0.000000 51.000000 14.759422 24.000000
-15.911262 15.944487 -40.444055 0.000000 57.000000 14.333058 0.000000
-15.950194 16.234243 -40.864409 0.000000 45.000000 14.317584 0.000000
-16.371458 16.275650 -42.159238 0.000000 53.000000 14.311954 0.000000
-16.907924 18.153500 -43.980349 0.000000 52.000000 14.749949 13.000000
-17.614847 15.528914 -44.553561 0.000000 47.000000 14.499712 20.000000
-16.345669 17.648559 -43.419830 0.000000 39.000000 14.273350 0.000000
-16.582859 15.040614 -40.127237 0.000000 38.000000 14.795972 21.000000
-16.978285 16.453149 -43.700566 0.000000 48.000000 14.436241 11.000000
-16.409120 14.977135 -40.084022 0.000000 37.000000 14.633755 21.000000
-16.853737 15.453588 -40.926408 0.000000 66.000000 14.908205 22.000000
-17.964468 15.669279 -45.431924 0.000000 72.000000 14.584716 24.000000
-16.875021 18.048430 -43.989431 0.000000 75.000000 14.688474 13.000000
-16.354748 15.872765 -40.333907 0.000000 72.000000 14.751507 27.000000
-17.051839 15.372832 -40.753691 0.000000 51.000000 15.120038 22.000000
-16.517494 17.815753 -44.043048 0.000000 46.000000 14.282681 0.000000
-17.300822 16.511284 -44.015625 0.000000 79.000000 14.648417 4.000000
-16.529327 17.952507 -44.172817 0.000000 49.000000 14.290653 0.000000
-16.570055 15.493978 -40.675374 0.000000 64.000000 14.738517 22.000000
-15.410459 18.013364 -40.838690 0.000000 56.000000 14.319800 0.000000
-17.136216 16.558471 -43.243843 0.000000 57.000000 14.750179 26.000000
-16.788213 12.771988 -40.517832 0.000000 26.000000 14.242595 0.000000
-17.745074 12.431561 -43.051377 0.000000 33.000000 14.237251 0.000000
-16.521326 16.854599 -41.367290 0.000000 61.000000 14.851624 26.000000
-15.566481 17.222545 -40.435748 0.000000 56.000000 14.370620 0.000000
-18.186465 16.226145 -44.857419 0.000000 40.000000 15.116773 25.000000
-15.898436 17.961307 -41.068811 0.000000 64.000000 14.678858 6.000000
-15.638958 16.884666 -40.982377 0.000000 40.000000 14.175221 0.000000
-16.290498 15.367732 -40.960608 0.000000 21.000000 14.361143 0.000000
-18.296549 15.406993 -45.603185 0.000000 62.000000 14.762573 24.000000
-17.132643 14.372776 -40.893226 0.000000 57.000000 14.877346 8.000000
-16.844516 16.815497 -42.749368 0.000000 48.000000 14.707678 26.000000
-17.203607 15.217097 -42.391328 0.000000 54.000000 14.709020 15.000000
-16.898753 16.754954 -44.263916 0.000000 55.000000 14.271907 0.000000
-16.788480 18.259772 -43.975036 0.000000 56.000000 14.671819 13.000000
-16.743595 14.450055 -39.709229 0.000000 73.000000 14.910439 21.000000
-17.504348 13.396860 -41.133069 0.000000 64.000000 14.875180 23.000000
-18.292742 13.013063 -44.605997 0.000000 54.000000 14.413872 1.000000
-17.876878 12.956514 -42.252912 0.000000 64.000000 14.747737 18.000000
-16.065938 17.078298 -41.522793 0.000000 54.000000 14.449804 7.000000
-17.290815 17.462807 -44.548683 0.000000 74.000000 14.734224 5.000000
-16.558228 16.653210 -41.430898 0.000000 52.000000 14.810555 26.000000
-16.418254 17.691030 -41.694993 0.000000 43.000000 14.884772 7.000000
-16.013637 16.352531 -41.093956 0.000000 46.000000 14.336649 0.000000
-16.965928 16.217068 -42.480082 0.000000 64.000000 14.738159 11.000000
-17.744390 16.136681 -43.908583 0.000000 45.000000 14.983263 17.000000
-17.896205 14.937105 -43.787937 0.000000 46.000000 14.831271 20.000000
-16.000925 18.223466 -42.660743 0.000000 41.000000 14.351224 0.000000
-16.817530 14.746165 -40.795041 0.000000 39.000000 14.722675 21.000000
-16.956720 17.235736 -44.329555 0.000000 59.000000 14.435699 5.000000
-17.128375 15.615002 -42.859492 0.000000 51.000000 14.604301 11.000000
-16.620140 13.514304 -40.384112 0.000000 52.000000 14.333608 0.000000
-16.109801 17.526225 -40.872963 0.000000 72.000000 14.813161 7.000000
-17.627523 17.715068 -46.009995 0.000000 69.000000 14.657645 19.000000
-16.419656 16.582332 -41.341300 0.000000 49.000000 14.692701 26.000000
-16.714445 12.975414 -40.111471 0.000000 48.000000 14.356696 0.000000
-16.716366 12.822786 -40.080970 0.000000 42.000000 14.326201 0.000000
-16.944590 14.508902 -40.155777 0.000000 51.000000 14.971417 21.000000
-16.931552 13.318862 -40.572115 0.000000 62.000000 14.505713 23.000000
-16.953211 17.991462 -44.646391 0.000000 51.000000 14.540856 13.000000
-15.534909 17.781892 -40.970848 0.000000 26.000000 14.329048 0.000000
-15.831081 16.061963 -40.087088 0.000000 56.000000 14.402561 10.000000
-17.284408 15.914531 -43.780312 0.000000 25.000000 14.543303 11.000000
-18.053460 13.884946 -45.067056 0.000000 55.000000 14.291370 0.000000
-17.928167 13.991958 -45.006084 0.000000 56.000000 14.225337 0.000000
-17.509911 15.465575 -45.286258 0.000000 38.000000 14.160117 0.000000
-17.234218 17.707309 -44.882259 0.000000 51.000000 14.646229 5.000000
-16.959817 15.431158 -43.228005 0.000000 40.000000 14.286533 0.000000
-16.281290 16.282695 -41.869494 0.000000 45.000000 14.321402 0.000000
-15.892148 18.267030 -42.542538 0.000000 41.000000 14.300616 0.000000
-18.247752 14.727360 -45.341690 0.000000 71.000000 14.613430 2.000000
-16.921895 15.494208 -40.740064 0.000000 47.000000 15.039041 22.000000
-16.587611 16.496186 -41.692527 0.000000 68.000000 14.713481 26.000000
-15.660077 16.955656 -40.495401 0.000000 51.000000 14.364527 0.000000
-17.510518 16.282869 -45.179161 0.000000 37.000000 14.417014 25.000000
-18.590807 14.735017 -45.195114 0.000000 63.000000 14.973351 2.000000
-16.402367 13.621229 -39.878531 0.000000 47.000000 14.320888 0.000000
-16.412741 13.720566 -40.003655 0.000000 51.000000 14.318749 0.000000
-17.390122 14.511241 -42.850193 0.000000 70.000000 14.544155 3.000000
-16.809373 13.475145 -41.031386 0.000000 40.000000 14.294997 0.000000
-15.789869 16.447120 -40.568984 0.000000 46.000000 14.321099 0.000000
-16.005311 15.259677 -40.489718 0.000000 41.000000 14.217571 0.000000
-18.199108 15.969356 -45.636290 0.000000 78.000000 14.817157 24.000000
-17.963748 13.478751 -44.441020 0.000000 42.000000 14.292432 0.000000
-17.657895 13.725217 -43.475553 0.000000 71.000000 14.379892 30.000000
-16.964459 14.257698 -40.038324 0.000000 48.000000 14.957253 21.000000
-17.008713 13.373830 -41.385303 0.000000 30.000000 14.339388 0.000000
-16.303673 17.654228 -43.288612 0.000000 42.000000 14.277247 0.000000
-16.289033 17.806512 -43.364509 0.000000 45.000000 14.282017 0.000000
-16.662926 16.133405 -42.233019 0.000000 44.000000 14.515765 27.000000
-17.699090 12.617043 -40.986854 0.000000 31.000000 14.884836 23.000000
-16.756564 15.344203 -41.038922 0.000000 48.000000 14.755006 22.000000
-16.893183 16.031564 -41.015839 0.000000 54.000000 15.074310 27.000000
-16.659035 17.912373 -44.119568 0.000000 56.000000 14.414315 13.000000
-17.839208 14.873257 -44.155738 0.000000 39.000000 14.648110 20.000000
-16.285969 17.152514 -42.855149 0.000000 20.000000 14.258227 0.000000
-16.194035 17.536979 -40.791832 0.000000 66.000000 14.917927 7.000000
-15.928195 16.985311 -41.389075 0.000000 53.000000 14.340320 0.000000
-15.531149 16.839194 -40.566703 0.000000 53.000000 14.193223 0.000000
-16.549989 17.417224 -43.134103 0.000000 59.000000 14.484691 28.000000
-17.274950 16.848499 -44.445041 0.000000 60.000000 14.584073 4.000000
-15.803217 16.697928 -40.952330 0.000000 40.000000 14.283136 0.000000
-16.548745 16.242707 -42.633843 0.000000 43.000000 14.317587 0.000000
-15.697736 18.281573 -42.426954 0.000000 49.000000 14.163269 0.000000
-17.937503 14.285117 -44.448010 0.000000 60.000000 14.486585 29.000000
-15.732753 17.201578 -40.376862 0.000000 37.000000 14.534566 7.000000
-17.987140 15.877792 -44.828662 0.000000 67.000000 14.848977 25.000000
-15.838138 17.726039 -41.964088 0.000000 45.000000 14.282661 0.000000
-15.439987 17.079091 -40.227755 0.000000 35.000000 14.280582 0.000000
-17.456763 16.397884 -44.756248 0.000000 43.000000 14.530322 25.000000
-17.718744 14.625151 -43.578566 0.000000 63.000000 14.649217 29.000000
-15.126593 18.219599 -40.429438 0.000000 42.000000 14.244192 0.000000
-16.724055 14.586232 -41.755336 0.000000 37.000000 14.296715 0.000000
-17.703875 17.538078 -45.662170 0.000000 75.000000 14.786482 19.000000
-16.644871 15.308839 -42.172118 0.000000 55.000000 14.292972 0.000000
-17.778518 13.213216 -41.753223 0.000000 45.000000 14.882867 18.000000
-16.711971 15.012473 -42.075798 0.000000 48.000000 14.302957 0.000000
-16.725963 14.851981 -42.064160 0.000000 43.000000 14.275472 0.000000
-16.771960 14.709642 -42.006031 0.000000 51.000000 14.296483 0.000000
-16.758748 16.179237 -42.877169 0.000000 39.000000 14.416246 11.000000
-16.569407 16.778848 -41.272371 0.000000 67.000000 14.904102 26.000000
-17.937868 14.972993 -43.860923 0.000000 62.000000 14.856437 20.000000
-17.686988 16.047552 -44.028932 0.000000 51.000000 14.869398 17.000000
-16.654845 13.497909 -40.527889 0.000000 44.000000 14.316254 0.000000
-16.894021 16.632483 -42.391550 0.000000 57.000000 14.813506 26.000000
-16.736520 13.198677 -40.493481 0.000000 47.000000 14.319574 0.000000
-17.000459 16.887556 -44.410969 0.000000 42.000000 14.355260 0.000000
-17.965438 14.644175 -44.323659 0.000000 37.000000 14.648566 29.000000
-17.314053 17.724413 -44.962615 0.000000 40.000000 14.698755 5.000000
-16.885206 12.573581 -40.489629 0.000000 46.000000 14.285483 0.000000
-16.686319 16.146001 -40.740856 0.000000 73.000000 15.002225 27.000000
-17.385672 15.318367 -43.356972 0.000000 54.000000 14.603719 15.000000
-15.869175 16.640386 -40.939746 0.000000 55.000000 14.331394 0.000000
-18.029287 15.874544 -44.722882 0.000000 68.000000 14.919211 25.000000
-17.815528 13.529773 -43.721755 0.000000 56.000000 14.393917 30.000000
-15.646331 16.692075 -40.475887 0.000000 39.000000 14.286060 0.000000
-16.806507 12.796908 -40.533385 0.000000 32.000000 14.261251 0.000000
-17.564259 18.175523 -45.723155 0.000000 77.000000 14.814527 16.000000
-17.425383 14.790461 -42.560098 0.000000 58.000000 14.742292 3.000000
-16.866506 16.389384 -42.911772 0.000000 66.000000 14.561084 26.000000
-17.580855 18.271020 -45.966795 0.000000 66.000000 14.780337 16.000000
-16.562826 12.530197 -39.748692 0.000000 35.000000 14.209255 0.000000
-17.897184 14.775055 -45.470215 0.000000 44.000000 14.267367 0.000000
-18.192634 14.733324 -45.656272 0.000000 38.000000 14.467514 2.000000
-16.974921 12.567174 -41.047570 0.000000 41.000000 14.192811 0.000000
-16.600387 12.824643 -39.844355 0.000000 52.000000 14.294282 0.000000
-16.973933 12.706415 -41.123816 0.000000 39.000000 14.206345 0.000000
-16.734133 16.544688 -41.978153 0.000000 63.000000 14.771808 26.000000
-16.593916 13.094412 -39.988060 0.000000 37.000000 14.317596 0.000000
-16.580132 13.223277 -40.071651 0.000000 38.000000 14.314369 0.000000
-17.191552 13.784156 -41.113528 0.000000 49.000000 14.702084 8.000000
-16.363778 16.799441 -42.921851 0.000000 31.000000 14.212036 0.000000
-18.278781 14.743309 -45.617017 0.000000 52.000000 14.560855 2.000000
-17.131145 16.022676 -42.931593 0.000000 59.000000 14.695852 11.000000
-18.065545 16.096094 -45.073753 0.000000 64.000000 14.904174 25.000000
-16.804893 14.198334 -40.595292 0.000000 46.000000 14.623359 21.000000
-15.740754 16.156722 -40.182897 0.000000 39.000000 14.316519 0.000000
-16.083564 17.187471 -41.511238 0.000000 51.000000 14.499250 7.000000
-16.774772 16.202318 -41.655606 0.000000 45.000000 14.815128 27.000000
-18.066840 14.204630 -44.163973 0.000000 36.000000 14.670300 29.000000
-16.797938 14.704344 -42.083108 0.000000 44.000000 14.294848 0.000000
-17.882876 17.029315 -45.831076 0.000000 73.000000 14.758318 19.000000
-17.179471 15.781077 -42.852597 0.000000 66.000000 14.698332 11.000000
-16.596488 14.854887 -40.251073 0.000000 55.000000 14.719345 21.000000
-16.949165 15.449870 -42.566888 0.000000 73.000000 14.486507 15.000000
-17.673651 15.961667 -44.392674 0.000000 68.000000 14.721243 17.000000
-16.176821 17.579560 -42.865996 0.000000 45.000000 14.272079 0.000000
-16.142236 17.734708 -42.875400 0.000000 56.000000 14.280038 0.000000
-16.699136 14.685281 -40.270000 0.000000 70.000000 14.760668 21.000000
-16.665279 14.628223 -40.403199 0.000000 74.000000 14.673031 21.000000
-17.526871 17.761193 -45.720974 0.000000 65.000000 14.667993 19.000000
-17.708965 16.667141 -45.641529 0.000000 62.000000 14.559649 19.000000
-17.261313 16.490410 -44.091259 0.000000 66.000000 14.583326 4.000000
-17.650698 14.443576 -42.310403 0.000000 73.000000 14.930049 3.000000
-17.024943 18.160886 -44.269830 0.000000 74.000000 14.768982 13.000000
-17.951915 13.751378 -44.608815 0.000000 31.000000 14.304189 0.000000
-17.715079 13.352499 -42.300547 0.000000 76.000000 14.693765 18.000000
-17.556835 14.766216 -44.008286 0.000000 50.000000 14.407299 20.000000
-16.614938 16.155441 -41.334583 0.000000 75.000000 14.756070 27.000000
-18.014220 16.887824 -45.806159 0.000000 67.000000 14.847024 19.000000
-18.061919 13.297439 -43.253808 0.000000 58.000000 14.699689 18.000000
-17.190018 16.902732 -45.546040 0.000000 46.000000 14.180847 0.000000
-17.664730 13.254071 -41.256039 0.000000 79.000000 14.944220 23.000000
-17.269374 16.969287 -46.089382 0.000000 39.000000 14.103182 0.000000
-15.957390 18.304572 -42.931892 0.000000 48.000000 14.249819 0.000000
-16.148036 17.862123 -42.740777 0.000000 57.000000 14.361774 0.000000
-16.438019 18.070007 -42.941318 0.000000 62.000000 14.620630 14.000000
-17.079178 16.349938 -43.274334 0.000000 74.000000 14.631840 11.000000
-16.217336 17.553070 -42.720181 0.000000 51.000000 14.346867 0.000000
-16.241067 17.056251 -42.841964 0.000000 56.000000 14.195117 0.000000
-16.389732 16.944202 -42.666468 0.000000 64.000000 14.354233 0.000000
-17.175490 16.198251 -44.032103 0.000000 41.000000 14.443668 17.000000
-17.436387 15.481296 -45.048815 0.000000 37.000000 14.170912 0.000000
-17.286774 18.137119 -45.678103 0.000000 72.000000 14.565228 16.000000
-15.968792 17.689410 -41.407007 0.000000 65.000000 14.564041 7.000000
-16.561049 16.756562 -41.534983 0.000000 50.000000 14.809144 26.000000
-17.455333 13.669300 -43.107304 0.000000 55.000000 14.294061 0.000000
-17.518146 13.512692 -43.150660 0.000000 50.000000 14.295089 0.000000
-16.702818 17.155063 -43.861879 0.000000 31.000000 14.327108 0.000000
-17.908846 14.523906 -44.171410 0.000000 67.000000 14.611283 29.000000
-15.377993 17.755331 -40.521944 0.000000 45.000000 14.317768 0.000000
-15.706311 17.930437 -41.773717 0.000000 41.000000 14.277312 0.000000
-17.242342 16.818391 -44.219599 0.000000 68.000000 14.615907 4.000000
-16.732284 14.801860 -40.599386 0.000000 62.000000 14.720779 21.000000
-17.016592 16.336039 -41.670801 0.000000 46.000000 15.067210 27.000000
-17.733794 13.208066 -41.911780 0.000000 67.000000 14.791661 18.000000
-17.994353 13.645882 -44.601658 0.000000 47.000000 14.316248 0.000000
-16.798853 18.275727 -44.448877 0.000000 66.000000 14.539006 13.000000
-17.226807 16.709234 -45.215481 0.000000 45.000000 14.263795 0.000000
-16.926540 16.697510 -44.037184 0.000000 60.000000 14.351686 0.000000
-18.104078 16.520024 -45.843849 0.000000 31.000000 14.816762 19.000000
-17.762150 16.918193 -45.626536 0.000000 74.000000 14.681295 19.000000
-15.823690 16.471406 -40.593254 0.000000 59.000000 14.351028 0.000000
-18.335848 13.057926 -44.066257 0.000000 57.000000 14.632398 1.000000
-16.375925 18.259004 -44.322844 0.000000 25.000000 14.188207 0.000000
-17.248571 14.289426 -42.941793 0.000000 62.000000 14.326299 0.000000
-16.391748 17.038519 -43.229839 0.000000 28.000000 14.207506 0.000000
-17.077455 15.388453 -40.950900 0.000000 30.000000 15.086615 22.000000
-18.116959 13.070217 -42.874831 0.000000 75.000000 14.805033 18.000000
-16.541282 16.258440 -41.675390 0.000000 44.000000 14.611655 27.000000
-17.425646 13.575155 -42.934252 0.000000 52.000000 14.294855 0.000000
-17.431723 15.495979 -44.065859 0.000000 72.000000 14.474825 20.000000
-17.326745 13.887686 -42.976019 0.000000 43.000000 14.277199 0.000000
-16.727578 14.511296 -41.482788 0.000000 63.000000 14.363792 0.000000
-16.735721 16.982917 -44.143079 0.000000 45.000000 14.223054 0.000000
-15.936863 16.221971 -40.774813 0.000000 49.000000 14.329813 0.000000
-17.112326 14.693610 -42.956176 0.000000 60.000000 14.308133 0.000000
-16.636452 14.857780 -41.658965 0.000000 58.000000 14.320901 0.000000
-17.922589 15.026532 -44.484642 0.000000 71.000000 14.664147 20.000000
-17.960866 14.453499 -43.404761 0.000000 58.000000 14.876658 29.000000
-16.213871 16.956961 -42.811135 0.000000 46.000000 14.152768 0.000000
-17.396997 17.389929 -44.934721 0.000000 45.000000 14.691589 5.000000
-17.163910 16.679540 -44.124323 0.000000 60.000000 14.536027 4.000000
-15.962200 17.217279 -41.211638 0.000000 55.000000 14.489548 7.000000
-16.586230 16.224501 -42.067355 0.000000 54.000000 14.522044 27.000000
-17.984030 15.058359 -44.537332 0.000000 73.000000 14.712500 20.000000
-17.542304 15.459438 -45.319039 0.000000 32.000000 14.177804 0.000000
-17.211296 13.488878 -40.928660 0.000000 44.000000 14.696630 23.000000
