-27.790693 11.461687 9.003419 0.000000 49.000000 14.994076 18.000000
-26.281926 9.098304 8.154227 0.000000 30.000000 14.351836 0.000000
-28.899786 9.816036 10.371713 0.000000 47.000000 14.999420 8.000000
-27.804062 9.466129 9.738234 0.000000 43.000000 14.543518 0.000000
-29.697469 9.787097 11.398510 0.000000 55.000000 14.976483 27.000000
-26.218938 10.586406 7.938996 0.000000 32.000000 14.437804 0.000000
-28.682547 10.945883 10.033239 0.000000 49.000000 15.042578 10.000000
-26.121915 11.045735 7.888691 0.000000 32.000000 14.393804 0.000000
-30.683570 10.293974 12.174790 0.000000 68.000000 15.257434 23.000000
-27.700346 10.881762 9.645960 0.000000 36.000000 14.520634 0.000000
-26.550313 14.077893 8.183112 0.000000 43.000000 14.542723 0.000000
-26.647318 12.645476 7.859834 0.000000 53.000000 14.821068 11.000000
-28.994371 8.842798 10.372960 0.000000 58.000000 15.072297 9.000000
-27.956657 12.166687 9.588384 0.000000 43.000000 14.756357 17.000000
-29.147586 10.815382 10.741000 0.000000 72.000000 14.960732 22.000000
-28.585547 11.349185 10.193558 0.000000 49.000000 14.866467 18.000000
-27.054356 12.745012 8.832905 0.000000 45.000000 14.527617 0.000000
-30.367511 10.182523 11.365335 0.000000 5.000000 15.519094 19.000000
-29.681446 11.042849 10.926216 0.000000 46.000000 15.260288 22.000000
-26.459705 12.084359 8.346077 0.000000 31.000000 14.369929 0.000000
-27.435745 13.381793 8.475704 0.000000 55.000000 15.048708 15.000000
-26.918285 11.594828 8.720928 0.000000 40.000000 14.491897 0.000000
-27.063674 12.813104 8.548364 0.000000 56.000000 14.713374 15.000000
-28.229847 10.730479 10.539770 0.000000 27.000000 14.372275 0.000000
-28.396686 12.303465 9.416378 0.000000 61.000000 15.206936 17.000000
-28.770242 10.088253 10.957486 0.000000 50.000000 14.531066 0.000000
-29.079873 9.377153 11.418349 0.000000 36.000000 14.483081 0.000000
-30.121172 10.084843 11.923837 0.000000 52.000000 14.976893 19.000000
-29.598324 14.078668 11.984821 0.000000 44.000000 14.531465 0.000000
-29.694293 13.891499 12.106384 0.000000 36.000000 14.529941 0.000000
-29.734648 13.726850 12.226385 0.000000 33.000000 14.486088 0.000000
-28.129062 11.832448 9.548415 0.000000 48.000000 14.915692 18.000000
-29.794899 10.704172 11.302198 0.000000 55.000000 15.112777 22.000000
-29.035696 13.199860 10.871877 0.000000 42.000000 14.791495 16.000000
-30.427935 11.667541 12.388733 0.000000 40.000000 14.924144 24.000000
-28.928892 9.433321 10.091691 0.000000 40.000000 15.197752 8.000000
-29.500380 8.604228 11.435316 0.000000 60.000000 14.799909 30.000000
-28.022090 8.524152 9.768968 0.000000 56.000000 14.694028 9.000000
-26.106265 9.116330 7.908220 0.000000 30.000000 14.369366 0.000000
-29.203612 9.280777 11.263403 0.000000 55.000000 14.676645 26.000000
-28.945051 10.144007 11.188055 0.000000 34.000000 14.522557 0.000000
-28.231734 12.899911 10.264089 0.000000 34.000000 14.546686 0.000000
-28.261793 13.075578 10.326363 0.000000 33.000000 14.531029 0.000000
-30.654436 11.726625 12.078402 0.000000 50.000000 15.295212 24.000000
-30.190420 11.979348 11.760734 0.000000 32.000000 15.133139 24.000000
-29.638048 13.134291 12.076803 0.000000 36.000000 14.504697 0.000000
-26.938492 12.132246 8.599032 0.000000 34.000000 14.584102 11.000000
-27.267703 12.307450 8.057092 0.000000 53.000000 15.180451 11.000000
-29.752588 13.587268 12.312567 0.000000 33.000000 14.445995 0.000000
-28.811846 14.244131 10.975103 0.000000 40.000000 14.552414 0.000000
-29.690243 13.044384 11.034322 0.000000 49.000000 15.199321 16.000000
-27.923935 13.030408 8.718271 0.000000 57.000000 15.276720 15.000000
-30.088799 13.904962 12.583871 0.000000 37.000000 14.537625 0.000000
-26.334597 11.158477 8.009437 0.000000 31.000000 14.483684 0.000000
-28.215503 12.116503 9.828301 0.000000 51.000000 14.807428 17.000000
-29.580837 10.922578 10.657531 0.000000 57.000000 15.350492 22.000000
-27.393956 9.864734 9.255828 0.000000 45.000000 14.526772 0.000000
-30.032549 9.485766 11.539393 0.000000 68.000000 15.149049 27.000000
-29.112801 9.249060 10.905775 0.000000 58.000000 14.830276 26.000000
-26.772624 9.404433 8.490038 0.000000 45.000000 14.523306 0.000000
-26.824329 9.233795 8.634643 0.000000 34.000000 14.472858 0.000000
-30.687925 11.707228 12.053767 0.000000 50.000000 15.336746 24.000000
-28.405751 8.275754 10.543690 0.000000 37.000000 14.506802 0.000000
-27.374220 8.454810 9.238661 0.000000 40.000000 14.522172 0.000000
-30.107620 9.867646 11.503713 0.000000 69.000000 15.229894 19.000000
-30.594571 11.324518 12.274333 0.000000 45.000000 15.125679 24.000000
-27.302679 13.726534 9.159153 0.000000 42.000000 14.516336 0.000000
-28.363323 11.806599 10.419224 0.000000 42.000000 14.551842 0.000000
-28.866405 10.607244 11.066280 0.000000 28.000000 14.537704 0.000000
-28.798389 10.461709 11.147872 0.000000 25.000000 14.433551 0.000000
-30.074099 14.207698 12.562284 0.000000 36.000000 14.539719 0.000000
-30.122127 14.031700 12.662980 0.000000 40.000000 14.513952 0.000000
-30.650425 11.522248 11.976282 0.000000 43.000000 15.356151 24.000000
-26.184324 8.849649 7.903336 0.000000 46.000000 14.433219 0.000000
-27.611490 8.487173 9.554715 0.000000 40.000000 14.508677 0.000000
-29.977227 8.676170 11.688370 0.000000 61.000000 15.012509 30.000000
-27.499780 9.482118 9.420372 0.000000 41.000000 14.505960 0.000000
-29.945523 9.797744 11.726860 0.000000 49.000000 14.963674 19.000000
-28.397619 12.274937 9.544588 0.000000 56.000000 15.127233 17.000000
-29.850084 10.739404 12.103661 0.000000 34.000000 14.652973 29.000000
-27.518976 11.059479 9.379933 0.000000 35.000000 14.546277 0.000000
-29.369180 8.386873 11.450480 0.000000 62.000000 14.688224 20.000000
-28.780720 9.357812 10.391244 0.000000 49.000000 14.894445 8.000000
-29.700114 10.959763 10.759164 0.000000 43.000000 15.379622 22.000000
-26.406759 14.234762 8.039517 0.000000 31.000000 14.521011 0.000000
-30.218237 10.441860 11.792458 0.000000 47.000000 15.134900 19.000000
-28.772517 10.163970 10.866295 0.000000 39.000000 14.590044 8.000000
-26.131969 9.027685 7.966178 0.000000 29.000000 14.353024 0.000000
-26.371569 8.833476 8.171002 0.000000 39.000000 14.411122 0.000000
-26.667351 8.623885 8.383413 0.000000 46.000000 14.508213 0.000000
-30.305131 12.336028 12.131335 0.000000 51.000000 14.989982 25.000000
-27.014727 12.825281 8.754472 0.000000 48.000000 14.545959 0.000000
-28.313786 10.945222 10.028019 0.000000 43.000000 14.758678 10.000000
-27.259744 12.448847 9.089317 0.000000 41.000000 14.526710 0.000000
-28.525207 8.671655 9.759585 0.000000 41.000000 15.091719 9.000000
-26.416666 12.135458 8.255577 0.000000 30.000000 14.393186 0.000000
-26.565480 11.916886 8.423310 0.000000 30.000000 14.403852 0.000000
-29.484771 12.947902 11.487456 0.000000 60.000000 14.755045 16.000000
-27.001218 11.429433 8.768220 0.000000 43.000000 14.526814 0.000000
-28.493095 10.508577 10.547230 0.000000 34.000000 14.572601 0.000000
-28.936846 9.271293 11.322924 0.000000 39.000000 14.431561 0.000000
-29.337939 8.517017 11.710087 0.000000 35.000000 14.501036 0.000000
-28.441382 8.469017 10.584645 0.000000 40.000000 14.508858 0.000000
-30.147200 9.386210 11.699298 0.000000 69.000000 15.138021 27.000000
-29.533435 14.236264 11.878572 0.000000 41.000000 14.547585 0.000000
-29.611126 14.056538 11.998345 0.000000 42.000000 14.532950 0.000000
-29.699010 13.872995 12.115573 0.000000 36.000000 14.527850 0.000000
-29.724235 13.717794 12.228859 0.000000 32.000000 14.476427 0.000000
-30.225973 10.131924 11.503901 0.000000 49.000000 15.321944 19.000000
-29.895873 13.339107 12.446472 0.000000 25.000000 14.473576 0.000000
-29.097251 9.838961 10.822806 0.000000 61.000000 14.870215 26.000000
-28.229873 12.798288 9.790582 0.000000 49.000000 14.842281 14.000000
-29.274757 13.002223 11.528677 0.000000 34.000000 14.565636 0.000000
-26.451657 8.485160 8.134352 0.000000 45.000000 14.496483 0.000000
-26.280141 8.724596 8.046900 0.000000 36.000000 14.417775 0.000000
-29.223922 13.510232 10.011614 0.000000 12.000000 15.477743 13.000000
-27.661801 8.434186 9.592060 0.000000 42.000000 14.524430 0.000000
-27.665242 8.625244 9.585888 0.000000 54.000000 14.530982 0.000000
-28.409145 8.468510 9.965627 0.000000 73.000000 14.872080 9.000000
-28.652959 9.305592 11.013541 0.000000 30.000000 14.404567 0.000000
-28.887297 10.153992 11.125036 0.000000 35.000000 14.517114 0.000000
-27.816938 10.916145 9.745776 0.000000 43.000000 14.548813 0.000000
-29.505731 11.645323 10.967348 0.000000 49.000000 15.097646 28.000000
-29.616117 9.277740 11.463774 0.000000 44.000000 14.872188 27.000000
-29.518446 12.605552 11.857015 0.000000 37.000000 14.549435 0.000000
-29.534014 12.771015 11.927019 0.000000 38.000000 14.517644 0.000000
-29.682330 13.043028 12.078591 0.000000 38.000000 14.538060 0.000000
-29.632924 13.236160 12.155655 0.000000 22.000000 14.451241 0.000000
-28.667453 8.832283 9.929852 0.000000 58.000000 15.095681 9.000000
-28.103448 12.517424 9.567544 0.000000 71.000000 14.883745 17.000000
-30.246330 10.157405 11.652965 0.000000 47.000000 15.244286 19.000000
-29.312615 8.071770 11.125939 0.000000 45.000000 14.847767 20.000000
-29.114600 8.615073 10.886540 0.000000 70.000000 14.843743 20.000000
-28.976594 8.638386 10.175389 0.000000 72.000000 15.182395 9.000000
-27.156406 12.451219 8.711909 0.000000 46.000000 14.682993 11.000000
-29.999868 9.426446 11.475792 0.000000 65.000000 15.163497 27.000000
-26.769962 10.692063 8.526144 0.000000 43.000000 14.498583 0.000000
-27.074684 13.865901 7.373089 0.000000 5.000000 15.459230 12.000000
-27.440180 9.767057 9.329632 0.000000 38.000000 14.516469 0.000000
-26.221105 10.086461 7.907819 0.000000 38.000000 14.459050 0.000000
-27.559621 9.585907 9.475888 0.000000 39.000000 14.517734 0.000000
-26.715440 9.466792 8.403581 0.000000 53.000000 14.533011 0.000000
-26.774925 9.289070 8.544591 0.000000 46.000000 14.490876 0.000000
-28.305568 8.332062 10.405003 0.000000 40.000000 14.515786 0.000000
-29.604483 11.660917 11.199861 0.000000 52.000000 15.028688 28.000000
-26.850763 12.120478 8.192725 0.000000 59.000000 14.770670 11.000000
-27.319973 13.687435 9.168349 0.000000 39.000000 14.524035 0.000000
-28.299445 11.783631 10.346362 0.000000 39.000000 14.547805 0.000000
-28.679832 10.790477 10.858372 0.000000 44.000000 14.522836 0.000000
-28.637395 10.704956 10.422546 0.000000 55.000000 14.763193 10.000000
-28.624720 10.468647 11.024103 0.000000 24.000000 14.375949 0.000000
-28.879772 10.207346 11.124555 0.000000 41.000000 14.511556 0.000000
-29.079131 8.530314 10.780871 0.000000 67.000000 14.882411 20.000000
-29.512135 10.036468 11.637574 0.000000 69.000000 14.682182 19.000000
-30.047816 14.181125 12.527824 0.000000 37.000000 14.540869 0.000000
-30.155506 13.972315 12.626473 0.000000 42.000000 14.562848 0.000000
-26.262474 8.632746 7.956791 0.000000 48.000000 14.460544 0.000000
-28.949582 13.679425 10.916125 0.000000 53.000000 14.696675 13.000000
-29.116997 8.660151 10.693295 0.000000 50.000000 14.966838 20.000000
-28.363304 8.549877 9.744700 0.000000 51.000000 14.974974 9.000000
-27.491242 9.288115 9.422434 0.000000 37.000000 14.498017 0.000000
-27.511060 9.473394 9.411223 0.000000 43.000000 14.520483 0.000000
-29.886440 11.937929 11.706121 0.000000 33.000000 14.930673 24.000000
-30.033638 9.752126 11.618926 0.000000 42.000000 15.100004 27.000000
-28.503847 13.002545 9.914159 0.000000 42.000000 14.978117 14.000000
-28.208586 11.031180 9.856339 0.000000 62.000000 14.784453 10.000000
-27.535507 11.226213 9.415713 0.000000 37.000000 14.536705 0.000000
-27.559244 11.414382 9.433591 0.000000 38.000000 14.543975 0.000000
-26.565578 14.098475 8.180171 0.000000 44.000000 14.556456 0.000000
-28.803350 8.636783 10.797642 0.000000 47.000000 14.657124 9.000000
-28.665520 9.300549 11.017565 0.000000 31.000000 14.411824 0.000000
-29.067474 10.061277 11.270604 0.000000 35.000000 14.566110 0.000000
-29.279173 10.694544 11.273658 0.000000 61.000000 14.729056 22.000000
-30.158034 11.020150 11.062362 0.000000 58.000000 15.546025 22.000000
-29.154930 12.842993 10.876535 0.000000 43.000000 14.881427 16.000000
-26.911200 8.430616 8.683662 0.000000 43.000000 14.509758 0.000000
-27.065978 12.874527 8.796740 0.000000 46.000000 14.559355 0.000000
-27.177364 12.689512 8.957523 0.000000 46.000000 14.545234 0.000000
-27.276857 12.507065 9.112839 0.000000 48.000000 14.525281 0.000000
-27.396564 12.314147 9.270115 0.000000 44.000000 14.519840 0.000000
-26.476329 12.163026 8.294387 0.000000 32.000000 14.415302 0.000000
-30.236900 10.272637 11.687321 0.000000 57.000000 15.215389 19.000000
-26.835351 11.703278 8.618928 0.000000 38.000000 14.491299 0.000000
-26.980904 11.482840 8.771806 0.000000 42.000000 14.508745 0.000000
-28.277900 10.631787 10.487437 0.000000 38.000000 14.442526 0.000000
-28.942249 9.306826 11.246633 0.000000 42.000000 14.483628 0.000000
-29.365846 8.380687 11.691892 0.000000 41.000000 14.534184 0.000000
-28.437538 8.333638 10.580096 0.000000 39.000000 14.508718 0.000000
-27.503446 13.191279 8.264873 0.000000 46.000000 15.233690 15.000000
-29.465702 14.245606 11.822132 0.000000 38.000000 14.530244 0.000000
-29.567067 14.053434 11.939901 0.000000 44.000000 14.535303 0.000000
-29.717347 12.842297 10.950143 0.000000 46.000000 15.273236 16.000000
-30.685948 11.688769 11.934202 0.000000 58.000000 15.410213 24.000000
-29.642841 13.590445 12.266597 0.000000 30.000000 14.389367 0.000000
-30.672169 8.671855 12.154579 0.000000 58.000000 15.261234 21.000000
-29.965486 13.134242 12.472995 0.000000 35.000000 14.511149 0.000000
-28.074450 12.253828 9.645507 0.000000 65.000000 14.812254 17.000000
-29.443044 12.922991 10.807552 0.000000 46.000000 15.149072 16.000000
-30.686636 11.742390 12.139579 0.000000 53.000000 15.281910 24.000000
-26.303981 8.631746 8.032360 0.000000 37.000000 14.445462 0.000000
-26.234474 8.843590 7.972517 0.000000 46.000000 14.428874 0.000000
-26.694117 12.113491 7.984815 0.000000 44.000000 14.779109 11.000000
-30.025458 9.372849 11.907028 0.000000 53.000000 14.912899 27.000000
-27.846439 13.159610 8.083767 0.000000 6.000000 15.614411 15.000000
-27.774418 10.796569 9.773066 0.000000 41.000000 14.498581 0.000000
-29.781777 12.991498 12.200452 0.000000 37.000000 14.539058 0.000000
-29.772181 13.159580 12.282827 0.000000 23.000000 14.479910 0.000000
-27.453358 12.927441 8.493075 0.000000 56.000000 15.051527 15.000000
-29.849118 13.441297 12.457836 0.000000 24.000000 14.430037 0.000000
-28.987574 14.026323 11.216174 0.000000 32.000000 14.538033 0.000000
-29.970133 13.534790 12.552021 0.000000 24.000000 14.465193 0.000000
-29.701466 13.111667 11.477508 0.000000 43.000000 14.930038 16.000000
-30.105434 13.618585 12.644876 0.000000 30.000000 14.512309 0.000000
-29.150217 14.251768 11.417211 0.000000 37.000000 14.538576 0.000000
-26.552642 11.232754 8.172110 0.000000 53.000000 14.551439 0.000000
-29.600135 8.418886 11.749416 0.000000 45.000000 14.680551 30.000000
-27.436265 9.955071 9.290955 0.000000 46.000000 14.537684 0.000000
-28.907429 9.178149 10.186319 0.000000 68.000000 15.121675 8.000000
-27.652783 9.598567 9.572273 0.000000 43.000000 14.529820 0.000000
-30.532762 11.402101 11.922285 0.000000 61.000000 15.298394 29.000000
-28.323581 8.365256 10.446093 0.000000 42.000000 14.504037 0.000000
-27.934470 11.508282 9.536333 0.000000 46.000000 14.771732 18.000000
-27.172505 14.145951 8.983459 0.000000 43.000000 14.525180 0.000000
-28.283737 11.614950 9.364004 0.000000 72.000000 15.151832 18.000000
-28.742004 8.508034 10.418825 0.000000 54.000000 14.846992 9.000000
-28.309893 12.032568 10.318093 0.000000 37.000000 14.573675 0.000000
-28.469347 11.638845 10.531492 0.000000 41.000000 14.563980 0.000000
-28.806514 10.668071 11.008522 0.000000 35.000000 14.527297 0.000000
-28.642272 10.559961 11.080152 0.000000 24.000000 14.354457 0.000000
-28.980279 9.433164 10.240348 0.000000 70.000000 15.144514 8.000000
-30.114825 14.141101 12.626031 0.000000 40.000000 14.531444 0.000000
-28.614406 12.942886 9.658813 0.000000 56.000000 15.224401 14.000000
-28.709378 10.624331 10.421440 0.000000 51.000000 14.819944 10.000000
-26.240390 8.920657 8.072008 0.000000 37.000000 14.371067 0.000000
-27.687124 8.540468 9.637583 0.000000 44.000000 14.515593 0.000000
-30.322342 11.572923 11.726216 0.000000 59.000000 15.257528 24.000000
-26.309337 9.916854 7.993514 0.000000 32.000000 14.474002 0.000000
-28.315661 9.022301 9.756432 0.000000 62.000000 14.930512 9.000000
-28.562593 11.547228 9.806631 0.000000 54.000000 15.091321 18.000000
-26.677842 13.770011 7.500301 0.000000 40.000000 15.070383 12.000000
-29.744004 10.852083 10.820627 0.000000 31.000000 15.375244 22.000000
-26.117438 10.596224 7.941615 0.000000 29.000000 14.357117 0.000000
-26.143335 10.795096 7.946057 0.000000 38.000000 14.374498 0.000000
-29.375650 12.746540 11.026046 0.000000 65.000000 14.959522 16.000000
-26.277407 11.161408 7.976906 0.000000 29.000000 14.459555 0.000000
-27.701382 11.013772 9.615780 0.000000 37.000000 14.540374 0.000000
-26.274212 11.988296 8.031092 0.000000 30.000000 14.423074 0.000000
-29.351113 11.955706 10.860465 0.000000 48.000000 15.044287 28.000000
-30.137378 10.133858 11.543454 0.000000 44.000000 15.228138 19.000000
-28.152013 13.288194 10.140883 0.000000 30.000000 14.561894 0.000000
-26.782116 12.639600 7.793015 0.000000 43.000000 14.967960 11.000000
-28.574415 12.987053 9.540166 0.000000 61.000000 15.267688 14.000000
-26.585761 13.467196 7.953719 0.000000 44.000000 14.714233 12.000000
-26.229091 9.243015 8.007437 0.000000 38.000000 14.402776 0.000000
-29.285234 12.831510 10.905074 0.000000 43.000000 14.964998 16.000000
-26.928495 8.516897 8.698444 0.000000 49.000000 14.513953 0.000000
-26.868289 13.695363 8.225684 0.000000 42.000000 14.763642 12.000000
-27.571470 12.950525 8.663759 0.000000 52.000000 15.036432 15.000000
-26.643595 12.128844 8.454888 0.000000 28.000000 14.444875 0.000000
-26.718119 11.939282 8.596613 0.000000 28.000000 14.414003 0.000000
-30.209329 8.705109 12.108512 0.000000 73.000000 14.929694 21.000000
-27.111211 12.821436 8.123303 0.000000 57.000000 15.017046 15.000000
-27.253464 11.245859 9.046402 0.000000 38.000000 14.548741 0.000000
-28.269743 10.665244 10.559352 0.000000 29.000000 14.391060 0.000000
-30.487229 8.590113 12.272039 0.000000 63.000000 15.043525 21.000000
-29.921560 10.215447 11.340704 0.000000 68.000000 15.187259 19.000000
-29.338181 8.427201 11.701841 0.000000 37.000000 14.506398 0.000000
-27.898923 11.652113 9.005820 0.000000 46.000000 15.076854 18.000000
-30.399291 10.087740 12.447867 0.000000 57.000000 14.864741 23.000000
-27.502354 12.912786 8.831018 0.000000 50.000000 14.877682 15.000000
-29.637078 14.061286 12.023310 0.000000 38.000000 14.537500 0.000000
-29.732490 13.873427 12.135159 0.000000 35.000000 14.541636 0.000000
-29.754038 13.722606 12.241440 0.000000 34.000000 14.491744 0.000000
-29.586260 10.152040 11.485525 0.000000 63.000000 14.835292 19.000000
-29.822792 13.402394 12.446035 0.000000 24.000000 14.416938 0.000000
-26.638415 12.465184 7.720277 0.000000 54.000000 14.901682 11.000000
-27.582008 11.453661 9.337670 0.000000 49.000000 14.621877 18.000000
-27.834069 13.106950 8.692664 0.000000 50.000000 15.222800 15.000000
-29.757276 13.015263 10.903793 0.000000 52.000000 15.333408 16.000000
-29.725957 8.828786 11.439826 0.000000 54.000000 14.972750 30.000000
-26.948395 12.127536 8.513160 0.000000 50.000000 14.645684 11.000000
-29.615759 9.460940 11.345764 0.000000 52.000000 14.945940 27.000000
-26.277262 9.194689 8.075231 0.000000 39.000000 14.397760 0.000000
-29.716634 12.582787 11.316672 0.000000 31.000000 15.042747 28.000000
-26.385930 9.949464 7.968797 0.000000 30.000000 14.549155 0.000000
-29.075831 8.595535 10.802720 0.000000 78.000000 14.866134 20.000000
-26.276516 12.212960 7.858442 0.000000 31.000000 14.533177 0.000000
-26.519347 14.109516 8.163790 0.000000 40.000000 14.530730 0.000000
-28.862111 10.176859 10.551376 0.000000 50.000000 14.857373 8.000000
-27.789239 9.489623 9.742967 0.000000 44.000000 14.529005 0.000000
-28.737449 9.209136 11.081665 0.000000 28.000000 14.427627 0.000000
-28.826006 9.360180 11.108791 0.000000 34.000000 14.479575 0.000000
-28.490115 8.520077 9.954813 0.000000 72.000000 14.941919 9.000000
-27.915790 10.760252 9.960143 0.000000 40.000000 14.491317 0.000000
-30.012024 12.973535 12.490650 0.000000 33.000000 14.536316 0.000000
-29.844801 12.370646 11.734305 0.000000 38.000000 14.880566 28.000000
-27.721888 11.728010 9.057596 0.000000 51.000000 14.906507 18.000000
-30.275291 11.932526 11.737108 0.000000 52.000000 15.214054 24.000000
-30.157452 11.138415 11.604164 0.000000 53.000000 15.205685 22.000000
-29.659652 12.982229 11.331527 0.000000 58.000000 14.989053 16.000000
-28.446769 13.079102 10.071180 0.000000 40.000000 14.835163 14.000000
-29.504807 14.097910 11.794626 0.000000 39.000000 14.577952 0.000000
-29.969852 9.806612 11.279127 0.000000 50.000000 15.263495 27.000000
-26.543108 11.310476 8.166391 0.000000 43.000000 14.547602 0.000000
-26.910181 10.768613 8.645785 0.000000 40.000000 14.532726 0.000000
-26.959218 10.612357 8.788675 0.000000 43.000000 14.481274 0.000000
-27.434157 10.023596 9.241610 0.000000 51.000000 14.566998 0.000000
-27.470468 9.866703 9.372226 0.000000 43.000000 14.513336 0.000000
-29.300833 12.853658 10.631981 0.000000 37.000000 15.148465 16.000000
-30.672630 10.915227 11.959698 0.000000 56.000000 15.383847 29.000000
-27.680246 9.508541 9.637611 0.000000 45.000000 14.510219 0.000000
-29.307430 11.649578 10.793455 0.000000 71.000000 15.052305 28.000000
-26.838427 9.211764 8.719253 0.000000 36.000000 14.430758 0.000000
-27.340490 8.424846 9.222568 0.000000 40.000000 14.505999 0.000000
-27.201032 14.108566 8.992633 0.000000 43.000000 14.541640 0.000000
-27.320398 13.896259 9.138695 0.000000 36.000000 14.542969 0.000000
-29.147547 11.677336 10.903716 0.000000 73.000000 14.858626 28.000000
-28.616658 10.726269 10.911394 0.000000 35.000000 14.440376 0.000000
-28.587045 10.570330 10.986519 0.000000 23.000000 14.370187 0.000000
-28.794794 10.320804 11.073561 0.000000 28.000000 14.477369 0.000000
-28.925819 10.104054 11.151982 0.000000 39.000000 14.530210 0.000000
-29.070946 9.380056 11.417180 0.000000 34.000000 14.476863 0.000000
-28.900360 13.645613 10.587300 0.000000 45.000000 14.864624 13.000000
-29.322362 8.451878 11.689870 0.000000 37.000000 14.501588 0.000000
-29.448668 8.250243 11.737793 0.000000 42.000000 14.569887 0.000000
-28.765904 13.702110 9.953689 0.000000 44.000000 15.157397 13.000000
-30.104204 14.004698 12.586819 0.000000 42.000000 14.547772 0.000000
-29.322980 8.343781 10.901793 0.000000 49.000000 14.996452 20.000000
-27.904335 12.288666 9.734482 0.000000 42.000000 14.623960 17.000000
-27.585746 8.437023 9.513815 0.000000 43.000000 14.514287 0.000000
-26.140515 9.013849 7.960889 0.000000 36.000000 14.362998 0.000000
-27.608110 8.616444 9.501929 0.000000 45.000000 14.539159 0.000000
-28.330053 10.735574 10.082517 0.000000 48.000000 14.737158 10.000000
-27.463452 9.220897 9.458392 0.000000 36.000000 14.453818 0.000000
-28.210048 12.067640 9.812587 0.000000 61.000000 14.813038 17.000000
-30.301325 8.325214 12.102279 0.000000 69.000000 15.005246 21.000000
-27.185412 12.372525 8.468136 0.000000 44.000000 14.858507 11.000000
-27.561830 9.567908 9.464262 0.000000 35.000000 14.526748 0.000000
-26.124543 10.231680 7.898395 0.000000 28.000000 14.389763 0.000000
-29.143550 12.914720 10.588087 0.000000 34.000000 15.053516 16.000000
-28.947151 8.848896 10.293780 0.000000 51.000000 15.085196 9.000000
-27.558154 9.951207 9.469706 0.000000 36.000000 14.520470 0.000000
-26.098023 10.649282 7.899435 0.000000 38.000000 14.368458 0.000000
-29.198238 12.260231 10.913401 0.000000 75.000000 14.892026 28.000000
-26.159839 11.034847 7.925465 0.000000 33.000000 14.400269 0.000000
-28.294534 11.613259 9.620324 0.000000 55.000000 14.999444 18.000000
-27.606891 10.882877 9.538949 0.000000 37.000000 14.514987 0.000000
-27.669688 11.048382 9.567432 0.000000 37.000000 14.546022 0.000000
-26.217935 12.033657 8.028314 0.000000 26.000000 14.380991 0.000000
-26.322498 12.193704 8.073977 0.000000 33.000000 14.433775 0.000000
-27.090685 12.196033 7.958052 0.000000 59.000000 15.104728 11.000000
-28.289025 10.992271 9.681679 0.000000 62.000000 14.956664 10.000000
-28.514158 12.997236 9.716950 0.000000 33.000000 15.109861 14.000000
-28.207364 13.590854 10.300366 0.000000 37.000000 14.504951 0.000000
-28.895132 9.139075 11.022380 0.000000 31.000000 14.587615 0.000000
-28.851649 9.327227 11.070680 0.000000 37.000000 14.523453 0.000000
-26.071340 9.199290 7.914255 0.000000 36.000000 14.338382 0.000000
-29.002083 11.835268 10.963210 0.000000 71.000000 14.708023 28.000000
-26.472399 8.816491 8.261008 0.000000 35.000000 14.433181 0.000000
-30.154674 8.724543 12.219185 0.000000 56.000000 14.817703 21.000000
-26.843775 8.442323 8.584773 0.000000 47.000000 14.519286 0.000000
-29.847222 8.649955 11.949347 0.000000 48.000000 14.747549 30.000000
-29.851725 10.636900 11.394036 0.000000 60.000000 15.099418 22.000000
-27.284667 12.481260 9.122376 0.000000 39.000000 14.525380 0.000000
-30.477527 11.524317 11.816473 0.000000 49.000000 15.321759 24.000000
-29.355000 8.374695 11.523201 0.000000 56.000000 14.631562 20.000000
-26.607959 11.917513 8.453578 0.000000 37.000000 14.417945 0.000000
-26.834127 11.668071 8.604338 0.000000 44.000000 14.499499 0.000000
-27.014661 12.824148 8.095255 0.000000 69.000000 14.959452 15.000000
-29.349801 9.296339 11.066591 0.000000 58.000000 14.913957 26.000000
-27.298306 12.358403 7.963623 0.000000 52.000000 15.262919 11.000000
-29.824415 12.561024 11.482044 0.000000 58.000000 15.022940 28.000000
-28.962010 12.413855 11.032745 0.000000 53.000000 14.633195 28.000000
-29.147717 8.466240 10.877181 0.000000 55.000000 14.875404 20.000000
-29.536312 13.774661 11.932326 0.000000 38.000000 14.516104 0.000000
-29.483435 9.616463 11.105017 0.000000 57.000000 14.993919 26.000000
-28.724803 13.878074 10.823598 0.000000 42.000000 14.579672 0.000000
-29.515434 13.501645 12.133040 0.000000 30.000000 14.373932 0.000000
-28.988009 8.882812 10.927125 0.000000 46.000000 14.719700 20.000000
-29.318346 9.279731 10.912786 0.000000 72.000000 14.985947 26.000000
-29.777800 12.152075 11.289071 0.000000 49.000000 15.107696 28.000000
-29.319637 12.915348 10.660046 0.000000 52.000000 15.145503 16.000000
-27.400525 8.935331 9.320616 0.000000 39.000000 14.491244 0.000000
-27.260625 9.166626 9.323155 0.000000 36.000000 14.380703 0.000000
-29.550528 8.481282 11.288934 0.000000 69.000000 14.930792 20.000000
-27.491959 9.472039 9.391971 0.000000 45.000000 14.517686 0.000000
-29.755847 9.935672 11.416701 0.000000 58.000000 15.010534 19.000000
-29.045297 8.767734 10.333143 0.000000 66.000000 15.136934 9.000000
-27.541890 9.831120 9.450188 0.000000 45.000000 14.520049 0.000000
-28.804684 10.136414 10.948359 0.000000 41.000000 14.563614 0.000000
-29.464034 12.761974 10.819181 0.000000 70.000000 15.158123 16.000000
-27.729361 10.882149 9.698602 0.000000 38.000000 14.510206 0.000000
-28.575480 10.574191 11.028538 0.000000 21.000000 14.334821 0.000000
-28.161667 12.145165 10.196468 0.000000 38.000000 14.534542 0.000000
-28.986996 13.499061 9.832420 0.000000 2.000000 15.405649 13.000000
-29.579642 12.512542 11.974879 0.000000 35.000000 14.523153 0.000000
-29.905352 12.969528 12.330098 0.000000 33.000000 14.553963 0.000000
-29.911357 13.116066 12.424939 0.000000 29.000000 14.499143 0.000000
-29.990577 13.220685 12.521901 0.000000 31.000000 14.500009 0.000000
-30.273712 9.983585 11.812754 0.000000 65.000000 15.165369 19.000000
-27.445261 12.382025 8.133524 0.000000 24.000000 15.270777 11.000000
-29.562028 12.993979 10.742386 0.000000 70.000000 15.282612 16.000000
-30.001547 13.502031 12.724827 0.000000 20.000000 14.381251 0.000000
-27.453256 12.958700 7.960745 0.000000 15.000000 15.385393 15.000000
-29.496055 12.602697 11.270262 0.000000 41.000000 14.900084 28.000000
-29.458413 14.144285 11.795302 0.000000 40.000000 14.541399 0.000000
-29.551149 12.027822 10.998988 0.000000 53.000000 15.113167 28.000000
-29.737201 8.651519 12.178677 0.000000 43.000000 14.518005 0.000000
-29.166892 12.201481 10.872058 0.000000 76.000000 14.893551 28.000000
-28.892944 12.909056 10.981190 0.000000 43.000000 14.611751 16.000000
-26.616499 10.758187 8.374815 0.000000 39.000000 14.474006 0.000000
-30.345657 10.511739 12.024026 0.000000 61.000000 15.088860 29.000000
-27.508436 9.284169 9.451706 0.000000 41.000000 14.493044 0.000000
-26.661822 9.284467 8.299103 0.000000 52.000000 14.556797 0.000000
-27.416256 11.397228 9.159535 0.000000 40.000000 14.604545 18.000000
-27.054628 8.525531 8.778899 0.000000 48.000000 14.561708 0.000000
-28.137289 13.598258 10.160257 0.000000 42.000000 14.538274 0.000000
-27.047180 14.022389 8.829635 0.000000 28.000000 14.524080 0.000000
-28.073965 13.488109 10.273886 0.000000 33.000000 14.417677 0.000000
-30.058505 11.965729 11.486481 0.000000 41.000000 15.202456 24.000000
-28.171800 13.299710 10.396331 0.000000 23.000000 14.417053 0.000000
-27.294477 13.592798 9.106376 0.000000 27.000000 14.543057 0.000000
-26.690605 12.105120 7.974718 0.000000 41.000000 14.782708 11.000000
-27.585137 12.980733 9.481721 0.000000 43.000000 14.533946 0.000000
-28.314730 10.663132 10.647422 0.000000 31.000000 14.370845 0.000000
-28.634662 10.375204 10.737034 0.000000 33.000000 14.563778 0.000000
-28.767249 9.304507 11.118996 0.000000 36.000000 14.427416 0.000000
-30.618622 11.712967 12.001257 0.000000 64.000000 15.315717 24.000000
-28.848899 10.247690 10.488027 0.000000 43.000000 14.886825 8.000000
-28.359646 8.590233 9.753318 0.000000 71.000000 14.966719 9.000000
-29.907289 13.737385 12.462069 0.000000 30.000000 14.472682 0.000000
-30.116361 9.364573 11.719956 0.000000 65.000000 15.101046 27.000000
-29.422964 10.831007 10.712272 0.000000 28.000000 15.193206 22.000000
-28.309759 12.350216 9.280899 0.000000 51.000000 15.224231 17.000000
-27.200236 9.130383 9.125384 0.000000 38.000000 14.457742 0.000000
-28.438214 12.218446 9.487057 0.000000 55.000000 15.194937 17.000000
-27.485383 12.919291 8.922240 0.000000 57.000000 14.807239 15.000000
-27.421650 11.139810 9.297363 0.000000 36.000000 14.522282 0.000000
-29.789684 9.314230 11.535124 0.000000 86.000000 14.962595 27.000000
-28.958720 13.660699 11.048916 0.000000 46.000000 14.620488 13.000000
-28.071437 13.594865 10.127150 0.000000 38.000000 14.507760 0.000000
-28.359111 8.361935 10.485110 0.000000 41.000000 14.507230 0.000000
-28.118398 11.586218 9.254999 0.000000 31.000000 15.091455 18.000000
-29.390676 8.443840 11.774542 0.000000 33.000000 14.501671 0.000000
-29.212704 9.227399 10.999797 0.000000 42.000000 14.849093 26.000000
-28.933616 10.194982 11.185502 0.000000 38.000000 14.515254 0.000000
-29.017762 9.874994 10.474202 0.000000 46.000000 15.027001 8.000000
-29.343861 10.688934 11.049744 0.000000 58.000000 14.919899 22.000000
-28.051304 10.884313 9.896130 0.000000 55.000000 14.637006 10.000000
-29.034255 13.706718 10.322079 0.000000 47.000000 15.135276 13.000000
-27.071507 12.603077 8.848168 0.000000 42.000000 14.531399 0.000000
-27.182150 12.411729 8.987380 0.000000 42.000000 14.530231 0.000000
-30.526974 12.396865 12.131886 0.000000 33.000000 15.162399 25.000000
-26.324588 12.217012 8.032251 0.000000 37.000000 14.461578 0.000000
-27.701434 11.537372 8.973088 0.000000 61.000000 14.943592 18.000000
-28.176304 12.175265 9.598458 0.000000 52.000000 14.921089 17.000000
-28.549673 13.603770 10.145052 0.000000 72.000000 14.868959 13.000000
-27.103996 12.332315 7.776204 0.000000 54.000000 15.229172 11.000000
-26.907892 12.421930 7.718083 0.000000 57.000000 15.112915 11.000000
-27.226303 10.379305 9.138879 0.000000 36.000000 14.469576 0.000000
-27.444577 9.968754 9.347824 0.000000 39.000000 14.508481 0.000000
-29.043845 13.783109 11.075416 0.000000 52.000000 14.670155 13.000000
-28.535574 8.723491 9.897612 0.000000 62.000000 15.013205 9.000000
-28.573908 9.410906 10.736990 0.000000 36.000000 14.516493 0.000000
-27.617859 9.575398 9.537921 0.000000 40.000000 14.524173 0.000000
-28.648960 14.139243 10.586708 0.000000 35.000000 14.669216 13.000000
-29.072558 8.131670 11.248935 0.000000 47.000000 14.583663 0.000000
-30.371570 8.747102 12.014337 0.000000 66.000000 15.115118 21.000000
-29.405716 13.890329 11.680071 0.000000 43.000000 14.572648 0.000000
-29.574505 10.815979 11.007686 0.000000 56.000000 15.125899 22.000000
-29.436810 13.597186 11.881326 0.000000 40.000000 14.470610 0.000000
-29.420998 13.464116 11.979179 0.000000 30.000000 14.396910 0.000000
-30.692643 11.857073 12.092565 0.000000 54.000000 15.316081 24.000000
-29.735888 13.012742 12.156789 0.000000 38.000000 14.530713 0.000000
-28.784297 8.607184 10.385027 0.000000 43.000000 14.901130 9.000000
-29.878583 9.512946 12.234683 0.000000 44.000000 14.592973 0.000000
-26.438925 14.219138 8.054091 0.000000 35.000000 14.536918 0.000000
-30.734370 10.960345 11.885364 0.000000 63.000000 15.478559 29.000000
-30.276596 12.207513 12.386141 0.000000 65.000000 14.807914 25.000000
-29.936114 9.366606 11.729531 0.000000 54.000000 14.954671 27.000000
-28.506102 8.594726 10.564237 0.000000 41.000000 14.572061 0.000000
-27.243865 9.124330 9.263385 0.000000 38.000000 14.405146 0.000000
-26.744676 12.115465 8.203243 0.000000 60.000000 14.681456 11.000000
-29.681301 8.553087 11.638048 0.000000 57.000000 14.813624 30.000000
-28.573183 9.273316 10.680406 0.000000 38.000000 14.551425 0.000000
-27.503123 9.780324 9.405305 0.000000 42.000000 14.518015 0.000000
-28.555769 9.452797 10.713538 0.000000 36.000000 14.517079 0.000000
-30.477249 10.118555 12.116040 0.000000 47.000000 15.133615 23.000000
-29.231364 8.262977 11.031533 0.000000 73.000000 14.843716 20.000000
-28.611957 10.487187 10.979738 0.000000 19.000000 14.393841 0.000000
-27.774175 10.962008 9.738705 0.000000 42.000000 14.519948 0.000000
-30.152340 11.561828 11.711936 0.000000 41.000000 15.134096 24.000000
-28.754195 10.776591 11.092498 0.000000 30.000000 14.433873 0.000000
-30.020757 9.336474 12.052206 0.000000 42.000000 14.818164 27.000000
-29.674741 12.495287 12.055444 0.000000 38.000000 14.546671 0.000000
-30.034779 13.047490 12.522757 0.000000 32.000000 14.533895 0.000000
-29.222653 13.685976 11.518310 0.000000 36.000000 14.531564 0.000000
-29.316331 13.769464 11.623900 0.000000 45.000000 14.538277 0.000000
-27.556335 13.131272 8.407755 0.000000 47.000000 15.185244 15.000000
-29.487578 13.931184 11.844781 0.000000 40.000000 14.533072 0.000000
-30.500235 10.547454 12.087562 0.000000 56.000000 15.169381 29.000000
-29.660150 14.078066 12.071053 0.000000 38.000000 14.525516 0.000000
-29.570857 12.913900 10.686367 0.000000 51.000000 15.324630 16.000000
-29.855584 14.193725 12.301690 0.000000 42.000000 14.533027 0.000000
-29.947816 14.248457 12.419933 0.000000 31.000000 14.530676 0.000000
-29.728353 8.455275 11.625319 0.000000 72.000000 14.858251 30.000000
-29.621693 12.343035 10.617275 0.000000 19.000000 15.407562 28.000000
-29.999548 13.120565 10.944218 0.000000 11.000000 15.496719 16.000000
-26.550668 10.864146 8.255347 0.000000 41.000000 14.497685 0.000000
-29.526390 12.823776 10.512874 0.000000 48.000000 15.398838 16.000000
-27.138054 9.930302 8.939629 0.000000 39.000000 14.525846 0.000000
-27.437424 9.233633 9.411445 0.000000 37.000000 14.463000 0.000000
-26.986154 12.348689 7.505601 0.000000 40.000000 15.307158 11.000000
-26.425765 9.108956 8.358558 0.000000 36.000000 14.335669 0.000000
-29.736224 8.469484 11.592300 0.000000 51.000000 14.885094 30.000000
-26.936342 8.470008 8.722622 0.000000 48.000000 14.504897 0.000000
-26.994517 14.146811 8.721247 0.000000 44.000000 14.551063 0.000000
-28.078928 13.583671 10.150243 0.000000 37.000000 14.499107 0.000000
-29.844673 13.122543 11.135391 0.000000 53.000000 15.256181 16.000000
-29.467533 9.507218 11.288581 0.000000 55.000000 14.866381 26.000000
-27.169724 13.753341 8.984595 0.000000 33.000000 14.522301 0.000000
-28.203421 13.238925 10.382016 0.000000 31.000000 14.450659 0.000000
-29.968149 10.002444 12.178999 0.000000 51.000000 14.697655 19.000000
-27.604623 12.917050 9.476764 0.000000 41.000000 14.552231 0.000000
-29.904910 10.717203 11.206820 0.000000 60.000000 15.258282 22.000000
-29.475397 12.908888 10.527832 0.000000 40.000000 15.349743 16.000000
-29.794363 8.639239 12.268484 0.000000 42.000000 14.506182 0.000000
-29.097171 8.168308 11.284100 0.000000 52.000000 14.580770 0.000000
-26.622591 13.483374 7.912160 0.000000 38.000000 14.768986 12.000000
-29.621733 8.444006 11.340839 0.000000 68.000000 14.953682 20.000000
-29.135012 8.221763 11.072769 0.000000 57.000000 14.742813 20.000000
-30.445238 8.747139 12.017859 0.000000 68.000000 15.170278 21.000000
-30.177324 8.512251 12.194621 0.000000 64.000000 14.850751 21.000000
-29.134687 9.240460 10.968483 0.000000 42.000000 14.807981 26.000000
-30.107380 13.120619 12.614725 0.000000 38.000000 14.532739 0.000000
-30.570234 12.110123 12.259173 0.000000 58.000000 15.116237 25.000000
-26.471313 12.238091 7.884779 0.000000 60.000000 14.668354 11.000000
-30.542578 8.960257 12.223010 0.000000 60.000000 15.117386 21.000000
-27.848104 13.088043 9.256577 0.000000 40.000000 14.879972 15.000000
-27.467350 11.019845 9.328493 0.000000 39.000000 14.538343 0.000000
-27.480884 11.200245 9.362444 0.000000 36.000000 14.527584 0.000000
-27.503427 11.376046 9.401753 0.000000 40.000000 14.520480 0.000000
-27.001052 13.994353 8.746512 0.000000 36.000000 14.540303 0.000000
-27.979779 13.489761 10.186064 0.000000 25.000000 14.399422 0.000000
-28.342917 11.586724 9.437789 0.000000 51.000000 15.151632 18.000000
-28.417561 8.448015 10.294383 0.000000 42.000000 14.672396 9.000000
-28.438201 8.582757 10.558393 0.000000 43.000000 14.522849 0.000000
-29.467971 8.328579 11.721734 0.000000 38.000000 14.594993 0.000000
-29.375637 8.518343 11.775558 0.000000 32.000000 14.489322 0.000000
-29.602643 8.314045 11.261213 0.000000 53.000000 14.988767 20.000000
-28.240190 8.520567 9.867091 0.000000 59.000000 14.802320 9.000000
-29.802372 9.650712 12.261634 0.000000 35.000000 14.516716 0.000000
-29.011450 10.195660 11.266395 0.000000 40.000000 14.525121 0.000000
-26.189546 8.991443 7.898206 0.000000 41.000000 14.440503 0.000000
-26.310251 8.815731 8.045848 0.000000 47.000000 14.441883 0.000000
-26.534668 8.613308 8.200876 0.000000 42.000000 14.519396 0.000000
-29.041163 9.552885 10.244028 0.000000 13.000000 15.189619 8.000000
-27.006240 12.711690 8.789565 0.000000 38.000000 14.517335 0.000000
-27.124825 12.516630 8.926587 0.000000 44.000000 14.523726 0.000000
-27.233461 12.323161 9.059301 0.000000 47.000000 14.525072 0.000000
-27.191504 12.180954 8.313281 0.000000 61.000000 14.960396 11.000000
-26.409953 11.940937 8.243708 0.000000 27.000000 14.395404 0.000000
-26.692950 11.663023 8.391090 0.000000 35.000000 14.523333 0.000000
-26.829642 11.443154 8.515193 0.000000 51.000000 14.551929 0.000000
-28.127602 10.604178 10.088917 0.000000 37.000000 14.575483 0.000000
-29.513143 13.103020 10.930856 0.000000 58.000000 15.126310 16.000000
-27.424256 10.069084 9.259269 0.000000 41.000000 14.548209 0.000000
-27.450421 9.892994 9.347374 0.000000 43.000000 14.513315 0.000000
-28.563905 9.508151 10.622817 0.000000 51.000000 14.580327 0.000000
-27.518009 9.703177 9.436904 0.000000 38.000000 14.509785 0.000000
-28.581006 9.342526 10.700416 0.000000 38.000000 14.544964 0.000000
-27.057691 12.932825 8.251622 0.000000 49.000000 14.894869 15.000000
-29.197735 14.183248 11.480897 0.000000 38.000000 14.535629 0.000000
-28.208267 11.387918 9.847132 0.000000 67.000000 14.789980 18.000000
-29.382879 13.813910 11.686253 0.000000 44.000000 14.550985 0.000000
-29.376449 13.680165 11.783514 0.000000 35.000000 14.484964 0.000000
-29.518863 8.789574 10.920759 0.000000 66.000000 15.137099 20.000000
-29.394582 13.386414 11.971510 0.000000 19.000000 14.381150 0.000000
-29.635977 13.114611 12.053836 0.000000 36.000000 14.517492 0.000000
-29.491930 9.350351 10.996240 0.000000 51.000000 15.068773 26.000000
-26.432908 14.202797 8.080179 0.000000 35.000000 14.515866 0.000000
-27.203365 8.508843 9.027323 0.000000 40.000000 14.521695 0.000000
-28.321504 8.405863 10.340409 0.000000 38.000000 14.568718 0.000000
-27.221572 9.237790 9.127876 0.000000 40.000000 14.472794 0.000000
-27.387671 9.731261 9.242605 0.000000 37.000000 14.530172 0.000000
-28.397519 12.949414 10.040097 0.000000 46.000000 14.816309 14.000000
-28.675036 10.353941 10.814504 0.000000 31.000000 14.546620 0.000000
-29.588670 12.445509 11.810251 0.000000 41.000000 14.633459 28.000000
-28.503285 10.591515 10.867659 0.000000 22.000000 14.379523 0.000000
-28.589628 10.727804 10.927492 0.000000 33.000000 14.409228 0.000000
-29.607625 12.369733 11.905935 0.000000 33.000000 14.588195 0.000000
-29.593394 12.525970 11.999525 0.000000 38.000000 14.518401 0.000000
-29.065016 12.071222 10.813031 0.000000 33.000000 14.851244 28.000000
-30.087171 13.119901 12.586783 0.000000 34.000000 14.534530 0.000000
-29.511060 8.597521 11.290641 0.000000 45.000000 14.898985 30.000000
-27.517592 12.986175 8.952777 0.000000 50.000000 14.813166 15.000000
-29.905594 10.750568 11.421997 0.000000 65.000000 15.123828 22.000000
-29.396462 13.785038 11.720971 0.000000 46.000000 14.539784 0.000000
-29.495614 13.850013 11.832028 0.000000 39.000000 14.547330 0.000000
-29.567333 13.925297 11.947072 0.000000 40.000000 14.531011 0.000000
-29.655442 13.989020 12.060865 0.000000 39.000000 14.528241 0.000000
-28.412007 10.707833 10.194740 0.000000 52.000000 14.730580 10.000000
-30.144892 11.519312 11.602666 0.000000 69.000000 15.196844 24.000000
-29.930562 14.145750 12.412432 0.000000 37.000000 14.521945 0.000000
-30.189880 10.021373 11.886457 0.000000 57.000000 15.053849 19.000000
-28.832924 9.675907 10.433086 0.000000 56.000000 14.908850 8.000000
-29.391231 8.361625 11.786219 0.000000 39.000000 14.494778 0.000000
-29.515998 8.472459 11.862687 0.000000 39.000000 14.543971 0.000000
-29.967422 12.913680 10.866125 0.000000 19.000000 15.520690 16.000000
-26.431756 10.932600 8.115702 0.000000 40.000000 14.492684 0.000000
-29.418887 9.539226 10.802878 0.000000 59.000000 15.133192 26.000000
-26.659029 10.558415 8.391687 0.000000 34.000000 14.496542 0.000000
-27.403685 9.261055 9.237867 0.000000 50.000000 14.545615 0.000000
-29.992143 9.553525 11.407193 0.000000 61.000000 15.200515 27.000000
-26.327216 9.152735 8.183280 0.000000 38.000000 14.368880 0.000000
-27.259407 12.942420 8.169109 0.000000 68.000000 15.103719 15.000000
-29.588367 9.502888 11.084271 0.000000 53.000000 15.088650 26.000000
-29.562014 8.523637 11.602388 0.000000 51.000000 14.743099 30.000000
-28.013249 13.588009 10.074567 0.000000 37.000000 14.495432 0.000000
-27.009962 13.947247 8.798024 0.000000 28.000000 14.514927 0.000000
-28.987029 13.242697 11.107023 0.000000 47.000000 14.606082 16.000000
-27.103888 13.746290 8.923796 0.000000 35.000000 14.509172 0.000000
-30.125280 10.783367 11.660391 0.000000 50.000000 15.145358 22.000000
-28.340763 12.996383 10.410754 0.000000 40.000000 14.539587 0.000000
-29.097183 8.676256 10.392407 0.000000 52.000000 15.140163 9.000000
-28.684085 12.166577 10.431701 0.000000 61.000000 14.793810 17.000000
-29.391882 8.691599 10.779470 0.000000 55.000000 15.126846 20.000000
-30.288817 12.077955 12.124892 0.000000 48.000000 14.981320 24.000000
-26.870561 12.240201 7.682943 0.000000 48.000000 15.105888 11.000000
-26.761470 14.020893 7.710446 0.000000 34.000000 15.003679 12.000000
-29.721968 13.802653 12.184895 0.000000 33.000000 14.502241 0.000000
-28.918681 13.184095 10.835464 0.000000 36.000000 14.723212 16.000000
-29.717172 13.517844 12.348333 0.000000 25.000000 14.395977 0.000000
-29.661161 11.729808 11.006460 0.000000 47.000000 15.194152 28.000000
-30.004305 13.068554 12.480962 0.000000 37.000000 14.536382 0.000000
-29.255996 12.822464 10.977797 0.000000 47.000000 14.896608 16.000000
-27.097610 8.509171 8.896957 0.000000 37.000000 14.521120 0.000000
-27.697083 13.120487 8.455403 0.000000 45.000000 15.264962 15.000000
-29.761897 10.832186 10.980122 0.000000 59.000000 15.289123 22.000000
-27.335656 11.192943 9.184438 0.000000 40.000000 14.526155 0.000000
-27.364225 11.369118 9.226343 0.000000 41.000000 14.522115 0.000000
-26.927991 13.921824 8.637647 0.000000 41.000000 14.551700 0.000000
-26.981259 14.066936 8.724146 0.000000 38.000000 14.538920 0.000000
-27.984816 13.555543 10.133232 0.000000 26.000000 14.436488 0.000000
-28.026799 11.389427 9.813588 0.000000 44.000000 14.669704 18.000000
-28.084884 8.407067 10.180811 0.000000 40.000000 14.484569 0.000000
-29.427535 8.536534 11.315967 0.000000 39.000000 14.818052 20.000000
-29.348687 9.208565 11.751792 0.000000 32.000000 14.483244 0.000000
-26.677813 12.424459 7.652774 0.000000 70.000000 14.974710 11.000000
-28.797797 10.123938 10.972545 0.000000 43.000000 14.543078 0.000000
-28.803780 10.277521 11.051385 0.000000 33.000000 14.498279 0.000000
-29.750463 9.990165 12.179289 0.000000 51.000000 14.527949 0.000000
-29.963397 11.565139 11.328433 0.000000 63.000000 15.227537 24.000000
-28.359106 9.085735 9.978493 0.000000 41.000000 14.825040 9.000000
-29.557689 10.191370 11.480851 0.000000 53.000000 14.815974 19.000000
-26.826684 12.737916 8.552460 0.000000 38.000000 14.526247 0.000000
-27.503779 13.144542 8.314519 0.000000 51.000000 15.202806 15.000000
-30.320798 10.151873 11.649366 0.000000 48.000000 15.304535 19.000000
-27.072406 12.184470 8.926731 0.000000 37.000000 14.482814 0.000000
-27.503346 11.392689 9.388209 0.000000 43.000000 14.528913 0.000000
-27.578361 11.204759 9.493135 0.000000 37.000000 14.521509 0.000000
-27.386672 12.265915 8.427689 0.000000 61.000000 15.040613 11.000000
-27.767091 10.815761 9.694717 0.000000 40.000000 14.542026 0.000000
-26.938737 10.651595 8.654888 0.000000 43.000000 14.549253 0.000000
-29.438821 8.794585 10.788440 0.000000 41.000000 15.157773 20.000000
-27.427152 9.300038 9.261095 0.000000 50.000000 14.549319 0.000000
-27.282575 9.175547 9.321478 0.000000 32.000000 14.398849 0.000000
-29.685236 11.409682 11.697116 0.000000 40.000000 14.779633 24.000000
-30.359330 10.007979 12.400581 0.000000 70.000000 14.863285 23.000000
-28.778665 10.064791 10.190525 0.000000 38.000000 15.018761 8.000000
-27.645709 8.385284 9.597426 0.000000 41.000000 14.508532 0.000000
-28.617309 8.112985 10.802497 0.000000 43.000000 14.509198 0.000000
-29.511367 12.246338 10.718480 0.000000 59.000000 15.258157 28.000000
-28.465422 12.249438 9.671258 0.000000 51.000000 15.100571 17.000000
-29.248882 13.602664 11.577460 0.000000 33.000000 14.514883 0.000000
-29.665440 10.927314 10.759030 0.000000 56.000000 15.352704 22.000000
-30.320822 10.485683 11.723934 0.000000 69.000000 15.257776 19.000000
-29.476345 13.046179 11.832657 0.000000 40.000000 14.531929 0.000000
-28.641662 10.909167 10.489057 0.000000 48.000000 14.724792 10.000000
-29.597614 12.683853 11.986420 0.000000 41.000000 14.529909 0.000000
-29.070985 9.378569 9.805144 0.000000 11.000000 15.488167 8.000000
-29.360460 11.855621 10.834097 0.000000 63.000000 15.068107 28.000000
-29.771966 9.356492 11.502123 0.000000 57.000000 14.969499 27.000000
-28.223806 12.019331 9.894363 0.000000 48.000000 14.772452 18.000000
-28.064878 9.218395 10.078326 0.000000 32.000000 14.533281 0.000000
-27.169708 10.012994 8.929568 0.000000 44.000000 14.556809 0.000000
-27.180762 10.544094 9.081228 0.000000 39.000000 14.470277 0.000000
-30.092190 10.313112 11.350163 0.000000 54.000000 15.314204 19.000000
-27.189055 12.921119 8.524298 0.000000 57.000000 14.826112 15.000000
-30.053100 9.387544 11.754524 0.000000 63.000000 15.030096 27.000000
-28.530530 10.749824 10.608161 0.000000 37.000000 14.563530 0.000000
-27.506381 11.295148 9.407569 0.000000 36.000000 14.519132 0.000000
-28.605233 10.884940 10.675205 0.000000 40.000000 14.579647 0.000000
-30.510033 8.676494 12.224666 0.000000 49.000000 15.091002 21.000000
-29.717370 10.267291 11.308558 0.000000 44.000000 15.048411 19.000000
-30.536801 10.177697 12.208420 0.000000 57.000000 15.122040 23.000000
-29.540084 12.769010 11.944261 0.000000 36.000000 14.511554 0.000000
-30.126773 10.721318 11.855636 0.000000 53.000000 15.024039 29.000000
