36.614548 2.613545 12.502180 0.000000 28.000000 14.384701 0.000000
34.787002 2.917995 12.983686 0.000000 28.000000 14.407568 0.000000
34.445766 2.300403 13.629914 0.000000 49.000000 14.680050 27.000000
36.591625 2.114940 13.409513 0.000000 72.000000 15.021397 26.000000
36.681660 3.326808 12.702110 0.000000 42.000000 14.826794 19.000000
32.435137 2.116047 14.797414 0.000000 42.000000 15.099509 22.000000
31.195440 1.599711 14.975810 0.000000 50.000000 14.734852 28.000000
33.218232 2.293284 14.022031 0.000000 47.000000 14.684636 25.000000
35.550913 2.140076 13.750628 0.000000 50.000000 15.043726 27.000000
35.494704 1.387225 14.011248 0.000000 46.000000 15.004162 24.000000
31.865450 1.514461 14.474677 0.000000 35.000000 14.444392 0.000000
34.490647 1.129432 13.851006 0.000000 49.000000 14.490408 0.000000
33.843959 2.553320 13.454568 0.000000 31.000000 14.440360 0.000000
33.267229 1.572265 14.191080 0.000000 55.000000 14.603378 23.000000
31.425571 1.589106 14.983064 0.000000 40.000000 14.802338 28.000000
36.440294 6.069609 12.008042 0.000000 14.000000 15.074740 10.000000
36.458499 5.780604 11.638065 0.000000 42.000000 14.649218 10.000000
30.893755 3.983335 13.857536 0.000000 38.000000 14.462599 0.000000
33.663761 3.363172 13.230607 0.000000 34.000000 14.465925 0.000000
30.782554 4.213852 13.768670 0.000000 38.000000 14.430533 0.000000
33.577576 3.569975 13.145866 0.000000 34.000000 14.436469 0.000000
34.867686 1.376978 14.126627 0.000000 72.000000 14.928096 24.000000
34.764275 4.861312 12.669027 0.000000 35.000000 14.783689 18.000000
31.008170 1.202114 14.873988 0.000000 39.000000 14.454976 0.000000
30.749762 5.078030 13.523975 0.000000 40.000000 14.497469 0.000000
30.651471 5.305645 13.418678 0.000000 40.000000 14.453299 0.000000
30.729483 5.505321 13.376516 0.000000 40.000000 14.505687 0.000000
30.681329 5.933162 13.198782 0.000000 41.000000 14.479116 0.000000
33.462200 5.142415 12.581060 0.000000 31.000000 14.435403 0.000000
31.300720 4.784099 13.954757 0.000000 55.000000 14.937924 5.000000
31.558155 5.737149 13.073894 0.000000 46.000000 14.546239 0.000000
33.233644 4.034627 13.283096 0.000000 49.000000 14.621904 8.000000
33.930234 3.662365 12.877194 0.000000 24.000000 14.326138 0.000000
30.694552 6.544887 12.931423 0.000000 38.000000 14.452300 0.000000
33.656751 5.668887 12.411128 0.000000 35.000000 14.517703 0.000000
33.014819 2.104093 14.554665 0.000000 60.000000 15.040470 25.000000
31.033909 2.221424 14.635199 0.000000 29.000000 14.596701 0.000000
30.818249 6.916633 12.779784 0.000000 40.000000 14.478190 0.000000
31.248035 1.294347 14.776052 0.000000 31.000000 14.466036 0.000000
35.131756 3.355290 13.046728 0.000000 35.000000 14.710457 20.000000
32.647855 6.121857 12.867587 0.000000 35.000000 14.798735 1.000000
31.397378 3.913205 13.712073 0.000000 34.000000 14.449553 0.000000
34.035195 6.979252 11.738607 0.000000 35.000000 14.469038 0.000000
32.180108 2.172785 14.683322 0.000000 65.000000 14.945005 22.000000
36.812589 1.490512 13.047218 0.000000 31.000000 14.544959 26.000000
35.393724 2.317150 13.641363 0.000000 53.000000 14.962175 27.000000
31.801119 3.510370 13.640984 0.000000 37.000000 14.361366 0.000000
35.806089 3.480633 12.908132 0.000000 67.000000 14.818353 20.000000
32.536830 3.205819 13.586565 0.000000 30.000000 14.414942 0.000000
32.881867 3.053789 13.560656 0.000000 43.000000 14.436575 0.000000
33.218180 2.903644 13.535902 0.000000 39.000000 14.457438 0.000000
30.951847 6.068780 12.902710 0.000000 16.000000 14.335939 0.000000
32.542805 3.273961 13.594861 0.000000 32.000000 14.447366 0.000000
31.915198 2.877471 13.932761 0.000000 38.000000 14.438578 0.000000
32.223739 2.703968 13.889548 0.000000 35.000000 14.427102 0.000000
31.748509 1.191526 14.617881 0.000000 36.000000 14.429528 0.000000
33.725715 6.742356 11.899418 0.000000 32.000000 14.445338 0.000000
36.977187 2.016412 13.294736 0.000000 68.000000 14.993011 26.000000
32.372845 6.940970 12.272570 0.000000 37.000000 14.468097 0.000000
32.672162 6.758894 12.240961 0.000000 37.000000 14.461507 0.000000
33.686419 2.536526 13.505680 0.000000 34.000000 14.436223 0.000000
32.054011 2.817478 14.611448 0.000000 9.000000 15.065655 7.000000
33.202111 6.402907 12.162334 0.000000 33.000000 14.418015 0.000000
33.371263 6.244583 12.082513 0.000000 35.000000 14.339769 0.000000
36.105795 5.328594 11.709808 0.000000 35.000000 14.459934 0.000000
32.140595 5.941602 12.839869 0.000000 43.000000 14.569816 12.000000
35.222162 5.064605 12.119450 0.000000 43.000000 14.488924 0.000000
31.838909 1.508520 14.453153 0.000000 29.000000 14.415606 0.000000
31.263168 2.077289 14.765931 0.000000 63.000000 14.729000 28.000000
31.181555 3.011187 14.154666 0.000000 37.000000 14.477348 0.000000
35.245353 1.630025 13.793089 0.000000 49.000000 14.821566 27.000000
33.482770 2.122550 14.393164 0.000000 61.000000 15.033327 25.000000
32.258122 5.956821 13.047866 0.000000 44.000000 14.794542 12.000000
32.234532 4.370219 13.764584 0.000000 63.000000 14.887980 13.000000
36.614889 2.043903 13.508683 0.000000 60.000000 15.092563 26.000000
31.948328 6.483873 12.655053 0.000000 47.000000 14.535576 0.000000
32.989823 5.042728 13.060847 0.000000 44.000000 14.698951 14.000000
36.524559 2.740534 12.888904 0.000000 51.000000 14.749675 21.000000
30.838450 6.142762 12.906163 0.000000 22.000000 14.332505 0.000000
33.857955 2.276424 14.362224 0.000000 69.000000 15.163540 25.000000
32.235422 2.679895 13.918085 0.000000 34.000000 14.447739 0.000000
32.536444 5.297919 13.174966 0.000000 63.000000 14.761291 14.000000
36.853360 1.444119 12.927306 0.000000 37.000000 14.433004 0.000000
34.513784 2.807336 13.153465 0.000000 34.000000 14.445268 0.000000
36.793623 2.363779 12.678320 0.000000 29.000000 14.507504 0.000000
36.263721 5.656655 11.761025 0.000000 49.000000 14.662408 10.000000
36.604482 2.561806 12.524611 0.000000 27.000000 14.384295 0.000000
36.168958 2.999650 13.077811 0.000000 74.000000 14.907876 21.000000
33.613988 1.424302 14.487168 0.000000 61.000000 14.915641 23.000000
34.445015 3.398423 12.946967 0.000000 32.000000 14.442952 0.000000
35.978898 2.930439 13.013469 0.000000 54.000000 14.773146 21.000000
34.608419 3.925031 13.145639 0.000000 44.000000 14.847107 17.000000
36.168585 1.555270 13.297138 0.000000 48.000000 14.610432 0.000000
36.585116 1.674893 13.107598 0.000000 60.000000 14.598310 26.000000
31.459716 1.633615 14.679815 0.000000 69.000000 14.555202 28.000000
35.199162 6.528021 11.591396 0.000000 50.000000 14.509460 0.000000
35.289513 6.668566 11.509405 0.000000 37.000000 14.509369 0.000000
36.337981 5.272202 11.809170 0.000000 35.000000 14.594935 0.000000
33.999153 2.245560 14.538440 0.000000 56.000000 15.350649 25.000000
31.356085 1.262503 14.743500 0.000000 36.000000 14.456287 0.000000
30.535613 6.366864 13.082363 0.000000 40.000000 14.482147 0.000000
34.704457 4.271255 12.527719 0.000000 26.000000 14.438355 0.000000
34.973692 4.108106 12.511258 0.000000 38.000000 14.443377 0.000000
32.970400 4.573317 12.996148 0.000000 34.000000 14.474924 0.000000
35.205146 3.948925 12.477306 0.000000 28.000000 14.423463 0.000000
31.830682 5.499450 13.424922 0.000000 73.000000 14.856239 9.000000
36.626712 2.536923 12.971281 0.000000 43.000000 14.782585 21.000000
31.901109 5.089841 13.308980 0.000000 53.000000 14.631937 9.000000
35.614767 2.004296 13.728775 0.000000 57.000000 14.995614 27.000000
34.742079 3.242609 12.925892 0.000000 30.000000 14.454156 0.000000
32.949233 1.310644 14.819850 0.000000 68.000000 14.988482 23.000000
36.760525 3.572251 13.259506 0.000000 3.000000 15.432740 19.000000
31.791915 2.098084 14.944202 0.000000 46.000000 15.044422 22.000000
34.946033 6.083629 12.438071 0.000000 60.000000 15.045674 11.000000
32.127937 7.145908 13.358299 0.000000 2.000000 15.443088 3.000000
32.174067 3.077896 13.747021 0.000000 27.000000 14.413239 0.000000
32.078947 3.296818 13.671402 0.000000 32.000000 14.393601 0.000000
34.715778 2.755420 13.133452 0.000000 38.000000 14.466272 0.000000
31.881332 3.529044 13.550759 0.000000 34.000000 14.309361 0.000000
34.637886 2.954673 13.056334 0.000000 29.000000 14.443398 0.000000
31.857154 3.741954 13.496143 0.000000 34.000000 14.326418 0.000000
31.507869 1.594062 14.868692 0.000000 39.000000 14.724572 28.000000
33.941318 2.155387 14.550689 0.000000 48.000000 15.314555 25.000000
35.014265 6.797638 11.591061 0.000000 34.000000 14.549470 2.000000
31.727028 5.002443 13.086507 0.000000 37.000000 14.353666 0.000000
31.222924 2.018171 14.830522 0.000000 49.000000 14.755405 28.000000
36.362642 2.450486 13.081483 0.000000 72.000000 14.777712 21.000000
34.592246 5.376111 12.167324 0.000000 32.000000 14.461559 0.000000
34.613457 5.547658 12.084450 0.000000 28.000000 14.451869 0.000000
32.140482 6.497147 12.564634 0.000000 47.000000 14.512977 0.000000
34.549806 4.655766 13.179331 0.000000 13.000000 15.110801 18.000000
35.051949 4.684190 13.006480 0.000000 56.000000 15.106487 18.000000
35.023539 6.470430 11.659181 0.000000 45.000000 14.501246 0.000000
35.450371 4.393626 12.552553 0.000000 60.000000 14.711889 30.000000
35.210008 6.740814 11.516179 0.000000 39.000000 14.517835 0.000000
30.678678 4.312445 13.782571 0.000000 51.000000 14.447559 0.000000
33.556859 2.241394 14.140635 0.000000 63.000000 14.868314 25.000000
31.303766 4.042145 13.659224 0.000000 27.000000 14.419981 0.000000
31.634412 3.898985 13.609587 0.000000 36.000000 14.419328 0.000000
31.833513 3.770422 13.513242 0.000000 27.000000 14.344851 0.000000
34.398687 2.969977 13.109068 0.000000 31.000000 14.428770 0.000000
33.521598 2.059483 14.488872 0.000000 53.000000 15.108485 25.000000
32.893396 3.318731 13.438107 0.000000 33.000000 14.420532 0.000000
33.215419 3.168166 13.409847 0.000000 32.000000 14.434096 0.000000
30.812864 3.693297 13.860201 0.000000 32.000000 14.343078 0.000000
32.150071 2.739476 14.096908 0.000000 31.000000 14.604519 7.000000
35.624692 1.361401 14.039896 0.000000 51.000000 15.057513 24.000000
34.079951 2.721850 13.310350 0.000000 42.000000 14.434924 0.000000
31.974903 3.156236 13.810279 0.000000 35.000000 14.440848 0.000000
34.328714 2.575019 13.268473 0.000000 40.000000 14.416987 0.000000
32.395139 4.203930 13.810336 0.000000 66.000000 14.917223 13.000000
34.994758 1.374059 14.224751 0.000000 67.000000 15.050767 24.000000
32.908804 2.639421 13.719353 0.000000 42.000000 14.444724 0.000000
36.251767 5.747201 11.854667 0.000000 52.000000 14.773997 10.000000
34.163495 6.808575 11.755647 0.000000 30.000000 14.461962 0.000000
34.450001 6.662855 11.737171 0.000000 40.000000 14.475985 0.000000
35.546701 3.382699 13.146025 0.000000 71.000000 14.925371 20.000000
31.993160 4.205993 13.535173 0.000000 57.000000 14.558318 13.000000
36.440344 2.931226 13.075594 0.000000 55.000000 14.958674 21.000000
36.101539 5.748028 11.866980 0.000000 70.000000 14.743147 10.000000
33.084324 5.140381 12.847242 0.000000 50.000000 14.567327 14.000000
35.299916 5.383897 11.952755 0.000000 36.000000 14.470475 0.000000
35.118191 3.615504 12.822901 0.000000 53.000000 14.594930 0.000000
36.458046 4.466271 11.935116 0.000000 30.000000 14.465932 0.000000
33.355650 4.984071 12.573770 0.000000 25.000000 14.344794 0.000000
32.049690 5.810652 13.091447 0.000000 45.000000 14.725114 12.000000
32.100042 3.028837 13.823585 0.000000 32.000000 14.444338 0.000000
31.692854 2.006764 14.975111 0.000000 65.000000 15.013095 22.000000
36.133756 2.572152 12.968537 0.000000 57.000000 14.653781 21.000000
33.327539 3.765214 13.292957 0.000000 46.000000 14.564960 8.000000
30.558491 5.861313 13.424137 0.000000 65.000000 14.622148 0.000000
36.601547 2.577829 12.696051 0.000000 44.000000 14.542693 21.000000
32.613226 6.003586 13.021250 0.000000 51.000000 14.886361 1.000000
34.815552 4.840457 12.660465 0.000000 58.000000 14.783273 18.000000
30.810347 6.540688 13.314664 0.000000 55.000000 14.827051 4.000000
34.688987 1.757659 13.811642 0.000000 49.000000 14.725664 27.000000
35.514440 4.012244 12.374952 0.000000 29.000000 14.440163 0.000000
35.547185 4.188104 12.308008 0.000000 31.000000 14.449473 0.000000
31.049525 3.380143 14.272867 0.000000 66.000000 14.672475 6.000000
35.649058 4.535059 12.180499 0.000000 35.000000 14.482396 0.000000
31.531092 2.991356 14.155010 0.000000 41.000000 14.569003 6.000000
35.859538 5.364977 11.783267 0.000000 30.000000 14.469120 0.000000
32.726085 2.112568 14.298365 0.000000 56.000000 14.732468 25.000000
31.905523 1.476281 14.448564 0.000000 34.000000 14.419166 0.000000
36.452754 1.425159 13.189688 0.000000 48.000000 14.549349 0.000000
32.110802 7.059003 13.017709 0.000000 49.000000 15.103122 3.000000
34.498138 3.882420 13.272942 0.000000 50.000000 14.915733 17.000000
32.910608 5.624084 12.595606 0.000000 42.000000 14.458341 0.000000
30.525372 6.344065 13.060030 0.000000 43.000000 14.451447 0.000000
35.855173 3.410111 13.185036 0.000000 56.000000 15.056331 20.000000
31.437211 2.817773 14.133587 0.000000 31.000000 14.464063 0.000000
33.456276 5.342267 12.509366 0.000000 33.000000 14.437804 0.000000
35.755622 3.037156 12.848227 0.000000 52.000000 14.598780 0.000000
35.377335 4.273355 12.354712 0.000000 32.000000 14.472830 0.000000
30.467351 6.474217 13.284423 0.000000 50.000000 14.680904 4.000000
35.763119 3.976442 12.264135 0.000000 37.000000 14.398355 0.000000
35.040674 3.666633 12.720931 0.000000 31.000000 14.499211 0.000000
34.465632 4.631496 13.139711 0.000000 49.000000 15.043339 18.000000
33.086410 2.566367 13.695978 0.000000 32.000000 14.448636 0.000000
33.025889 2.774550 13.635348 0.000000 43.000000 14.448480 0.000000
34.479999 1.757727 13.725109 0.000000 44.000000 14.589416 27.000000
32.924433 3.190039 13.513043 0.000000 39.000000 14.452429 0.000000
33.645690 1.386857 14.552845 0.000000 49.000000 14.970631 23.000000
32.778029 3.412489 13.403453 0.000000 33.000000 14.389136 0.000000
33.486594 2.154403 14.410422 0.000000 69.000000 15.060771 25.000000
34.426360 3.900218 13.148013 0.000000 63.000000 14.789637 17.000000
33.348199 1.766418 14.350164 0.000000 50.000000 14.835178 25.000000
32.763235 4.419486 13.115715 0.000000 31.000000 14.471373 0.000000
35.047559 6.547470 11.669239 0.000000 42.000000 14.543359 0.000000
32.121156 2.080068 14.654310 0.000000 73.000000 14.870724 22.000000
35.127836 4.185661 12.417073 0.000000 35.000000 14.428715 0.000000
35.514147 4.584309 12.868605 0.000000 61.000000 15.078440 30.000000
32.809075 5.949645 12.476817 0.000000 35.000000 14.434662 0.000000
35.284239 5.221557 11.999257 0.000000 29.000000 14.452249 0.000000
36.603212 3.970203 12.506267 0.000000 46.000000 14.849206 15.000000
35.443029 1.947835 13.919445 0.000000 64.000000 15.099075 27.000000
32.744196 1.576190 14.360034 0.000000 30.000000 14.609396 23.000000
31.903487 4.866767 13.069854 0.000000 22.000000 14.341865 0.000000
32.954052 6.469503 12.230569 0.000000 33.000000 14.432344 0.000000
35.451304 5.696460 11.788557 0.000000 45.000000 14.472634 0.000000
33.092032 6.615023 12.185937 0.000000 35.000000 14.480828 0.000000
35.571945 2.064527 13.670942 0.000000 54.000000 14.952330 27.000000
34.987188 6.610431 11.655433 0.000000 37.000000 14.535565 0.000000
36.095038 1.464098 13.706902 0.000000 64.000000 14.926064 24.000000
35.844801 6.561240 11.303380 0.000000 27.000000 14.443795 0.000000
35.951529 6.684350 11.235384 0.000000 38.000000 14.454889 0.000000
32.616107 2.851349 13.737792 0.000000 35.000000 14.451574 0.000000
36.129212 6.922358 11.076210 0.000000 24.000000 14.443436 0.000000
32.273632 4.040881 13.448294 0.000000 35.000000 14.502673 0.000000
32.862579 3.765768 13.354907 0.000000 45.000000 14.490170 0.000000
34.686953 4.189375 12.932799 0.000000 53.000000 14.768699 17.000000
30.845302 4.185169 13.780055 0.000000 34.000000 14.448548 0.000000
33.428838 3.485316 13.271413 0.000000 32.000000 14.478344 0.000000
31.386747 3.298022 14.314987 0.000000 50.000000 14.776832 6.000000
36.427409 2.940783 12.923726 0.000000 53.000000 14.822120 21.000000
33.410971 5.358450 13.006582 0.000000 59.000000 14.876509 14.000000
36.012701 2.423595 13.337419 0.000000 54.000000 14.899787 26.000000
32.808913 5.137846 13.126109 0.000000 31.000000 14.739220 14.000000
34.229583 3.055080 13.153533 0.000000 34.000000 14.450278 0.000000
31.966212 3.531817 13.545351 0.000000 31.000000 14.329289 0.000000
34.768332 5.786761 12.347669 0.000000 56.000000 14.813178 11.000000
32.456606 3.340873 13.590103 0.000000 34.000000 14.441786 0.000000
34.839906 2.754797 13.135964 0.000000 46.000000 14.503160 0.000000
35.507280 2.080961 13.819518 0.000000 42.000000 15.073036 27.000000
35.054222 2.609758 13.088929 0.000000 43.000000 14.471539 0.000000
33.077206 3.001411 13.539279 0.000000 38.000000 14.454329 0.000000
33.405274 2.829924 13.530433 0.000000 49.000000 14.479844 0.000000
33.656698 2.663624 13.491440 0.000000 35.000000 14.458581 0.000000
33.907085 2.497843 13.457797 0.000000 31.000000 14.442002 0.000000
34.470409 6.929104 11.595921 0.000000 33.000000 14.446112 0.000000
33.221255 2.025040 14.302276 0.000000 67.000000 14.845052 25.000000
35.695717 3.324676 13.305419 0.000000 51.000000 15.090300 20.000000
35.295459 6.509493 11.547305 0.000000 52.000000 14.490618 0.000000
35.486610 6.382620 11.494188 0.000000 51.000000 14.453254 0.000000
36.690704 4.125300 12.496135 0.000000 40.000000 14.917731 15.000000
33.750681 6.830095 11.878384 0.000000 40.000000 14.463495 0.000000
34.001667 6.664241 11.844230 0.000000 33.000000 14.446601 0.000000
36.460860 2.845662 12.898265 0.000000 55.000000 14.776144 21.000000
35.538078 5.612459 11.766363 0.000000 37.000000 14.448361 0.000000
34.992848 6.063263 12.428743 0.000000 35.000000 15.043485 11.000000
36.101559 5.235682 11.809924 0.000000 34.000000 14.516747 0.000000
35.004674 4.803935 12.847598 0.000000 61.000000 14.991691 18.000000
31.149815 1.352129 14.769875 0.000000 35.000000 14.452686 0.000000
34.739823 5.050054 12.348849 0.000000 27.000000 14.554254 0.000000
32.864828 2.783298 13.664973 0.000000 42.000000 14.432823 0.000000
35.240921 4.684789 12.895439 0.000000 42.000000 15.060166 18.000000
32.709177 3.192319 13.538233 0.000000 28.000000 14.415367 0.000000
34.684613 4.475228 13.052472 0.000000 63.000000 14.973133 18.000000
32.762976 1.752616 14.248936 0.000000 54.000000 14.575383 25.000000
32.663890 3.787794 13.396272 0.000000 34.000000 14.479018 0.000000
36.042685 1.398261 13.717107 0.000000 55.000000 14.898000 24.000000
34.866870 3.842484 13.000218 0.000000 54.000000 14.761021 17.000000
33.930171 4.321354 12.753986 0.000000 28.000000 14.441027 0.000000
32.480085 6.057698 12.469740 0.000000 35.000000 14.372912 0.000000
35.508816 1.411661 13.934704 0.000000 78.000000 14.947839 24.000000
30.677366 4.862576 13.719913 0.000000 32.000000 14.579164 0.000000
32.738646 6.520813 12.286894 0.000000 26.000000 14.439931 0.000000
36.271121 2.063835 13.502307 0.000000 60.000000 14.997153 26.000000
32.903428 6.811569 12.145484 0.000000 28.000000 14.458827 0.000000
36.546611 4.568525 12.215926 0.000000 68.000000 14.777592 16.000000
35.871607 3.176111 12.581720 0.000000 37.000000 14.439873 0.000000
35.437695 4.709827 13.009777 0.000000 43.000000 15.226507 30.000000
31.945773 4.413291 13.753049 0.000000 59.000000 14.811302 13.000000
35.961762 4.409808 12.048542 0.000000 37.000000 14.409010 0.000000
36.372366 5.343093 11.646312 0.000000 45.000000 14.482789 0.000000
36.785937 3.229115 12.594012 0.000000 52.000000 14.725714 19.000000
31.889089 4.531685 13.605925 0.000000 28.000000 14.703946 13.000000
31.603321 2.364183 14.153136 0.000000 34.000000 14.373086 0.000000
33.831951 1.442415 13.897633 0.000000 43.000000 14.454350 0.000000
35.649537 1.642568 13.868937 0.000000 80.000000 15.007345 24.000000
34.471236 1.170307 13.869249 0.000000 51.000000 14.515300 0.000000
33.279507 1.364119 14.575118 0.000000 52.000000 14.880025 23.000000
34.128172 2.301955 13.990327 0.000000 48.000000 14.914627 25.000000
31.543788 6.508210 12.726687 0.000000 37.000000 14.494569 0.000000
33.226432 1.598643 14.535558 0.000000 65.000000 14.909863 23.000000
30.642722 6.581456 12.951284 0.000000 37.000000 14.468067 0.000000
32.311440 6.795109 12.363587 0.000000 32.000000 14.482591 0.000000
33.496626 5.578649 12.414627 0.000000 26.000000 14.445023 0.000000
35.522907 6.567866 11.510103 0.000000 44.000000 14.541076 2.000000
31.795815 5.658227 12.971034 0.000000 29.000000 14.493723 0.000000
35.425374 2.506062 13.502557 0.000000 51.000000 14.911198 27.000000
35.837479 4.208405 12.234552 0.000000 38.000000 14.472040 0.000000
36.246859 3.899871 12.179984 0.000000 43.000000 14.432506 0.000000
34.511363 4.279383 12.643721 0.000000 29.000000 14.490954 0.000000
34.774867 4.100308 12.638712 0.000000 41.000000 14.499188 0.000000
32.747838 5.869522 12.632495 0.000000 47.000000 14.529673 1.000000
35.029001 3.778865 12.502205 0.000000 27.000000 14.338174 0.000000
36.557379 2.684380 12.595332 0.000000 47.000000 14.476415 0.000000
32.506356 3.419814 13.413278 0.000000 23.000000 14.324182 0.000000
35.285829 1.243050 13.944996 0.000000 78.000000 14.836797 24.000000
34.473736 3.947509 13.223555 0.000000 65.000000 14.886856 17.000000
33.303809 2.779538 13.562333 0.000000 43.000000 14.462732 0.000000
33.216028 2.986226 13.483552 0.000000 31.000000 14.438134 0.000000
33.177943 3.190385 13.420416 0.000000 35.000000 14.440652 0.000000
35.462298 2.701570 12.893221 0.000000 39.000000 14.441999 0.000000
33.059645 3.403006 13.318968 0.000000 33.000000 14.389190 0.000000
34.206521 1.810223 13.978184 0.000000 68.000000 14.757545 25.000000
32.959871 3.615250 13.221953 0.000000 33.000000 14.346773 0.000000
35.528476 3.061978 12.828453 0.000000 39.000000 14.525768 0.000000
33.127231 3.793131 13.242970 0.000000 39.000000 14.473447 0.000000
34.735798 5.787659 12.202242 0.000000 44.000000 14.673936 11.000000
33.048762 4.394183 13.015365 0.000000 41.000000 14.452887 0.000000
35.297465 3.821314 12.465252 0.000000 26.000000 14.394924 0.000000
33.092268 4.582088 12.963345 0.000000 33.000000 14.482720 0.000000
35.335568 3.997203 12.415586 0.000000 26.000000 14.421242 0.000000
33.153630 4.765723 12.917316 0.000000 40.000000 14.521479 0.000000
35.347405 4.172069 12.348874 0.000000 28.000000 14.424549 0.000000
32.238359 4.273348 13.857677 0.000000 58.000000 14.939405 13.000000
34.639871 4.742261 13.045582 0.000000 54.000000 15.045728 18.000000
31.553447 1.774052 14.642654 0.000000 43.000000 14.596225 22.000000
32.053786 2.512006 14.363789 0.000000 61.000000 14.739017 7.000000
35.540685 4.904615 12.454247 0.000000 45.000000 14.823861 30.000000
33.148919 6.251802 12.172197 0.000000 30.000000 14.360243 0.000000
31.583067 5.397710 13.405606 0.000000 69.000000 14.734603 9.000000
35.682220 3.292091 12.782847 0.000000 49.000000 14.606738 20.000000
30.798286 6.708296 13.182599 0.000000 52.000000 14.762561 4.000000
36.397779 3.855920 12.395623 0.000000 33.000000 14.653221 15.000000
35.357971 2.513582 13.515512 0.000000 54.000000 14.906465 27.000000
33.685658 6.981207 11.856990 0.000000 34.000000 14.477740 0.000000
32.068543 2.036602 14.784058 0.000000 47.000000 14.957442 22.000000
34.748668 1.443995 13.957064 0.000000 74.000000 14.765545 24.000000
36.216369 6.610142 11.178269 0.000000 32.000000 14.452640 0.000000
31.929349 5.429864 14.043612 0.000000 15.000000 15.414961 9.000000
31.759135 1.680657 14.713173 0.000000 46.000000 14.685266 22.000000
30.726802 4.335680 13.750297 0.000000 49.000000 14.440074 0.000000
34.355138 4.125343 13.017256 0.000000 57.000000 14.729383 17.000000
36.355340 5.800574 11.899721 0.000000 50.000000 14.861733 10.000000
34.109028 2.136419 14.340021 0.000000 69.000000 15.166230 25.000000
31.365281 3.986843 13.675160 0.000000 30.000000 14.432627 0.000000
33.776459 3.337765 13.179173 0.000000 46.000000 14.442749 0.000000
32.235576 2.026505 14.747906 0.000000 68.000000 14.968461 22.000000
34.052349 3.187623 13.158388 0.000000 47.000000 14.450210 0.000000
35.469321 4.454648 12.653116 0.000000 57.000000 14.828263 30.000000
35.691067 4.456567 12.333015 0.000000 50.000000 14.604115 30.000000
36.489227 2.931387 12.992262 0.000000 60.000000 14.897723 21.000000
34.597172 2.878669 13.123623 0.000000 33.000000 14.466315 0.000000
32.562855 3.289523 13.551191 0.000000 38.000000 14.419156 0.000000
34.877590 2.723376 13.116900 0.000000 46.000000 14.485896 0.000000
32.873066 3.113826 13.537229 0.000000 38.000000 14.433630 0.000000
34.608253 1.746648 13.739199 0.000000 37.000000 14.634268 27.000000
36.137201 1.941124 13.428567 0.000000 51.000000 14.851457 26.000000
34.632055 4.732768 13.118902 0.000000 55.000000 15.106037 18.000000
36.280743 3.301411 12.932630 0.000000 75.000000 14.912277 19.000000
36.639534 1.492694 12.971085 0.000000 34.000000 14.428849 0.000000
33.677120 1.407159 14.512617 0.000000 57.000000 14.950323 23.000000
35.118194 7.045953 11.579350 0.000000 44.000000 14.653077 2.000000
36.768839 2.041287 13.717677 0.000000 66.000000 15.322309 26.000000
35.251742 6.498026 11.581724 0.000000 51.000000 14.505289 0.000000
35.460128 6.356663 11.545287 0.000000 50.000000 14.482765 0.000000
35.854139 3.252931 13.033755 0.000000 56.000000 14.866615 20.000000
33.883284 2.463234 13.422844 0.000000 28.000000 14.392137 0.000000
34.011099 6.591975 11.902393 0.000000 32.000000 14.476691 0.000000
35.318676 5.671342 11.895747 0.000000 50.000000 14.522934 0.000000
31.493164 4.585933 13.770137 0.000000 60.000000 14.758610 5.000000
31.114994 3.551261 14.103837 0.000000 51.000000 14.597803 0.000000
31.779630 1.165450 14.620890 0.000000 34.000000 14.432044 0.000000
32.416781 2.588997 13.882960 0.000000 30.000000 14.436065 0.000000
34.866622 4.539050 13.077940 0.000000 58.000000 15.068898 18.000000
33.319668 1.714699 14.327488 0.000000 50.000000 14.789143 25.000000
33.261020 1.706456 14.318085 0.000000 61.000000 14.761426 25.000000
34.494985 3.948774 13.231632 0.000000 52.000000 14.900498 17.000000
31.945938 3.634706 13.517093 0.000000 27.000000 14.333449 0.000000
32.002689 3.822956 13.497588 0.000000 30.000000 14.396276 0.000000
31.003203 1.843733 14.744060 0.000000 33.000000 14.556520 28.000000
33.974730 1.854315 14.319058 0.000000 68.000000 15.013239 25.000000
32.291339 6.558473 12.488058 0.000000 34.000000 14.507633 0.000000
35.661915 2.166639 13.592930 0.000000 59.000000 14.942555 26.000000
30.626331 6.536090 13.458261 0.000000 45.000000 14.902591 4.000000
36.799481 1.962064 13.450903 0.000000 56.000000 15.064579 26.000000
35.342115 2.904718 12.868276 0.000000 37.000000 14.455373 0.000000
35.466847 1.462427 14.009509 0.000000 53.000000 15.020504 24.000000
35.458267 3.619077 12.628149 0.000000 29.000000 14.516976 0.000000
35.387808 3.985745 12.419230 0.000000 26.000000 14.435256 0.000000
35.433884 4.155904 12.351718 0.000000 31.000000 14.445849 0.000000
35.697000 5.137371 11.884114 0.000000 37.000000 14.436076 0.000000
34.023987 2.146674 14.489627 0.000000 43.000000 15.280025 25.000000
35.724399 4.351116 12.224240 0.000000 29.000000 14.479859 0.000000
30.786423 2.765525 14.314067 0.000000 34.000000 14.425339 0.000000
31.185774 2.621262 14.294693 0.000000 35.000000 14.470737 0.000000
31.335910 1.533730 15.029884 0.000000 53.000000 14.800212 28.000000
30.584820 7.000232 12.846775 0.000000 37.000000 14.501326 0.000000
30.839936 6.876907 12.778206 0.000000 36.000000 14.469276 0.000000
33.532097 1.339501 14.674431 0.000000 69.000000 15.031578 23.000000
34.600805 1.924050 14.052810 0.000000 64.000000 14.974092 27.000000
32.881239 5.850201 12.519834 0.000000 39.000000 14.459485 0.000000
30.675087 6.510718 12.988200 0.000000 34.000000 14.486064 0.000000
36.782983 3.317354 12.708599 0.000000 60.000000 14.857825 19.000000
30.900572 6.831781 13.180116 0.000000 42.000000 14.831286 4.000000
31.977627 2.026216 14.864417 0.000000 49.000000 15.000429 22.000000
34.880946 1.780296 13.600416 0.000000 48.000000 14.597876 27.000000
31.665342 1.921467 14.897577 0.000000 50.000000 14.906667 22.000000
35.598719 4.069704 12.302088 0.000000 39.000000 14.418135 0.000000
35.787810 3.907830 12.276489 0.000000 31.000000 14.392897 0.000000
32.928370 7.109574 12.516754 0.000000 43.000000 14.900701 29.000000
32.122670 2.382807 13.945651 0.000000 31.000000 14.339192 0.000000
33.176849 3.300401 13.366635 0.000000 31.000000 14.429745 0.000000
34.300089 2.119581 13.768642 0.000000 32.000000 14.701713 25.000000
32.645257 1.190668 14.498095 0.000000 44.000000 14.573568 23.000000
30.801168 6.639691 13.171809 0.000000 49.000000 14.730228 4.000000
31.866441 1.691827 14.814452 0.000000 41.000000 14.810035 22.000000
34.400898 2.707759 13.213343 0.000000 41.000000 14.433215 0.000000
33.626680 2.299388 14.111035 0.000000 47.000000 14.881208 25.000000
34.359020 2.899638 13.144248 0.000000 28.000000 14.425124 0.000000
31.794644 3.647577 13.551378 0.000000 28.000000 14.326122 0.000000
34.318332 3.092592 13.074504 0.000000 24.000000 14.417153 0.000000
32.611355 5.275445 13.073667 0.000000 46.000000 14.683793 14.000000
31.655400 5.764266 13.055381 0.000000 52.000000 14.566213 12.000000
31.928589 4.036820 13.495965 0.000000 30.000000 14.447166 0.000000
34.228659 3.478183 12.916122 0.000000 30.000000 14.381831 0.000000
36.186626 2.281749 13.570531 0.000000 69.000000 15.109148 26.000000
36.086672 1.311729 13.853920 0.000000 67.000000 15.003443 24.000000
32.068925 2.785848 14.093811 0.000000 49.000000 14.594822 7.000000
32.318557 7.194355 12.961532 0.000000 36.000000 15.157364 3.000000
31.713939 1.929402 14.785543 0.000000 38.000000 14.822556 22.000000
34.498347 5.424915 12.178986 0.000000 26.000000 14.462348 0.000000
34.578296 5.581686 12.120280 0.000000 28.000000 14.485768 0.000000
34.962525 4.659671 12.908365 0.000000 55.000000 14.985009 18.000000
30.759789 3.788003 13.898531 0.000000 33.000000 14.394944 0.000000
32.404097 6.988364 12.252294 0.000000 35.000000 14.474899 0.000000
32.964607 1.886374 14.314273 0.000000 41.000000 14.736330 25.000000
33.176921 1.658393 14.243464 0.000000 57.000000 14.654459 25.000000
32.763731 3.753072 13.291253 0.000000 38.000000 14.400994 0.000000
30.707155 4.234015 13.813237 0.000000 36.000000 14.456228 0.000000
33.980547 2.130326 14.293782 0.000000 52.000000 15.086610 25.000000
35.405341 1.818827 13.853170 0.000000 70.000000 14.984937 27.000000
35.895008 1.968346 13.449339 0.000000 56.000000 14.811403 26.000000
34.894631 1.543533 14.025818 0.000000 70.000000 14.902225 24.000000
31.421944 3.114226 14.218863 0.000000 60.000000 14.637648 6.000000
32.750398 1.690687 14.661619 0.000000 31.000000 14.920751 23.000000
33.803235 2.323827 14.365284 0.000000 32.000000 15.167136 25.000000
32.653675 1.318255 14.655078 0.000000 42.000000 14.760348 23.000000
34.125405 2.918771 13.221956 0.000000 44.000000 14.435769 0.000000
32.144930 3.302553 13.679547 0.000000 33.000000 14.421390 0.000000
35.971827 6.007708 12.162095 0.000000 55.000000 15.060201 10.000000
32.458239 3.111734 13.679215 0.000000 32.000000 14.443784 0.000000
36.531326 1.950009 13.542105 0.000000 69.000000 15.066961 26.000000
34.371753 4.439936 12.990154 0.000000 58.000000 14.817345 18.000000
33.238416 2.562123 13.635133 0.000000 36.000000 14.435296 0.000000
35.941857 1.599290 13.156786 0.000000 33.000000 14.435973 0.000000
31.246361 1.162555 14.815360 0.000000 27.000000 14.455739 0.000000
34.667600 3.759546 13.002379 0.000000 59.000000 14.678649 17.000000
33.327379 6.971826 12.004268 0.000000 33.000000 14.506022 0.000000
35.914946 1.375129 13.839797 0.000000 57.000000 14.964252 24.000000
33.219494 4.773585 13.161739 0.000000 52.000000 14.761850 14.000000
35.012666 5.628416 11.987197 0.000000 40.000000 14.504351 0.000000
35.826197 2.185505 13.671038 0.000000 55.000000 15.065174 26.000000
37.004759 1.973584 13.387114 0.000000 47.000000 15.068944 26.000000
36.259863 4.478751 12.049131 0.000000 41.000000 14.516808 0.000000
31.808925 1.450893 14.521825 0.000000 31.000000 14.449061 0.000000
32.138355 6.873809 12.878750 0.000000 53.000000 14.922900 3.000000
34.730902 1.878094 13.921471 0.000000 31.000000 14.877115 27.000000
31.233377 3.229867 14.184776 0.000000 39.000000 14.593694 6.000000
30.765029 4.203960 13.787175 0.000000 30.000000 14.438825 0.000000
32.100230 5.286612 13.119931 0.000000 35.000000 14.585608 9.000000
32.912621 1.355553 14.581912 0.000000 64.000000 14.780188 23.000000
30.682447 5.419270 13.387285 0.000000 36.000000 14.472707 0.000000
34.504207 1.303108 13.851225 0.000000 51.000000 14.553814 0.000000
30.511577 6.235577 12.982014 0.000000 29.000000 14.340505 0.000000
36.675506 3.223346 12.677845 0.000000 60.000000 14.767918 19.000000
35.458648 2.022386 13.726927 0.000000 74.000000 14.956315 27.000000
30.849640 6.726752 12.845235 0.000000 31.000000 14.480752 0.000000
30.905439 6.896813 12.766753 0.000000 32.000000 14.484203 0.000000
34.206543 4.356540 12.942491 0.000000 67.000000 14.699696 18.000000
31.212630 4.492128 13.935172 0.000000 54.000000 14.795767 5.000000
36.156429 1.410949 13.798959 0.000000 64.000000 15.007675 24.000000
31.211339 6.764763 12.702221 0.000000 29.000000 14.467046 0.000000
32.184647 5.441872 13.417712 0.000000 40.000000 14.929452 9.000000
33.941510 3.117399 13.203939 0.000000 35.000000 14.435923 0.000000
33.961689 3.304271 13.140895 0.000000 43.000000 14.448968 0.000000
31.240483 1.570181 14.930446 0.000000 39.000000 14.696716 28.000000
33.800152 3.701371 12.900644 0.000000 30.000000 14.323990 0.000000
31.968342 2.330955 14.963011 0.000000 4.000000 15.190470 22.000000
31.822314 5.146475 13.543129 0.000000 48.000000 14.839165 9.000000
36.364297 4.514992 11.957129 0.000000 34.000000 14.476018 0.000000
34.447075 5.568133 12.121686 0.000000 29.000000 14.445554 0.000000
35.022611 6.410209 11.665925 0.000000 47.000000 14.486435 0.000000
32.740476 2.508921 13.790487 0.000000 30.000000 14.416623 0.000000
35.269589 6.650461 11.527621 0.000000 41.000000 14.513919 0.000000
34.623707 1.885352 13.973233 0.000000 62.000000 14.895923 27.000000
35.759327 4.591584 12.390862 0.000000 57.000000 14.721334 30.000000
34.199941 2.124375 14.210741 0.000000 58.000000 15.071699 25.000000
36.660825 2.910932 12.713869 0.000000 38.000000 14.689246 21.000000
34.063132 2.256365 14.299691 0.000000 57.000000 15.158204 25.000000
31.264442 4.575054 13.847689 0.000000 52.000000 14.760223 5.000000
31.556268 5.423484 13.390612 0.000000 63.000000 14.722449 9.000000
34.115720 1.657119 13.720258 0.000000 26.000000 14.448387 0.000000
32.461625 5.765560 12.669654 0.000000 44.000000 14.447086 0.000000
30.430602 6.177555 13.063558 0.000000 38.000000 14.371053 0.000000
30.667219 6.617856 13.063444 0.000000 39.000000 14.587976 4.000000
33.726456 2.202930 14.479052 0.000000 59.000000 15.206254 25.000000
32.652332 1.519807 14.513597 0.000000 41.000000 14.702033 23.000000
32.965245 4.287416 13.052603 0.000000 30.000000 14.426316 0.000000
31.678759 1.840764 14.685734 0.000000 59.000000 14.692856 22.000000
33.691171 3.678146 13.083000 0.000000 31.000000 14.448982 0.000000
33.764574 3.497612 13.015909 0.000000 30.000000 14.347675 0.000000
34.111114 3.281487 13.092303 0.000000 45.000000 14.439549 0.000000
34.264846 3.090079 13.075408 0.000000 37.000000 14.402089 0.000000
34.812089 4.357433 12.968455 0.000000 45.000000 14.893287 18.000000
32.054793 6.808071 12.742959 0.000000 31.000000 14.755183 3.000000
34.127057 4.421778 13.033312 0.000000 63.000000 14.781140 18.000000
35.565524 6.734670 11.341523 0.000000 44.000000 14.458916 0.000000
35.745310 6.546045 11.341801 0.000000 35.000000 14.445122 0.000000
35.856100 6.371498 11.301953 0.000000 29.000000 14.380789 0.000000
30.960718 1.244610 14.889797 0.000000 33.000000 14.470366 0.000000
32.782094 2.688178 13.790873 0.000000 42.000000 14.489965 0.000000
34.355774 4.443341 13.077899 0.000000 55.000000 14.892710 18.000000
32.670341 3.095385 13.644580 0.000000 28.000000 14.466678 0.000000
33.244863 1.278253 14.580085 0.000000 51.000000 14.845384 23.000000
32.521229 3.507462 13.464971 0.000000 26.000000 14.404693 0.000000
32.420063 6.431911 12.544540 0.000000 43.000000 14.551134 0.000000
32.574477 4.472688 13.156472 0.000000 31.000000 14.473128 0.000000
32.803518 5.926636 12.539603 0.000000 33.000000 14.481537 0.000000
32.460701 4.436809 13.704520 0.000000 57.000000 14.920388 13.000000
33.306663 4.423759 12.927073 0.000000 32.000000 14.456228 0.000000
34.297792 2.092297 14.039690 0.000000 58.000000 14.934804 25.000000
33.078002 6.572740 12.224683 0.000000 30.000000 14.497174 0.000000
31.634529 5.341530 13.230668 0.000000 63.000000 14.572956 9.000000
32.762677 5.989217 12.737960 0.000000 35.000000 14.669356 1.000000
33.357157 7.005997 11.997248 0.000000 33.000000 14.519775 0.000000
36.535095 4.437986 11.928154 0.000000 32.000000 14.471645 0.000000
34.409743 2.204415 13.810680 0.000000 44.000000 14.799212 27.000000
31.652748 4.251143 13.563419 0.000000 34.000000 14.503523 0.000000
31.945145 4.072914 13.547196 0.000000 33.000000 14.510103 0.000000
31.646041 3.545285 14.348688 0.000000 49.000000 14.964420 6.000000
32.265029 3.746594 13.405572 0.000000 26.000000 14.361290 0.000000
32.489327 3.572763 13.371434 0.000000 27.000000 14.334190 0.000000
33.057346 6.979023 12.520824 0.000000 51.000000 14.895907 29.000000
30.794162 3.794954 13.895800 0.000000 33.000000 14.404521 0.000000
33.148337 3.198245 13.416241 0.000000 38.000000 14.431285 0.000000
33.386421 3.022363 13.404214 0.000000 30.000000 14.427182 0.000000
34.577850 4.079663 13.117326 0.000000 62.000000 14.866023 17.000000
31.315658 1.660118 15.013024 0.000000 60.000000 14.822636 28.000000
36.861687 1.976911 13.441263 0.000000 75.000000 15.078476 26.000000
36.530262 2.500403 12.999354 0.000000 52.000000 14.768191 21.000000
32.189853 2.805660 13.860772 0.000000 43.000000 14.426565 0.000000
32.449644 2.611748 13.860084 0.000000 31.000000 14.432558 0.000000
34.612222 5.809719 12.409564 0.000000 24.000000 14.832709 11.000000
32.470942 2.079713 14.679836 0.000000 57.000000 14.991693 22.000000
31.843268 2.210344 14.647210 0.000000 63.000000 14.830902 22.000000
34.118151 6.924214 11.703783 0.000000 40.000000 14.442273 0.000000
32.831358 2.102080 14.589400 0.000000 47.000000 15.019426 25.000000
34.611943 6.563384 11.711657 0.000000 36.000000 14.464546 0.000000
31.871085 5.529432 13.667488 0.000000 35.000000 15.095363 9.000000
33.119163 6.706249 12.103476 0.000000 33.000000 14.445699 0.000000
35.676365 6.833648 11.824640 0.000000 16.000000 14.957132 2.000000
36.760482 2.421097 13.150237 0.000000 49.000000 14.941006 26.000000
31.054614 4.931648 13.758591 0.000000 57.000000 14.743382 5.000000
34.499278 5.489238 12.142867 0.000000 30.000000 14.452220 0.000000
35.020582 1.377559 14.151418 0.000000 66.000000 14.993451 24.000000
35.780939 4.112110 12.216163 0.000000 40.000000 14.406741 0.000000
35.944218 3.919156 12.232196 0.000000 38.000000 14.400961 0.000000
36.724567 3.128400 12.417113 0.000000 45.000000 14.515400 0.000000
33.149012 2.678074 13.628073 0.000000 44.000000 14.443524 0.000000
31.621238 2.725127 14.259169 0.000000 59.000000 14.596658 7.000000
33.131163 3.063359 13.478281 0.000000 38.000000 14.435964 0.000000
35.256188 2.615259 13.009058 0.000000 39.000000 14.458495 0.000000
34.209655 4.809457 13.108056 0.000000 29.000000 15.003957 18.000000
35.229920 2.795364 12.921554 0.000000 36.000000 14.434250 0.000000
32.171540 7.302856 13.553941 0.000000 4.000000 15.684456 3.000000
32.292404 6.608403 12.510857 0.000000 41.000000 14.545455 0.000000
32.994514 3.649402 13.171662 0.000000 31.000000 14.323080 0.000000
33.282853 4.165467 13.046683 0.000000 26.000000 14.468463 0.000000
35.191087 3.679471 12.474915 0.000000 24.000000 14.325209 0.000000
33.232856 2.248476 14.173112 0.000000 54.000000 14.808901 25.000000
35.324799 3.833643 12.456133 0.000000 26.000000 14.398637 0.000000
32.000353 4.442470 13.625488 0.000000 51.000000 14.722212 13.000000
35.400252 3.995549 12.401291 0.000000 30.000000 14.426016 0.000000
35.451627 4.157220 12.329435 0.000000 34.000000 14.431297 0.000000
33.563682 1.510154 14.625652 0.000000 50.000000 15.055071 23.000000
35.674349 4.457946 12.247181 0.000000 41.000000 14.522919 0.000000
33.506679 5.215200 12.529925 0.000000 31.000000 14.426929 0.000000
36.639515 2.744518 12.727249 0.000000 35.000000 14.638343 21.000000
32.138933 6.634959 12.567072 0.000000 45.000000 14.561864 0.000000
33.702164 5.523046 12.396123 0.000000 40.000000 14.467113 0.000000
33.786031 5.677469 12.317077 0.000000 46.000000 14.472590 0.000000
36.946913 1.661098 13.195254 0.000000 56.000000 14.773770 26.000000
32.607573 3.475307 13.409203 0.000000 24.000000 14.367924 0.000000
34.510897 4.637444 13.105753 0.000000 47.000000 15.027628 18.000000
31.812488 1.902895 14.890219 0.000000 38.000000 14.935026 22.000000
32.975546 5.233003 13.183531 0.000000 50.000000 14.870043 14.000000
32.130415 2.539489 14.327780 0.000000 62.000000 14.737638 7.000000
34.563923 6.764090 11.651344 0.000000 31.000000 14.465626 0.000000
34.683431 6.878780 11.571735 0.000000 31.000000 14.467014 0.000000
36.024389 1.511310 13.277042 0.000000 39.000000 14.536893 24.000000
31.337927 1.414825 14.692668 0.000000 32.000000 14.457703 0.000000
36.818598 2.001827 13.558105 0.000000 52.000000 15.179682 26.000000
34.360403 4.674574 13.211821 0.000000 49.000000 15.093197 18.000000
36.764737 3.441396 12.796575 0.000000 54.000000 14.974022 19.000000
35.161522 2.304681 13.930798 0.000000 48.000000 15.152279 27.000000
33.187525 5.487636 12.600133 0.000000 29.000000 14.493472 0.000000
33.399428 5.309691 12.571605 0.000000 39.000000 14.466516 0.000000
35.677359 2.432022 13.416208 0.000000 54.000000 14.879181 26.000000
31.244903 3.364241 14.349496 0.000000 58.000000 14.790606 6.000000
31.702463 5.596316 13.041239 0.000000 31.000000 14.509298 0.000000
35.567445 6.853667 11.548400 0.000000 45.000000 14.685677 2.000000
35.600324 6.762259 11.834169 0.000000 64.000000 14.919912 2.000000
32.017928 6.088441 13.195288 0.000000 36.000000 14.904332 12.000000
33.140398 4.380895 13.006785 0.000000 46.000000 14.466373 0.000000
35.103247 3.852124 12.534505 0.000000 25.000000 14.413041 0.000000
33.346603 4.182993 13.001834 0.000000 33.000000 14.452135 0.000000
35.165565 4.577531 12.714283 0.000000 55.000000 14.839869 18.000000
36.166467 1.407989 13.161447 0.000000 31.000000 14.437778 0.000000
33.725750 3.795204 12.988706 0.000000 28.000000 14.414168 0.000000
33.857929 3.606170 12.956272 0.000000 30.000000 14.357533 0.000000
34.185309 3.393205 13.032138 0.000000 29.000000 14.444635 0.000000
33.229010 5.270404 12.972589 0.000000 55.000000 14.764826 14.000000
36.520543 2.098196 13.630840 0.000000 48.000000 15.194193 26.000000
34.855505 2.801933 13.120565 0.000000 44.000000 14.509851 0.000000
31.936176 3.338030 14.176773 0.000000 64.000000 14.820816 6.000000
32.226411 5.820365 12.819062 0.000000 42.000000 14.533782 0.000000
35.148624 4.352085 12.838778 0.000000 58.000000 14.869646 18.000000
35.987018 6.646023 11.263084 0.000000 37.000000 14.476583 0.000000
33.017079 1.458319 14.533773 0.000000 55.000000 14.801494 23.000000
35.049778 2.102753 13.922263 0.000000 53.000000 15.044188 27.000000
33.473089 3.875488 13.246104 0.000000 69.000000 14.601522 8.000000
31.427689 1.522521 14.626038 0.000000 49.000000 14.459987 0.000000
36.759414 3.624412 12.642319 0.000000 59.000000 14.896794 19.000000
30.949628 3.011865 14.185635 0.000000 32.000000 14.440240 0.000000
34.852478 2.366362 13.578181 0.000000 31.000000 14.770399 27.000000
33.277257 2.712275 13.569099 0.000000 43.000000 14.438339 0.000000
34.887191 6.037658 12.388258 0.000000 47.000000 14.968760 11.000000
33.078971 1.996659 14.430715 0.000000 48.000000 14.910580 25.000000
33.938510 1.549066 14.149057 0.000000 55.000000 14.746214 23.000000
31.697437 3.156669 14.092442 0.000000 46.000000 14.616135 6.000000
30.800511 4.058851 13.843292 0.000000 34.000000 14.449477 0.000000
30.643870 4.331297 13.825677 0.000000 42.000000 14.482891 0.000000
32.016935 4.135336 13.541257 0.000000 65.000000 14.546282 13.000000
33.124697 3.684445 13.199027 0.000000 30.000000 14.396153 0.000000
33.172907 4.240477 13.004097 0.000000 34.000000 14.425063 0.000000
34.459592 1.617448 13.815990 0.000000 32.000000 14.617206 0.000000
33.795503 1.973222 14.282262 0.000000 72.000000 14.970595 25.000000
34.279099 4.154413 13.029223 0.000000 52.000000 14.728710 17.000000
36.067124 1.655152 13.402238 0.000000 52.000000 14.710361 24.000000
33.100243 4.809909 12.713628 0.000000 31.000000 14.338943 0.000000
33.406016 5.117904 12.687768 0.000000 46.000000 14.506939 0.000000
30.711670 6.077861 12.954693 0.000000 29.000000 14.318235 0.000000
34.819587 1.486630 14.207816 0.000000 56.000000 15.024906 24.000000
33.393898 5.474955 12.481830 0.000000 41.000000 14.440981 0.000000
36.955107 1.682277 13.337587 0.000000 61.000000 14.910954 26.000000
34.776202 2.113716 13.837617 0.000000 45.000000 14.895226 27.000000
32.023629 4.612575 13.732333 0.000000 53.000000 14.882743 13.000000
33.652656 6.109930 12.180728 0.000000 32.000000 14.460789 0.000000
33.548048 6.305332 12.000255 0.000000 22.000000 14.336411 0.000000
33.961201 6.535697 11.979527 0.000000 32.000000 14.512604 0.000000
36.015911 1.847516 13.359340 0.000000 39.000000 14.723308 26.000000
33.529829 1.605634 14.275557 0.000000 67.000000 14.764270 23.000000
34.144387 6.958816 11.688295 0.000000 37.000000 14.447585 0.000000
35.981576 1.665459 13.192290 0.000000 49.000000 14.501595 0.000000
36.621508 4.239121 12.097938 0.000000 51.000000 14.580144 15.000000
32.654636 3.629958 13.264905 0.000000 26.000000 14.304630 0.000000
34.394085 2.343504 13.899406 0.000000 26.000000 14.921956 27.000000
33.079661 4.749565 13.210537 0.000000 46.000000 14.758138 14.000000
31.042330 3.838999 13.794144 0.000000 35.000000 14.398095 0.000000
31.913154 4.589294 13.485849 0.000000 41.000000 14.622726 13.000000
31.290450 3.643520 13.772079 0.000000 34.000000 14.381105 0.000000
33.008446 1.404802 14.658348 0.000000 36.000000 14.892481 23.000000
35.665439 1.736436 13.691308 0.000000 63.000000 14.884623 27.000000
31.904255 3.242172 13.801569 0.000000 37.000000 14.442596 0.000000
32.097078 2.231266 14.393665 0.000000 45.000000 14.681941 22.000000
31.293752 1.456668 14.927803 0.000000 48.000000 14.670475 28.000000
34.225964 2.548277 13.321443 0.000000 44.000000 14.426496 0.000000
32.381076 2.856908 13.784847 0.000000 38.000000 14.429690 0.000000
31.400893 1.525394 14.857369 0.000000 71.000000 14.660898 28.000000
34.419372 1.159599 13.877912 0.000000 59.000000 14.504845 0.000000
32.941221 4.884694 13.229103 0.000000 66.000000 14.782141 14.000000
33.182779 4.062225 13.489244 0.000000 60.000000 14.801931 8.000000
33.143651 3.378510 13.289897 0.000000 21.000000 14.378325 0.000000
36.464068 1.278026 13.246872 0.000000 47.000000 14.553482 0.000000
33.360500 6.769977 12.046115 0.000000 40.000000 14.483809 0.000000
33.569561 6.577941 12.032749 0.000000 37.000000 14.464832 0.000000
36.421199 1.646829 12.983654 0.000000 30.000000 14.431544 0.000000
34.856545 5.395605 12.076004 0.000000 42.000000 14.460533 0.000000
33.763980 1.313003 14.546246 0.000000 61.000000 14.972662 23.000000
31.377401 3.060334 14.182460 0.000000 42.000000 14.574064 6.000000
30.680957 4.746082 13.876600 0.000000 54.000000 14.680839 5.000000
33.876479 1.970608 14.187506 0.000000 64.000000 14.907460 25.000000
36.396313 3.662671 12.218950 0.000000 32.000000 14.428277 0.000000
31.631145 1.301721 14.691200 0.000000 32.000000 14.500020 0.000000
31.454590 1.510711 14.609679 0.000000 36.000000 14.448830 0.000000
31.453762 1.711315 14.599488 0.000000 44.000000 14.508072 0.000000
36.991897 2.026687 13.472182 0.000000 56.000000 15.159784 26.000000
31.022080 2.746775 14.316692 0.000000 33.000000 14.487439 0.000000
30.921257 3.158691 14.204421 0.000000 33.000000 14.499341 0.000000
31.816236 2.664695 14.461605 0.000000 59.000000 14.812271 7.000000
33.198175 5.191853 13.122419 0.000000 51.000000 14.863666 14.000000
32.247864 4.615796 13.660117 0.000000 62.000000 14.882036 13.000000
30.606732 5.199511 13.506103 0.000000 44.000000 14.482838 0.000000
30.589945 5.398646 13.419800 0.000000 44.000000 14.468842 0.000000
31.462445 1.895045 14.853847 0.000000 63.000000 14.801453 28.000000
32.821286 5.975119 12.673280 0.000000 44.000000 14.622985 1.000000
30.639989 6.338500 12.990634 0.000000 31.000000 14.419489 0.000000
30.747246 6.497663 12.940220 0.000000 29.000000 14.458830 0.000000
