-11.944241 1.584629 -42.158918 0.000000 74.000000 14.883889 13.000000
-12.076100 -1.511191 -39.237433 0.000000 61.000000 14.628537 28.000000
-17.247550 -2.737080 -41.503103 0.000000 44.000000 14.909156 2.000000
-13.394261 -1.689895 -39.376220 0.000000 44.000000 14.313143 0.000000
-14.807295 -2.318053 -39.772974 0.000000 45.000000 14.408639 0.000000
-14.920163 0.271047 -42.695859 0.000000 59.000000 14.870259 18.000000
-11.044786 1.292067 -41.401238 0.000000 61.000000 14.881469 7.000000
-12.165004 -0.432466 -40.940818 0.000000 70.000000 15.144508 25.000000
-14.544034 -1.192583 -41.290515 0.000000 58.000000 14.905264 10.000000
-11.837023 -1.850286 -38.490110 0.000000 34.000000 14.401069 0.000000
-11.042443 0.334321 -39.941140 0.000000 37.000000 14.429809 0.000000
-12.123761 -1.954947 -38.646953 0.000000 50.000000 14.460337 0.000000
-12.014883 -1.956056 -38.553476 0.000000 50.000000 14.438389 0.000000
-11.864347 -1.058351 -39.537384 0.000000 58.000000 14.652439 26.000000
-11.484941 0.637312 -41.063060 0.000000 46.000000 14.861063 19.000000
-12.973465 1.205576 -41.815724 0.000000 49.000000 14.463919 0.000000
-13.999464 1.176336 -42.424173 0.000000 49.000000 14.503551 0.000000
-15.619493 -2.423200 -40.385516 0.000000 48.000000 14.580502 1.000000
-13.210978 -1.196097 -39.964660 0.000000 53.000000 14.503523 0.000000
-12.849450 1.411456 -42.753728 0.000000 48.000000 15.047206 13.000000
-11.936545 0.879461 -41.285224 0.000000 53.000000 14.694722 19.000000
-15.604796 -0.630935 -42.123303 0.000000 67.000000 14.736599 23.000000
-11.877358 -1.205281 -39.791579 0.000000 62.000000 14.912830 26.000000
-16.280743 -1.241454 -42.389338 0.000000 76.000000 15.020240 11.000000
-15.487556 -0.777445 -42.085329 0.000000 68.000000 14.843375 23.000000
-14.574304 -1.630774 -40.716204 0.000000 47.000000 14.751923 4.000000
-16.430122 -1.414754 -41.243156 0.000000 38.000000 14.261755 0.000000
-15.256134 -0.974555 -41.366713 0.000000 39.000000 14.548479 12.000000
-15.610355 -0.313669 -42.684748 0.000000 35.000000 14.938807 22.000000
-15.232847 1.825561 -44.129877 0.000000 53.000000 14.826216 5.000000
-16.799438 -2.266603 -41.063584 0.000000 45.000000 14.497662 0.000000
-15.385946 -2.836826 -39.467964 0.000000 36.000000 14.275988 0.000000
-13.186929 -2.096270 -39.511040 0.000000 43.000000 14.731117 27.000000
-13.094691 0.727768 -42.077047 0.000000 42.000000 14.883664 17.000000
-11.518883 0.846766 -41.350450 0.000000 72.000000 14.924314 19.000000
-12.198262 -2.493005 -38.236044 0.000000 50.000000 14.463485 0.000000
-13.351855 -2.440397 -38.889433 0.000000 58.000000 14.435636 0.000000
-12.776411 -0.446611 -40.854829 0.000000 73.000000 14.851974 25.000000
-12.396180 -2.280781 -38.556896 0.000000 59.000000 14.483965 0.000000
-13.503049 -2.290769 -39.103606 0.000000 49.000000 14.437052 0.000000
-16.447980 -0.566391 -42.667017 0.000000 56.000000 14.747039 22.000000
-14.458803 -1.893891 -40.731377 0.000000 53.000000 14.964656 4.000000
-13.335315 -1.124128 -40.998050 0.000000 69.000000 15.135556 10.000000
-13.661611 -2.142993 -39.318938 0.000000 58.000000 14.437482 0.000000
-12.955790 -1.811958 -39.154592 0.000000 44.000000 14.403202 0.000000
-12.868334 0.931527 -41.475411 0.000000 38.000000 14.430079 0.000000
-14.216437 -0.471338 -41.997073 0.000000 56.000000 15.099802 23.000000
-16.196258 -1.111135 -42.306311 0.000000 46.000000 14.917771 11.000000
-16.539489 -0.793585 -42.588334 0.000000 76.000000 14.791142 11.000000
-13.300470 -2.354376 -40.086939 0.000000 1.000000 15.243443 27.000000
-13.580760 -0.685769 -41.116903 0.000000 78.000000 14.861221 10.000000
-13.400726 -1.492614 -39.540978 0.000000 51.000000 14.308562 0.000000
-14.483474 -2.692071 -39.111451 0.000000 40.000000 14.295422 0.000000
-15.468441 -1.492476 -41.332739 0.000000 58.000000 14.749404 12.000000
-13.670516 -1.316257 -40.042545 0.000000 50.000000 14.448676 0.000000
-12.727013 -2.620965 -38.535984 0.000000 55.000000 14.541567 21.000000
-13.895432 -1.183876 -40.255192 0.000000 46.000000 14.430265 0.000000
-15.016749 -1.196146 -40.884404 0.000000 55.000000 14.436810 0.000000
-11.828133 -0.948356 -39.986707 0.000000 59.000000 14.915943 26.000000
-15.617590 -2.870816 -40.432128 0.000000 35.000000 14.880360 1.000000
-16.992212 -2.840377 -41.383779 0.000000 72.000000 14.987599 2.000000
-15.380485 -1.004265 -41.230546 0.000000 46.000000 14.421829 0.000000
-15.196898 -0.015418 -42.445741 0.000000 47.000000 14.756638 23.000000
-15.375506 -0.501471 -41.613347 0.000000 45.000000 14.392612 0.000000
-16.481716 -0.543091 -42.345444 0.000000 58.000000 14.494642 0.000000
-15.460762 -0.482866 -41.748436 0.000000 57.000000 14.442592 0.000000
-13.866021 -0.484524 -41.603170 0.000000 53.000000 14.969711 24.000000
-15.461446 -1.146720 -41.956587 0.000000 74.000000 14.983303 12.000000
-14.061731 -0.349298 -41.904812 0.000000 34.000000 15.023441 23.000000
-15.522734 -2.947180 -40.052428 0.000000 54.000000 14.697207 1.000000
-11.217354 0.050607 -40.387962 0.000000 30.000000 14.842807 20.000000
-13.922554 0.107956 -42.394063 0.000000 55.000000 15.148733 18.000000
-12.363271 -2.000843 -38.710027 0.000000 42.000000 14.437538 0.000000
-15.787128 0.349801 -42.605422 0.000000 56.000000 14.418690 0.000000
-15.502447 0.868476 -42.823224 0.000000 53.000000 14.374573 0.000000
-15.105462 1.294983 -43.101833 0.000000 53.000000 14.472130 0.000000
-14.015566 1.353565 -42.466232 0.000000 52.000000 14.421170 0.000000
-16.449889 -1.893791 -42.405325 0.000000 79.000000 15.353169 11.000000
-11.896412 1.439636 -41.347271 0.000000 26.000000 14.420520 0.000000
-15.429118 -0.518578 -41.682568 0.000000 57.000000 14.430174 0.000000
-15.312551 -0.532391 -41.562672 0.000000 36.000000 14.400310 0.000000
-12.548547 -1.384009 -39.170432 0.000000 36.000000 14.319886 0.000000
-10.936619 1.085408 -40.532289 0.000000 32.000000 14.438429 0.000000
-16.123359 -0.636926 -42.051894 0.000000 59.000000 14.485979 0.000000
-12.911765 -0.466267 -40.508326 0.000000 34.000000 14.567678 25.000000
-12.804277 -1.510679 -39.638341 0.000000 51.000000 14.622348 30.000000
-12.835108 0.097560 -41.164239 0.000000 46.000000 14.721651 9.000000
-14.305569 1.285930 -43.206883 0.000000 63.000000 14.866035 15.000000
-14.714789 1.951751 -43.234251 0.000000 38.000000 14.327733 0.000000
-10.825120 2.077790 -41.281432 0.000000 40.000000 14.416310 0.000000
-15.248086 -2.960239 -39.903039 0.000000 33.000000 14.708477 1.000000
-15.524016 -1.482516 -41.539295 0.000000 60.000000 14.866274 12.000000
-14.530444 1.240469 -43.234550 0.000000 73.000000 14.823939 15.000000
-14.796951 -0.372554 -42.593260 0.000000 68.000000 15.230032 23.000000
-13.210264 -1.220940 -39.901545 0.000000 34.000000 14.474384 0.000000
-16.350780 -2.881045 -40.661949 0.000000 76.000000 14.758754 1.000000
-15.988525 0.241482 -42.640744 0.000000 64.000000 14.428618 0.000000
-12.945022 -1.811137 -39.365330 0.000000 60.000000 14.554563 27.000000
-15.371858 -0.559850 -41.617596 0.000000 52.000000 14.431777 0.000000
-15.363090 -2.883647 -40.170090 0.000000 64.000000 14.804657 1.000000
-16.097775 0.373087 -42.819353 0.000000 31.000000 14.432366 0.000000
-17.126647 -1.477197 -41.693651 0.000000 58.000000 14.340236 0.000000
-14.591704 -0.878580 -41.485903 0.000000 84.000000 14.836432 10.000000
-13.293485 -2.261331 -39.054388 0.000000 46.000000 14.467563 0.000000
-12.134948 -2.678575 -38.912064 0.000000 3.000000 15.072393 21.000000
-15.619952 -0.748778 -41.900374 0.000000 58.000000 14.644633 12.000000
-16.169360 -2.143560 -40.680980 0.000000 41.000000 14.404499 0.000000
-16.167684 -2.293002 -40.617608 0.000000 44.000000 14.449730 0.000000
-16.308748 -2.941226 -40.222080 0.000000 47.000000 14.503024 0.000000
-11.828135 -1.748675 -38.508818 0.000000 52.000000 14.357185 0.000000
-11.935720 -1.685652 -38.597424 0.000000 54.000000 14.339373 0.000000
-12.024747 -1.638955 -38.700148 0.000000 59.000000 14.348475 0.000000
-12.793240 -2.241986 -38.745474 0.000000 42.000000 14.436628 0.000000
-11.744574 -1.053520 -39.813159 0.000000 88.000000 14.889884 26.000000
-12.368682 -0.536367 -41.158468 0.000000 8.000000 15.278618 25.000000
-13.460330 -0.506796 -41.745399 0.000000 60.000000 15.242322 24.000000
-14.095432 -2.366628 -39.345420 0.000000 49.000000 14.418353 0.000000
-16.614654 -2.399806 -41.577797 0.000000 44.000000 15.009885 3.000000
-14.855183 1.812432 -43.499159 0.000000 30.000000 14.540944 15.000000
-12.189678 -1.103870 -39.374918 0.000000 44.000000 14.437648 0.000000
-15.388666 -1.442022 -41.352785 0.000000 68.000000 14.764819 12.000000
-12.305239 -1.067263 -39.471530 0.000000 43.000000 14.438028 0.000000
-14.442938 1.739905 -43.734180 0.000000 62.000000 14.911047 6.000000
-12.500592 1.961739 -42.302292 0.000000 34.000000 14.540779 8.000000
-14.915441 0.749381 -42.917101 0.000000 51.000000 14.742340 29.000000
-12.428706 -1.085454 -40.105498 0.000000 54.000000 14.844303 26.000000
-16.091430 -0.568645 -41.985568 0.000000 65.000000 14.411445 0.000000
-15.065343 -0.539200 -41.412442 0.000000 47.000000 14.396467 0.000000
-12.024337 0.978075 -41.494946 0.000000 45.000000 14.748352 19.000000
-15.299817 -1.821551 -40.458419 0.000000 32.000000 14.399277 0.000000
-12.080162 1.154493 -42.156807 0.000000 50.000000 15.084949 13.000000
-12.182993 -1.305479 -40.056676 0.000000 73.000000 15.037827 26.000000
-16.203604 -1.787613 -40.980032 0.000000 29.000000 14.388594 0.000000
-16.038569 -0.531061 -42.752147 0.000000 49.000000 14.946829 22.000000
-16.184445 -2.107755 -40.710730 0.000000 49.000000 14.398083 0.000000
-16.007592 -1.875024 -40.860078 0.000000 45.000000 14.433782 0.000000
-13.067708 -1.207676 -40.566628 0.000000 75.000000 14.988468 10.000000
-16.746004 -3.018209 -41.154578 0.000000 80.000000 15.029855 2.000000
-15.974465 -1.571763 -40.964332 0.000000 42.000000 14.339322 0.000000
-17.089960 -1.552688 -41.626153 0.000000 40.000000 14.352341 0.000000
-15.804197 -1.504636 -41.074990 0.000000 45.000000 14.443910 0.000000
-16.766000 -1.083249 -41.951993 0.000000 43.000000 14.428672 0.000000
-12.109125 -1.475298 -39.283554 0.000000 70.000000 14.626474 28.000000
-16.329281 0.053280 -42.698618 0.000000 53.000000 14.447026 0.000000
-11.624574 -0.956151 -39.646458 0.000000 68.000000 14.762404 26.000000
-12.662977 1.097007 -42.265864 0.000000 56.000000 14.966091 13.000000
-11.813395 -1.473755 -38.718311 0.000000 42.000000 14.346070 0.000000
-15.024239 0.882470 -42.627906 0.000000 52.000000 14.417714 0.000000
-11.575822 -0.602323 -39.880310 0.000000 65.000000 14.734770 26.000000
-15.479989 -0.993025 -41.900244 0.000000 35.000000 14.845045 12.000000
-13.471722 -0.549815 -41.089029 0.000000 63.000000 14.803696 25.000000
-13.612585 -1.236343 -40.040181 0.000000 31.000000 14.422258 0.000000
-13.960622 1.299712 -43.115178 0.000000 54.000000 14.929410 15.000000
-13.270643 -0.502803 -40.703260 0.000000 52.000000 14.584670 25.000000
-14.776443 0.538251 -42.527125 0.000000 42.000000 14.649594 18.000000
-14.635139 -1.842339 -40.910332 0.000000 69.000000 14.989888 4.000000
-15.480863 -0.436297 -41.753265 0.000000 57.000000 14.410339 0.000000
-15.394151 -0.366400 -41.645339 0.000000 49.000000 14.327274 0.000000
-15.271722 -0.317514 -41.552861 0.000000 39.000000 14.281601 0.000000
-14.601951 -0.908236 -40.916965 0.000000 50.000000 14.451543 0.000000
-11.600806 -1.404674 -39.169464 0.000000 55.000000 14.704654 28.000000
-11.883773 -0.026908 -40.119534 0.000000 47.000000 14.438549 0.000000
-12.491307 1.290460 -42.590186 0.000000 58.000000 15.145690 13.000000
-12.872106 -0.824323 -40.544038 0.000000 70.000000 14.821453 10.000000
-11.251527 0.911686 -41.260009 0.000000 54.000000 14.927583 19.000000
-11.283595 0.096131 -39.952266 0.000000 41.000000 14.484447 0.000000
-13.341863 0.654056 -41.779366 0.000000 77.000000 14.621718 17.000000
-14.993044 0.229682 -42.683999 0.000000 67.000000 14.857881 18.000000
-12.910182 0.707538 -41.918114 0.000000 75.000000 14.857028 17.000000
-16.670460 -2.838059 -41.106266 0.000000 66.000000 14.918519 2.000000
-14.976239 1.278318 -42.945231 0.000000 41.000000 14.423238 0.000000
-11.057743 0.053041 -40.521287 0.000000 66.000000 14.997587 20.000000
-14.436281 -0.496997 -41.708767 0.000000 73.000000 14.826577 23.000000
-15.241059 -0.696245 -41.967579 0.000000 36.000000 14.809612 23.000000
-15.245619 -1.136437 -41.459081 0.000000 53.000000 14.713683 12.000000
-12.794239 -1.039984 -40.721446 0.000000 74.000000 15.104754 10.000000
-12.305711 1.517510 -42.419054 0.000000 65.000000 14.963736 13.000000
-16.608111 -1.297407 -41.740318 0.000000 57.000000 14.470055 0.000000
-11.969384 -0.297072 -40.061228 0.000000 47.000000 14.524827 26.000000
-16.813400 -1.440863 -41.466616 0.000000 57.000000 14.282914 0.000000
-10.995102 1.179524 -40.637940 0.000000 34.000000 14.433380 0.000000
-12.452564 -2.126149 -39.055410 0.000000 42.000000 14.718895 27.000000
-14.096803 -0.431562 -41.552413 0.000000 60.000000 14.811768 24.000000
-16.772458 -1.703064 -41.268620 0.000000 58.000000 14.316433 0.000000
-14.029438 0.905751 -42.491972 0.000000 37.000000 14.700315 29.000000
-16.347363 -0.635297 -42.306207 0.000000 44.000000 14.574946 11.000000
-11.373382 0.032078 -39.883659 0.000000 38.000000 14.439170 0.000000
-11.276952 0.659962 -41.143536 0.000000 44.000000 14.985838 19.000000
-13.739139 -2.442704 -39.075899 0.000000 32.000000 14.415136 0.000000
-15.794608 -3.057496 -40.731571 0.000000 43.000000 15.131535 1.000000
-13.248184 0.915999 -42.250381 0.000000 47.000000 14.832590 17.000000
-15.518538 -2.205881 -40.255055 0.000000 40.000000 14.399503 0.000000
-16.688434 -1.225375 -42.425939 0.000000 68.000000 14.875789 11.000000
-16.057006 -2.251717 -40.546141 0.000000 38.000000 14.418672 0.000000
-14.534078 0.088450 -42.140722 0.000000 35.000000 14.742125 23.000000
-15.540998 -2.806546 -39.570975 0.000000 40.000000 14.269069 0.000000
-16.311297 -1.120772 -41.686072 0.000000 37.000000 14.443773 0.000000
-11.614258 -0.204266 -39.690604 0.000000 34.000000 14.349801 0.000000
-11.708809 1.378002 -41.717757 0.000000 40.000000 14.790577 14.000000
-11.881012 -0.190573 -39.851127 0.000000 39.000000 14.349060 0.000000
-15.610860 -0.553652 -42.712623 0.000000 39.000000 15.100991 22.000000
-14.714234 -0.662665 -42.286216 0.000000 62.000000 15.220232 23.000000
-12.352691 -0.651163 -40.495169 0.000000 60.000000 14.888647 26.000000
-12.256858 -2.349715 -38.578962 0.000000 76.000000 14.595310 21.000000
-13.630021 -2.052766 -39.638776 0.000000 43.000000 14.620237 27.000000
-13.889050 0.824160 -42.446490 0.000000 51.000000 14.772301 29.000000
-16.568533 -2.097373 -41.485489 0.000000 48.000000 14.783353 3.000000
-15.378697 -0.459295 -41.603140 0.000000 42.000000 14.359100 0.000000
-14.477730 -0.475913 -42.037522 0.000000 69.000000 15.027981 23.000000
-15.625696 -2.342181 -40.432457 0.000000 34.000000 14.562710 1.000000
-16.711391 -2.367085 -40.789803 0.000000 45.000000 14.400375 0.000000
-13.713922 -1.481973 -40.324967 0.000000 58.000000 14.728055 4.000000
-11.520228 -0.794287 -40.171500 0.000000 54.000000 15.074894 26.000000
-12.037684 -1.566413 -39.199340 0.000000 61.000000 14.649853 28.000000
-16.676438 -2.120997 -40.981681 0.000000 54.000000 14.402044 0.000000
-15.247078 -0.940376 -41.542306 0.000000 64.000000 14.654692 12.000000
-16.597524 -2.030117 -41.101173 0.000000 68.000000 14.462711 0.000000
-13.528828 1.156220 -42.130745 0.000000 46.000000 14.495296 0.000000
-11.851027 -0.454479 -40.291013 0.000000 73.000000 14.826080 26.000000
-15.485341 0.991534 -43.449722 0.000000 61.000000 14.746879 16.000000
-13.864279 -1.628694 -40.831462 0.000000 77.000000 15.110968 4.000000
-15.276127 -1.164073 -41.635407 0.000000 61.000000 14.841629 12.000000
-15.512744 1.806170 -44.254193 0.000000 69.000000 14.814634 5.000000
-14.220752 0.865499 -42.714955 0.000000 61.000000 14.805138 29.000000
-11.677895 -1.136389 -39.658657 0.000000 69.000000 14.857248 26.000000
-15.463338 -1.333721 -41.571320 0.000000 41.000000 14.824020 12.000000
-16.648723 -1.372832 -41.571559 0.000000 44.000000 14.380759 0.000000
-11.945558 -1.336934 -40.196340 0.000000 76.000000 15.247861 26.000000
-13.909529 -0.795915 -41.192517 0.000000 79.000000 14.850309 10.000000
-12.302211 1.270183 -41.696855 0.000000 69.000000 14.606485 13.000000
-14.631161 -2.729614 -39.146895 0.000000 26.000000 14.284450 0.000000
-11.909312 -0.586428 -40.612897 0.000000 47.000000 15.107141 26.000000
-14.020357 -1.242330 -41.488414 0.000000 68.000000 15.279677 10.000000
-15.840417 -1.005110 -42.356894 0.000000 38.000000 15.030188 11.000000
-12.849509 -0.978920 -40.251203 0.000000 63.000000 14.717265 10.000000
-16.506295 -0.394471 -42.242090 0.000000 43.000000 14.324100 0.000000
-11.837133 0.131636 -40.607300 0.000000 34.000000 14.704186 20.000000
-15.054445 -2.580556 -39.638954 0.000000 32.000000 14.373722 0.000000
-11.617144 1.082748 -41.338876 0.000000 44.000000 14.737044 19.000000
-14.573747 1.447641 -43.729211 0.000000 4.000000 15.030044 15.000000
-16.519812 -1.304098 -41.536942 0.000000 20.000000 14.366350 0.000000
-15.241881 -0.637090 -42.439677 0.000000 67.000000 15.104752 23.000000
-11.977481 0.761258 -40.925003 0.000000 54.000000 14.496656 0.000000
-12.969077 -0.555453 -40.956436 0.000000 52.000000 14.912079 25.000000
-12.041037 0.075423 -41.052354 0.000000 55.000000 14.969102 20.000000
-14.629354 1.249275 -43.248741 0.000000 60.000000 14.789694 15.000000
-11.711997 -1.081457 -39.954453 0.000000 74.000000 15.018309 26.000000
-16.423586 -0.554198 -42.644098 0.000000 75.000000 14.733332 22.000000
-10.602212 1.593338 -40.793583 0.000000 36.000000 14.450750 0.000000
-15.080189 0.432013 -42.692981 0.000000 57.000000 14.709417 18.000000
-11.028337 2.012332 -41.406690 0.000000 44.000000 14.463001 0.000000
-15.105084 -2.785644 -40.413271 0.000000 63.000000 15.018234 1.000000
-15.028407 -1.183817 -41.877781 0.000000 52.000000 15.120684 12.000000
-15.716113 0.191616 -42.462611 0.000000 44.000000 14.440784 0.000000
-15.118723 -0.398630 -41.806394 0.000000 48.000000 14.567712 23.000000
-14.780575 -0.672721 -42.230899 0.000000 62.000000 15.161352 23.000000
-12.478560 0.054167 -41.257000 0.000000 64.000000 14.952836 9.000000
-12.853398 -0.039836 -41.734837 0.000000 58.000000 15.195910 9.000000
-15.737343 -0.559453 -42.668719 0.000000 51.000000 15.023893 22.000000
-16.362084 -1.197138 -41.638258 0.000000 53.000000 14.435746 0.000000
-15.209335 -1.227281 -40.992481 0.000000 46.000000 14.455221 0.000000
-11.318809 0.285189 -41.045455 0.000000 53.000000 15.123755 19.000000
-15.185215 -1.312231 -40.869753 0.000000 48.000000 14.429323 0.000000
-16.332297 -1.358459 -41.371452 0.000000 39.000000 14.356623 0.000000
-14.715931 1.274083 -43.205200 0.000000 58.000000 14.710340 15.000000
-16.317458 -1.436856 -41.236594 0.000000 41.000000 14.314674 0.000000
-13.602369 1.407826 -42.490840 0.000000 49.000000 14.568789 15.000000
-12.034019 0.593387 -41.134106 0.000000 51.000000 14.720791 19.000000
-14.784992 -0.527474 -42.066661 0.000000 57.000000 14.958109 23.000000
-10.469539 1.025658 -41.213481 0.000000 70.000000 15.135032 7.000000
-14.796613 -1.973146 -40.075804 0.000000 45.000000 14.419641 0.000000
-13.528437 -0.608685 -41.795311 0.000000 61.000000 15.311120 24.000000
-11.912214 -0.817999 -40.314165 0.000000 64.000000 15.034605 26.000000
-11.502269 -1.128051 -39.396847 0.000000 54.000000 14.738049 26.000000
-14.583937 1.262955 -43.162452 0.000000 63.000000 14.738992 15.000000
-16.370931 -0.393360 -42.926410 0.000000 63.000000 14.856061 22.000000
-12.370073 0.059564 -41.669687 0.000000 65.000000 15.281401 9.000000
-12.296831 -2.293342 -38.535850 0.000000 66.000000 14.515816 21.000000
-15.163091 -0.474684 -41.745146 0.000000 52.000000 14.552616 23.000000
-12.749836 -0.821462 -40.190066 0.000000 32.000000 14.619952 26.000000
-15.410686 -1.444742 -40.961676 0.000000 23.000000 14.483819 0.000000
-12.500361 1.920280 -42.346238 0.000000 46.000000 14.596331 8.000000
-12.560251 0.159913 -40.914985 0.000000 54.000000 14.618162 9.000000
-14.514618 -0.627925 -42.006728 0.000000 75.000000 15.082379 23.000000
-13.275497 -0.060993 -41.399566 0.000000 56.000000 14.807478 25.000000
-11.685126 -1.494055 -39.164438 0.000000 58.000000 14.721143 28.000000
-11.801786 0.184031 -41.111902 0.000000 75.000000 15.040357 20.000000
-15.529808 1.264042 -43.947171 0.000000 77.000000 14.915586 15.000000
-11.889418 -0.428213 -40.584537 0.000000 54.000000 15.000926 26.000000
-11.166152 -0.769754 -39.665644 0.000000 76.000000 14.845374 26.000000
-11.279345 0.897097 -40.388326 0.000000 39.000000 14.314752 0.000000
-13.805223 -1.143964 -40.210883 0.000000 38.000000 14.410987 0.000000
-11.560566 0.882597 -40.519912 0.000000 43.000000 14.304830 0.000000
-14.292917 -1.120278 -41.481051 0.000000 72.000000 15.094551 10.000000
-13.240570 -0.253632 -41.219937 0.000000 42.000000 14.810085 25.000000
-11.093598 0.825360 -40.266903 0.000000 36.000000 14.345539 0.000000
-11.262723 0.830382 -40.312315 0.000000 38.000000 14.307770 0.000000
-13.383676 1.074162 -42.388670 0.000000 63.000000 14.781954 13.000000
-12.270486 0.664392 -40.977217 0.000000 39.000000 14.475530 0.000000
-11.429260 0.686220 -40.493100 0.000000 42.000000 14.454648 0.000000
-15.864017 0.549598 -43.800340 0.000000 77.000000 15.106452 16.000000
-12.818591 -0.868348 -40.696523 0.000000 63.000000 14.975537 10.000000
-16.787370 -2.393073 -41.325804 0.000000 68.000000 14.761368 2.000000
-14.438227 -1.952742 -40.762766 0.000000 49.000000 15.029776 4.000000
-14.278681 0.276797 -41.708656 0.000000 50.000000 14.427922 0.000000
-12.406674 -2.527970 -38.595130 0.000000 71.000000 14.653762 21.000000
-11.695600 0.197647 -40.320519 0.000000 58.000000 14.519741 20.000000
-16.538060 -0.533346 -42.365727 0.000000 56.000000 14.480865 0.000000
-14.245747 -2.378393 -39.436184 0.000000 36.000000 14.429749 0.000000
-13.843917 -1.794448 -40.699243 0.000000 49.000000 15.125044 4.000000
-15.259941 -2.562769 -40.117339 0.000000 52.000000 14.617307 1.000000
-14.671096 -2.839955 -39.075256 0.000000 42.000000 14.284232 0.000000
-14.262972 0.334093 -42.599176 0.000000 51.000000 15.023758 18.000000
-12.112978 1.241961 -42.215709 0.000000 68.000000 15.061217 13.000000
-14.655783 -2.377029 -39.665859 0.000000 42.000000 14.428372 0.000000
-14.681788 -2.273965 -39.773861 0.000000 46.000000 14.432429 0.000000
-11.683221 1.849929 -41.989125 0.000000 68.000000 14.709798 8.000000
-14.469570 -1.061133 -41.161953 0.000000 57.000000 14.766281 10.000000
-14.217472 -2.019523 -40.799382 0.000000 74.000000 15.182093 4.000000
-12.275705 1.137369 -42.404126 0.000000 48.000000 15.191386 13.000000
-13.217484 -2.114491 -39.092255 0.000000 34.000000 14.436598 0.000000
-14.891244 -2.627067 -40.026398 0.000000 45.000000 14.737047 1.000000
-15.227340 -1.826098 -40.432597 0.000000 32.000000 14.412433 0.000000
-16.650153 -2.584574 -41.304297 0.000000 68.000000 14.914327 2.000000
-11.258935 -0.881567 -39.544526 0.000000 76.000000 14.790568 26.000000
-16.633771 -1.835571 -41.501621 0.000000 58.000000 14.613120 3.000000
-14.469661 -0.957964 -41.460687 0.000000 55.000000 14.914077 10.000000
-15.203123 -1.051417 -41.109453 0.000000 44.000000 14.434909 0.000000
-16.365179 -1.023076 -41.777422 0.000000 50.000000 14.428387 0.000000
-15.062172 1.048699 -43.638345 0.000000 54.000000 15.011579 15.000000
-15.390113 -0.688833 -41.600214 0.000000 45.000000 14.489196 0.000000
-10.628389 1.075067 -41.396599 0.000000 38.000000 15.171341 7.000000
-16.098091 0.199831 -42.704422 0.000000 54.000000 14.454876 0.000000
-11.968401 -0.747013 -40.465036 0.000000 72.000000 15.075902 26.000000
-14.132206 -0.870158 -41.511206 0.000000 72.000000 15.030055 10.000000
-12.037098 -1.666969 -38.766687 0.000000 44.000000 14.406896 0.000000
-16.348498 -0.940645 -41.849309 0.000000 44.000000 14.436237 0.000000
-12.473538 -1.806682 -39.144822 0.000000 61.000000 14.583091 27.000000
-14.401399 0.138509 -41.687465 0.000000 48.000000 14.447083 0.000000
-14.782450 1.793318 -43.916930 0.000000 63.000000 14.873584 6.000000
-16.011817 -0.353313 -42.662165 0.000000 60.000000 14.788524 22.000000
-11.748327 1.218968 -41.851774 0.000000 73.000000 14.963560 14.000000
-12.273515 -1.870215 -38.881275 0.000000 58.000000 14.515065 27.000000
-13.977134 0.386307 -41.693374 0.000000 48.000000 14.470753 0.000000
-13.872433 0.495754 -41.683721 0.000000 41.000000 14.440063 0.000000
-12.927258 -1.985341 -39.488203 0.000000 64.000000 14.751323 27.000000
-13.202369 1.938993 -42.488895 0.000000 37.000000 14.408720 0.000000
-16.393267 -0.839778 -42.444393 0.000000 45.000000 14.775388 11.000000
-16.259136 0.249620 -42.823056 0.000000 40.000000 14.444928 0.000000
-11.578703 -0.006658 -40.758901 0.000000 68.000000 14.994447 20.000000
-16.042924 -0.599494 -42.659185 0.000000 45.000000 14.920737 22.000000
-16.276871 -0.870696 -41.902884 0.000000 47.000000 14.460325 0.000000
-15.426166 1.130955 -43.746908 0.000000 72.000000 14.895344 15.000000
-16.102381 -1.007992 -41.643594 0.000000 46.000000 14.429138 0.000000
-14.949174 -1.035332 -40.996277 0.000000 49.000000 14.446046 0.000000
-14.766777 1.685859 -43.710015 0.000000 45.000000 14.798791 15.000000
-14.477646 -1.659750 -40.902704 0.000000 73.000000 14.937861 4.000000
-13.744441 0.575718 -41.882521 0.000000 34.000000 14.582102 18.000000
-14.178127 -1.559562 -39.921768 0.000000 47.000000 14.309058 0.000000
-14.039382 -1.637999 -39.829875 0.000000 46.000000 14.346012 0.000000
-13.940464 -1.691746 -39.719434 0.000000 39.000000 14.339595 0.000000
-14.999940 1.376158 -43.612344 0.000000 70.000000 14.822937 15.000000
-16.347875 -0.632195 -42.797080 0.000000 52.000000 14.916726 22.000000
-14.736669 -1.819179 -40.108695 0.000000 43.000000 14.374627 0.000000
-13.614017 -1.867987 -39.565613 0.000000 38.000000 14.465295 0.000000
-13.890977 -1.369717 -40.504741 0.000000 80.000000 14.717442 4.000000
-16.271765 -2.984828 -40.681425 0.000000 61.000000 14.865285 1.000000
-12.888780 0.809194 -42.204058 0.000000 56.000000 15.005227 17.000000
-14.279488 -0.421058 -41.732942 0.000000 43.000000 14.860038 23.000000
-13.470421 -1.190787 -40.717051 0.000000 73.000000 14.925220 10.000000
-11.552058 0.376256 -40.725725 0.000000 66.000000 14.753757 19.000000
-13.870576 -2.183850 -39.397590 0.000000 45.000000 14.434620 0.000000
-11.979723 -1.250279 -40.039222 0.000000 39.000000 15.072773 26.000000
-12.248336 -2.158252 -38.514671 0.000000 44.000000 14.439657 0.000000
-12.284507 -0.484513 -40.929489 0.000000 75.000000 15.120505 25.000000
-13.630988 -2.266650 -39.199602 0.000000 46.000000 14.439562 0.000000
-14.734446 -0.341543 -41.265380 0.000000 33.000000 14.306077 0.000000
-13.511361 -2.305396 -39.104237 0.000000 45.000000 14.442928 0.000000
-13.388474 -2.344414 -39.009369 0.000000 48.000000 14.448088 0.000000
-13.274785 -2.375290 -38.913068 0.000000 44.000000 14.443777 0.000000
-14.611451 1.722978 -43.549164 0.000000 60.000000 14.725183 15.000000
-12.170592 -2.424120 -38.288742 0.000000 43.000000 14.470284 0.000000
-12.074914 -2.444054 -38.186072 0.000000 42.000000 14.447906 0.000000
-11.912823 0.147432 -40.774727 0.000000 71.000000 14.782255 20.000000
-16.479513 -2.833400 -40.701168 0.000000 76.000000 14.707177 1.000000
-13.510773 -0.613639 -40.755461 0.000000 65.000000 14.592669 10.000000
-12.089001 -2.619673 -38.016754 0.000000 39.000000 14.428306 0.000000
-15.471233 -0.631322 -42.099014 0.000000 70.000000 14.772403 23.000000
-10.937659 2.004496 -41.190128 0.000000 33.000000 14.351678 0.000000
-11.064433 1.945094 -41.233073 0.000000 36.000000 14.367206 0.000000
-14.590232 -1.634383 -40.764384 0.000000 60.000000 14.781548 4.000000
-12.098327 1.438653 -41.523460 0.000000 42.000000 14.465017 0.000000
-12.224488 1.364517 -41.556136 0.000000 43.000000 14.482365 0.000000
-12.393025 1.329649 -41.566905 0.000000 58.000000 14.444308 0.000000
-13.519126 -2.497808 -38.919338 0.000000 45.000000 14.424900 0.000000
-14.122354 -0.577191 -41.273046 0.000000 52.000000 14.692718 10.000000
-15.435174 -0.474644 -42.592721 0.000000 63.000000 15.039145 22.000000
-12.754131 -0.727779 -40.572575 0.000000 79.000000 14.830419 10.000000
-16.430719 -1.545825 -42.549722 0.000000 73.000000 15.254718 11.000000
-15.490061 0.276718 -42.376374 0.000000 50.000000 14.418722 0.000000
-15.874842 -3.090583 -40.835381 0.000000 72.000000 15.192354 1.000000
-16.240832 -1.022031 -41.696065 0.000000 41.000000 14.419737 0.000000
-16.356807 -1.135232 -41.683959 0.000000 52.000000 14.432982 0.000000
-13.879083 -1.644678 -39.694180 0.000000 31.000000 14.318054 0.000000
-13.376459 -0.621440 -40.862749 0.000000 60.000000 14.725344 10.000000
-10.886958 0.178961 -40.383274 0.000000 62.000000 14.893200 20.000000
-12.826252 -1.893319 -39.507098 0.000000 56.000000 14.749548 27.000000
-15.405639 -1.116632 -41.955331 0.000000 64.000000 14.986486 12.000000
-17.187593 -1.767575 -41.531564 0.000000 38.000000 14.375566 0.000000
-16.530880 -1.600858 -41.980629 0.000000 74.000000 14.849427 11.000000
-13.092293 -2.174848 -39.260054 0.000000 42.000000 14.639352 27.000000
-15.143956 -1.109775 -41.659788 0.000000 49.000000 14.878423 12.000000
-14.575284 -1.550458 -40.850962 0.000000 61.000000 14.798117 4.000000
-15.845216 -2.927007 -40.714748 0.000000 76.000000 15.022148 1.000000
-13.525521 -2.061550 -39.643794 0.000000 60.000000 14.670124 27.000000
-12.392380 0.294549 -40.978902 0.000000 41.000000 14.648880 9.000000
-11.746356 0.943738 -40.826543 0.000000 34.000000 14.410061 0.000000
-16.597632 -1.824412 -42.241649 0.000000 89.000000 15.139053 11.000000
-13.453391 -2.263753 -39.127776 0.000000 45.000000 14.457450 0.000000
-12.402133 0.828353 -41.441522 0.000000 65.000000 14.651313 17.000000
-13.988548 1.250136 -43.108899 0.000000 58.000000 14.943529 15.000000
-11.618626 0.257037 -40.844013 0.000000 63.000000 14.881371 19.000000
-12.394725 0.659818 -41.625556 0.000000 61.000000 14.883461 17.000000
-14.721449 -2.098861 -39.920129 0.000000 60.000000 14.415030 0.000000
-11.453580 -1.042487 -39.706019 0.000000 77.000000 14.922841 26.000000
-15.376738 -1.336075 -41.191238 0.000000 60.000000 14.593292 12.000000
-17.159547 -2.905923 -41.486942 0.000000 64.000000 15.032995 2.000000
-13.976569 -1.725068 -39.732022 0.000000 48.000000 14.354033 0.000000
-14.052204 -1.648204 -39.844250 0.000000 53.000000 14.357107 0.000000
-16.599238 -1.325809 -42.170061 0.000000 65.000000 14.791466 11.000000
-15.008209 -2.558220 -40.188976 0.000000 46.000000 14.763889 1.000000
-11.646387 1.274843 -41.719661 0.000000 68.000000 14.877896 14.000000
-15.468949 -1.372986 -40.947826 0.000000 47.000000 14.408463 0.000000
-12.410464 -0.371038 -41.060613 0.000000 64.000000 15.095207 25.000000
-17.119484 -2.392830 -41.435558 0.000000 69.000000 14.707340 2.000000
-13.052577 0.733513 -42.250225 0.000000 51.000000 15.018126 17.000000
-11.274610 -0.726655 -39.481332 0.000000 37.000000 14.647916 26.000000
-11.334987 0.034948 -40.570334 0.000000 54.000000 14.933555 20.000000
-16.719575 -1.415134 -41.578653 0.000000 61.000000 14.383014 0.000000
-16.469270 -1.367454 -41.633237 0.000000 54.000000 14.491414 0.000000
-15.719041 0.705203 -43.660326 0.000000 43.000000 14.972831 16.000000
-15.109551 -0.782680 -42.436603 0.000000 43.000000 15.241367 23.000000
-12.197344 0.986765 -42.228399 0.000000 48.000000 15.188804 13.000000
-15.931644 0.269850 -42.619279 0.000000 68.000000 14.419091 0.000000
-12.533465 0.635661 -41.799568 0.000000 57.000000 14.965101 17.000000
-14.946459 0.103250 -42.293258 0.000000 47.000000 14.677794 23.000000
-15.456999 0.870410 -42.802506 0.000000 52.000000 14.376803 0.000000
-14.711327 -1.672320 -40.905614 0.000000 34.000000 14.855377 4.000000
-13.642066 -1.277165 -41.003205 0.000000 38.000000 15.109494 10.000000
-14.405896 -1.825810 -39.980339 0.000000 37.000000 14.418900 0.000000
-10.700322 1.270666 -41.473864 0.000000 43.000000 15.080702 7.000000
-12.850304 -1.086761 -40.563283 0.000000 76.000000 14.999742 10.000000
-16.716941 -0.495726 -42.355487 0.000000 41.000000 14.380868 0.000000
-11.352803 -1.056585 -39.671000 0.000000 57.000000 14.946383 26.000000
-13.489100 1.336260 -42.182350 0.000000 33.000000 14.439909 0.000000
-15.203255 1.919679 -44.047888 0.000000 59.000000 14.724411 5.000000
-11.942039 1.361829 -41.319385 0.000000 35.000000 14.429341 0.000000
-13.329170 -1.123001 -40.016457 0.000000 55.000000 14.449756 0.000000
-14.109874 -1.144222 -40.420814 0.000000 45.000000 14.438238 0.000000
-17.228348 -2.293130 -41.481931 0.000000 35.000000 14.637609 2.000000
-13.917670 1.423883 -43.129297 0.000000 55.000000 14.882293 15.000000
-13.993273 -1.310557 -41.490917 0.000000 63.000000 15.332708 10.000000
-12.641801 -1.236293 -39.581658 0.000000 51.000000 14.483277 0.000000
-15.020692 -0.307857 -41.687257 0.000000 34.000000 14.468824 0.000000
-16.065385 -0.442346 -43.121419 0.000000 53.000000 15.142114 22.000000
-13.516478 -0.555065 -40.982504 0.000000 61.000000 14.714585 10.000000
-13.569900 -0.555839 -41.712165 0.000000 63.000000 15.205098 24.000000
-14.374722 -0.080986 -42.189188 0.000000 56.000000 14.939677 23.000000
-14.810145 -0.499258 -42.043060 0.000000 38.000000 14.914879 23.000000
-14.927143 0.852695 -42.884997 0.000000 51.000000 14.653744 29.000000
-12.685953 -2.508750 -38.626834 0.000000 40.000000 14.554569 21.000000
-11.640511 -1.256152 -38.978684 0.000000 53.000000 14.466978 0.000000
-14.155317 2.057310 -43.050730 0.000000 41.000000 14.356625 0.000000
-14.638938 0.836685 -42.895488 0.000000 58.000000 14.784096 29.000000
-13.186241 -1.773626 -39.307903 0.000000 22.000000 14.397036 0.000000
-11.281531 0.330823 -41.009843 0.000000 73.000000 15.086323 19.000000
-17.349138 -2.914739 -41.101325 0.000000 60.000000 14.693494 2.000000
-15.154725 0.420154 -42.888663 0.000000 62.000000 14.824194 18.000000
-13.876951 1.084363 -42.544230 0.000000 61.000000 14.690631 29.000000
-15.640839 -0.558477 -42.327391 0.000000 71.000000 14.822227 22.000000
-15.831641 0.396711 -43.476853 0.000000 51.000000 14.983627 16.000000
-11.318511 1.507545 -41.890822 0.000000 33.000000 14.988353 14.000000
-11.497759 1.177982 -41.686049 0.000000 59.000000 14.970531 14.000000
-16.294498 -1.339083 -41.372623 0.000000 37.000000 14.360792 0.000000
-16.145625 -0.730719 -42.586700 0.000000 51.000000 14.907647 22.000000
-12.400631 0.038645 -41.168523 0.000000 71.000000 14.930785 9.000000
-14.254906 -2.641799 -39.072509 0.000000 46.000000 14.328212 0.000000
-12.993046 1.243593 -42.838732 0.000000 64.000000 15.150137 13.000000
-16.569390 -2.012435 -41.108549 0.000000 63.000000 14.468429 0.000000
-15.997217 -2.949004 -40.675622 0.000000 45.000000 14.947991 1.000000
-12.816217 -1.097889 -40.620953 0.000000 69.000000 15.060182 10.000000
-11.999135 1.253020 -41.943696 0.000000 37.000000 14.908927 13.000000
-16.619938 -0.647493 -42.577870 0.000000 58.000000 14.665172 11.000000
-12.589568 -0.065780 -41.171124 0.000000 42.000000 14.920382 9.000000
-12.889023 -2.674374 -38.541446 0.000000 53.000000 14.513400 21.000000
-11.541332 -1.213913 -39.905679 0.000000 29.000000 15.130189 26.000000
-12.521522 -2.259965 -38.585872 0.000000 51.000000 14.442519 0.000000
-14.300693 -0.555332 -41.958534 0.000000 44.000000 15.089635 23.000000
-11.296318 1.539457 -41.670110 0.000000 59.000000 14.823497 14.000000
-15.948027 0.421557 -43.665224 0.000000 54.000000 15.054956 16.000000
-11.306222 -0.597835 -39.773107 0.000000 74.000000 14.763156 26.000000
-13.175501 -1.298888 -40.832257 0.000000 73.000000 15.186382 10.000000
-13.295538 -1.721348 -39.362833 0.000000 44.000000 14.361359 0.000000
-11.477678 -1.189717 -39.817399 0.000000 53.000000 15.079013 26.000000
-13.055274 -2.700594 -38.770588 0.000000 35.000000 14.624053 21.000000
-11.751843 0.772355 -41.226807 0.000000 51.000000 14.790284 19.000000
-16.470515 -2.130388 -41.371576 0.000000 53.000000 14.761809 3.000000
-12.444240 0.066060 -40.826029 0.000000 57.000000 14.657399 25.000000
-12.152791 -0.811529 -40.145464 0.000000 61.000000 14.817868 26.000000
-12.671016 -1.430218 -39.191755 0.000000 38.000000 14.314110 0.000000
-15.603518 0.555907 -43.398752 0.000000 42.000000 14.923971 16.000000
-11.859389 -0.617775 -40.227212 0.000000 79.000000 14.875307 26.000000
-11.047987 -0.653284 -39.776904 0.000000 59.000000 14.900495 26.000000
-11.942105 -1.401367 -39.403617 0.000000 50.000000 14.732320 28.000000
-14.634943 -1.815216 -40.073858 0.000000 40.000000 14.387917 0.000000
-13.954567 -1.372224 -40.129085 0.000000 48.000000 14.430773 0.000000
-15.586768 -0.733586 -41.842812 0.000000 35.000000 14.608336 12.000000
-13.298793 -1.157628 -39.977317 0.000000 56.000000 14.454913 0.000000
-14.519898 -1.239060 -40.886023 0.000000 57.000000 14.659110 4.000000
-11.902151 1.602928 -41.825923 0.000000 29.000000 14.656323 13.000000
-14.892012 -0.992676 -40.994116 0.000000 58.000000 14.441646 0.000000
-15.019605 0.331793 -42.413982 0.000000 67.000000 14.597507 18.000000
-15.123995 -0.582182 -41.439179 0.000000 50.000000 14.417689 0.000000
-12.831109 -0.264235 -40.599200 0.000000 22.000000 14.542820 25.000000
-10.469927 1.110201 -41.318921 0.000000 78.000000 15.158407 7.000000
-15.301892 -0.573563 -42.004744 0.000000 54.000000 14.738662 23.000000
-15.517912 -0.123802 -42.559016 0.000000 60.000000 14.774110 22.000000
-17.456301 -2.863792 -40.714942 0.000000 45.000000 14.350336 0.000000
-11.834971 0.796987 -41.264261 0.000000 80.000000 14.769126 19.000000
-11.778910 -0.543519 -40.302966 0.000000 69.000000 14.915851 26.000000
-15.098890 0.564815 -42.678403 0.000000 51.000000 14.612788 18.000000
-16.338980 -2.328419 -41.494013 0.000000 69.000000 15.017242 3.000000
-13.603552 -0.485144 -41.696530 0.000000 64.000000 15.138813 24.000000
-16.203835 -3.010337 -40.389860 0.000000 55.000000 14.702991 1.000000
-14.060316 -1.766659 -39.764361 0.000000 20.000000 14.368470 0.000000
-16.289527 -1.371726 -41.305299 0.000000 46.000000 14.335024 0.000000
-16.347782 0.073451 -42.790883 0.000000 60.000000 14.492361 0.000000
-15.107719 -0.721149 -42.459275 0.000000 72.000000 15.221341 23.000000
-15.206590 0.303612 -42.236371 0.000000 50.000000 14.416256 0.000000
-15.064170 0.369857 -42.336771 0.000000 57.000000 14.503220 0.000000
-13.625658 -0.112282 -41.498418 0.000000 61.000000 14.769384 24.000000
-14.434221 0.449837 -42.589647 0.000000 58.000000 14.880758 18.000000
-15.441741 -3.023392 -40.318886 0.000000 57.000000 14.961102 1.000000
-14.639026 1.303879 -43.186420 0.000000 50.000000 14.709729 15.000000
-16.484680 -2.385780 -41.624759 0.000000 49.000000 15.085603 3.000000
-11.797742 -0.869931 -39.696344 0.000000 62.000000 14.677841 26.000000
-13.324413 0.013113 -41.278359 0.000000 39.000000 14.659206 25.000000
-16.443257 0.049208 -42.931273 0.000000 48.000000 14.567537 22.000000
-16.783082 -1.976777 -41.570688 0.000000 70.000000 14.686769 3.000000
-16.120199 -0.544231 -42.104632 0.000000 54.000000 14.468983 0.000000
-11.382222 -0.046995 -40.668788 0.000000 74.000000 15.032699 20.000000
-13.110572 -1.451285 -39.412915 0.000000 43.000000 14.308499 0.000000
-11.633894 0.072515 -40.394081 0.000000 68.000000 14.670051 20.000000
-12.527721 0.012753 -41.194891 0.000000 69.000000 14.914630 9.000000
-14.801194 -1.099870 -41.317110 0.000000 70.000000 14.767452 10.000000
-12.971676 -0.377876 -40.247122 0.000000 36.000000 14.308514 0.000000
-14.939024 0.488486 -42.716540 0.000000 53.000000 14.747881 18.000000
-11.656446 -0.214089 -39.688357 0.000000 32.000000 14.337464 0.000000
-14.245310 -1.640329 -41.017308 0.000000 69.000000 15.098049 4.000000
-12.068669 -0.878861 -40.457888 0.000000 72.000000 15.109905 26.000000
-14.616498 -0.648203 -42.316957 0.000000 59.000000 15.271635 23.000000
-12.646400 1.081133 -42.510875 0.000000 54.000000 15.153683 13.000000
-13.290460 1.116122 -42.756182 0.000000 50.000000 15.051099 13.000000
-14.389468 2.026669 -43.209400 0.000000 41.000000 14.393814 0.000000
-12.678401 1.112380 -42.340338 0.000000 57.000000 15.003032 13.000000
-14.767905 1.257739 -42.879020 0.000000 48.000000 14.471136 0.000000
-12.609662 -1.349156 -39.733433 0.000000 73.000000 14.669426 30.000000
-15.907184 -0.399391 -42.620402 0.000000 61.000000 14.827897 22.000000
-16.980327 -1.538478 -41.768350 0.000000 57.000000 14.486647 0.000000
-15.920122 -1.508183 -41.098420 0.000000 39.000000 14.416790 0.000000
-14.541583 -0.888009 -41.480440 0.000000 76.000000 14.857952 10.000000
-13.336144 -0.643181 -40.957667 0.000000 52.000000 14.820643 25.000000
-12.577844 -0.552117 -40.818763 0.000000 71.000000 14.967699 25.000000
-13.169112 -0.330312 -41.294814 0.000000 61.000000 14.936313 25.000000
-12.872152 -1.043082 -40.390217 0.000000 68.000000 14.843916 10.000000
-15.340900 -3.056222 -40.362555 0.000000 77.000000 15.050936 1.000000
-11.484990 -1.080731 -39.030748 0.000000 46.000000 14.460253 0.000000
-11.575235 -1.055092 -39.133034 0.000000 56.000000 14.481104 0.000000
-16.168428 -0.442820 -42.968757 0.000000 71.000000 14.994895 22.000000
-13.491843 -2.570486 -38.844013 0.000000 40.000000 14.426145 0.000000
-11.292764 1.543007 -41.715584 0.000000 50.000000 14.854636 14.000000
-12.122634 -0.795358 -40.437606 0.000000 62.000000 15.024744 26.000000
-15.294214 -0.388323 -41.550425 0.000000 43.000000 14.313191 0.000000
-11.891445 -1.227430 -39.793917 0.000000 60.000000 14.922106 26.000000
-16.126482 -0.637902 -42.833740 0.000000 54.000000 15.032968 22.000000
-11.861121 -0.843323 -39.720596 0.000000 57.000000 14.654035 26.000000
-15.062218 -0.395879 -41.462441 0.000000 46.000000 14.347402 0.000000
-12.670208 -0.075254 -41.382669 0.000000 73.000000 15.042447 9.000000
-15.102729 1.178913 -43.567481 0.000000 67.000000 14.868461 15.000000
-16.456515 -0.403888 -42.197741 0.000000 45.000000 14.318241 0.000000
-11.623071 0.037112 -40.014185 0.000000 39.000000 14.429292 0.000000
-15.748564 1.481646 -43.941496 0.000000 44.000000 14.695945 15.000000
-15.303499 -0.990975 -41.610435 0.000000 63.000000 14.710318 12.000000
-15.738103 1.093984 -43.901410 0.000000 59.000000 14.902755 16.000000
-14.659360 -0.947164 -40.889753 0.000000 42.000000 14.433053 0.000000
-13.921413 0.869639 -42.583263 0.000000 42.000000 14.828288 29.000000
-14.623545 1.352167 -42.942342 0.000000 58.000000 14.516116 15.000000
-12.857145 -1.187906 -40.722983 0.000000 70.000000 15.169119 10.000000
-13.456810 0.660533 -42.027028 0.000000 68.000000 14.746079 17.000000
-13.743559 1.431718 -42.400601 0.000000 41.000000 14.435771 0.000000
-15.826214 -1.515239 -41.072481 0.000000 46.000000 14.439795 0.000000
-15.582708 0.797180 -42.930609 0.000000 55.000000 14.460631 0.000000
-15.602685 1.963491 -44.128521 0.000000 67.000000 14.597546 5.000000
-16.089373 -0.586582 -42.071333 0.000000 60.000000 14.483007 0.000000
-14.140084 -0.042198 -42.470635 0.000000 56.000000 15.206106 18.000000
-14.223998 0.808850 -42.516109 0.000000 49.000000 14.698303 29.000000
-15.276240 -0.281049 -41.579070 0.000000 38.000000 14.276472 0.000000
-16.583976 -2.719677 -41.090225 0.000000 83.000000 14.870862 2.000000
-13.866945 0.245683 -41.473016 0.000000 51.000000 14.443501 0.000000
-13.094271 -0.910823 -40.862867 0.000000 63.000000 15.008795 10.000000
-11.467965 1.050367 -41.351232 0.000000 44.000000 14.823709 19.000000
-11.353711 0.916053 -40.459182 0.000000 35.000000 14.323819 0.000000
-11.203009 0.962806 -40.444524 0.000000 33.000000 14.345055 0.000000
-11.029852 0.985361 -40.447568 0.000000 33.000000 14.401936 0.000000
-13.862002 -0.842888 -41.341533 0.000000 76.000000 15.001361 10.000000
-15.766524 -2.727819 -40.663117 0.000000 45.000000 14.898392 1.000000
-14.054662 0.262816 -42.132300 0.000000 54.000000 14.821184 18.000000
-15.871294 -0.883664 -42.304120 0.000000 59.000000 14.908771 11.000000
-10.483921 1.961665 -40.856865 0.000000 34.000000 14.322389 0.000000
-14.664075 -2.102306 -39.891902 0.000000 42.000000 14.419898 0.000000
-14.969248 -0.554117 -42.013698 0.000000 67.000000 14.864327 23.000000
-15.131399 2.001514 -43.954090 0.000000 40.000000 14.638288 5.000000
-15.085004 -0.536541 -41.706243 0.000000 33.000000 14.592934 23.000000
-16.499864 -1.006421 -42.682472 0.000000 52.000000 14.999379 11.000000
-15.697803 -1.390228 -41.706812 0.000000 70.000000 14.860249 12.000000
-16.595328 -1.217130 -42.297881 0.000000 83.000000 14.817842 11.000000
-15.454223 1.153626 -43.589453 0.000000 42.000000 14.760513 15.000000
-11.584793 0.579071 -40.845487 0.000000 48.000000 14.704022 19.000000
-11.611641 0.881342 -41.163096 0.000000 63.000000 14.735981 19.000000
-15.866873 -0.398290 -42.702065 0.000000 64.000000 14.900313 22.000000
-16.612414 -1.721545 -41.163292 0.000000 43.000000 14.316671 0.000000
-12.470313 -2.455054 -38.637685 0.000000 52.000000 14.615107 21.000000
-11.255890 -0.946808 -39.523645 0.000000 62.000000 14.815977 26.000000
-15.860931 -1.016554 -42.247965 0.000000 62.000000 14.952626 11.000000
-13.319510 1.100281 -42.246019 0.000000 53.000000 14.691751 13.000000
-15.311111 -1.981326 -40.367265 0.000000 47.000000 14.426094 0.000000
-15.280308 -2.077946 -40.254788 0.000000 39.000000 14.416954 0.000000
-16.345817 -2.192573 -40.740989 0.000000 50.000000 14.406233 0.000000
-15.239074 -2.178334 -40.144038 0.000000 42.000000 14.415375 0.000000
-16.297545 -2.294760 -40.627209 0.000000 51.000000 14.406373 0.000000
-15.453998 0.461393 -43.934504 0.000000 5.000000 15.414366 16.000000
-11.736670 -1.089644 -40.289858 0.000000 74.000000 15.248401 26.000000
-11.237551 0.081756 -40.108518 0.000000 31.000000 14.620578 20.000000
-14.131221 0.286225 -41.837388 0.000000 55.000000 14.570538 18.000000
-15.293111 1.329544 -43.578423 0.000000 58.000000 14.711499 15.000000
-15.059084 -2.701988 -39.434259 0.000000 33.000000 14.300805 0.000000
-12.647141 -0.042664 -41.494768 0.000000 76.000000 15.110647 9.000000
-12.405750 0.256643 -40.901690 0.000000 52.000000 14.612098 9.000000
-14.287708 -0.550787 -42.127224 0.000000 61.000000 15.210200 23.000000
-14.451852 -0.122892 -41.937766 0.000000 39.000000 14.758149 23.000000
-15.027379 0.832491 -43.075892 0.000000 61.000000 14.760017 29.000000
-12.348521 0.296411 -40.659792 0.000000 48.000000 14.441521 0.000000
-12.513103 0.308554 -40.721818 0.000000 49.000000 14.412939 0.000000
-12.154850 0.250354 -40.558016 0.000000 49.000000 14.473902 0.000000
-16.179651 -2.066094 -40.887144 0.000000 54.000000 14.498738 0.000000
-12.662118 1.224601 -42.669980 0.000000 51.000000 15.173534 13.000000
-16.200291 -0.603425 -42.899078 0.000000 53.000000 15.029150 22.000000
-14.880496 -0.407588 -42.389055 0.000000 62.000000 15.074960 23.000000
-13.581604 -2.177226 -39.239209 0.000000 38.000000 14.433515 0.000000
-14.798696 0.833556 -42.963307 0.000000 49.000000 14.770562 29.000000
-12.743321 -2.845121 -38.086251 0.000000 31.000000 14.353572 0.000000
-15.355882 -2.626158 -39.708663 0.000000 43.000000 14.331013 0.000000
-11.301290 0.074097 -40.408839 0.000000 55.000000 14.810400 20.000000
-13.046081 -0.626110 -41.085150 0.000000 64.000000 15.013979 25.000000
-15.284758 -2.330073 -40.050538 0.000000 58.000000 14.422224 0.000000
-16.436515 -2.316900 -40.665092 0.000000 50.000000 14.391372 0.000000
-15.311324 -2.208732 -40.145064 0.000000 48.000000 14.405742 0.000000
-13.984373 0.270844 -41.958631 0.000000 64.000000 14.722434 18.000000
-14.041609 0.887836 -42.764015 0.000000 65.000000 14.896737 29.000000
-16.455647 -2.087207 -40.878762 0.000000 46.000000 14.396770 0.000000
-15.341216 -1.980468 -40.348139 0.000000 44.000000 14.400333 0.000000
-14.463504 -0.765766 -41.437800 0.000000 56.000000 14.786057 10.000000
-13.907785 -1.220548 -40.878439 0.000000 60.000000 14.883780 10.000000
-13.982483 -0.370742 -41.584223 0.000000 45.000000 14.842854 24.000000
-12.794223 -0.506020 -40.900091 0.000000 63.000000 14.912030 25.000000
-10.994026 1.057749 -41.208010 0.000000 61.000000 14.905596 7.000000
-17.104486 -2.852462 -41.634846 0.000000 51.000000 15.126447 2.000000
-14.211354 0.752689 -42.598853 0.000000 44.000000 14.794670 29.000000
-12.915480 -0.070489 -41.642019 0.000000 63.000000 15.124701 9.000000
-16.506811 -1.500683 -42.172760 0.000000 65.000000 14.933847 11.000000
-14.674393 1.435350 -43.563626 0.000000 63.000000 14.881752 15.000000
-13.854169 -1.215792 -40.854376 0.000000 65.000000 14.885204 10.000000
-11.184996 -0.103375 -40.558826 0.000000 53.000000 15.066891 20.000000
