-68.068911 16.449410 -2.675485 0.000000 29.000000 14.180303 0.000000
-68.326607 16.218045 -2.496672 0.000000 46.000000 14.132224 0.000000
-69.955830 16.890475 -1.687849 0.000000 26.000000 14.117528 0.000000
-68.684479 16.322910 -2.322155 0.000000 39.000000 14.131826 0.000000
-71.855326 17.214561 -0.819381 0.000000 49.000000 14.167417 0.000000
-69.082430 16.444283 -2.086436 0.000000 42.000000 14.093923 0.000000
-70.589234 18.937363 -1.853318 0.000000 48.000000 14.543388 15.000000
-70.896826 19.042263 -2.460723 0.000000 9.000000 15.224148 15.000000
-68.738039 17.787729 -2.963969 0.000000 45.000000 14.732412 28.000000
-69.890555 18.824200 -2.155106 0.000000 37.000000 14.509161 23.000000
-71.041389 13.035774 -1.567139 0.000000 50.000000 14.483818 2.000000
-71.402387 17.008408 -0.923879 0.000000 44.000000 14.063266 0.000000
-71.790244 13.168282 -0.848613 0.000000 45.000000 14.165236 0.000000
-70.306388 13.838708 -1.493955 0.000000 30.000000 14.096506 0.000000
-68.299316 17.539671 -2.558664 0.000000 37.000000 14.176033 0.000000
-69.327529 15.246272 -1.927564 0.000000 24.000000 14.058266 0.000000
-67.098883 18.717822 -3.438101 0.000000 44.000000 14.441789 25.000000
-68.112054 17.083877 -2.579835 0.000000 31.000000 14.113160 0.000000
-70.752109 15.929114 -1.634138 0.000000 51.000000 14.417532 12.000000
-68.048642 16.879617 -2.528518 0.000000 28.000000 14.039276 0.000000
-69.113871 13.251653 -2.395926 0.000000 43.000000 14.385988 9.000000
-67.835115 16.594556 -2.733618 0.000000 39.000000 14.130314 0.000000
-70.943033 14.106966 -1.607219 0.000000 39.000000 14.476838 6.000000
-67.272470 18.175255 -3.907540 0.000000 38.000000 14.939866 30.000000
-67.487964 13.412501 -3.372870 0.000000 60.000000 14.553319 11.000000
-69.466520 19.031788 -2.247564 0.000000 39.000000 14.406826 22.000000
-69.916424 15.433613 -1.654852 0.000000 23.000000 14.070618 0.000000
-67.375684 15.870400 -2.996049 0.000000 31.000000 14.165346 0.000000
-68.903442 18.414126 -2.784590 0.000000 26.000000 14.643453 17.000000
-67.243170 15.647686 -3.035499 0.000000 37.000000 14.142858 0.000000
-67.222149 18.652933 -3.635965 0.000000 47.000000 14.673638 25.000000
-70.677287 14.296312 -1.758654 0.000000 68.000000 14.496776 6.000000
-67.718299 16.501200 -2.793500 0.000000 34.000000 14.133066 0.000000
-67.340216 17.709449 -3.571488 0.000000 45.000000 14.667301 20.000000
-68.147018 17.602176 -3.389932 0.000000 82.000000 14.856942 20.000000
-67.276443 17.058539 -3.419834 0.000000 52.000000 14.503029 3.000000
-66.937617 17.798396 -3.538495 0.000000 49.000000 14.461529 8.000000
-70.469845 15.750659 -1.731451 0.000000 52.000000 14.381575 12.000000
-67.736193 17.658131 -3.491724 0.000000 47.000000 14.768779 20.000000
-66.478700 16.959664 -3.293985 0.000000 34.000000 14.040914 0.000000
-66.723485 17.088385 -3.265891 0.000000 37.000000 14.122723 0.000000
-66.920659 17.186311 -3.327311 0.000000 52.000000 14.264202 0.000000
-67.953706 17.721067 -2.784150 0.000000 41.000000 14.227629 0.000000
-66.397977 17.393684 -3.447531 0.000000 36.000000 14.143682 0.000000
-67.293877 14.843359 -3.632206 0.000000 46.000000 14.701633 4.000000
-70.179391 13.284687 -1.632777 0.000000 45.000000 14.165793 0.000000
-69.766635 18.561618 -1.912223 0.000000 44.000000 14.236542 0.000000
-70.284731 17.870484 -2.021966 0.000000 46.000000 14.561852 7.000000
-66.304468 13.227838 -3.577411 0.000000 35.000000 14.219576 0.000000
-68.774427 18.618818 -3.073645 0.000000 43.000000 14.846956 17.000000
-66.682171 13.334410 -3.308457 0.000000 35.000000 14.142929 0.000000
-68.445172 14.940396 -2.715131 0.000000 48.000000 14.380537 18.000000
-68.224654 17.546246 -2.631603 0.000000 40.000000 14.208966 0.000000
-67.485206 18.756361 -3.225607 0.000000 56.000000 14.419685 25.000000
-68.745052 13.801646 -2.272124 0.000000 40.000000 14.113331 0.000000
-68.966142 13.446721 -2.648548 0.000000 57.000000 14.548542 9.000000
-69.148664 13.886030 -2.023574 0.000000 40.000000 14.066366 0.000000
-69.484614 13.940645 -1.900097 0.000000 41.000000 14.102277 0.000000
-69.897649 14.017895 -1.654766 0.000000 34.000000 14.062329 0.000000
-71.788949 14.259464 -0.815881 0.000000 38.000000 14.135236 0.000000
-71.165724 18.231277 -1.002020 0.000000 16.000000 14.030015 0.000000
-68.184991 18.410625 -3.226060 0.000000 54.000000 14.726188 21.000000
-70.709730 14.059183 -1.762335 0.000000 40.000000 14.514277 6.000000
-67.990290 16.968058 -2.642800 0.000000 40.000000 14.116521 0.000000
-69.803791 15.366662 -1.686567 0.000000 30.000000 14.049871 0.000000
-69.415013 18.498015 -2.317138 0.000000 54.000000 14.446861 17.000000
-67.565763 16.207240 -2.878042 0.000000 38.000000 14.142370 0.000000
-69.782282 15.786779 -1.855453 0.000000 39.000000 14.192335 0.000000
-67.242287 15.700259 -3.084024 0.000000 37.000000 14.186108 0.000000
-71.662373 16.267992 -0.879366 0.000000 37.000000 14.136959 0.000000
-69.049175 18.124458 -2.560482 0.000000 42.000000 14.505668 16.000000
-68.689902 14.313211 -2.585254 0.000000 49.000000 14.370793 5.000000
-71.516144 16.245617 -0.980257 0.000000 34.000000 14.163723 0.000000
-70.882729 15.269170 -1.288034 0.000000 45.000000 14.163430 0.000000
-70.301232 14.573262 -1.540040 0.000000 31.000000 14.135693 0.000000
-70.022880 14.318660 -1.747640 0.000000 36.000000 14.200624 0.000000
-67.638280 18.752026 -3.385574 0.000000 28.000000 14.630493 25.000000
-69.809817 13.947421 -1.605499 0.000000 27.000000 13.979606 0.000000
-69.176537 17.038054 -2.681596 0.000000 58.000000 14.670290 27.000000
-67.175987 13.366521 -3.471225 0.000000 66.000000 14.505302 29.000000
-70.551383 13.974456 -1.931697 0.000000 52.000000 14.597314 6.000000
-70.450102 13.878055 -1.853630 0.000000 46.000000 14.482810 6.000000
-68.832780 15.478433 -2.288787 0.000000 40.000000 14.166689 0.000000
-66.884537 14.674937 -3.329307 0.000000 39.000000 14.250196 0.000000
-68.494028 18.917985 -3.103505 0.000000 36.000000 14.751157 21.000000
-70.002680 15.904282 -1.681624 0.000000 43.000000 14.132423 0.000000
-68.679808 13.371058 -2.673934 0.000000 36.000000 14.446124 9.000000
-69.056663 13.465134 -2.667936 0.000000 66.000000 14.605572 9.000000
-69.642426 12.932880 -1.892246 0.000000 39.000000 14.164247 0.000000
-68.672706 18.271298 -2.929773 0.000000 47.000000 14.673083 21.000000
-66.624541 17.215707 -3.415816 0.000000 34.000000 14.214264 0.000000
-70.643194 14.602123 -1.401173 0.000000 40.000000 14.160395 0.000000
-70.739523 14.745137 -1.344381 0.000000 39.000000 14.151460 0.000000
-69.268204 15.793164 -2.044295 0.000000 40.000000 14.137288 0.000000
-70.222583 14.314448 -2.042820 0.000000 54.000000 14.553421 6.000000
-69.976384 15.977656 -1.731254 0.000000 39.000000 14.165551 0.000000
-70.342028 16.066013 -1.564068 0.000000 44.000000 14.175145 0.000000
-69.584721 15.022189 -1.822976 0.000000 30.000000 14.076714 0.000000
-67.362773 17.188465 -3.569721 0.000000 61.000000 14.675578 3.000000
-71.623453 16.384243 -0.814144 0.000000 40.000000 14.061283 0.000000
-69.672357 18.391710 -2.183109 0.000000 58.000000 14.438900 17.000000
-66.862451 17.654125 -3.527950 0.000000 72.000000 14.419167 8.000000
-68.729608 19.005747 -2.939852 0.000000 57.000000 14.707036 17.000000
-68.625874 16.225652 -2.383050 0.000000 38.000000 14.160952 0.000000
-68.488169 15.990655 -2.447814 0.000000 37.000000 14.158957 0.000000
-68.345122 15.754738 -2.513473 0.000000 32.000000 14.155431 0.000000
-71.615709 16.426684 -0.824736 0.000000 40.000000 14.067421 0.000000
-68.160001 15.505980 -2.647972 0.000000 39.000000 14.195406 0.000000
-70.403536 14.170838 -2.054393 0.000000 37.000000 14.642979 6.000000
-70.896866 15.580133 -1.306196 0.000000 45.000000 14.185946 0.000000
-67.210610 18.707373 -3.670760 0.000000 49.000000 14.699880 25.000000
-68.565285 17.743699 -3.181766 0.000000 54.000000 14.852703 28.000000
-67.480124 17.745737 -3.569248 0.000000 49.000000 14.726484 20.000000
-69.464802 14.272660 -1.993077 0.000000 49.000000 14.177224 0.000000
-70.657029 13.333153 -1.412244 0.000000 43.000000 14.176402 0.000000
-70.101260 14.602762 -1.641845 0.000000 42.000000 14.139772 0.000000
-67.120784 13.995770 -3.015313 0.000000 32.000000 14.071172 0.000000
-69.761947 14.316816 -1.942806 0.000000 43.000000 14.261993 0.000000
-67.624956 14.605430 -3.176802 0.000000 48.000000 14.436925 4.000000
-69.112236 16.206122 -2.186226 0.000000 33.000000 14.196698 0.000000
-66.735494 13.563443 -3.243328 0.000000 35.000000 14.107685 0.000000
-69.546815 13.931148 -1.786296 0.000000 41.000000 14.027148 0.000000
-71.165167 13.059398 -1.695050 0.000000 67.000000 14.652985 2.000000
-67.239661 17.683669 -3.392825 0.000000 39.000000 14.462652 20.000000
-68.971680 13.350605 -2.824324 0.000000 17.000000 14.709033 9.000000
-66.643691 16.219059 -3.334802 0.000000 40.000000 14.149788 0.000000
-66.415601 14.961500 -3.763256 0.000000 54.000000 14.435310 13.000000
-67.022962 17.849563 -3.698673 0.000000 37.000000 14.642902 30.000000
-68.010092 16.952862 -2.548212 0.000000 29.000000 14.040123 0.000000
-68.309657 17.098942 -2.462678 0.000000 35.000000 14.094240 0.000000
-67.127160 18.559607 -3.529095 0.000000 64.000000 14.535985 25.000000
-68.321993 18.785596 -3.013097 0.000000 59.000000 14.594606 21.000000
-70.490248 14.146816 -2.212273 0.000000 32.000000 14.822884 6.000000
-67.651346 18.706409 -3.283193 0.000000 58.000000 14.544142 21.000000
-69.229829 17.524623 -2.192758 0.000000 42.000000 14.254009 0.000000
-66.982298 16.872282 -3.148848 0.000000 37.000000 14.130679 0.000000
-67.328998 17.032493 -2.936089 0.000000 35.000000 14.091005 0.000000
-67.543308 17.103513 -2.968899 0.000000 39.000000 14.214252 0.000000
-67.865000 17.999388 -2.944727 0.000000 29.000000 14.333228 20.000000
-68.237095 17.392728 -2.573109 0.000000 38.000000 14.161807 0.000000
-68.540542 17.503284 -2.469986 0.000000 40.000000 14.201805 0.000000
-71.761892 18.619059 -0.773059 0.000000 31.000000 14.084892 0.000000
-70.472975 17.857347 -2.125605 0.000000 34.000000 14.737391 7.000000
-70.440224 14.207401 -1.961347 0.000000 52.000000 14.575355 6.000000
-68.188286 14.063426 -2.538905 0.000000 48.000000 14.109699 0.000000
-71.606249 18.554616 -0.815804 0.000000 35.000000 14.055251 0.000000
-67.619673 13.396869 -3.008476 0.000000 56.000000 14.283245 11.000000
-70.512647 13.552067 -1.276476 0.000000 29.000000 13.991157 0.000000
-70.958024 13.660459 -1.026141 0.000000 35.000000 13.960855 0.000000
-69.900704 18.562988 -2.200406 0.000000 56.000000 14.554337 23.000000
-70.808346 18.641745 -1.678399 0.000000 50.000000 14.481933 26.000000
-67.114530 14.800917 -3.527059 0.000000 47.000000 14.528629 4.000000
-70.060446 13.412737 -1.630672 0.000000 41.000000 14.111872 0.000000
-66.389604 14.033609 -3.778165 0.000000 79.000000 14.437345 13.000000
-70.889864 13.551589 -1.151324 0.000000 43.000000 14.043613 0.000000
-71.158530 15.325211 -1.166098 0.000000 40.000000 14.174417 0.000000
-71.629160 13.640145 -0.848010 0.000000 46.000000 14.094234 0.000000
-66.570742 13.902370 -3.322149 0.000000 40.000000 14.106501 0.000000
-66.868767 18.743359 -3.298962 0.000000 34.000000 14.216010 0.000000
-70.253078 14.618980 -1.625021 0.000000 50.000000 14.191050 0.000000
-69.406119 17.749703 -2.053341 0.000000 38.000000 14.205748 0.000000
-68.681355 18.451133 -2.924513 0.000000 57.000000 14.672136 17.000000
-67.593414 17.681422 -3.452320 0.000000 57.000000 14.670890 20.000000
-66.486975 17.144957 -3.431521 0.000000 46.000000 14.168214 0.000000
-69.180814 13.355000 -2.501023 0.000000 58.000000 14.509779 9.000000
-69.241904 18.630756 -2.790552 0.000000 56.000000 14.796863 17.000000
-71.434541 13.855736 -0.923354 0.000000 33.000000 14.076858 0.000000
-69.368363 17.954931 -2.284914 0.000000 39.000000 14.397478 16.000000
-68.973194 17.112764 -2.226612 0.000000 39.000000 14.172196 0.000000
-68.975769 16.926114 -2.075049 0.000000 36.000000 14.037028 0.000000
-68.822229 16.657075 -2.177880 0.000000 41.000000 14.062339 0.000000
-70.655660 16.606946 -1.269336 0.000000 25.000000 14.047292 0.000000
-69.968131 14.731440 -1.721684 0.000000 54.000000 14.153335 0.000000
-68.318724 15.860584 -2.530715 0.000000 39.000000 14.159389 0.000000
-70.638449 18.312727 -1.565768 0.000000 66.000000 14.306333 26.000000
-68.369886 13.437376 -2.572808 0.000000 31.000000 14.219621 0.000000
-69.106696 14.286635 -2.327977 0.000000 53.000000 14.321745 5.000000
-67.123537 14.003184 -3.017311 0.000000 36.000000 14.074173 0.000000
-67.003926 13.801564 -3.006736 0.000000 33.000000 14.012344 0.000000
-70.050343 15.294109 -1.634738 0.000000 26.000000 14.111109 0.000000
-69.124472 16.749840 -2.024734 0.000000 34.000000 14.056827 0.000000
-71.799498 14.877744 -0.773731 0.000000 46.000000 14.101946 0.000000
-69.786878 14.974997 -1.776610 0.000000 47.000000 14.123445 0.000000
-67.139542 16.994359 -3.508731 0.000000 58.000000 14.523088 3.000000
-68.833653 13.201452 -2.517781 0.000000 39.000000 14.372996 9.000000
-68.329623 14.070118 -2.539445 0.000000 29.000000 14.172007 0.000000
-71.299896 14.983799 -0.976512 0.000000 33.000000 14.065766 0.000000
-69.488055 17.115637 -2.502605 0.000000 50.000000 14.645594 27.000000
-66.319326 18.519570 -3.450404 0.000000 36.000000 14.111862 0.000000
-71.010009 14.078921 -1.447144 0.000000 55.000000 14.362185 6.000000
-67.952038 18.873474 -3.271591 0.000000 62.000000 14.665235 21.000000
-66.428211 17.634109 -3.813651 0.000000 57.000000 14.486144 8.000000
-67.117382 14.111637 -3.107879 0.000000 50.000000 14.152925 0.000000
-67.319747 14.200513 -3.164134 0.000000 38.000000 14.292030 0.000000
-67.772660 14.395116 -2.774060 0.000000 37.000000 14.139363 0.000000
-67.903829 14.985653 -2.726941 0.000000 29.000000 14.154366 0.000000
-68.446411 14.667649 -2.444797 0.000000 37.000000 14.137979 0.000000
-70.818102 15.966858 -1.390095 0.000000 39.000000 14.226940 0.000000
-67.107974 18.916596 -3.492895 0.000000 67.000000 14.495039 25.000000
-69.267976 17.952318 -2.524667 0.000000 63.000000 14.569167 16.000000
-67.825701 14.715751 -2.768179 0.000000 45.000000 14.157276 0.000000
-70.631358 15.460819 -1.436385 0.000000 44.000000 14.186882 0.000000
-68.175782 14.831037 -2.574910 0.000000 38.000000 14.136607 0.000000
-68.076738 17.932975 -3.345966 0.000000 49.000000 14.786663 20.000000
-70.761971 17.484718 -2.047763 0.000000 76.000000 14.793802 7.000000
-68.132846 13.380346 -3.087586 0.000000 63.000000 14.578855 10.000000
-70.357093 15.463541 -1.452972 0.000000 35.000000 14.081831 0.000000
-70.243053 17.755303 -1.976396 0.000000 19.000000 14.502642 7.000000
-71.011380 15.601161 -1.251945 0.000000 44.000000 14.187250 0.000000
-70.467935 13.203134 -1.484363 0.000000 33.000000 14.158543 0.000000
-66.887343 14.755698 -3.674932 0.000000 59.000000 14.562230 4.000000
-71.163296 16.422817 -1.166704 0.000000 30.000000 14.177047 0.000000
-67.663738 14.312024 -2.880501 0.000000 41.000000 14.187437 0.000000
-66.697636 18.642653 -3.290522 0.000000 35.000000 14.133565 0.000000
-68.693563 17.099844 -2.348975 0.000000 34.000000 14.159918 0.000000
-67.606255 16.149297 -2.915047 0.000000 24.000000 14.193359 0.000000
-68.501698 14.885040 -2.549075 0.000000 48.000000 14.255935 18.000000
-69.326936 15.510408 -2.062829 0.000000 44.000000 14.179645 0.000000
-68.079257 18.516006 -3.285772 0.000000 62.000000 14.733635 21.000000
-69.230081 14.801026 -2.511034 0.000000 76.000000 14.540332 1.000000
-70.541059 18.550815 -1.411509 0.000000 31.000000 14.125014 0.000000
-66.976707 19.156065 -3.928421 0.000000 38.000000 14.829272 24.000000
-69.971813 17.071708 -1.668171 0.000000 32.000000 14.106824 0.000000
-66.917416 13.593918 -3.356802 0.000000 59.000000 14.289303 29.000000
-69.492260 13.195577 -2.336272 0.000000 61.000000 14.497856 9.000000
-69.525196 16.307157 -1.965438 0.000000 36.000000 14.178787 0.000000
-69.078614 13.273682 -2.669720 0.000000 45.000000 14.616778 9.000000
-69.273648 15.886880 -2.105632 0.000000 39.000000 14.194827 0.000000
-71.090512 14.892289 -1.236315 0.000000 34.000000 14.207808 0.000000
-69.260310 18.124693 -2.508786 0.000000 66.000000 14.551533 17.000000
-71.825551 14.853655 -0.812832 0.000000 27.000000 14.148504 0.000000
-68.475662 14.663630 -2.478318 0.000000 35.000000 14.180918 0.000000
-67.321933 14.714436 -3.245305 0.000000 57.000000 14.365980 4.000000
-68.423408 17.972921 -3.081741 0.000000 42.000000 14.700695 28.000000
-67.096352 13.270041 -3.576968 0.000000 54.000000 14.565559 29.000000
-71.103410 14.672674 -1.234717 0.000000 45.000000 14.212013 0.000000
-68.063412 14.037637 -2.551993 0.000000 30.000000 14.066846 0.000000
-69.502016 18.586247 -2.343336 0.000000 50.000000 14.508476 17.000000
-70.584267 13.996300 -1.319830 0.000000 36.000000 14.061471 0.000000
-69.324756 16.917288 -1.939323 0.000000 27.000000 14.067627 0.000000
-68.859769 14.031838 -2.550420 0.000000 73.000000 14.413770 5.000000
-70.139680 13.530562 -1.515206 0.000000 37.000000 14.042696 0.000000
-69.528453 13.036100 -1.977578 0.000000 40.000000 14.191129 0.000000
-70.997035 18.501628 -1.751120 0.000000 77.000000 14.629864 26.000000
-69.958782 14.683241 -1.717307 0.000000 41.000000 14.145310 0.000000
-66.684497 14.196132 -3.569670 0.000000 44.000000 14.378845 13.000000
-67.824387 16.225381 -2.752867 0.000000 37.000000 14.142931 0.000000
-68.128544 16.378889 -2.631318 0.000000 39.000000 14.166670 0.000000
-68.317693 16.604229 -2.555629 0.000000 29.000000 14.181342 0.000000
-68.846802 16.732222 -2.225764 0.000000 40.000000 14.116148 0.000000
-66.593608 16.074551 -3.349885 0.000000 42.000000 14.141445 0.000000
-67.332687 15.717181 -3.031127 0.000000 43.000000 14.178082 0.000000
-67.322949 14.491167 -3.069362 0.000000 37.000000 14.208206 0.000000
-69.581031 17.071541 -1.849923 0.000000 35.000000 14.099332 0.000000
-67.100530 16.290251 -3.241028 0.000000 47.000000 14.265289 0.000000
-68.300336 13.490132 -3.127854 0.000000 29.000000 14.688329 10.000000
-68.585871 17.564785 -2.688339 0.000000 40.000000 14.417988 28.000000
-67.840958 16.622879 -2.728347 0.000000 38.000000 14.128130 0.000000
-69.371808 19.107609 -2.630043 0.000000 52.000000 14.709345 22.000000
-67.064582 16.636874 -3.284977 0.000000 33.000000 14.289086 14.000000
-71.131086 17.737200 -1.072943 0.000000 46.000000 14.078642 0.000000
-71.855180 17.071188 -0.863995 0.000000 41.000000 14.207473 0.000000
-66.326113 16.254882 -3.531999 0.000000 42.000000 14.188206 0.000000
-68.870773 17.036776 -2.175365 0.000000 31.000000 14.081312 0.000000
-71.894485 18.027776 -0.764815 0.000000 48.000000 14.135477 0.000000
-67.664361 15.051395 -3.269797 0.000000 22.000000 14.537788 4.000000
-68.169239 13.091282 -2.837251 0.000000 57.000000 14.369658 10.000000
-71.009318 17.755331 -1.154529 0.000000 45.000000 14.098746 0.000000
-68.930752 18.442410 -2.915857 0.000000 56.000000 14.773442 17.000000
-66.489848 13.855248 -3.424572 0.000000 55.000000 14.163222 0.000000
-69.993096 12.933473 -1.654455 0.000000 40.000000 14.103799 0.000000
-66.990726 15.717551 -3.235612 0.000000 33.000000 14.212389 0.000000
-70.761537 13.109330 -1.301435 0.000000 42.000000 14.122469 0.000000
-66.639071 14.222603 -3.758459 0.000000 40.000000 14.528745 13.000000
-71.421406 13.151309 -1.367982 0.000000 46.000000 14.470949 2.000000
-71.163528 13.065266 -1.112693 0.000000 43.000000 14.128578 0.000000
-66.344776 17.176784 -3.543958 0.000000 43.000000 14.207124 0.000000
-69.334974 15.225704 -1.906347 0.000000 26.000000 14.042443 0.000000
-67.613339 18.282070 -3.197117 0.000000 34.000000 14.450112 20.000000
-71.429850 14.869451 -0.993699 0.000000 40.000000 14.138065 0.000000
-69.593311 17.057424 -1.875415 0.000000 42.000000 14.127627 0.000000
-67.064900 14.744414 -3.340017 0.000000 38.000000 14.338721 4.000000
-68.534367 18.453339 -2.943904 0.000000 47.000000 14.625279 21.000000
-66.558417 15.901746 -3.400818 0.000000 32.000000 14.171854 0.000000
-69.400794 16.573988 -1.894032 0.000000 31.000000 14.060159 0.000000
-66.444274 15.668180 -3.469927 0.000000 34.000000 14.184073 0.000000
-70.703341 18.863018 -1.941986 0.000000 48.000000 14.673035 15.000000
-67.889190 13.638273 -2.977821 0.000000 41.000000 14.373569 10.000000
-69.527507 15.165290 -1.826957 0.000000 28.000000 14.055267 0.000000
-69.979090 14.865570 -1.727730 0.000000 34.000000 14.163566 0.000000
-68.640536 15.303900 -2.311979 0.000000 39.000000 14.103454 0.000000
-69.033396 14.083225 -2.501774 0.000000 51.000000 14.445972 5.000000
-68.103851 14.563171 -2.653006 0.000000 37.000000 14.175372 0.000000
-67.953791 14.337002 -2.703656 0.000000 36.000000 14.155281 0.000000
-67.771103 14.099988 -2.814096 0.000000 44.000000 14.174685 0.000000
-70.891462 15.312804 -1.857068 0.000000 64.000000 14.678959 12.000000
-71.497968 16.760486 -0.884303 0.000000 25.000000 14.069485 0.000000
-71.459480 14.750743 -0.979823 0.000000 34.000000 14.138547 0.000000
-66.907560 14.951551 -3.719043 0.000000 61.000000 14.610741 4.000000
-67.466560 13.438147 -3.359407 0.000000 66.000000 14.531850 11.000000
-68.466171 15.931554 -2.535465 0.000000 33.000000 14.228156 0.000000
-70.625829 15.952632 -1.447974 0.000000 54.000000 14.194886 0.000000
-70.651522 17.983937 -1.263983 0.000000 21.000000 14.040668 0.000000
-66.322630 17.344279 -3.520076 0.000000 35.000000 14.175961 0.000000
-66.615470 17.532762 -3.367098 0.000000 31.000000 14.166487 0.000000
-66.485109 13.395386 -3.414795 0.000000 33.000000 14.152357 0.000000
-67.606741 17.865120 -3.510783 0.000000 49.000000 14.729293 20.000000
-67.504231 13.828061 -2.768529 0.000000 31.000000 14.016975 0.000000
-69.530042 17.229074 -2.471994 0.000000 56.000000 14.636432 27.000000
-71.764831 16.015008 -0.866939 0.000000 41.000000 14.170600 0.000000
-68.407346 14.176066 -2.435040 0.000000 34.000000 14.112117 0.000000
-70.366893 15.422961 -1.487248 0.000000 27.000000 14.116940 0.000000
-69.138271 14.270816 -2.437072 0.000000 55.000000 14.433662 5.000000
-68.524953 18.459898 -3.015999 0.000000 40.000000 14.685993 21.000000
-69.363141 14.515808 -2.094808 0.000000 40.000000 14.224239 0.000000
-70.995904 18.619553 -1.232738 0.000000 27.000000 14.163209 0.000000
-69.841776 14.684582 -1.729371 0.000000 40.000000 14.104978 0.000000
-67.494217 14.104873 -2.890199 0.000000 42.000000 14.122007 0.000000
-68.020488 18.653205 -3.254429 0.000000 56.000000 14.679743 21.000000
-67.800643 14.199039 -2.756413 0.000000 45.000000 14.135734 0.000000
-68.127520 14.298170 -2.594119 0.000000 37.000000 14.132770 0.000000
-68.447850 14.389889 -2.448089 0.000000 42.000000 14.141569 0.000000
-69.549561 17.045596 -1.978553 0.000000 28.000000 14.201238 0.000000
-68.756770 14.473676 -2.331604 0.000000 39.000000 14.171944 0.000000
-69.137148 14.938585 -2.470118 0.000000 57.000000 14.462887 1.000000
-67.969563 16.810150 -2.598184 0.000000 27.000000 14.067333 0.000000
-69.497323 14.677330 -1.907857 0.000000 40.000000 14.114815 0.000000
-69.059524 13.310266 -2.818427 0.000000 61.000000 14.742154 9.000000
-71.516933 13.581832 -0.946436 0.000000 42.000000 14.133655 0.000000
-66.659508 17.226800 -3.432081 0.000000 30.000000 14.244186 0.000000
-68.304230 13.008358 -2.833815 0.000000 41.000000 14.425615 10.000000
-66.780473 17.475769 -3.302625 0.000000 31.000000 14.180683 0.000000
-66.713017 17.234292 -3.349144 0.000000 36.000000 14.193009 0.000000
-66.686090 17.025364 -3.300814 0.000000 35.000000 14.137770 0.000000
-66.659011 16.819282 -3.248266 0.000000 35.000000 14.078671 0.000000
-66.476375 16.513779 -3.486299 0.000000 35.000000 14.212837 0.000000
-66.465846 14.534316 -3.914658 0.000000 73.000000 14.593437 13.000000
-70.851540 18.448187 -1.198308 0.000000 36.000000 14.069100 0.000000
-70.223205 17.295012 -1.619474 0.000000 29.000000 14.172995 0.000000
-68.840253 13.477833 -2.937716 0.000000 12.000000 14.753513 9.000000
-70.314077 17.180216 -1.559280 0.000000 34.000000 14.158614 0.000000
-70.281905 16.979404 -1.487032 0.000000 33.000000 14.079571 0.000000
-71.556817 14.266385 -0.963337 0.000000 43.000000 14.166299 0.000000
-67.276490 18.136954 -3.536477 0.000000 41.000000 14.607942 30.000000
-70.730037 17.337349 -1.391440 0.000000 23.000000 14.189629 0.000000
-71.816185 18.362374 -0.707065 0.000000 45.000000 14.049295 0.000000
-69.209068 16.839220 -1.993587 0.000000 30.000000 14.065821 0.000000
-69.473509 15.521432 -1.907650 0.000000 40.000000 14.104212 0.000000
-69.046858 18.282857 -2.884571 0.000000 47.000000 14.796094 17.000000
-68.137187 14.364217 -2.601505 0.000000 47.000000 14.143641 0.000000
-66.906541 13.991136 -3.204344 0.000000 27.000000 14.147447 0.000000
-71.504839 14.611529 -0.975730 0.000000 43.000000 14.154707 0.000000
-69.381447 17.227461 -2.663479 0.000000 55.000000 14.743629 27.000000
-70.860754 13.897449 -1.265357 0.000000 43.000000 14.133425 0.000000
-70.536327 16.202343 -1.475247 0.000000 39.000000 14.180262 0.000000
-70.817057 13.725469 -1.078090 0.000000 23.000000 13.945910 0.000000
-69.365019 16.976193 -2.351333 0.000000 58.000000 14.455743 27.000000
-66.705203 15.164083 -3.536296 0.000000 27.000000 14.357890 4.000000
-67.020914 14.655389 -3.651470 0.000000 33.000000 14.599558 4.000000
-67.369790 15.599228 -2.910728 0.000000 32.000000 14.086042 0.000000
-69.139407 18.437961 -2.323105 0.000000 40.000000 14.331673 17.000000
-69.208172 18.666951 -2.881548 0.000000 62.000000 14.863937 17.000000
-68.290079 16.040548 -2.520487 0.000000 43.000000 14.137662 0.000000
-68.609792 16.183756 -2.384055 0.000000 38.000000 14.154821 0.000000
-66.445388 15.575699 -3.430898 0.000000 34.000000 14.149463 0.000000
-68.962279 16.342369 -2.202829 0.000000 39.000000 14.146035 0.000000
-66.747115 15.707967 -3.268598 0.000000 44.000000 14.135493 0.000000
-69.202250 18.961980 -2.568202 0.000000 49.000000 14.579567 17.000000
-69.243151 17.381178 -2.428752 0.000000 49.000000 14.472056 16.000000
-66.664008 19.171570 -3.975059 0.000000 58.000000 14.734433 24.000000
-70.138973 18.471094 -1.796769 0.000000 42.000000 14.295585 23.000000
-70.134473 16.852001 -1.510311 0.000000 34.000000 14.036016 0.000000
-70.560799 18.542895 -1.797983 0.000000 47.000000 14.481190 15.000000
-70.468513 16.979988 -1.393824 0.000000 39.000000 14.077378 0.000000
-67.976205 16.206547 -2.655897 0.000000 33.000000 14.122137 0.000000
-67.191858 18.535689 -3.562755 0.000000 40.000000 14.594553 25.000000
-68.278716 16.315338 -2.534507 0.000000 38.000000 14.145299 0.000000
-71.297317 17.303987 -0.937546 0.000000 35.000000 14.029597 0.000000
-68.640808 16.453553 -2.313115 0.000000 38.000000 14.104595 0.000000
-71.641453 17.422355 -0.831700 0.000000 45.000000 14.084944 0.000000
-71.747132 13.304461 -0.845585 0.000000 52.000000 14.143656 0.000000
-67.552530 17.583535 -3.238657 0.000000 56.000000 14.460868 20.000000
-69.963003 14.859289 -1.753019 0.000000 30.000000 14.179270 0.000000
-68.199850 18.755838 -3.288633 0.000000 46.000000 14.788957 21.000000
-67.593734 15.037162 -3.335072 0.000000 46.000000 14.565594 4.000000
-70.718398 17.107360 -1.307511 0.000000 41.000000 14.109064 0.000000
-70.594241 17.428400 -1.495201 0.000000 24.000000 14.223538 0.000000
-67.701990 14.765229 -3.130999 0.000000 46.000000 14.429432 4.000000
-69.928179 13.460485 -1.653868 0.000000 36.000000 14.074875 0.000000
-68.496648 13.196084 -2.923796 0.000000 42.000000 14.590698 10.000000
-67.153201 17.027734 -3.003279 0.000000 28.000000 14.074530 0.000000
-71.137021 17.030288 -1.093501 0.000000 21.000000 14.099725 0.000000
-68.653321 13.582498 -2.363642 0.000000 60.000000 14.155505 0.000000
-70.130035 15.219064 -1.607181 0.000000 32.000000 14.121186 0.000000
-70.043616 17.511061 -1.738170 0.000000 27.000000 14.201179 0.000000
-66.633512 15.858209 -3.342583 0.000000 30.000000 14.152333 0.000000
-69.178508 17.019000 -2.246459 0.000000 42.000000 14.279851 27.000000
-66.544194 15.643725 -3.363152 0.000000 32.000000 14.131761 0.000000
-69.685786 17.986379 -1.791497 0.000000 27.000000 14.092613 0.000000
-69.038555 15.955292 -2.220228 0.000000 40.000000 14.195046 0.000000
-69.415784 17.763329 -2.737193 0.000000 75.000000 14.824937 16.000000
-69.443625 15.985099 -2.032023 0.000000 49.000000 14.202984 0.000000
-66.567934 14.452458 -3.570052 0.000000 63.000000 14.328202 13.000000
-69.300240 17.980542 -2.200366 0.000000 25.000000 14.291649 16.000000
-68.640947 16.004429 -2.426931 0.000000 39.000000 14.207006 0.000000
-71.648803 13.486616 -0.805230 0.000000 47.000000 14.064355 0.000000
-67.843917 14.089618 -2.731586 0.000000 36.000000 14.132337 0.000000
-67.767255 13.907319 -2.639248 0.000000 31.000000 14.015768 0.000000
-68.603686 13.090910 -2.628143 0.000000 56.000000 14.371649 10.000000
-67.061909 18.845272 -3.563457 0.000000 50.000000 14.538343 25.000000
-71.601984 13.788962 -0.849210 0.000000 44.000000 14.083426 0.000000
-70.622206 17.726282 -1.848511 0.000000 36.000000 14.553488 7.000000
-68.730251 17.389311 -2.909063 0.000000 72.000000 14.679630 28.000000
-67.813702 17.835998 -3.386807 0.000000 28.000000 14.708334 20.000000
-66.680480 17.331968 -3.312934 0.000000 35.000000 14.146215 0.000000
-69.026441 18.196353 -2.804887 0.000000 50.000000 14.715507 17.000000
-66.325687 17.616976 -3.518668 0.000000 46.000000 14.176032 0.000000
-69.763938 18.668148 -2.155209 0.000000 55.000000 14.453870 23.000000
-66.821275 13.372716 -3.286092 0.000000 43.000000 14.183663 0.000000
-67.909672 13.799302 -2.549325 0.000000 33.000000 13.997199 0.000000
-68.233283 13.918789 -2.397583 0.000000 37.000000 14.002296 0.000000
-71.752817 13.588198 -0.787960 0.000000 37.000000 14.094323 0.000000
-67.548967 13.277546 -3.353010 0.000000 65.000000 14.562143 11.000000
-66.737492 13.646107 -3.135775 0.000000 33.000000 14.011841 0.000000
-67.040735 13.746586 -2.984594 0.000000 34.000000 14.008533 0.000000
-68.862587 13.584646 -2.561551 0.000000 43.000000 14.425013 9.000000
-69.868227 14.457567 -1.744194 0.000000 40.000000 14.129878 0.000000
-68.088020 13.610029 -3.117210 0.000000 77.000000 14.585887 10.000000
-70.247992 14.573800 -1.551863 0.000000 38.000000 14.123037 0.000000
-67.846343 18.881715 -3.134723 0.000000 30.000000 14.495923 21.000000
-70.612802 14.680104 -1.393564 0.000000 42.000000 14.140258 0.000000
-67.866363 14.879119 -2.998913 0.000000 47.000000 14.382551 4.000000
-71.045809 14.367049 -1.358480 0.000000 46.000000 14.298112 0.000000
-71.831948 13.986074 -0.809485 0.000000 27.000000 14.148292 0.000000
-68.757976 14.201653 -2.401533 0.000000 52.000000 14.235356 0.000000
-69.899151 14.485877 -1.716686 0.000000 36.000000 14.118668 0.000000
-67.310330 15.036863 -3.552081 0.000000 54.000000 14.636776 4.000000
-69.177348 14.515212 -2.146540 0.000000 37.000000 14.189491 0.000000
-70.963134 14.693006 -1.219787 0.000000 43.000000 14.137228 0.000000
-66.997356 17.677497 -3.217727 0.000000 46.000000 14.199206 0.000000
-66.960941 17.459608 -3.192554 0.000000 30.000000 14.160640 0.000000
-66.467936 13.129939 -3.501340 0.000000 50.000000 14.222671 0.000000
-69.673187 19.158282 -2.115395 0.000000 35.000000 14.378371 22.000000
-67.005046 19.032928 -3.942623 0.000000 47.000000 14.854439 24.000000
-66.951265 17.133621 -3.589422 0.000000 63.000000 14.513295 3.000000
-68.431542 13.055528 -3.001518 0.000000 42.000000 14.632112 10.000000
-66.374979 15.813672 -3.485073 0.000000 44.000000 14.167382 0.000000
-67.684956 18.408712 -2.889482 0.000000 29.000000 14.204795 0.000000
-66.572221 15.978395 -3.405965 0.000000 29.000000 14.182520 0.000000
-67.291992 15.625913 -3.010412 0.000000 39.000000 14.141654 0.000000
-69.745487 16.685289 -1.709516 0.000000 26.000000 14.045005 0.000000
-70.501988 17.060695 -1.452964 0.000000 38.000000 14.145203 0.000000
-66.419024 17.638090 -3.811527 0.000000 60.000000 14.480215 8.000000
-66.551281 14.800007 -3.438770 0.000000 43.000000 14.202861 0.000000
-69.303542 19.022628 -2.585401 0.000000 57.000000 14.639340 22.000000
-66.615023 18.186686 -3.951428 0.000000 27.000000 14.691755 8.000000
-70.361152 15.343386 -1.500632 0.000000 27.000000 14.126465 0.000000
-69.395563 17.542777 -2.565224 0.000000 46.000000 14.661447 16.000000
-69.670947 15.443107 -1.746566 0.000000 25.000000 14.045718 0.000000
-69.092188 14.705372 -2.161580 0.000000 38.000000 14.165765 0.000000
-70.598621 18.201995 -1.404648 0.000000 48.000000 14.144023 0.000000
-66.526028 17.091786 -3.421912 0.000000 54.000000 14.176655 0.000000
-67.069757 15.041265 -3.671946 0.000000 74.000000 14.639336 4.000000
-68.621201 14.058799 -2.346531 0.000000 36.000000 14.126068 0.000000
-69.798809 12.970814 -1.820639 0.000000 39.000000 14.168257 0.000000
-68.436746 13.840820 -2.448651 0.000000 36.000000 14.137217 0.000000
-71.005958 13.820365 -1.119434 0.000000 42.000000 14.065717 0.000000
-71.494219 18.789318 -0.927003 0.000000 43.000000 14.106244 0.000000
-70.085833 16.052040 -1.724670 0.000000 34.000000 14.207505 0.000000
-70.461818 13.335849 -1.471633 0.000000 41.000000 14.144420 0.000000
-70.215363 13.109773 -1.603403 0.000000 40.000000 14.155113 0.000000
-67.830049 15.634388 -2.734122 0.000000 36.000000 14.128551 0.000000
-69.685829 13.038336 -1.885894 0.000000 49.000000 14.177520 0.000000
-67.223048 15.435390 -3.065296 0.000000 31.000000 14.160852 0.000000
-70.842295 16.177875 -1.335687 0.000000 33.000000 14.188596 0.000000
-66.662090 14.071725 -3.724222 0.000000 81.000000 14.508026 13.000000
-71.879740 12.984572 -0.854049 0.000000 36.000000 14.209272 0.000000
-67.196985 18.632375 -3.546347 0.000000 41.000000 14.582041 25.000000
-67.708124 15.369257 -2.785000 0.000000 32.000000 14.120972 0.000000
-68.115270 13.252177 -3.029581 0.000000 74.000000 14.519006 10.000000
-69.445199 13.882621 -1.827368 0.000000 29.000000 14.019634 0.000000
-68.145411 18.677735 -3.449471 0.000000 52.000000 14.909780 21.000000
-69.572384 17.076622 -1.883147 0.000000 29.000000 14.125427 0.000000
-68.150751 16.047882 -2.592172 0.000000 38.000000 14.141181 0.000000
-68.288270 13.290139 -2.950621 0.000000 58.000000 14.523673 10.000000
-69.255540 14.594150 -2.072886 0.000000 36.000000 14.157459 0.000000
-67.827603 14.478379 -2.787873 0.000000 29.000000 14.175817 0.000000
-68.791937 16.267325 -2.289049 0.000000 46.000000 14.149059 0.000000
-71.734304 17.194038 -0.877977 0.000000 46.000000 14.167173 0.000000
-69.125955 16.377516 -2.118709 0.000000 39.000000 14.141984 0.000000
-69.482866 16.493902 -1.920119 0.000000 36.000000 14.119518 0.000000
-68.951386 18.976757 -3.003279 0.000000 64.000000 14.861083 17.000000
-66.522563 15.008887 -3.828654 0.000000 65.000000 14.540906 13.000000
-70.654464 16.861557 -1.201067 0.000000 26.000000 13.985377 0.000000
-68.426991 14.734598 -2.627505 0.000000 54.000000 14.293786 18.000000
-68.252805 13.264216 -2.700361 0.000000 56.000000 14.283111 10.000000
-71.603178 17.059058 -0.900501 0.000000 40.000000 14.130072 0.000000
-70.874243 18.428985 -1.166283 0.000000 31.000000 14.050232 0.000000
-66.859313 19.149289 -3.648722 0.000000 48.000000 14.526400 24.000000
-69.254701 17.892371 -2.897077 0.000000 34.000000 14.898254 16.000000
-68.370877 16.992847 -2.405012 0.000000 24.000000 14.069162 0.000000
-70.439262 17.574407 -1.496214 0.000000 42.000000 14.156659 0.000000
-70.939949 13.414459 -1.380693 0.000000 67.000000 14.271783 2.000000
-69.049058 15.957749 -2.208611 0.000000 37.000000 14.189193 0.000000
-70.210289 17.068452 -1.579386 0.000000 35.000000 14.131296 0.000000
-67.263851 16.151650 -3.029790 0.000000 29.000000 14.146770 0.000000
-70.149918 16.853940 -1.524098 0.000000 37.000000 14.055170 0.000000
-67.534749 16.136214 -2.924131 0.000000 26.000000 14.170250 0.000000
-69.934769 16.557945 -1.717719 0.000000 41.000000 14.135177 0.000000
-66.597510 16.442077 -3.482129 0.000000 34.000000 14.262073 0.000000
-69.990359 13.301616 -1.698696 0.000000 39.000000 14.142386 0.000000
-69.601773 16.034265 -1.925568 0.000000 40.000000 14.176430 0.000000
-69.467287 15.796302 -1.967399 0.000000 37.000000 14.155220 0.000000
-70.756315 14.222781 -1.782337 0.000000 65.000000 14.552641 6.000000
-70.504360 18.396006 -2.127491 0.000000 82.000000 14.752816 23.000000
-68.656603 14.599058 -2.350296 0.000000 35.000000 14.144939 0.000000
-66.567627 17.574800 -3.788180 0.000000 51.000000 14.524221 8.000000
-67.271037 14.734245 -3.353165 0.000000 44.000000 14.440712 4.000000
-68.047616 13.329686 -2.988291 0.000000 38.000000 14.452282 10.000000
-67.557254 13.258398 -2.908269 0.000000 47.000000 14.165830 0.000000
-70.205665 18.783957 -1.939876 0.000000 46.000000 14.453447 23.000000
-66.721066 17.003802 -3.202574 0.000000 33.000000 14.064726 0.000000
-67.891183 18.155525 -3.063005 0.000000 23.000000 14.451043 21.000000
-68.119360 17.781189 -2.677130 0.000000 38.000000 14.203850 0.000000
-68.346545 13.918184 -2.508742 0.000000 51.000000 14.151799 0.000000
-70.416759 18.300699 -1.362079 0.000000 18.000000 14.026193 0.000000
-66.913140 17.553729 -3.213168 0.000000 31.000000 14.158269 0.000000
-67.141741 17.645185 -3.188360 0.000000 52.000000 14.235953 0.000000
-70.313468 17.756728 -1.932559 0.000000 63.000000 14.494022 7.000000
-66.858606 13.174166 -3.248038 0.000000 43.000000 14.165772 0.000000
-66.509190 13.404712 -3.477541 0.000000 49.000000 14.219315 0.000000
-68.863996 13.895683 -2.152031 0.000000 37.000000 14.057364 0.000000
-66.682564 13.385421 -3.294142 0.000000 43.000000 14.130228 0.000000
-67.678899 17.581680 -2.970275 0.000000 45.000000 14.274799 20.000000
-69.404730 14.049998 -2.091964 0.000000 40.000000 14.239873 0.000000
-68.977109 18.490539 -3.110041 0.000000 44.000000 14.968341 17.000000
-67.677861 13.690233 -2.686417 0.000000 35.000000 14.019083 0.000000
-68.040711 13.796896 -2.442898 0.000000 41.000000 13.958812 0.000000
-68.287135 13.850724 -2.421470 0.000000 32.000000 14.047332 0.000000
-71.565066 14.625520 -0.979932 0.000000 30.000000 14.184830 0.000000
-68.613655 13.931307 -2.260171 0.000000 37.000000 14.045107 0.000000
-69.205457 14.672943 -2.116628 0.000000 37.000000 14.174887 0.000000
-66.395367 14.965099 -3.479843 0.000000 39.000000 14.171597 0.000000
-67.812254 14.681429 -3.315370 0.000000 41.000000 14.643460 4.000000
-69.880294 14.203592 -1.740868 0.000000 39.000000 14.132165 0.000000
-68.446819 16.278556 -2.481411 0.000000 43.000000 14.171083 0.000000
-67.615218 14.827499 -3.603630 0.000000 64.000000 14.816495 4.000000
-66.675049 18.058532 -4.037123 0.000000 55.000000 14.795074 8.000000
-66.704924 15.056781 -3.511513 0.000000 52.000000 14.335482 4.000000
-66.865445 15.835784 -3.263493 0.000000 34.000000 14.182661 0.000000
-71.889836 18.940489 -0.737745 0.000000 24.000000 14.109100 0.000000
-67.337957 17.149153 -3.665409 0.000000 69.000000 14.750772 3.000000
-71.760600 18.462182 -0.782055 0.000000 30.000000 14.092417 0.000000
-66.725725 14.837078 -3.471290 0.000000 55.000000 14.308409 4.000000
-69.403975 17.820732 -2.382477 0.000000 34.000000 14.500789 16.000000
-71.516492 17.741488 -0.863187 0.000000 36.000000 14.058599 0.000000
-71.386348 17.483257 -0.952422 0.000000 37.000000 14.081918 0.000000
-69.331026 17.739935 -2.388645 0.000000 41.000000 14.474427 16.000000
-71.036237 18.659370 -1.650735 0.000000 82.000000 14.556739 26.000000
-67.750338 17.671163 -2.978078 0.000000 57.000000 14.313064 20.000000
-70.766780 17.377264 -1.919772 0.000000 77.000000 14.680808 7.000000
-69.562125 14.018241 -1.817231 0.000000 27.000000 14.061664 0.000000
-68.821394 17.884588 -3.029863 0.000000 63.000000 14.828128 28.000000
-70.323114 15.713634 -1.629921 0.000000 41.000000 14.226091 0.000000
-70.295779 15.540504 -1.493823 0.000000 32.000000 14.091747 0.000000
-68.976805 14.007679 -2.328520 0.000000 40.000000 14.265418 5.000000
-68.400192 19.092745 -2.855527 0.000000 67.000000 14.487115 17.000000
-69.287688 17.089382 -2.526574 0.000000 41.000000 14.579505 27.000000
-69.594451 14.605305 -1.891605 0.000000 38.000000 14.142685 0.000000
-71.346390 15.873529 -1.141638 0.000000 32.000000 14.234594 0.000000
-71.852830 14.150092 -0.792152 0.000000 42.000000 14.141839 0.000000
-71.651166 13.926092 -0.850275 0.000000 43.000000 14.105896 0.000000
-69.117569 17.006806 -2.059015 0.000000 28.000000 14.084635 0.000000
-68.705423 17.744005 -2.984579 0.000000 47.000000 14.736679 28.000000
-67.792797 13.350418 -2.911215 0.000000 38.000000 14.271509 10.000000
-70.646894 13.010477 -1.378850 0.000000 40.000000 14.141939 0.000000
-68.786293 18.608930 -3.007499 0.000000 86.000000 14.792664 17.000000
-70.380548 14.319247 -1.840232 0.000000 38.000000 14.440338 6.000000
-68.205414 15.412222 -2.626007 0.000000 36.000000 14.195518 0.000000
-68.525663 15.553209 -2.477142 0.000000 49.000000 14.201731 0.000000
-69.347426 17.856496 -2.743889 0.000000 51.000000 14.801058 16.000000
-67.508097 14.709492 -3.107282 0.000000 37.000000 14.323293 4.000000
-69.569743 15.994044 -1.933445 0.000000 39.000000 14.169502 0.000000
-69.450053 13.306065 -2.014279 0.000000 35.000000 14.189839 0.000000
-67.245057 14.138894 -3.134527 0.000000 36.000000 14.232735 0.000000
-70.275849 16.270344 -1.602957 0.000000 41.000000 14.181169 0.000000
-70.122036 17.088942 -1.659249 0.000000 39.000000 14.164510 0.000000
-67.938175 14.817684 -2.759650 0.000000 48.000000 14.198804 0.000000
-67.175553 14.762915 -3.548055 0.000000 40.000000 14.574202 4.000000
-71.161788 16.617859 -1.010708 0.000000 43.000000 14.036106 0.000000
-68.543284 15.799241 -2.475168 0.000000 47.000000 14.207664 0.000000
-68.480911 18.719383 -3.023479 0.000000 54.000000 14.673455 17.000000
-68.481760 16.123734 -2.509831 0.000000 41.000000 14.211924 0.000000
-69.220115 16.027578 -2.103261 0.000000 51.000000 14.169279 0.000000
-69.347747 18.254094 -2.391032 0.000000 47.000000 14.483888 17.000000
-69.916187 16.251950 -1.732174 0.000000 33.000000 14.140047 0.000000
-70.224805 16.330956 -1.628294 0.000000 42.000000 14.181626 0.000000
-70.622308 16.450722 -1.377925 0.000000 42.000000 14.130353 0.000000
-70.530149 17.686612 -1.891774 0.000000 46.000000 14.552125 7.000000
-69.095089 17.542006 -2.594926 0.000000 44.000000 14.556725 16.000000
-67.963992 14.294509 -2.725881 0.000000 37.000000 14.179729 0.000000
-70.280751 14.019902 -2.125516 0.000000 78.000000 14.653229 6.000000
-69.781948 14.718495 -1.841650 0.000000 33.000000 14.179777 0.000000
-68.522200 17.535731 -2.495016 0.000000 36.000000 14.216290 0.000000
-67.048683 14.488392 -3.339554 0.000000 55.000000 14.331211 19.000000
-68.478226 17.328917 -2.460008 0.000000 29.000000 14.165574 0.000000
-70.723212 18.827430 -1.427782 0.000000 37.000000 14.219324 0.000000
-71.474534 15.469012 -1.033237 0.000000 49.000000 14.193165 0.000000
-70.503585 15.292942 -1.435456 0.000000 29.000000 14.130157 0.000000
-68.365819 16.908696 -2.410783 0.000000 31.000000 14.072139 0.000000
-71.359966 17.673430 -0.952011 0.000000 44.000000 14.070008 0.000000
-69.722547 16.831859 -2.377425 0.000000 78.000000 14.635595 27.000000
-71.192695 17.393739 -1.073619 0.000000 40.000000 14.106198 0.000000
-67.406960 17.164735 -3.526782 0.000000 69.000000 14.656293 3.000000
-71.067201 17.139474 -1.117281 0.000000 31.000000 14.090569 0.000000
-67.978868 16.177137 -2.697127 0.000000 28.000000 14.160379 0.000000
-70.989107 16.912572 -1.080030 0.000000 24.000000 14.022911 0.000000
-69.132942 13.168522 -2.172946 0.000000 48.000000 14.193813 0.000000
-70.757571 16.612559 -1.285189 0.000000 38.000000 14.106125 0.000000
-67.718212 15.709252 -2.863282 0.000000 45.000000 14.195781 0.000000
-71.503510 13.281491 -0.952538 0.000000 32.000000 14.133270 0.000000
-70.461823 17.626283 -1.987124 0.000000 51.000000 14.607983 7.000000
-67.299660 17.306210 -3.087171 0.000000 33.000000 14.214034 0.000000
-70.206518 15.817364 -1.645464 0.000000 40.000000 14.189067 0.000000
-67.854216 15.751601 -2.792091 0.000000 56.000000 14.191251 0.000000
-69.952334 15.364421 -1.664754 0.000000 39.000000 14.095230 0.000000
-71.043349 19.086905 -2.673523 0.000000 3.000000 15.479602 15.000000
-68.731013 13.337753 -2.698517 0.000000 59.000000 14.490628 9.000000
-71.392562 18.488050 -0.917354 0.000000 32.000000 14.053100 0.000000
-71.676749 14.992823 -0.877194 0.000000 27.000000 14.141294 0.000000
-69.988203 14.903276 -1.714791 0.000000 41.000000 14.155916 0.000000
-70.736326 17.457761 -1.909175 0.000000 69.000000 14.657958 7.000000
-66.445467 16.396386 -3.476217 0.000000 48.000000 14.190251 0.000000
-69.914122 14.876046 -1.748007 0.000000 31.000000 14.153382 0.000000
-69.483120 18.535880 -2.650222 0.000000 61.000000 14.776181 17.000000
-67.723241 18.097042 -3.157575 0.000000 62.000000 14.462626 20.000000
-70.107008 14.880591 -1.675883 0.000000 28.000000 14.172895 0.000000
-68.932463 18.361734 -2.738102 0.000000 56.000000 14.614343 17.000000
-69.406633 18.694740 -2.608340 0.000000 51.000000 14.705062 17.000000
-69.363315 15.630970 -2.012943 0.000000 40.000000 14.150697 0.000000
-68.144610 17.739254 -2.677953 0.000000 49.000000 14.215634 0.000000
-69.080404 14.014400 -2.256361 0.000000 38.000000 14.245844 5.000000
-69.321173 18.267878 -2.254564 0.000000 33.000000 14.349544 17.000000
-71.040337 18.559946 -1.212543 0.000000 33.000000 14.164484 0.000000
-66.949659 13.174108 -3.207192 0.000000 40.000000 14.168869 0.000000
-69.357018 18.051120 -2.077525 0.000000 54.000000 14.206019 0.000000
-69.185038 13.126983 -2.437391 0.000000 56.000000 14.454405 9.000000
-66.458350 14.701949 -3.858747 0.000000 78.000000 14.539880 13.000000
-69.302594 13.833325 -1.836062 0.000000 28.000000 13.965075 0.000000
-71.118657 18.707570 -1.187172 0.000000 26.000000 14.175927 0.000000
-69.922897 13.960236 -1.608091 0.000000 31.000000 14.031399 0.000000
-71.640780 14.261364 -0.861314 0.000000 40.000000 14.111280 0.000000
-69.206679 14.105237 -2.319950 0.000000 56.000000 14.358261 5.000000
-66.537550 18.804215 -3.354153 0.000000 26.000000 14.120762 0.000000
-66.498055 18.572746 -3.390252 0.000000 34.000000 14.135949 0.000000
-69.011104 18.186529 -2.977392 0.000000 83.000000 14.863925 17.000000
-66.257385 17.444659 -3.535994 0.000000 28.000000 14.161736 0.000000
-69.699825 16.693298 -1.751516 0.000000 17.000000 14.062801 0.000000
-66.475428 17.575718 -3.469877 0.000000 37.000000 14.197655 0.000000
-68.498389 17.210789 -2.411074 0.000000 37.000000 14.130389 0.000000
-68.449461 16.997670 -2.362272 0.000000 29.000000 14.065102 0.000000
-68.348350 16.755200 -2.405499 0.000000 35.000000 14.059746 0.000000
-68.164616 16.464383 -2.596132 0.000000 36.000000 14.150807 0.000000
-68.054095 16.224012 -2.645566 0.000000 42.000000 14.146917 0.000000
-67.308459 13.410066 -3.495680 0.000000 62.000000 14.585239 29.000000
-66.854068 17.922114 -3.632339 0.000000 46.000000 14.509373 8.000000
-67.690092 15.510396 -2.822844 0.000000 35.000000 14.147116 0.000000
-67.252077 18.966504 -3.690115 0.000000 41.000000 14.735424 25.000000
-66.910512 14.323712 -3.363505 0.000000 38.000000 14.292311 0.000000
-68.414638 13.292278 -2.618242 0.000000 56.000000 14.280053 10.000000
-68.594400 13.107920 -3.029055 0.000000 75.000000 14.728111 10.000000
-70.867365 16.994657 -1.321489 0.000000 30.000000 14.186794 0.000000
-68.747296 16.559258 -2.241645 0.000000 29.000000 14.086904 0.000000
-70.010834 13.221523 -1.728771 0.000000 33.000000 14.178387 0.000000
-71.610769 15.842577 -0.915621 0.000000 37.000000 14.146989 0.000000
-71.432560 15.596015 -1.016415 0.000000 41.000000 14.159678 0.000000
-67.229911 18.832621 -3.754552 0.000000 46.000000 14.783674 25.000000
-70.711263 14.654099 -1.384465 0.000000 40.000000 14.175144 0.000000
-68.176158 16.890225 -2.466356 0.000000 29.000000 14.039153 0.000000
-67.919586 13.244914 -2.816354 0.000000 50.000000 14.241664 10.000000
-66.516413 18.382182 -3.403768 0.000000 34.000000 14.156133 0.000000
-71.165122 16.258709 -1.244847 0.000000 37.000000 14.248116 0.000000
-70.172733 14.033945 -2.070995 0.000000 55.000000 14.556952 6.000000
-66.635062 19.038839 -3.442347 0.000000 35.000000 14.242725 0.000000
-69.170746 13.263428 -2.657814 0.000000 58.000000 14.646371 9.000000
-70.059054 13.532586 -1.566048 0.000000 27.000000 14.053149 0.000000
-70.941950 16.832129 -1.170950 0.000000 14.000000 14.084045 0.000000
-68.556177 15.203496 -2.320626 0.000000 36.000000 14.074330 0.000000
-68.852261 15.334796 -2.216930 0.000000 38.000000 14.110592 0.000000
-67.166282 17.252415 -3.515005 0.000000 43.000000 14.540427 3.000000
-70.422283 14.083950 -2.115593 0.000000 56.000000 14.706214 6.000000
-69.836673 15.755573 -1.764858 0.000000 35.000000 14.134658 0.000000
-70.166055 15.886505 -1.633303 0.000000 39.000000 14.160433 0.000000
