47.543041 9.935481 -25.348429 0.000000 56.000000 14.663716 1.000000
46.037263 13.200965 -28.300450 0.000000 35.000000 14.373432 0.000000
43.879013 12.807836 -29.215711 0.000000 66.000000 14.302450 10.000000
49.273298 12.289619 -26.302924 0.000000 56.000000 14.838172 13.000000
46.938080 14.282570 -29.008305 0.000000 68.000000 14.693821 29.000000
47.406484 15.657639 -29.670555 0.000000 49.000000 14.634440 11.000000
46.856313 15.049592 -30.066301 0.000000 48.000000 15.007022 11.000000
47.314951 15.568782 -30.062735 0.000000 72.000000 14.924904 11.000000
45.691837 11.712161 -27.860098 0.000000 66.000000 14.707653 4.000000
47.991983 14.582685 -28.386501 0.000000 69.000000 14.544225 24.000000
45.930072 13.239288 -29.380923 0.000000 73.000000 15.084400 30.000000
46.716999 10.956371 -26.328015 0.000000 46.000000 14.458702 3.000000
46.567644 14.950836 -29.897229 0.000000 46.000000 14.812410 11.000000
47.636630 12.659415 -26.953876 0.000000 74.000000 14.393360 21.000000
45.495346 13.543208 -29.094475 0.000000 70.000000 14.524472 30.000000
48.708830 15.176843 -28.496046 0.000000 48.000000 14.615922 24.000000
46.445624 14.466824 -29.997013 0.000000 82.000000 15.091847 11.000000
47.251701 10.195865 -25.485592 0.000000 48.000000 14.495033 2.000000
45.686701 13.440927 -28.631550 0.000000 71.000000 14.329618 30.000000
49.451816 12.165387 -26.039381 0.000000 49.000000 14.793185 13.000000
49.553964 12.160642 -25.375952 0.000000 33.000000 14.362376 0.000000
45.724958 13.870909 -29.501819 0.000000 79.000000 14.741592 11.000000
47.043848 13.293482 -28.130031 0.000000 63.000000 14.640241 25.000000
44.739120 12.593426 -28.997743 0.000000 69.000000 14.636449 10.000000
46.159274 13.867301 -29.464338 0.000000 70.000000 14.906141 30.000000
46.680161 13.610285 -28.513113 0.000000 64.000000 14.586740 26.000000
49.347038 12.174771 -26.157172 0.000000 47.000000 14.827247 13.000000
45.039281 12.111355 -28.461265 0.000000 75.000000 14.640760 9.000000
47.826389 13.979981 -28.364563 0.000000 76.000000 14.780905 24.000000
50.689391 14.164096 -26.201229 0.000000 48.000000 14.373028 0.000000
46.826387 11.528351 -27.114256 0.000000 57.000000 14.764673 3.000000
46.821279 11.357793 -27.126216 0.000000 72.000000 14.862969 3.000000
45.388790 12.986269 -28.468446 0.000000 35.000000 14.327055 0.000000
49.180714 14.377673 -27.768901 0.000000 59.000000 14.728714 22.000000
48.298964 13.503024 -27.074770 0.000000 47.000000 14.315015 0.000000
48.763756 14.411325 -27.931654 0.000000 62.000000 14.645805 24.000000
48.817055 11.755209 -26.267297 0.000000 62.000000 14.901302 13.000000
47.615641 14.810873 -29.187063 0.000000 71.000000 14.833720 29.000000
47.101210 14.136357 -28.961870 0.000000 61.000000 14.810374 28.000000
48.224332 10.762357 -25.429774 0.000000 37.000000 14.574172 1.000000
47.168636 12.505748 -27.631200 0.000000 43.000000 14.759827 23.000000
45.872546 13.202728 -28.359868 0.000000 38.000000 14.343379 0.000000
45.967912 13.097662 -28.259064 0.000000 43.000000 14.369006 0.000000
47.118209 10.139027 -25.944119 0.000000 62.000000 14.797723 2.000000
50.254156 12.249363 -25.715474 0.000000 49.000000 14.864851 6.000000
47.818199 12.333599 -26.537681 0.000000 27.000000 14.348355 0.000000
49.651541 13.446000 -26.259802 0.000000 45.000000 14.349097 0.000000
46.910621 14.151626 -29.284537 0.000000 74.000000 14.951403 29.000000
48.483502 15.896778 -29.585090 0.000000 66.000000 14.914192 15.000000
47.466749 12.404448 -26.761842 0.000000 35.000000 14.318240 0.000000
49.508789 12.217163 -25.438096 0.000000 37.000000 14.356968 0.000000
46.208448 14.228162 -29.880785 0.000000 69.000000 15.033176 11.000000
45.646326 13.968929 -29.720175 0.000000 72.000000 14.811756 11.000000
47.470146 12.977448 -27.803200 0.000000 70.000000 14.761187 23.000000
45.819621 13.198726 -28.559633 0.000000 62.000000 14.466349 30.000000
47.502578 13.722166 -28.518112 0.000000 64.000000 14.889091 25.000000
49.387199 15.636559 -28.486449 0.000000 59.000000 14.657435 18.000000
44.874873 12.421176 -28.549020 0.000000 61.000000 14.465256 10.000000
45.637010 13.892185 -29.293556 0.000000 60.000000 14.541691 11.000000
49.217544 11.934477 -26.071358 0.000000 43.000000 14.838377 13.000000
48.576977 15.902323 -28.798045 0.000000 56.000000 14.384994 0.000000
50.124528 14.497759 -26.894963 0.000000 34.000000 14.446421 19.000000
48.666767 12.190018 -26.157742 0.000000 56.000000 14.522459 13.000000
47.644261 12.729358 -27.012398 0.000000 61.000000 14.401163 21.000000
46.978646 11.791331 -27.210114 0.000000 71.000000 14.758493 3.000000
46.329949 14.464064 -29.348251 0.000000 72.000000 14.575442 11.000000
46.524058 12.811810 -28.344677 0.000000 59.000000 14.827516 26.000000
48.076394 14.755362 -29.082110 0.000000 44.000000 14.989169 27.000000
50.552118 13.992929 -26.174351 0.000000 43.000000 14.385972 0.000000
50.121152 14.461901 -27.383480 0.000000 60.000000 14.816217 19.000000
45.440913 13.094767 -28.514032 0.000000 34.000000 14.324186 0.000000
50.651512 14.543724 -26.511620 0.000000 56.000000 14.375540 17.000000
45.646242 11.616425 -27.461995 0.000000 46.000000 14.452528 8.000000
47.391440 12.722189 -27.070096 0.000000 30.000000 14.336221 0.000000
45.084867 12.583244 -28.942972 0.000000 70.000000 14.753417 10.000000
48.708031 16.236455 -28.987019 0.000000 67.000000 14.398299 16.000000
47.760167 11.858115 -26.423796 0.000000 69.000000 14.497196 13.000000
44.835398 13.230883 -29.492016 0.000000 69.000000 14.691069 11.000000
46.833350 11.368221 -27.196204 0.000000 59.000000 14.913041 3.000000
48.666304 15.055024 -28.765745 0.000000 68.000000 14.857303 24.000000
47.796466 10.195772 -25.433184 0.000000 72.000000 14.695151 1.000000
50.534451 13.982035 -26.217271 0.000000 48.000000 14.415051 0.000000
49.418704 11.541857 -25.615499 0.000000 49.000000 14.809349 13.000000
48.498097 15.066473 -29.189392 0.000000 69.000000 15.082913 27.000000
48.559239 11.634059 -26.329119 0.000000 51.000000 14.898571 13.000000
49.342231 11.341208 -25.961323 0.000000 63.000000 15.133232 13.000000
44.754224 12.410577 -29.036554 0.000000 71.000000 14.769535 10.000000
48.670949 11.778387 -26.411098 0.000000 60.000000 14.928627 13.000000
48.230237 14.853902 -28.738982 0.000000 56.000000 14.756029 27.000000
45.180194 12.434166 -28.525590 0.000000 45.000000 14.574668 9.000000
47.949708 11.854196 -26.724318 0.000000 52.000000 14.798563 13.000000
47.543527 15.896246 -29.420276 0.000000 32.000000 14.385380 0.000000
45.689574 12.587569 -28.149700 0.000000 33.000000 14.443576 9.000000
44.566235 12.858208 -29.341654 0.000000 65.000000 14.666057 10.000000
45.626211 11.275999 -27.576492 0.000000 73.000000 14.709716 8.000000
44.980306 12.074071 -28.349967 0.000000 51.000000 14.554923 9.000000
45.148494 11.749089 -27.663637 0.000000 61.000000 14.309011 4.000000
46.238029 14.089181 -29.373603 0.000000 74.000000 14.755590 30.000000
50.601115 14.118653 -26.135707 0.000000 42.000000 14.311773 0.000000
48.127312 15.344735 -29.529830 0.000000 76.000000 15.016359 29.000000
48.822536 14.992705 -28.012005 0.000000 42.000000 14.416067 24.000000
51.117570 13.521306 -26.205182 0.000000 42.000000 14.909184 7.000000
46.046355 13.284823 -28.235665 0.000000 26.000000 14.285540 0.000000
48.182515 16.528171 -29.954715 0.000000 65.000000 14.708846 12.000000
46.388580 13.752145 -29.461896 0.000000 62.000000 15.066543 30.000000
45.778753 13.995401 -29.766993 0.000000 79.000000 14.889035 11.000000
49.436811 13.014273 -26.035781 0.000000 38.000000 14.326603 0.000000
44.584261 12.640043 -29.043349 0.000000 66.000000 14.576579 10.000000
45.802139 13.340555 -29.392295 0.000000 72.000000 14.982172 30.000000
50.304817 13.995881 -26.286690 0.000000 37.000000 14.357352 0.000000
45.956375 13.220731 -28.536242 0.000000 60.000000 14.497342 30.000000
50.183262 13.148093 -25.662529 0.000000 25.000000 14.311461 0.000000
46.405649 11.773373 -27.626251 0.000000 57.000000 14.817821 23.000000
50.530390 12.922004 -25.737162 0.000000 65.000000 14.638605 6.000000
47.233216 11.955155 -26.744563 0.000000 65.000000 14.445949 3.000000
46.606481 14.870318 -29.917339 0.000000 57.000000 14.887241 11.000000
50.576407 14.254855 -26.260547 0.000000 45.000000 14.317531 0.000000
46.540489 13.455351 -28.725092 0.000000 70.000000 14.761971 26.000000
48.466843 12.024294 -26.352968 0.000000 39.000000 14.665131 13.000000
49.043422 15.933949 -28.933978 0.000000 76.000000 14.669517 16.000000
48.300733 13.498064 -27.121615 0.000000 26.000000 14.352208 0.000000
47.135911 15.174716 -29.690609 0.000000 75.000000 14.790997 11.000000
48.244749 14.121314 -28.067439 0.000000 38.000000 14.673327 24.000000
48.462698 14.189453 -28.637693 0.000000 70.000000 15.142591 24.000000
50.196435 13.207583 -26.074701 0.000000 73.000000 14.582099 14.000000
48.654595 15.299172 -28.862763 0.000000 66.000000 14.790523 27.000000
45.106020 11.794814 -27.694833 0.000000 44.000000 14.288304 4.000000
44.800661 12.395652 -28.791835 0.000000 49.000000 14.621545 10.000000
48.670293 15.799327 -28.566410 0.000000 35.000000 14.314355 0.000000
46.718519 12.684648 -27.444176 0.000000 43.000000 14.332178 23.000000
45.325847 12.136874 -28.313351 0.000000 45.000000 14.645551 9.000000
49.037936 11.173116 -25.564387 0.000000 60.000000 14.804998 13.000000
47.272476 14.020369 -28.941509 0.000000 71.000000 14.932976 28.000000
48.567621 14.205255 -28.672071 0.000000 49.000000 15.204649 24.000000
50.695328 14.211876 -26.176443 0.000000 32.000000 14.332016 0.000000
48.670454 15.772270 -28.614131 0.000000 35.000000 14.363386 0.000000
46.612232 11.718369 -27.347598 0.000000 43.000000 14.736896 23.000000
44.949863 12.012348 -28.286708 0.000000 78.000000 14.529318 9.000000
49.647617 15.341055 -28.826931 0.000000 47.000000 15.175659 18.000000
44.965195 13.165999 -29.381199 0.000000 76.000000 14.702860 11.000000
49.158124 11.787986 -26.087870 0.000000 51.000000 14.903272 13.000000
48.972549 15.912882 -28.495182 0.000000 32.000000 14.333803 0.000000
44.931777 12.280063 -28.377373 0.000000 69.000000 14.442478 9.000000
48.850646 15.055794 -27.872464 0.000000 30.000000 14.293811 0.000000
47.851594 12.988565 -27.771687 0.000000 64.000000 14.899020 23.000000
45.672778 11.513444 -27.508240 0.000000 65.000000 14.552923 8.000000
48.985446 11.913789 -26.176913 0.000000 60.000000 14.824246 13.000000
46.177975 12.689882 -28.120900 0.000000 50.000000 14.580914 26.000000
49.173660 13.037573 -26.251439 0.000000 32.000000 14.354533 0.000000
47.492737 9.811545 -25.509350 0.000000 40.000000 14.824474 1.000000
46.586647 14.434542 -29.940938 0.000000 68.000000 15.130411 11.000000
50.046022 13.006682 -25.711862 0.000000 32.000000 14.363290 0.000000
50.080108 14.207433 -26.551508 0.000000 29.000000 14.336039 0.000000
47.906799 10.824550 -25.947527 0.000000 45.000000 14.775043 2.000000
49.763669 13.843787 -26.542218 0.000000 46.000000 14.387156 0.000000
47.462228 14.622954 -29.503547 0.000000 71.000000 15.096016 29.000000
48.740665 12.767404 -26.261284 0.000000 28.000000 14.318181 0.000000
46.952499 14.103336 -28.836914 0.000000 44.000000 14.673223 28.000000
49.685040 13.953943 -26.635222 0.000000 38.000000 14.360474 0.000000
47.754265 13.657524 -28.432904 0.000000 77.000000 14.972416 25.000000
47.999063 12.352765 -27.134259 0.000000 66.000000 14.846784 21.000000
47.560496 13.073341 -27.850667 0.000000 64.000000 14.783154 23.000000
48.049620 14.339810 -28.458660 0.000000 59.000000 14.752251 24.000000
49.051687 15.735839 -28.314585 0.000000 51.000000 14.333646 18.000000
49.177949 15.999585 -28.816012 0.000000 56.000000 14.607891 16.000000
47.944237 13.044166 -27.249418 0.000000 53.000000 14.533240 21.000000
49.279382 12.918199 -26.067565 0.000000 31.000000 14.332545 0.000000
46.738858 14.594517 -29.736382 0.000000 76.000000 14.963285 11.000000
44.763562 12.284434 -28.568353 0.000000 38.000000 14.504275 10.000000
51.275481 14.165960 -26.275755 0.000000 45.000000 14.681582 17.000000
47.566881 15.967061 -29.763454 0.000000 63.000000 14.604655 11.000000
48.993805 15.800793 -28.727512 0.000000 69.000000 14.570864 16.000000
46.971541 12.930889 -27.752422 0.000000 48.000000 14.532020 26.000000
48.728543 12.997164 -26.459036 0.000000 30.000000 14.331547 0.000000
45.383761 11.698502 -27.874448 0.000000 78.000000 14.590857 4.000000
47.750385 10.792910 -25.493547 0.000000 37.000000 14.396743 0.000000
46.691644 14.669603 -29.574246 0.000000 45.000000 14.785402 11.000000
47.041452 9.646832 -25.454766 0.000000 59.000000 14.676894 1.000000
46.895708 13.189583 -28.528723 0.000000 33.000000 14.918789 26.000000
49.442441 15.502794 -28.669631 0.000000 77.000000 14.885605 18.000000
49.729575 12.735209 -25.686544 0.000000 32.000000 14.353189 0.000000
50.042255 13.986695 -26.434195 0.000000 25.000000 14.353945 0.000000
47.064034 10.274920 -25.490088 0.000000 47.000000 14.373743 2.000000
48.068532 14.732515 -28.499841 0.000000 57.000000 14.578559 24.000000
45.950387 12.247896 -27.583829 0.000000 44.000000 14.332802 4.000000
47.999480 13.942647 -28.423450 0.000000 63.000000 14.919013 24.000000
48.262308 16.464463 -29.344859 0.000000 57.000000 14.338648 15.000000
46.634342 10.296366 -25.798368 0.000000 33.000000 14.396694 0.000000
48.846379 14.062087 -27.691591 0.000000 51.000000 14.697117 22.000000
49.758999 13.360946 -26.218027 0.000000 31.000000 14.411745 0.000000
48.033467 15.228548 -29.764480 0.000000 59.000000 15.207050 29.000000
46.566571 10.818556 -26.875888 0.000000 32.000000 14.862004 3.000000
48.042199 12.961439 -27.334674 0.000000 70.000000 14.682007 21.000000
44.878377 13.188152 -29.552975 0.000000 71.000000 14.776775 11.000000
51.757065 13.571275 -26.004627 0.000000 63.000000 15.016950 7.000000
44.656602 12.712799 -29.308935 0.000000 76.000000 14.760292 10.000000
44.957243 12.566558 -28.499601 0.000000 44.000000 14.387271 10.000000
47.031219 14.503109 -29.498190 0.000000 73.000000 14.968573 29.000000
46.250069 13.232635 -29.019926 0.000000 43.000000 14.967608 30.000000
45.723999 11.890865 -27.824989 0.000000 64.000000 14.600103 4.000000
48.217179 10.821191 -25.504792 0.000000 58.000000 14.593391 1.000000
45.008787 12.780618 -29.099685 0.000000 73.000000 14.726747 10.000000
46.891764 11.820719 -27.207932 0.000000 85.000000 14.703155 3.000000
45.073451 11.983175 -28.327720 0.000000 71.000000 14.628540 9.000000
45.457940 13.772576 -29.694387 0.000000 76.000000 14.816744 11.000000
48.455654 13.099895 -27.209937 0.000000 62.000000 14.698033 21.000000
46.846997 14.084700 -29.457036 0.000000 76.000000 15.083967 29.000000
46.890127 14.922434 -29.783063 0.000000 58.000000 14.886250 11.000000
46.554794 12.144850 -27.632054 0.000000 64.000000 14.686937 23.000000
50.235556 14.592901 -27.355184 0.000000 46.000000 14.775185 19.000000
46.773285 12.049029 -27.132546 0.000000 36.000000 14.474092 23.000000
49.740449 13.851347 -26.501753 0.000000 42.000000 14.343793 0.000000
47.723060 12.801538 -27.784242 0.000000 73.000000 14.952734 23.000000
46.607326 14.901770 -29.922428 0.000000 62.000000 14.874328 11.000000
46.475433 11.541667 -27.516357 0.000000 62.000000 14.893973 23.000000
47.618523 13.462472 -27.577491 0.000000 33.000000 14.401989 23.000000
47.208742 14.103445 -28.459455 0.000000 42.000000 14.513095 28.000000
45.189800 11.344053 -27.333248 0.000000 38.000000 14.307280 0.000000
48.971624 14.276878 -27.812357 0.000000 54.000000 14.723056 22.000000
45.185986 12.801447 -29.009908 0.000000 43.000000 14.728203 10.000000
50.462274 13.494242 -25.827890 0.000000 43.000000 14.365871 0.000000
46.377400 14.356636 -29.517824 0.000000 74.000000 14.776213 11.000000
49.507656 13.935503 -26.706615 0.000000 49.000000 14.344406 0.000000
49.224143 13.739668 -26.684153 0.000000 48.000000 14.309980 0.000000
47.817241 14.883779 -29.710513 0.000000 55.000000 15.259558 29.000000
45.007667 11.981206 -28.251595 0.000000 83.000000 14.546039 9.000000
46.493968 10.813992 -27.090532 0.000000 52.000000 14.987405 3.000000
49.043614 13.431661 -26.615207 0.000000 44.000000 14.347471 0.000000
45.049397 12.146662 -28.416620 0.000000 59.000000 14.593988 9.000000
47.076466 11.179910 -26.122256 0.000000 40.000000 14.346938 0.000000
48.577445 13.769130 -27.741212 0.000000 70.000000 14.773325 22.000000
50.113128 13.146082 -25.782169 0.000000 48.000000 14.368120 0.000000
50.307992 13.298284 -25.737337 0.000000 49.000000 14.338875 0.000000
47.009198 15.328933 -30.016103 0.000000 60.000000 14.887074 11.000000
50.164177 13.096227 -25.737114 0.000000 53.000000 14.384813 0.000000
49.931880 12.843991 -25.674101 0.000000 62.000000 14.373924 0.000000
44.524174 12.236206 -28.545793 0.000000 68.000000 14.409502 10.000000
50.795721 13.847690 -25.928372 0.000000 47.000000 14.393372 0.000000
50.496891 14.286219 -26.446487 0.000000 38.000000 14.399875 0.000000
46.392571 14.269590 -29.392791 0.000000 69.000000 14.739665 11.000000
48.212556 16.222366 -29.448788 0.000000 68.000000 14.522260 15.000000
47.610049 15.395145 -29.528690 0.000000 60.000000 14.762554 29.000000
50.260988 13.144874 -25.724056 0.000000 68.000000 14.391455 0.000000
45.097455 12.302744 -28.794156 0.000000 19.000000 14.802852 10.000000
46.582841 14.630850 -29.539175 0.000000 46.000000 14.733519 11.000000
46.286935 11.447906 -27.387557 0.000000 67.000000 14.769414 23.000000
48.600244 12.422268 -26.196607 0.000000 51.000000 14.396265 0.000000
48.023972 14.690199 -29.010643 0.000000 67.000000 14.949910 27.000000
46.623539 10.946635 -26.210389 0.000000 47.000000 14.338405 3.000000
50.269118 14.141173 -26.452447 0.000000 45.000000 14.382892 0.000000
44.953008 13.091417 -29.321362 0.000000 52.000000 14.694621 11.000000
47.375888 14.647802 -29.507080 0.000000 72.000000 15.047478 29.000000
47.740726 11.074650 -26.020959 0.000000 74.000000 14.620674 2.000000
47.865501 15.026168 -28.920486 0.000000 45.000000 14.634732 27.000000
46.941915 14.162703 -28.926423 0.000000 54.000000 14.701097 28.000000
47.545691 15.738216 -29.749980 0.000000 56.000000 14.709013 11.000000
47.270135 13.538517 -28.496198 0.000000 68.000000 14.870790 25.000000
45.775378 13.513812 -29.365596 0.000000 34.000000 14.857892 30.000000
46.389976 12.719122 -27.873545 0.000000 76.000000 14.479505 26.000000
46.511147 14.698224 -30.044726 0.000000 54.000000 15.030133 11.000000
49.337894 13.534068 -26.598381 0.000000 73.000000 14.408638 5.000000
47.594531 14.655528 -29.304246 0.000000 71.000000 14.992637 29.000000
50.548503 14.220310 -26.296298 0.000000 46.000000 14.349721 0.000000
45.239205 12.436186 -28.522247 0.000000 71.000000 14.596934 9.000000
47.756543 13.767232 -28.347834 0.000000 65.000000 14.853004 25.000000
44.498042 12.190770 -28.908414 0.000000 73.000000 14.683825 10.000000
49.525825 13.910412 -26.622083 0.000000 42.000000 14.304957 0.000000
44.292606 12.765660 -28.962484 0.000000 60.000000 14.323302 10.000000
49.599463 14.754096 -27.223253 0.000000 42.000000 14.315578 0.000000
49.792980 13.517774 -26.295080 0.000000 46.000000 14.397583 0.000000
48.458285 14.313434 -28.672459 0.000000 75.000000 15.098902 24.000000
48.444475 11.600323 -25.609363 0.000000 40.000000 14.348109 13.000000
46.722676 10.646777 -25.922553 0.000000 37.000000 14.335900 0.000000
47.697438 13.999480 -28.376780 0.000000 73.000000 14.722903 25.000000
46.113975 11.098723 -27.538930 0.000000 52.000000 14.991124 8.000000
49.598554 13.418525 -26.215647 0.000000 31.000000 14.308958 0.000000
46.711509 10.714492 -26.042331 0.000000 37.000000 14.380829 0.000000
45.922477 12.095660 -28.085690 0.000000 68.000000 14.764212 4.000000
49.548355 13.962545 -26.671315 0.000000 41.000000 14.322170 0.000000
48.872774 13.098486 -26.418418 0.000000 33.000000 14.310651 0.000000
49.729337 13.863215 -26.492896 0.000000 56.000000 14.326166 0.000000
46.778117 14.481958 -29.474997 0.000000 69.000000 14.852766 29.000000
48.282576 11.171571 -25.341799 0.000000 36.000000 14.315706 0.000000
51.042077 13.675508 -26.185283 0.000000 46.000000 14.778795 7.000000
47.371371 13.157057 -28.339252 0.000000 50.000000 15.007472 25.000000
48.002657 14.733116 -28.617825 0.000000 74.000000 14.634477 27.000000
48.269743 13.413836 -27.138623 0.000000 69.000000 14.396320 0.000000
49.037507 11.325297 -25.594445 0.000000 76.000000 14.744460 13.000000
51.510355 13.605813 -25.790427 0.000000 44.000000 14.736316 7.000000
44.886950 12.705279 -29.004608 0.000000 50.000000 14.645658 10.000000
47.674691 15.967282 -29.982755 0.000000 77.000000 14.809594 11.000000
44.827978 12.742134 -29.129992 0.000000 72.000000 14.690384 10.000000
47.837667 15.209672 -29.712929 0.000000 70.000000 15.094603 29.000000
49.215849 11.575365 -25.848660 0.000000 62.000000 14.870711 13.000000
47.236354 10.735097 -25.799882 0.000000 38.000000 14.424184 2.000000
50.175678 15.072601 -27.974625 0.000000 72.000000 14.936818 18.000000
48.249689 11.912074 -26.369228 0.000000 56.000000 14.642515 13.000000
46.766800 12.538842 -28.176879 0.000000 76.000000 14.959694 26.000000
48.396238 14.961273 -29.037152 0.000000 69.000000 14.985454 27.000000
47.960007 15.682610 -29.459220 0.000000 45.000000 14.710380 29.000000
46.405910 14.311892 -29.296274 0.000000 70.000000 14.653158 11.000000
48.248848 11.310833 -25.534432 0.000000 37.000000 14.364718 0.000000
50.243356 14.464706 -26.715145 0.000000 37.000000 14.386561 0.000000
47.234291 13.937301 -29.071290 0.000000 72.000000 15.054568 28.000000
47.149048 15.043034 -29.585680 0.000000 60.000000 14.792097 29.000000
47.079071 13.437670 -28.351590 0.000000 83.000000 14.737540 25.000000
45.033718 13.111624 -29.199539 0.000000 45.000000 14.631201 11.000000
44.808951 13.191995 -29.536620 0.000000 68.000000 14.732612 11.000000
44.672922 12.923610 -29.406982 0.000000 48.000000 14.724455 10.000000
46.626229 10.883815 -26.149265 0.000000 47.000000 14.329395 0.000000
47.814073 11.506129 -25.922846 0.000000 36.000000 14.349501 0.000000
47.951446 11.075792 -25.961040 0.000000 63.000000 14.668884 2.000000
49.538973 14.151046 -27.012680 0.000000 39.000000 14.462429 20.000000
46.683600 14.303538 -29.415843 0.000000 67.000000 14.865032 29.000000
51.119553 13.356772 -25.866257 0.000000 76.000000 14.754537 7.000000
46.550837 12.849261 -28.162959 0.000000 74.000000 14.688110 26.000000
46.725814 12.700699 -28.037354 0.000000 50.000000 14.754062 26.000000
50.242290 14.156577 -26.422591 0.000000 38.000000 14.341369 0.000000
45.946850 13.423227 -28.922262 0.000000 61.000000 14.662169 30.000000
44.260843 12.771464 -29.427807 0.000000 70.000000 14.641544 10.000000
47.592403 9.757721 -25.584503 0.000000 47.000000 14.951133 1.000000
47.729841 13.101287 -27.816425 0.000000 62.000000 14.817356 23.000000
47.959006 16.468437 -29.459974 0.000000 37.000000 14.287028 12.000000
45.701301 12.467183 -28.243597 0.000000 61.000000 14.581216 9.000000
47.297410 15.607982 -29.587688 0.000000 62.000000 14.553880 11.000000
45.009221 12.571539 -28.832872 0.000000 69.000000 14.647379 10.000000
50.108615 13.119727 -25.696516 0.000000 43.000000 14.318644 0.000000
51.440716 13.875016 -26.092810 0.000000 67.000000 14.778697 7.000000
46.697079 10.799135 -26.007819 0.000000 54.000000 14.304054 0.000000
45.998171 13.466254 -28.429971 0.000000 36.000000 14.306722 30.000000
48.802308 16.190189 -29.535462 0.000000 34.000000 14.859508 15.000000
48.738276 16.342760 -29.251865 0.000000 65.000000 14.545024 15.000000
47.937788 9.886607 -25.524220 0.000000 55.000000 14.989033 1.000000
48.741846 11.494755 -25.858702 0.000000 56.000000 14.714451 13.000000
50.370161 12.827690 -25.753294 0.000000 50.000000 14.631100 6.000000
47.280201 11.465928 -26.268755 0.000000 50.000000 14.387299 0.000000
45.882712 12.806995 -28.549022 0.000000 71.000000 14.697339 9.000000
49.045396 15.893725 -28.864378 0.000000 50.000000 14.641912 16.000000
46.748474 10.887158 -26.106672 0.000000 50.000000 14.350276 0.000000
49.647581 15.022648 -27.881155 0.000000 71.000000 14.665848 18.000000
46.647369 12.515064 -28.070699 0.000000 58.000000 14.843871 26.000000
47.770097 11.269022 -25.978426 0.000000 47.000000 14.498113 2.000000
50.305475 14.412426 -26.635530 0.000000 39.000000 14.384494 0.000000
44.561967 11.913565 -28.166865 0.000000 38.000000 14.326868 0.000000
47.269560 11.296481 -26.060038 0.000000 36.000000 14.323595 0.000000
49.151558 12.101450 -26.234343 0.000000 61.000000 14.837014 13.000000
47.751138 13.818557 -27.678110 0.000000 34.000000 14.340492 0.000000
47.618441 14.677587 -29.469639 0.000000 72.000000 15.110344 29.000000
45.258570 13.261994 -29.720113 0.000000 68.000000 15.023376 11.000000
48.397542 13.001324 -27.177104 0.000000 69.000000 14.702126 21.000000
48.905374 11.682698 -25.852962 0.000000 54.000000 14.680429 13.000000
48.101877 11.840235 -26.461791 0.000000 58.000000 14.683383 13.000000
44.602460 12.402938 -29.078558 0.000000 40.000000 14.737658 10.000000
48.780870 15.616452 -28.385929 0.000000 44.000000 14.331149 0.000000
45.808323 12.584007 -28.326362 0.000000 65.000000 14.624612 9.000000
46.497374 13.781405 -28.969585 0.000000 58.000000 14.743591 30.000000
44.147569 12.340093 -28.932508 0.000000 49.000000 14.467713 10.000000
46.147208 10.476453 -26.183529 0.000000 39.000000 14.364470 0.000000
47.797092 13.843085 -27.897344 0.000000 44.000000 14.505281 25.000000
50.158933 13.118515 -25.655757 0.000000 43.000000 14.311901 0.000000
48.739293 16.155255 -29.722181 0.000000 72.000000 14.985342 15.000000
50.346950 12.903911 -25.772729 0.000000 49.000000 14.593896 6.000000
48.370065 14.787261 -28.727763 0.000000 74.000000 14.844901 24.000000
49.533335 14.309124 -27.429659 0.000000 72.000000 14.675193 20.000000
47.318906 12.600026 -27.618027 0.000000 51.000000 14.765136 23.000000
44.839458 12.772905 -29.142356 0.000000 79.000000 14.687722 10.000000
45.179607 12.831427 -29.045147 0.000000 65.000000 14.734650 10.000000
48.179999 12.579758 -26.569832 0.000000 36.000000 14.396820 0.000000
48.281234 14.903781 -29.000309 0.000000 69.000000 14.939685 27.000000
46.936007 12.126414 -27.488049 0.000000 65.000000 14.759548 23.000000
45.802379 11.921507 -27.845359 0.000000 64.000000 14.632484 4.000000
48.846406 15.742138 -28.649325 0.000000 71.000000 14.481792 16.000000
49.059362 12.003409 -26.227356 0.000000 57.000000 14.844563 13.000000
47.473525 14.116567 -28.693024 0.000000 73.000000 14.789891 28.000000
48.052362 13.743825 -27.742639 0.000000 55.000000 14.558755 22.000000
48.258513 16.098891 -29.067120 0.000000 54.000000 14.333892 15.000000
48.858784 13.693549 -27.033217 0.000000 51.000000 14.426808 20.000000
46.934994 11.873701 -27.210942 0.000000 70.000000 14.695646 3.000000
48.257469 16.609748 -29.473088 0.000000 41.000000 14.350627 0.000000
50.151712 13.418739 -26.333435 0.000000 55.000000 14.635192 14.000000
49.779637 14.171000 -26.706196 0.000000 31.000000 14.335938 0.000000
47.186830 12.273268 -26.901389 0.000000 34.000000 14.367262 0.000000
47.964489 13.358229 -27.183285 0.000000 43.000000 14.325198 0.000000
47.102767 11.580490 -27.254449 0.000000 49.000000 14.958236 3.000000
50.052373 13.029582 -25.671784 0.000000 38.000000 14.324850 0.000000
45.729415 13.442870 -28.764444 0.000000 54.000000 14.442961 30.000000
47.164561 12.442518 -27.715497 0.000000 56.000000 14.852851 23.000000
48.461004 15.967117 -29.445559 0.000000 65.000000 14.765943 15.000000
46.286975 10.966519 -26.934905 0.000000 55.000000 14.702728 3.000000
47.276764 15.385556 -29.625313 0.000000 67.000000 14.691832 11.000000
50.889333 14.195332 -26.446548 0.000000 57.000000 14.620221 17.000000
50.345867 14.559494 -27.212201 0.000000 68.000000 14.738333 19.000000
46.731949 11.042399 -26.973540 0.000000 70.000000 14.883933 3.000000
46.522621 13.560925 -28.472114 0.000000 62.000000 14.515025 26.000000
47.879470 14.430444 -28.346983 0.000000 68.000000 14.548673 24.000000
43.901104 12.836776 -29.279799 0.000000 73.000000 14.342670 10.000000
46.786560 10.591683 -25.819748 0.000000 36.000000 14.319414 0.000000
49.691749 12.864059 -25.779349 0.000000 30.000000 14.334102 0.000000
49.477070 14.119725 -27.265976 0.000000 48.000000 14.634767 20.000000
46.740819 14.707060 -29.902632 0.000000 79.000000 15.023268 11.000000
48.518833 15.293227 -29.114468 0.000000 55.000000 14.915796 27.000000
45.140578 13.221088 -29.668787 0.000000 76.000000 14.956930 11.000000
47.256405 10.269585 -25.899073 0.000000 68.000000 14.755249 2.000000
50.366215 14.133598 -26.317668 0.000000 40.000000 14.332263 0.000000
45.517539 12.457110 -28.525890 0.000000 49.000000 14.709794 9.000000
45.385169 13.576538 -29.506429 0.000000 70.000000 14.755201 11.000000
48.437849 15.929127 -28.879942 0.000000 33.000000 14.368814 0.000000
48.911411 13.740736 -27.103323 0.000000 40.000000 14.474863 20.000000
46.851596 11.322492 -27.017088 0.000000 58.000000 14.816607 3.000000
47.409005 13.466940 -27.930853 0.000000 58.000000 14.562689 25.000000
45.880578 11.114695 -26.854861 0.000000 36.000000 14.387795 0.000000
47.818110 10.786314 -25.827427 0.000000 71.000000 14.670404 2.000000
49.393189 15.714515 -28.636994 0.000000 45.000000 14.726500 18.000000
48.080113 10.813426 -25.351285 0.000000 54.000000 14.427145 1.000000
49.520508 14.608467 -27.134665 0.000000 33.000000 14.295761 20.000000
48.633333 13.317322 -26.811285 0.000000 31.000000 14.371233 0.000000
45.197135 13.095309 -28.697623 0.000000 46.000000 14.349736 10.000000
47.169891 12.863373 -27.589138 0.000000 67.000000 14.537359 23.000000
45.179246 12.308812 -28.806294 0.000000 17.000000 14.844034 10.000000
47.368706 13.047506 -27.841966 0.000000 73.000000 14.707078 23.000000
45.647037 13.860348 -29.421773 0.000000 70.000000 14.655597 11.000000
47.397415 14.167564 -28.583720 0.000000 55.000000 14.650436 28.000000
46.885741 10.694475 -25.862033 0.000000 33.000000 14.337785 0.000000
48.154205 15.186371 -29.088162 0.000000 73.000000 14.795242 27.000000
47.989554 13.330038 -27.252354 0.000000 49.000000 14.401092 0.000000
46.567182 10.688544 -26.058496 0.000000 33.000000 14.343449 0.000000
48.738458 13.878966 -27.207863 0.000000 51.000000 14.400185 0.000000
49.376968 15.381921 -28.221685 0.000000 66.000000 14.599438 18.000000
47.451764 13.945144 -28.385558 0.000000 67.000000 14.651254 25.000000
47.476309 14.975664 -29.621937 0.000000 75.000000 14.997392 29.000000
45.342279 13.220283 -29.503091 0.000000 34.000000 14.926046 11.000000
49.304839 14.468166 -27.767685 0.000000 59.000000 14.733263 22.000000
46.187788 10.973536 -26.813517 0.000000 52.000000 14.568192 3.000000
46.783551 10.943826 -26.061119 0.000000 49.000000 14.302234 0.000000
48.233356 13.530682 -27.219336 0.000000 44.000000 14.375619 22.000000
48.337455 13.486776 -27.150015 0.000000 46.000000 14.394783 0.000000
47.165583 12.324606 -26.881563 0.000000 31.000000 14.316038 0.000000
49.684763 14.726783 -27.159585 0.000000 46.000000 14.321666 19.000000
47.518644 14.346135 -28.287887 0.000000 36.000000 14.394005 0.000000
47.199145 10.122122 -25.264055 0.000000 40.000000 14.352222 0.000000
46.531378 11.624513 -27.605327 0.000000 70.000000 14.937851 23.000000
45.436512 13.505171 -28.927765 0.000000 71.000000 14.399181 30.000000
49.088763 15.449642 -28.487968 0.000000 44.000000 14.628966 18.000000
48.909608 15.923245 -28.495211 0.000000 55.000000 14.300761 0.000000
50.080356 13.174963 -26.224190 0.000000 67.000000 14.656699 14.000000
48.775041 13.674374 -27.013806 0.000000 41.000000 14.386597 0.000000
47.783010 15.067548 -28.962927 0.000000 67.000000 14.606997 29.000000
44.339899 12.627641 -29.040265 0.000000 50.000000 14.474359 10.000000
46.476364 10.710869 -26.092712 0.000000 42.000000 14.316421 0.000000
48.307876 16.560524 -30.030224 0.000000 43.000000 14.800540 12.000000
49.567134 12.528612 -25.924843 0.000000 68.000000 14.565281 13.000000
46.905052 13.656753 -28.410419 0.000000 68.000000 14.585895 26.000000
48.153269 13.452094 -27.172258 0.000000 42.000000 14.349088 0.000000
46.424863 13.700654 -29.270335 0.000000 71.000000 14.972121 30.000000
47.954765 13.450777 -27.330333 0.000000 42.000000 14.377022 0.000000
44.291966 12.767795 -29.574613 0.000000 64.000000 14.762875 10.000000
46.579380 12.925420 -28.314804 0.000000 57.000000 14.768925 26.000000
47.216617 14.268195 -28.287303 0.000000 31.000000 14.303729 28.000000
46.380178 10.576088 -26.029879 0.000000 38.000000 14.301792 0.000000
47.070557 9.608650 -25.348937 0.000000 50.000000 14.633931 1.000000
48.914231 14.705339 -27.678226 0.000000 72.000000 14.370483 0.000000
50.561184 14.077490 -26.192530 0.000000 36.000000 14.357460 0.000000
47.257624 14.349488 -28.967127 0.000000 63.000000 14.767597 28.000000
47.850875 16.140372 -29.822621 0.000000 47.000000 14.677870 12.000000
46.130701 14.156683 -29.498033 0.000000 72.000000 14.762003 11.000000
47.048416 14.071261 -28.931906 0.000000 52.000000 14.800817 28.000000
48.133423 16.358492 -30.074090 0.000000 60.000000 14.864851 12.000000
46.589678 12.300213 -27.563585 0.000000 58.000000 14.569118 23.000000
46.815985 12.956444 -27.911720 0.000000 37.000000 14.565104 26.000000
47.104680 12.271466 -27.541936 0.000000 73.000000 14.793844 23.000000
47.925073 10.088524 -25.650202 0.000000 49.000000 14.965437 1.000000
48.085157 15.383771 -29.167941 0.000000 71.000000 14.716201 29.000000
45.561835 13.359241 -29.341777 0.000000 56.000000 14.830799 30.000000
49.976320 12.697411 -25.735973 0.000000 52.000000 14.516887 6.000000
45.691691 12.453043 -28.332945 0.000000 59.000000 14.649009 9.000000
50.155799 13.107040 -25.744386 0.000000 44.000000 14.380567 0.000000
47.180108 13.849284 -28.596918 0.000000 71.000000 14.736587 28.000000
45.063511 13.040753 -29.111328 0.000000 62.000000 14.618847 10.000000
47.783992 14.771674 -28.991656 0.000000 55.000000 14.787560 27.000000
45.592706 12.366731 -28.542252 0.000000 74.000000 14.803100 9.000000
48.865685 11.947558 -26.362518 0.000000 39.000000 14.887482 13.000000
48.184265 12.573189 -27.478421 0.000000 67.000000 15.056805 21.000000
47.956167 13.433234 -27.316162 0.000000 39.000000 14.376877 0.000000
46.449079 10.617101 -26.036679 0.000000 38.000000 14.314670 0.000000
46.761885 14.095544 -28.577396 0.000000 52.000000 14.407239 28.000000
44.478221 12.697784 -29.171549 0.000000 65.000000 14.591530 10.000000
48.815197 15.057411 -28.404849 0.000000 72.000000 14.661015 24.000000
46.756882 10.888973 -26.062280 0.000000 51.000000 14.320986 0.000000
47.917689 16.522870 -29.529357 0.000000 52.000000 14.289645 12.000000
47.777691 12.874334 -27.449100 0.000000 71.000000 14.695908 21.000000
47.370688 15.745265 -29.700308 0.000000 35.000000 14.593029 11.000000
47.285133 13.126763 -27.702356 0.000000 70.000000 14.527304 23.000000
46.709272 12.241014 -27.653327 0.000000 53.000000 14.717882 23.000000
45.982705 12.130677 -27.436176 0.000000 37.000000 14.303702 23.000000
46.176886 10.526810 -26.134526 0.000000 46.000000 14.314988 0.000000
47.841462 15.005668 -29.604276 0.000000 68.000000 15.127913 29.000000
47.583579 15.493797 -29.695652 0.000000 63.000000 14.818124 11.000000
46.271799 13.313780 -28.962403 0.000000 50.000000 14.891927 30.000000
48.514013 14.171730 -28.082201 0.000000 69.000000 14.774346 24.000000
48.910967 12.477048 -26.181487 0.000000 63.000000 14.491503 13.000000
48.037807 13.190941 -27.271678 0.000000 35.000000 14.511034 21.000000
47.938158 13.431593 -27.226193 0.000000 40.000000 14.305083 0.000000
48.478381 15.891750 -29.617675 0.000000 63.000000 14.938141 15.000000
46.867199 14.104839 -29.288863 0.000000 69.000000 14.960776 29.000000
49.098732 13.673614 -27.289443 0.000000 76.000000 14.726899 20.000000
47.847586 15.297832 -29.709275 0.000000 78.000000 15.048794 29.000000
47.729419 14.883584 -29.547423 0.000000 71.000000 15.103827 29.000000
47.886050 16.334317 -29.517664 0.000000 48.000000 14.369013 0.000000
48.740590 13.887900 -27.188793 0.000000 50.000000 14.382563 0.000000
49.858700 12.992691 -25.837562 0.000000 55.000000 14.379611 0.000000
45.880849 12.047865 -28.021125 0.000000 69.000000 14.725279 4.000000
48.296292 16.407978 -29.427338 0.000000 56.000000 14.443342 15.000000
45.868802 11.038839 -27.041073 0.000000 38.000000 14.557684 8.000000
47.932128 11.205913 -25.674116 0.000000 27.000000 14.383621 2.000000
47.185283 10.257906 -25.616440 0.000000 47.000000 14.526873 2.000000
47.754641 11.780038 -26.222809 0.000000 69.000000 14.392058 13.000000
48.581507 15.523622 -28.999295 0.000000 81.000000 14.736030 27.000000
45.667462 13.436655 -29.352068 0.000000 78.000000 14.842611 30.000000
47.615162 12.704422 -27.743361 0.000000 71.000000 14.928511 23.000000
48.282968 13.519894 -27.327990 0.000000 60.000000 14.481370 22.000000
49.698715 12.083190 -25.628092 0.000000 48.000000 14.648957 6.000000
45.183226 11.306078 -27.339128 0.000000 52.000000 14.329110 0.000000
48.598285 14.219124 -28.006204 0.000000 70.000000 14.730846 24.000000
47.068048 10.846293 -25.869141 0.000000 46.000000 14.340685 0.000000
46.435505 14.106666 -29.420714 0.000000 76.000000 14.866319 30.000000
50.457019 14.208243 -26.339609 0.000000 38.000000 14.347488 0.000000
50.466743 14.355631 -26.501632 0.000000 35.000000 14.389038 0.000000
48.575027 15.486794 -29.031118 0.000000 79.000000 14.775973 27.000000
46.492154 10.696699 -26.094520 0.000000 39.000000 14.332253 0.000000
47.871039 16.157054 -29.302732 0.000000 42.000000 14.303136 0.000000
47.755099 12.815284 -27.902747 0.000000 71.000000 15.044690 23.000000
49.162654 14.799503 -27.558451 0.000000 64.000000 14.341903 0.000000
46.398730 11.636057 -27.596505 0.000000 63.000000 14.867365 23.000000
47.446655 14.412949 -28.300246 0.000000 36.000000 14.335477 0.000000
48.954346 13.953013 -27.169442 0.000000 39.000000 14.426852 20.000000
48.414319 13.460307 -27.044610 0.000000 51.000000 14.366665 0.000000
48.515314 15.163460 -28.546306 0.000000 60.000000 14.574862 24.000000
46.720035 10.985092 -26.135227 0.000000 49.000000 14.305659 0.000000
45.600517 13.861488 -29.295934 0.000000 72.000000 14.544015 11.000000
49.164858 14.772121 -27.550001 0.000000 65.000000 14.351533 0.000000
49.039976 14.463643 -27.906777 0.000000 59.000000 14.720278 22.000000
49.246482 15.982276 -28.412882 0.000000 61.000000 14.356706 18.000000
44.817598 12.039676 -28.112654 0.000000 61.000000 14.331455 9.000000
45.841470 12.838011 -28.564024 0.000000 56.000000 14.673429 9.000000
46.587578 10.699711 -26.055528 0.000000 49.000000 14.344197 0.000000
48.054515 14.695135 -28.640113 0.000000 68.000000 14.693640 27.000000
48.324578 16.409537 -30.125406 0.000000 77.000000 14.957767 12.000000
47.912308 14.106912 -28.421895 0.000000 84.000000 14.791319 24.000000
46.525542 10.709636 -26.196698 0.000000 40.000000 14.413471 0.000000
48.756407 15.005818 -28.793620 0.000000 67.000000 14.943237 24.000000
45.831132 13.402242 -29.044283 0.000000 77.000000 14.710867 30.000000
47.499757 11.385587 -25.972965 0.000000 34.000000 14.313345 0.000000
48.185005 13.962926 -28.533921 0.000000 75.000000 15.068667 24.000000
49.212547 12.243194 -26.294876 0.000000 54.000000 14.830869 13.000000
48.772296 11.483843 -26.272073 0.000000 69.000000 15.031433 13.000000
45.804720 13.878155 -29.414461 0.000000 66.000000 14.709573 30.000000
48.209554 15.171562 -28.982365 0.000000 76.000000 14.751165 27.000000
47.499306 11.562960 -26.233843 0.000000 40.000000 14.405513 0.000000
47.693467 15.879898 -30.058847 0.000000 75.000000 14.919699 11.000000
49.572573 14.227511 -27.226215 0.000000 44.000000 14.589732 20.000000
48.764805 13.909967 -27.559386 0.000000 56.000000 14.648232 22.000000
48.041651 16.438815 -30.100297 0.000000 54.000000 14.800384 12.000000
48.815502 14.397352 -27.955654 0.000000 59.000000 14.693215 24.000000
48.183706 13.463006 -27.091948 0.000000 49.000000 14.298637 0.000000
50.360784 14.132811 -26.353960 0.000000 36.000000 14.356462 0.000000
46.524443 12.951453 -28.375516 0.000000 75.000000 14.774652 26.000000
50.838241 13.643396 -25.888652 0.000000 60.000000 14.493406 7.000000
45.332016 11.894021 -27.934885 0.000000 67.000000 14.506449 4.000000
48.285136 12.822217 -27.109217 0.000000 79.000000 14.700660 21.000000
43.850986 12.486758 -29.090456 0.000000 57.000000 14.372994 0.000000
48.652424 14.594126 -28.669709 0.000000 73.000000 15.030420 24.000000
49.269503 11.774879 -26.044955 0.000000 50.000000 14.928042 13.000000
48.196125 12.117110 -26.487887 0.000000 42.000000 14.594129 13.000000
49.262607 15.119863 -27.881015 0.000000 67.000000 14.445295 18.000000
50.716404 13.431783 -25.702059 0.000000 34.000000 14.419820 0.000000
48.583741 13.608431 -26.985564 0.000000 32.000000 14.318270 22.000000
49.270696 13.891169 -27.033575 0.000000 40.000000 14.500401 20.000000
46.545426 11.048911 -27.025100 0.000000 60.000000 14.836140 3.000000
49.807155 12.965430 -25.843432 0.000000 52.000000 14.376027 0.000000
47.464384 14.979839 -29.587049 0.000000 77.000000 14.964801 29.000000
48.761427 15.473853 -28.255542 0.000000 51.000000 14.305567 0.000000
46.167761 13.334653 -28.271651 0.000000 65.000000 14.337614 0.000000
50.737717 14.222172 -26.237484 0.000000 39.000000 14.388950 17.000000
49.677590 13.664620 -26.515810 0.000000 70.000000 14.427099 5.000000
48.317147 10.907048 -25.452075 0.000000 55.000000 14.552788 1.000000
48.250999 11.826214 -25.903728 0.000000 58.000000 14.353990 13.000000
50.183526 15.039688 -27.992414 0.000000 74.000000 14.970796 18.000000
48.794434 15.128720 -28.606062 0.000000 77.000000 14.758487 24.000000
46.408520 11.575306 -27.596235 0.000000 64.000000 14.904182 23.000000
47.376077 14.542446 -29.607403 0.000000 67.000000 15.176610 29.000000
49.333006 14.124066 -27.422551 0.000000 61.000000 14.682337 20.000000
49.185025 15.674513 -28.588790 0.000000 62.000000 14.622451 18.000000
47.635150 16.036936 -29.691581 0.000000 46.000000 14.545025 11.000000
47.809699 14.815797 -29.669432 0.000000 67.000000 15.263303 29.000000
49.040174 15.847853 -28.519275 0.000000 34.000000 14.415726 18.000000
48.757598 13.946464 -27.232385 0.000000 61.000000 14.389834 0.000000
47.550008 16.114678 -29.428500 0.000000 38.000000 14.276429 11.000000
46.952441 11.170244 -26.125342 0.000000 49.000000 14.300225 0.000000
45.051569 12.174049 -28.468543 0.000000 56.000000 14.617586 9.000000
45.338848 12.095365 -28.069774 0.000000 73.000000 14.498113 9.000000
48.582729 15.144455 -28.740683 0.000000 70.000000 14.754570 24.000000
44.624851 13.039380 -29.714480 0.000000 73.000000 14.862617 10.000000
46.744174 10.971076 -26.168575 0.000000 54.000000 14.347775 0.000000
46.896021 10.234459 -25.843550 0.000000 50.000000 14.576845 2.000000
47.321037 10.282147 -25.294067 0.000000 43.000000 14.340825 0.000000
45.934862 11.374782 -27.589591 0.000000 74.000000 14.800669 8.000000
48.392242 11.364560 -25.461691 0.000000 40.000000 14.345961 0.000000
46.340517 11.907622 -27.635521 0.000000 69.000000 14.723723 23.000000
45.717594 10.848068 -27.327717 0.000000 77.000000 14.800982 8.000000
48.328547 13.244331 -27.146399 0.000000 57.000000 14.518935 21.000000
48.865945 15.100970 -27.906079 0.000000 53.000000 14.300363 0.000000
50.652051 14.060535 -26.145448 0.000000 49.000000 14.372346 0.000000
48.444542 16.047175 -29.428775 0.000000 65.000000 14.703524 15.000000
48.481016 12.679181 -27.062159 0.000000 42.000000 14.829350 21.000000
46.917831 12.190745 -27.588328 0.000000 70.000000 14.789192 23.000000
46.082955 10.635623 -26.269732 0.000000 32.000000 14.312752 0.000000
48.234852 12.500342 -26.354966 0.000000 53.000000 14.308764 13.000000
45.920651 14.006226 -29.687583 0.000000 80.000000 14.887938 11.000000
47.936977 12.984135 -27.711310 0.000000 71.000000 14.895185 23.000000
49.082302 13.686457 -27.178625 0.000000 51.000000 14.632968 20.000000
47.662419 16.237053 -29.703209 0.000000 72.000000 14.457470 12.000000
45.878093 13.995825 -29.522875 0.000000 79.000000 14.756302 11.000000
47.315025 12.547121 -26.962788 0.000000 37.000000 14.319891 0.000000
46.749129 12.193082 -27.532358 0.000000 70.000000 14.673961 23.000000
48.217758 15.223246 -29.179503 0.000000 48.000000 14.868922 27.000000
48.271717 16.515333 -30.101540 0.000000 74.000000 14.860485 12.000000
50.710435 14.383787 -26.793560 0.000000 62.000000 14.690570 17.000000
45.858728 11.738447 -28.043376 0.000000 68.000000 14.898388 4.000000
45.910691 11.330882 -27.525703 0.000000 65.000000 14.767746 8.000000
47.947495 13.356179 -27.447781 0.000000 63.000000 14.509437 23.000000
48.667065 15.145788 -28.629495 0.000000 65.000000 14.710566 24.000000
47.474067 14.405635 -28.864798 0.000000 66.000000 14.758111 27.000000
47.022298 11.107094 -26.080065 0.000000 51.000000 14.332132 0.000000
48.567570 15.772513 -28.959796 0.000000 77.000000 14.567370 27.000000
47.111841 10.260343 -25.890487 0.000000 52.000000 14.690932 2.000000
49.306066 13.862896 -27.325096 0.000000 73.000000 14.741101 20.000000
49.488567 12.017633 -25.302920 0.000000 34.000000 14.358274 0.000000
48.625194 15.003120 -28.775160 0.000000 70.000000 14.874108 24.000000
50.589550 12.801585 -25.796241 0.000000 44.000000 14.771885 6.000000
48.521520 16.233828 -29.584625 0.000000 66.000000 14.748829 15.000000
48.014614 13.545746 -27.295037 0.000000 41.000000 14.326545 0.000000
47.305053 11.935982 -27.177802 0.000000 40.000000 14.799765 3.000000
45.127875 11.911396 -28.297409 0.000000 68.000000 14.669141 9.000000
45.627902 13.325683 -29.049721 0.000000 79.000000 14.667317 30.000000
43.875334 12.525038 -28.996296 0.000000 59.000000 14.295159 0.000000
46.801205 14.070125 -29.430920 0.000000 52.000000 15.053014 29.000000
48.481655 14.975431 -28.695350 0.000000 63.000000 14.768867 24.000000
47.570161 14.687163 -29.545423 0.000000 64.000000 15.138704 29.000000
47.454193 12.412665 -26.777753 0.000000 38.000000 14.319794 0.000000
47.319242 14.117022 -28.208275 0.000000 48.000000 14.373059 25.000000
46.683336 10.762180 -26.143457 0.000000 59.000000 14.415687 0.000000
45.360104 11.698852 -27.793606 0.000000 80.000000 14.522099 4.000000
46.704077 14.081223 -29.300366 0.000000 64.000000 14.910575 29.000000
47.078752 10.072998 -25.312702 0.000000 37.000000 14.361182 0.000000
45.772409 12.992651 -28.659480 0.000000 48.000000 14.628719 30.000000
49.349666 14.016925 -27.031469 0.000000 68.000000 14.465594 20.000000
47.505602 15.062587 -29.695525 0.000000 67.000000 15.016355 29.000000
45.778281 10.939999 -27.543898 0.000000 76.000000 14.933683 8.000000
46.652357 10.666934 -25.941599 0.000000 55.000000 14.308061 0.000000
48.742527 15.430455 -28.863936 0.000000 82.000000 14.759013 27.000000
47.174243 14.727055 -29.665392 0.000000 47.000000 15.030794 29.000000
43.927783 12.655316 -29.336249 0.000000 37.000000 14.492768 10.000000
44.829894 12.895468 -29.147721 0.000000 50.000000 14.621366 10.000000
49.041101 15.065930 -27.891915 0.000000 44.000000 14.385509 0.000000
48.178163 14.013629 -28.275314 0.000000 43.000000 14.852047 24.000000
51.139805 13.797463 -25.979170 0.000000 63.000000 14.607250 7.000000
47.356047 15.505136 -29.946211 0.000000 68.000000 14.893193 11.000000
46.457081 13.939129 -29.200435 0.000000 67.000000 14.807321 30.000000
48.606011 14.466488 -28.796948 0.000000 64.000000 15.170605 24.000000
47.184029 11.755264 -26.740452 0.000000 61.000000 14.529230 3.000000
47.101064 12.153523 -26.842063 0.000000 54.000000 14.351605 3.000000
50.203448 13.146000 -25.758695 0.000000 39.000000 14.390683 0.000000
46.811993 13.970696 -28.763242 0.000000 61.000000 14.630283 28.000000
45.230641 11.278872 -27.233661 0.000000 58.000000 14.288487 0.000000
46.157207 12.988908 -28.105625 0.000000 54.000000 14.399707 0.000000
46.520278 13.082979 -28.432555 0.000000 48.000000 14.743052 26.000000
49.186405 14.463055 -27.475365 0.000000 42.000000 14.473715 22.000000
49.570737 14.168362 -27.408969 0.000000 64.000000 14.752467 20.000000
47.023394 13.507185 -28.373244 0.000000 59.000000 14.691374 25.000000
46.087999 14.116990 -29.985630 0.000000 68.000000 15.116034 11.000000
46.172886 11.728060 -27.473108 0.000000 66.000000 14.630292 23.000000
50.347805 14.872462 -27.493691 0.000000 52.000000 14.773328 19.000000
48.918569 15.816951 -28.894079 0.000000 65.000000 14.649312 16.000000
45.171335 13.732313 -29.665448 0.000000 73.000000 14.692469 11.000000
47.454669 12.938347 -27.702321 0.000000 73.000000 14.702824 23.000000
47.891222 12.192257 -26.545347 0.000000 41.000000 14.461922 13.000000
46.550115 13.870674 -28.697911 0.000000 32.000000 14.522787 30.000000
48.120559 13.540930 -27.321049 0.000000 40.000000 14.394132 22.000000
47.108758 10.895157 -25.846515 0.000000 49.000000 14.315826 0.000000
