-18.987019 26.049349 -61.501684 0.000000 35.000000 14.126755 0.000000
-20.729140 23.557567 -60.274458 0.000000 48.000000 14.129089 0.000000
-22.671553 21.967052 -62.458460 0.000000 32.000000 13.950712 0.000000
-21.037468 22.913868 -60.014779 0.000000 41.000000 14.011792 0.000000
-23.247369 22.680117 -65.186399 0.000000 58.000000 14.102785 0.000000
-21.096671 22.886975 -59.703064 0.000000 49.000000 14.119793 0.000000
-22.657047 21.871420 -60.552888 0.000000 54.000000 14.381660 15.000000
-21.575522 22.718412 -60.658638 0.000000 55.000000 14.108022 0.000000
-20.465989 24.674470 -62.134236 0.000000 50.000000 14.158330 0.000000
-18.578843 25.716507 -59.576276 0.000000 34.000000 14.126546 0.000000
-19.246187 25.598546 -60.350407 0.000000 45.000000 14.331496 16.000000
-21.754001 23.774350 -62.357439 0.000000 52.000000 14.461235 18.000000
-23.619130 22.389528 -64.692203 0.000000 60.000000 14.317880 22.000000
-22.934644 23.319662 -64.642181 0.000000 63.000000 14.426150 9.000000
-21.285150 23.444450 -60.363037 0.000000 64.000000 14.437074 10.000000
-22.563140 22.224698 -60.451977 0.000000 71.000000 14.564824 24.000000
-18.972517 25.224168 -59.396888 0.000000 50.000000 14.146247 0.000000
-23.160346 23.049889 -64.437294 0.000000 69.000000 14.472289 21.000000
-22.664914 22.720876 -63.704735 0.000000 48.000000 14.096804 0.000000
-21.083413 25.037005 -63.199718 0.000000 62.000000 14.555858 5.000000
-21.026856 22.904654 -60.006146 0.000000 37.000000 14.000511 0.000000
-21.769659 22.037828 -59.542085 0.000000 30.000000 14.110308 0.000000
-20.101917 24.608006 -61.177207 0.000000 39.000000 14.104262 0.000000
-20.209093 24.935004 -62.170979 0.000000 45.000000 14.128011 0.000000
-21.994600 23.835493 -64.478930 0.000000 44.000000 14.115424 0.000000
-22.108698 23.280104 -63.802904 0.000000 39.000000 14.023159 0.000000
-21.993256 23.239058 -61.248194 0.000000 55.000000 14.586720 8.000000
-18.859664 26.045441 -61.097134 0.000000 41.000000 14.138536 0.000000
-21.729938 22.168755 -59.752224 0.000000 52.000000 14.109373 0.000000
-20.844439 23.985017 -60.924701 0.000000 60.000000 14.313165 6.000000
-20.143773 24.023631 -60.017056 0.000000 45.000000 14.068776 0.000000
-21.728380 24.395506 -64.149048 0.000000 63.000000 14.365441 1.000000
-22.025970 24.014946 -65.010534 0.000000 51.000000 14.112179 0.000000
-20.129716 25.800811 -64.626906 0.000000 26.000000 13.973712 0.000000
-21.927646 24.142548 -64.982703 0.000000 59.000000 14.129352 0.000000
-23.111660 22.133342 -61.814837 0.000000 66.000000 14.545329 13.000000
-22.526196 22.355157 -60.491257 0.000000 75.000000 14.610644 24.000000
-21.746006 22.898013 -60.377907 0.000000 53.000000 14.419893 7.000000
-22.499110 21.898877 -59.666084 0.000000 75.000000 14.518323 23.000000
-22.264007 22.996976 -61.703083 0.000000 58.000000 14.509233 8.000000
-22.177739 22.458901 -60.585334 0.000000 62.000000 14.399088 24.000000
-21.233420 24.841797 -64.913653 0.000000 50.000000 14.088736 0.000000
-22.434518 22.730399 -60.339059 0.000000 56.000000 14.822911 24.000000
-21.116997 24.954992 -64.893667 0.000000 50.000000 14.081551 0.000000
-21.104829 23.757378 -61.991192 0.000000 38.000000 14.076137 0.000000
-21.018869 25.077082 -64.843328 0.000000 46.000000 14.101295 0.000000
-22.137328 21.884769 -59.527803 0.000000 54.000000 14.283400 23.000000
-22.878483 22.212722 -63.582498 0.000000 40.000000 13.960753 0.000000
-19.745259 24.776153 -60.584568 0.000000 44.000000 14.108729 0.000000
-21.981388 23.440733 -63.958304 0.000000 38.000000 13.992016 0.000000
-20.460226 25.123766 -63.421526 0.000000 35.000000 14.100574 0.000000
-20.986508 23.570691 -60.979654 0.000000 36.000000 14.138223 0.000000
-20.350978 25.231976 -63.383083 0.000000 38.000000 14.100288 0.000000
-20.353757 25.594931 -64.804896 0.000000 32.000000 13.958358 0.000000
-20.193460 25.315087 -63.405322 0.000000 38.000000 14.033035 0.000000
-22.695907 22.636146 -61.127012 0.000000 11.000000 14.744858 24.000000
-19.652352 26.564858 -64.547141 0.000000 37.000000 14.134420 0.000000
-20.411256 24.216981 -61.556327 0.000000 37.000000 13.980011 0.000000
-19.217079 26.416003 -62.982955 0.000000 37.000000 14.136353 0.000000
-21.176014 24.067298 -62.347854 0.000000 61.000000 14.230856 12.000000
-21.279434 23.829690 -62.532595 0.000000 39.000000 14.106058 0.000000
-20.318128 24.889630 -62.474502 0.000000 38.000000 14.098232 0.000000
-21.220890 24.882859 -65.168257 0.000000 22.000000 14.038652 0.000000
-21.691807 23.481988 -62.933093 0.000000 41.000000 14.078455 0.000000
-22.178458 22.841258 -61.719743 0.000000 70.000000 14.343761 8.000000
-19.761980 26.270423 -64.384549 0.000000 40.000000 14.069538 0.000000
-21.418272 23.460489 -61.121304 0.000000 54.000000 14.343956 19.000000
-19.679021 26.382342 -64.286420 0.000000 40.000000 14.106412 0.000000
-22.446181 22.478487 -60.679807 0.000000 78.000000 14.581344 24.000000
-23.175672 23.115424 -64.070829 0.000000 46.000000 14.621680 21.000000
-22.264681 23.263201 -61.632618 0.000000 62.000000 14.697608 8.000000
-20.252561 25.652222 -64.554607 0.000000 21.000000 13.987370 0.000000
-19.989212 25.349784 -62.715933 0.000000 37.000000 14.088676 0.000000
-21.740167 22.060169 -59.306287 0.000000 53.000000 14.165280 0.000000
-22.095334 22.225497 -59.599315 0.000000 60.000000 14.450787 25.000000
-21.354218 23.102800 -61.286312 0.000000 38.000000 14.026523 0.000000
-22.382687 21.772107 -61.188668 0.000000 42.000000 13.951922 0.000000
-22.440915 22.056954 -59.856918 0.000000 75.000000 14.526345 23.000000
-19.682422 25.350314 -62.023094 0.000000 41.000000 14.049124 0.000000
-22.581886 21.768710 -61.643627 0.000000 40.000000 13.974317 0.000000
-22.513037 21.812128 -59.980381 0.000000 49.000000 14.390409 23.000000
-22.365827 22.431429 -60.075941 0.000000 73.000000 14.652308 24.000000
-19.885772 26.512438 -64.933657 0.000000 54.000000 14.168501 0.000000
-20.317200 26.169828 -64.532578 0.000000 64.000000 14.369244 11.000000
-20.561377 25.494018 -64.776874 0.000000 26.000000 14.052153 0.000000
-22.736636 21.976874 -62.590389 0.000000 45.000000 13.969387 0.000000
-20.583658 25.389452 -64.402326 0.000000 45.000000 14.100539 0.000000
-21.228988 23.283586 -60.839428 0.000000 50.000000 14.168463 0.000000
-20.774521 25.121974 -64.278764 0.000000 47.000000 14.101433 0.000000
-20.954896 24.941488 -64.250525 0.000000 42.000000 14.124918 0.000000
-21.088934 22.863920 -60.198895 0.000000 31.000000 13.968824 0.000000
-21.047038 24.722555 -64.133449 0.000000 49.000000 14.083372 0.000000
-23.114308 23.006005 -64.254991 0.000000 69.000000 14.459042 21.000000
-19.429962 25.950411 -62.617957 0.000000 37.000000 14.090862 0.000000
-21.349473 24.342682 -63.971881 0.000000 52.000000 14.103726 0.000000
-21.762741 24.435178 -65.189044 0.000000 54.000000 14.141463 0.000000
-22.060027 23.992510 -64.892838 0.000000 54.000000 14.153635 0.000000
-21.215301 23.849181 -62.350856 0.000000 32.000000 14.119843 0.000000
-23.288692 23.033657 -64.282808 0.000000 39.000000 14.595775 21.000000
-22.427408 22.019229 -61.527501 0.000000 36.000000 14.052208 0.000000
-21.757692 23.851528 -63.785831 0.000000 42.000000 14.136487 0.000000
-22.481069 22.468575 -60.931395 0.000000 69.000000 14.534029 24.000000
-22.768080 21.984018 -62.541765 0.000000 32.000000 14.009555 0.000000
-22.142333 23.905187 -65.069942 0.000000 50.000000 14.111113 0.000000
-20.965700 23.088636 -59.413705 0.000000 58.000000 14.229323 10.000000
-21.005682 25.147790 -64.940285 0.000000 46.000000 14.111141 0.000000
-23.370815 22.184413 -64.742074 0.000000 40.000000 13.994184 0.000000
-19.785463 25.525793 -62.977696 0.000000 25.000000 13.983837 0.000000
-22.071296 23.298465 -63.793361 0.000000 46.000000 14.010225 0.000000
-22.390423 23.484222 -65.077004 0.000000 43.000000 14.021469 0.000000
-21.803639 22.289967 -60.103163 0.000000 38.000000 14.147413 0.000000
-22.391154 22.892309 -61.899974 0.000000 70.000000 14.482989 8.000000
-21.363344 23.479282 -60.522808 0.000000 70.000000 14.473826 10.000000
-19.842780 24.729622 -60.724814 0.000000 51.000000 14.112901 0.000000
-19.243603 25.110054 -60.277284 0.000000 40.000000 14.038228 0.000000
-21.970915 22.399770 -60.727632 0.000000 28.000000 14.173966 0.000000
-22.177091 23.140571 -61.573742 0.000000 69.000000 14.571609 8.000000
-21.837330 24.413410 -65.233659 0.000000 51.000000 14.169957 0.000000
-21.787095 23.638082 -63.437512 0.000000 45.000000 14.113880 0.000000
-21.618757 24.339838 -64.448823 0.000000 35.000000 14.171512 0.000000
-22.929616 22.531582 -63.833593 0.000000 65.000000 14.134440 0.000000
-23.282269 22.323399 -65.030343 0.000000 40.000000 13.942369 0.000000
-22.288369 21.850591 -60.804686 0.000000 42.000000 14.034641 0.000000
-19.986300 24.286848 -59.987317 0.000000 55.000000 14.129799 0.000000
-21.112473 22.841275 -60.219445 0.000000 28.000000 13.966078 0.000000
-21.652579 22.111649 -59.299329 0.000000 52.000000 14.136326 0.000000
-23.246700 22.306301 -64.907515 0.000000 40.000000 13.938073 0.000000
-19.259313 24.975556 -60.210722 0.000000 37.000000 13.981630 0.000000
-21.654336 22.475515 -59.483784 0.000000 71.000000 14.320389 7.000000
-22.835179 22.277823 -63.506309 0.000000 36.000000 13.990830 0.000000
-21.221318 23.470861 -60.840057 0.000000 48.000000 14.281836 0.000000
-20.960521 23.458980 -60.323810 0.000000 53.000000 14.221201 10.000000
-22.580071 22.641812 -63.262151 0.000000 53.000000 14.101645 0.000000
-21.648515 23.915795 -62.305776 0.000000 65.000000 14.488299 18.000000
-20.998486 23.800459 -61.634337 0.000000 50.000000 14.120468 0.000000
-22.451747 23.134565 -64.067379 0.000000 42.000000 14.109701 0.000000
-21.973021 24.043133 -64.869290 0.000000 47.000000 14.128931 0.000000
-18.968358 26.038644 -61.422060 0.000000 37.000000 14.127400 0.000000
-22.444748 23.236555 -64.320240 0.000000 56.000000 14.102835 0.000000
-22.129856 23.027793 -63.079903 0.000000 38.000000 14.068617 0.000000
-22.366625 22.091191 -60.110367 0.000000 65.000000 14.427430 24.000000
-21.964595 23.083056 -63.108799 0.000000 34.000000 13.976283 0.000000
-19.520318 24.933398 -60.532926 0.000000 32.000000 14.059196 0.000000
-19.332075 25.096884 -60.505262 0.000000 32.000000 14.033928 0.000000
-22.073047 23.508564 -64.191804 0.000000 42.000000 14.040086 0.000000
-20.087110 23.892768 -59.667204 0.000000 56.000000 14.036671 0.000000
-22.848078 23.607788 -64.464251 0.000000 75.000000 14.593505 9.000000
-22.350294 23.113489 -63.845058 0.000000 38.000000 14.081315 0.000000
-21.907860 23.737998 -63.969968 0.000000 56.000000 14.124665 0.000000
-22.638639 22.340056 -60.814060 0.000000 66.000000 14.597507 24.000000
-21.780201 23.818827 -63.928884 0.000000 48.000000 14.094307 0.000000
-21.748802 22.247498 -59.983770 0.000000 50.000000 14.112100 0.000000
-19.306825 25.449822 -60.190922 0.000000 46.000000 14.322930 16.000000
-19.901280 26.058278 -64.129427 0.000000 35.000000 14.102901 0.000000
-21.141017 22.824447 -60.249216 0.000000 26.000000 13.968231 0.000000
-21.228613 23.890536 -62.427454 0.000000 54.000000 14.135608 0.000000
-23.019094 23.297207 -64.419667 0.000000 53.000000 14.531772 9.000000
-22.725191 23.480584 -64.430754 0.000000 76.000000 14.432306 9.000000
-20.985616 24.420633 -63.433442 0.000000 43.000000 14.031323 0.000000
-20.839098 24.236849 -62.095467 0.000000 49.000000 14.160848 0.000000
-21.745161 23.351600 -63.051495 0.000000 27.000000 14.003020 0.000000
-21.588613 22.358246 -59.668693 0.000000 57.000000 14.149399 0.000000
-23.241288 22.944452 -64.404445 0.000000 74.000000 14.472599 21.000000
-20.597833 24.377791 -61.975742 0.000000 44.000000 14.107052 0.000000
-21.108148 24.257046 -62.342153 0.000000 39.000000 14.303810 12.000000
-18.959160 26.161249 -61.092658 0.000000 63.000000 14.285530 0.000000
-20.611780 24.770514 -63.016058 0.000000 44.000000 14.092714 0.000000
-21.725664 23.763556 -61.351565 0.000000 61.000000 14.698956 19.000000
-20.313392 26.116663 -65.355666 0.000000 38.000000 14.115713 0.000000
-19.796645 24.508271 -60.171539 0.000000 26.000000 14.084503 0.000000
-21.797645 23.246475 -63.092053 0.000000 17.000000 13.963539 0.000000
-21.035167 24.007998 -61.389964 0.000000 52.000000 14.343476 6.000000
-22.600681 22.020963 -60.870864 0.000000 54.000000 14.352068 24.000000
-19.245441 26.089871 -62.423190 0.000000 33.000000 14.097061 0.000000
-20.258293 25.092773 -62.572256 0.000000 50.000000 14.158259 0.000000
-22.616628 21.779551 -60.378222 0.000000 45.000000 14.339958 15.000000
-20.091838 25.133088 -62.554500 0.000000 42.000000 14.067850 0.000000
-22.921975 23.280002 -64.344879 0.000000 69.000000 14.470104 9.000000
-19.950585 25.184380 -62.502459 0.000000 41.000000 14.011736 0.000000
-18.453691 26.138319 -60.514117 0.000000 33.000000 14.056829 0.000000
-19.817927 24.469618 -59.903750 0.000000 33.000000 14.145944 0.000000
-22.939011 21.960243 -61.985101 0.000000 49.000000 14.265141 13.000000
-21.948700 23.777992 -64.189079 0.000000 43.000000 14.121964 0.000000
-22.854899 23.081250 -65.122589 0.000000 40.000000 14.090056 0.000000
-19.632507 26.443743 -64.091518 0.000000 30.000000 14.163098 0.000000
-19.870952 25.851226 -63.481589 0.000000 42.000000 14.119988 0.000000
-22.440182 22.918069 -63.474059 0.000000 58.000000 14.120019 0.000000
-21.179126 24.424792 -64.080419 0.000000 29.000000 14.003784 0.000000
-20.002051 25.610606 -63.612255 0.000000 36.000000 14.027604 0.000000
-21.900051 22.706585 -60.058395 0.000000 60.000000 14.494098 7.000000
-19.396605 25.665324 -61.634485 0.000000 41.000000 14.144593 0.000000
-19.986946 24.412169 -60.130377 0.000000 56.000000 14.172260 0.000000
-21.810966 22.393458 -60.526498 0.000000 56.000000 14.106957 0.000000
-22.754569 21.897510 -60.347957 0.000000 65.000000 14.523002 15.000000
-21.268716 23.733673 -62.242942 0.000000 42.000000 14.113570 0.000000
-18.901475 25.559158 -60.197525 0.000000 34.000000 14.096725 0.000000
-21.620710 22.903606 -61.120451 0.000000 47.000000 14.136846 0.000000
-18.838744 25.620170 -60.061168 0.000000 34.000000 14.125971 0.000000
-19.265482 25.349163 -60.014076 0.000000 43.000000 14.275543 17.000000
-18.753770 25.667838 -59.949580 0.000000 35.000000 14.124069 0.000000
-20.979254 24.818132 -63.971394 0.000000 39.000000 14.137709 0.000000
-22.576073 22.194712 -62.305729 0.000000 49.000000 14.066504 0.000000
-19.760192 24.722929 -60.413532 0.000000 37.000000 14.130793 0.000000
-19.750524 24.306735 -59.366349 0.000000 49.000000 14.135121 0.000000
-23.362747 22.207805 -64.787196 0.000000 39.000000 13.991315 0.000000
-21.518052 23.630998 -61.610321 0.000000 59.000000 14.395867 19.000000
-22.697401 23.475585 -64.586354 0.000000 54.000000 14.367957 9.000000
-18.933105 26.465219 -62.892162 0.000000 30.000000 13.985620 0.000000
-19.405616 26.634339 -64.004955 0.000000 39.000000 14.142566 0.000000
-19.236209 26.236828 -62.733329 0.000000 41.000000 14.102077 0.000000
-22.417659 21.820457 -61.287463 0.000000 41.000000 13.981994 0.000000
-22.190550 22.499242 -61.725892 0.000000 48.000000 14.133398 0.000000
-19.031733 25.916500 -61.449167 0.000000 37.000000 14.088542 0.000000
-20.651622 25.325017 -64.479033 0.000000 40.000000 14.088636 0.000000
-19.555892 25.862706 -62.663429 0.000000 38.000000 14.114436 0.000000
-20.109195 25.784442 -64.234271 0.000000 21.000000 14.051913 0.000000
-20.213342 25.381283 -63.893427 0.000000 27.000000 13.960894 0.000000
-22.376471 22.927119 -63.317969 0.000000 53.000000 14.120710 0.000000
-19.775687 25.619201 -62.622142 0.000000 40.000000 14.129872 0.000000
-20.962245 23.350780 -59.552797 0.000000 59.000000 14.356871 10.000000
-22.145924 23.453126 -64.393507 0.000000 38.000000 14.004520 0.000000
-21.967119 24.174432 -65.264612 0.000000 42.000000 14.103951 0.000000
-19.830756 25.307404 -62.789220 0.000000 31.000000 13.927478 0.000000
-20.112118 25.548328 -64.051834 0.000000 33.000000 13.951960 0.000000
-19.477347 25.885043 -62.066373 0.000000 43.000000 14.229050 30.000000
-20.219876 25.423542 -64.045279 0.000000 32.000000 13.952483 0.000000
-21.148291 24.103967 -62.333359 0.000000 67.000000 14.237889 12.000000
-22.558561 21.697154 -61.129139 0.000000 20.000000 14.047506 0.000000
-22.532372 22.160213 -60.643918 0.000000 62.000000 14.450904 24.000000
-22.664120 22.360023 -60.911824 0.000000 68.000000 14.602916 24.000000
-20.375516 24.884071 -62.629012 0.000000 46.000000 14.095592 0.000000
-20.635441 25.097997 -63.913732 0.000000 48.000000 14.081527 0.000000
-20.246388 26.309278 -64.718399 0.000000 62.000000 14.357590 11.000000
-19.358993 25.553126 -61.181258 0.000000 28.000000 14.165424 0.000000
-22.140057 22.495251 -61.632475 0.000000 57.000000 14.118861 0.000000
-22.607662 22.135392 -60.796789 0.000000 55.000000 14.449430 24.000000
-22.183779 23.089679 -62.410668 0.000000 30.000000 14.323490 8.000000
-21.103655 22.575570 -59.477708 0.000000 29.000000 13.986215 0.000000
-20.579851 24.789147 -62.904518 0.000000 41.000000 14.110806 0.000000
-19.261095 26.535506 -63.746412 0.000000 21.000000 14.043039 0.000000
-19.992691 26.285599 -65.001978 0.000000 33.000000 14.083776 0.000000
-21.352148 22.877077 -60.843192 0.000000 28.000000 13.998270 0.000000
-21.007337 24.192877 -62.682729 0.000000 51.000000 14.100111 0.000000
-22.030552 23.110188 -61.361446 0.000000 69.000000 14.501961 8.000000
-23.099477 22.508518 -64.463892 0.000000 33.000000 14.076832 0.000000
-21.200476 25.330545 -65.150674 0.000000 31.000000 14.313197 0.000000
-19.928200 24.175154 -59.548150 0.000000 39.000000 14.132386 0.000000
-22.157786 23.070753 -63.017609 0.000000 38.000000 14.132617 0.000000
-22.599263 22.428631 -62.679196 0.000000 41.000000 14.133649 0.000000
-19.694255 24.435075 -59.578773 0.000000 49.000000 14.119936 0.000000
-21.704452 23.927752 -64.067787 0.000000 42.000000 14.072028 0.000000
-20.664976 23.356663 -59.715040 0.000000 47.000000 14.102238 0.000000
-20.563573 23.722528 -59.560001 0.000000 62.000000 14.302237 2.000000
-20.199091 24.829520 -61.905507 0.000000 50.000000 14.123647 0.000000
-20.878602 24.328023 -62.941126 0.000000 37.000000 14.024578 0.000000
-21.501513 22.241805 -59.233230 0.000000 47.000000 14.126956 0.000000
-21.187010 24.412119 -63.890848 0.000000 37.000000 14.051411 0.000000
-21.632183 22.678659 -60.102730 0.000000 52.000000 14.270367 7.000000
-19.067165 25.426892 -59.681312 0.000000 45.000000 14.268851 0.000000
-22.649318 21.902739 -60.370845 0.000000 69.000000 14.443956 15.000000
-21.732585 23.212165 -62.844873 0.000000 35.000000 13.959685 0.000000
-20.673515 25.222324 -64.276697 0.000000 39.000000 14.092538 0.000000
-21.076423 22.948658 -60.015508 0.000000 37.000000 14.061979 0.000000
-22.731911 22.326680 -63.091614 0.000000 33.000000 14.056310 0.000000
-18.720107 25.709961 -59.831940 0.000000 43.000000 14.157451 0.000000
-22.596346 23.061127 -64.325087 0.000000 57.000000 14.099943 0.000000
-19.660154 25.254805 -61.894048 0.000000 33.000000 14.006248 0.000000
-21.913855 22.196943 -60.096657 0.000000 43.000000 14.169906 0.000000
-23.385211 22.314240 -65.058225 0.000000 35.000000 14.003858 0.000000
-22.595112 22.569063 -63.186834 0.000000 52.000000 14.086141 0.000000
-23.011512 22.031590 -62.929914 0.000000 45.000000 14.114058 0.000000
-22.347914 22.610773 -62.483890 0.000000 54.000000 14.118663 0.000000
-22.886577 21.890889 -62.541924 0.000000 45.000000 14.036230 0.000000
-19.603215 24.627755 -59.755464 0.000000 27.000000 14.129871 0.000000
-22.943117 22.089588 -63.538210 0.000000 40.000000 13.940995 0.000000
-21.384829 23.377230 -60.501513 0.000000 59.000000 14.430120 10.000000
-23.120100 22.046483 -63.488322 0.000000 69.000000 14.055097 0.000000
-20.052196 23.977065 -59.620667 0.000000 48.000000 14.077225 0.000000
-21.754491 24.335517 -63.708933 0.000000 45.000000 14.462239 1.000000
-22.456626 22.488054 -61.204859 0.000000 73.000000 14.456605 24.000000
-20.589103 23.740824 -59.461260 0.000000 59.000000 14.358418 2.000000
-23.394409 22.191471 -64.774004 0.000000 40.000000 14.007369 0.000000
-18.561503 26.153206 -60.828430 0.000000 34.000000 14.061644 0.000000
-19.770664 25.551704 -63.017812 0.000000 27.000000 13.979008 0.000000
-20.345056 24.930616 -62.746055 0.000000 31.000000 14.072250 0.000000
-20.574725 23.560332 -59.741290 0.000000 44.000000 14.159388 0.000000
-19.000885 26.018395 -61.555608 0.000000 35.000000 14.102913 0.000000
-21.508186 22.263733 -59.293850 0.000000 50.000000 14.129763 0.000000
-21.709544 22.791173 -60.568949 0.000000 66.000000 14.275143 0.000000
-20.014504 24.913660 -61.655220 0.000000 36.000000 14.109251 0.000000
-21.065345 24.953552 -64.600270 0.000000 44.000000 14.120510 0.000000
-20.842120 23.512585 -60.616103 0.000000 36.000000 14.092371 0.000000
-20.827780 25.176390 -63.308961 0.000000 56.000000 14.430298 5.000000
-22.329993 22.600433 -62.462568 0.000000 34.000000 14.104710 0.000000
-22.482450 21.846210 -61.589679 0.000000 38.000000 13.965705 0.000000
-20.184726 24.362332 -60.779450 0.000000 51.000000 14.112926 0.000000
-20.175210 24.656926 -61.421456 0.000000 40.000000 14.124152 0.000000
-22.204892 22.847676 -62.787725 0.000000 52.000000 14.085506 0.000000
-18.974732 25.700345 -60.588616 0.000000 39.000000 14.136562 0.000000
-22.514031 22.655530 -63.020809 0.000000 47.000000 14.126085 0.000000
-19.907497 25.408277 -63.222602 0.000000 30.000000 13.933057 0.000000
-19.965924 25.209193 -62.388651 0.000000 21.000000 14.068642 0.000000
-21.413812 22.770717 -59.917999 0.000000 37.000000 14.219223 7.000000
-20.332436 25.916779 -65.307816 0.000000 27.000000 14.015017 0.000000
-21.718437 23.247064 -62.865052 0.000000 34.000000 13.966299 0.000000
-21.437568 23.140681 -61.791340 0.000000 36.000000 13.977948 0.000000
-20.808956 24.111640 -60.969201 0.000000 59.000000 14.356228 6.000000
-22.151308 23.257426 -61.799611 0.000000 64.000000 14.567689 8.000000
-20.978969 23.512684 -60.988425 0.000000 39.000000 14.093551 0.000000
-22.417603 21.906473 -61.577083 0.000000 43.000000 13.960317 0.000000
-20.893770 23.561903 -60.867471 0.000000 41.000000 14.094940 0.000000
-21.091992 23.824772 -61.839864 0.000000 51.000000 14.149576 0.000000
-22.900543 21.858562 -62.581577 0.000000 30.000000 14.015348 0.000000
-19.180784 25.808254 -61.563984 0.000000 34.000000 14.097542 0.000000
-23.231116 23.074148 -64.600579 0.000000 36.000000 14.496005 21.000000
-21.124900 23.995247 -62.331811 0.000000 45.000000 14.152190 0.000000
-20.492659 23.784022 -60.241863 0.000000 33.000000 14.110181 0.000000
-21.750781 23.654784 -62.628805 0.000000 22.000000 14.311329 0.000000
-20.547255 24.035888 -61.127161 0.000000 42.000000 14.076604 0.000000
-21.655095 24.264106 -64.521594 0.000000 39.000000 14.130522 0.000000
-21.357095 23.435892 -60.304869 0.000000 59.000000 14.499146 10.000000
-20.148230 23.832436 -59.980034 0.000000 29.000000 13.960172 0.000000
-20.373891 24.095178 -60.881464 0.000000 38.000000 14.053334 0.000000
-20.077229 23.870642 -59.845115 0.000000 32.000000 13.968537 0.000000
-22.025597 23.516915 -63.879284 0.000000 37.000000 14.093359 0.000000
-20.612924 23.512188 -59.868575 0.000000 48.000000 14.122925 0.000000
-21.867241 22.062222 -59.719962 0.000000 44.000000 14.149710 0.000000
-22.142738 23.022670 -63.266266 0.000000 30.000000 14.025579 0.000000
-19.839316 24.861969 -59.912453 0.000000 15.000000 14.408687 3.000000
-19.949254 24.011877 -59.366811 0.000000 31.000000 14.091614 0.000000
-21.136141 22.616209 -59.438952 0.000000 36.000000 14.045837 0.000000
-20.280458 24.178140 -60.390172 0.000000 52.000000 14.167828 0.000000
-20.015446 24.293887 -60.005071 0.000000 52.000000 14.150736 0.000000
-19.943037 24.312241 -59.876857 0.000000 52.000000 14.143686 0.000000
-19.871301 24.328566 -59.747981 0.000000 40.000000 14.136009 0.000000
-19.212768 26.095257 -61.456200 0.000000 27.000000 14.331677 0.000000
-19.642847 25.734849 -62.625439 0.000000 27.000000 14.106203 0.000000
-21.699656 23.918866 -63.971572 0.000000 35.000000 14.088258 0.000000
-22.395477 22.363743 -61.081990 0.000000 61.000000 14.365583 24.000000
-23.124769 22.280673 -64.598015 0.000000 41.000000 13.914919 0.000000
-23.151784 22.435941 -64.640720 0.000000 50.000000 14.022003 0.000000
-23.147650 22.567964 -64.734399 0.000000 56.000000 14.078274 0.000000
-18.803714 25.849781 -60.402063 0.000000 49.000000 14.156734 0.000000
-19.009121 26.070908 -61.659219 0.000000 50.000000 14.114973 0.000000
-21.246578 24.563984 -64.401634 0.000000 30.000000 14.056561 0.000000
-19.101929 25.955263 -61.697695 0.000000 41.000000 14.098598 0.000000
-20.887126 23.578456 -60.631881 0.000000 36.000000 14.162748 0.000000
-20.891217 24.631598 -63.458336 0.000000 41.000000 14.090463 0.000000
-22.410986 22.663152 -62.824622 0.000000 56.000000 14.107907 0.000000
-19.492465 25.515917 -61.845107 0.000000 45.000000 14.063583 0.000000
-19.606282 26.495899 -64.296955 0.000000 34.000000 14.123097 0.000000
-21.781354 23.349513 -63.025166 0.000000 38.000000 14.034883 0.000000
-19.978135 25.902410 -64.117371 0.000000 21.000000 14.062694 0.000000
-21.987483 22.649328 -61.097073 0.000000 38.000000 14.247314 0.000000
-19.502400 24.960699 -60.782494 0.000000 33.000000 13.997780 0.000000
-19.649492 24.425168 -59.556905 0.000000 33.000000 14.086933 0.000000
-19.382137 25.938750 -62.452468 0.000000 36.000000 14.092379 0.000000
-21.716748 23.636814 -62.137308 0.000000 61.000000 14.404771 18.000000
-22.090990 22.478683 -61.431325 0.000000 57.000000 14.125756 0.000000
-20.562533 24.057847 -59.592144 0.000000 46.000000 14.506265 2.000000
-19.873688 24.690717 -60.848816 0.000000 42.000000 14.077890 0.000000
-21.066080 24.709384 -64.168621 0.000000 32.000000 14.079535 0.000000
-19.980516 24.596013 -60.891716 0.000000 42.000000 14.083835 0.000000
-21.381296 23.940614 -61.644813 0.000000 59.000000 14.484493 19.000000
-20.085131 24.500559 -60.939236 0.000000 39.000000 14.086481 0.000000
-21.578837 22.666949 -59.489979 0.000000 68.000000 14.385743 7.000000
-20.219752 24.421308 -60.956444 0.000000 50.000000 14.129182 0.000000
-21.715171 22.879478 -60.001331 0.000000 56.000000 14.485003 7.000000
-21.692729 23.665292 -61.330376 0.000000 57.000000 14.618160 19.000000
-21.283319 24.384145 -63.638877 0.000000 45.000000 14.169890 0.000000
-21.681199 22.635458 -60.597525 0.000000 46.000000 14.148021 0.000000
-20.720523 24.314755 -62.439764 0.000000 43.000000 14.033638 0.000000
-21.703972 23.978295 -62.019076 0.000000 61.000000 14.643843 18.000000
-22.329265 22.995064 -63.343863 0.000000 47.000000 14.122856 0.000000
-21.310124 22.466523 -59.282114 0.000000 46.000000 14.118172 0.000000
-21.025229 23.686704 -61.454633 0.000000 46.000000 14.114887 0.000000
-21.949085 22.645152 -61.440973 0.000000 44.000000 14.126159 0.000000
-21.115810 23.593714 -61.536787 0.000000 43.000000 14.099792 0.000000
-21.055859 24.126517 -61.287412 0.000000 55.000000 14.460891 6.000000
-21.476607 23.699439 -62.877604 0.000000 45.000000 14.075290 0.000000
-20.513602 25.132090 -63.574717 0.000000 36.000000 14.104201 0.000000
-21.550246 24.116978 -63.823587 0.000000 42.000000 14.144894 0.000000
-19.936533 25.976529 -63.926880 0.000000 31.000000 14.129869 0.000000
-19.783863 24.242162 -59.364500 0.000000 43.000000 14.118722 0.000000
-22.519284 22.218371 -59.733702 0.000000 59.000000 14.718321 23.000000
-22.836555 22.097440 -62.071722 0.000000 23.000000 14.255250 13.000000
-22.489289 23.051244 -63.986734 0.000000 41.000000 14.105196 0.000000
-21.902007 22.375402 -60.633839 0.000000 46.000000 14.133212 0.000000
-22.834934 22.224141 -63.536045 0.000000 34.000000 13.948673 0.000000
-21.066150 22.872704 -60.093687 0.000000 33.000000 13.985617 0.000000
-22.272050 21.941567 -60.019900 0.000000 67.000000 14.287525 23.000000
-21.282074 24.538411 -64.456315 0.000000 37.000000 14.051628 0.000000
-22.437160 21.959446 -61.623059 0.000000 40.000000 13.996073 0.000000
-22.332344 22.613691 -62.537765 0.000000 49.000000 14.095025 0.000000
-22.639924 22.794279 -63.829981 0.000000 52.000000 14.092347 0.000000
-22.179988 23.062846 -61.516649 0.000000 76.000000 14.539327 8.000000
-21.299932 23.111338 -60.270060 0.000000 43.000000 14.260453 0.000000
-22.734828 22.170976 -62.988418 0.000000 33.000000 13.986604 0.000000
-21.626948 23.586146 -61.373084 0.000000 60.000000 14.508856 19.000000
-22.715005 22.283065 -62.990027 0.000000 38.000000 14.043088 0.000000
-22.530716 22.007918 -59.677779 0.000000 73.000000 14.607511 23.000000
-22.408269 23.071133 -61.961996 0.000000 63.000000 14.592782 8.000000
-19.296618 24.971334 -59.976844 0.000000 24.000000 14.067650 0.000000
-22.868104 22.087459 -63.293346 0.000000 41.000000 13.949778 0.000000
-22.071092 23.381921 -64.184849 0.000000 32.000000 13.959959 0.000000
-23.045478 22.076854 -63.291036 0.000000 59.000000 14.072291 0.000000
-23.335064 22.205824 -64.705485 0.000000 44.000000 13.991515 0.000000
-23.116787 22.407249 -64.557379 0.000000 46.000000 14.000340 0.000000
-20.067965 23.889158 -59.741082 0.000000 40.000000 14.001015 0.000000
-21.123242 22.847393 -60.246045 0.000000 21.000000 13.970768 0.000000
-18.896413 25.711151 -60.449612 0.000000 47.000000 14.123270 0.000000
-22.969307 23.574108 -64.518727 0.000000 59.000000 14.645653 9.000000
-21.205771 24.354346 -63.077350 0.000000 43.000000 14.242706 0.000000
-20.192534 23.809639 -59.846558 0.000000 22.000000 14.012991 0.000000
-22.012151 22.518461 -61.400828 0.000000 46.000000 14.101911 0.000000
-20.532309 25.220734 -63.631662 0.000000 25.000000 14.159134 0.000000
-21.865066 22.571714 -61.114201 0.000000 41.000000 14.104650 0.000000
-22.282311 23.786624 -65.078453 0.000000 43.000000 14.134992 0.000000
-21.780374 22.264599 -60.045820 0.000000 47.000000 14.129519 0.000000
-20.102253 25.259193 -62.729940 0.000000 43.000000 14.109359 0.000000
-21.666268 22.821480 -61.449688 0.000000 50.000000 14.030875 0.000000
-21.422127 23.287047 -61.685873 0.000000 43.000000 14.087634 0.000000
-21.392188 22.716023 -60.100239 0.000000 32.000000 14.120719 0.000000
-23.028757 22.152398 -63.890615 0.000000 39.000000 13.950166 0.000000
-22.341521 21.705540 -60.369984 0.000000 50.000000 14.095525 0.000000
-19.702427 25.817225 -62.196901 0.000000 59.000000 14.314764 30.000000
-21.141726 22.656423 -59.948402 0.000000 27.000000 13.941178 0.000000
-21.337795 22.820506 -60.932066 0.000000 24.000000 13.928455 0.000000
-18.721716 25.536168 -59.554880 0.000000 33.000000 14.121120 0.000000
-22.591635 21.790552 -59.715614 0.000000 61.000000 14.503484 23.000000
-20.053032 23.907860 -59.534774 0.000000 48.000000 14.056460 0.000000
-20.297832 25.044338 -62.690473 0.000000 21.000000 14.124973 0.000000
-22.721482 23.286196 -65.081119 0.000000 37.000000 14.134561 0.000000
-21.657372 22.887351 -60.073116 0.000000 52.000000 14.429166 7.000000
-22.380748 22.538027 -61.927523 0.000000 48.000000 14.242867 0.000000
-21.927259 23.688417 -62.101134 0.000000 64.000000 14.599807 18.000000
-20.118233 25.069697 -62.266389 0.000000 42.000000 14.122622 0.000000
-22.319358 22.730668 -62.637309 0.000000 33.000000 14.133762 0.000000
-20.994147 23.866375 -61.070656 0.000000 52.000000 14.307822 6.000000
-22.696969 22.276427 -62.945367 0.000000 50.000000 14.037557 0.000000
-20.555232 25.326576 -64.091831 0.000000 46.000000 14.121778 0.000000
-22.464296 22.378756 -62.288673 0.000000 39.000000 14.106976 0.000000
-21.784579 22.879893 -60.332538 0.000000 64.000000 14.448305 7.000000
-20.735497 24.562513 -62.654320 0.000000 30.000000 14.145512 0.000000
-23.031487 22.320643 -64.297170 0.000000 40.000000 13.951981 0.000000
-18.776580 25.949943 -60.130852 0.000000 69.000000 14.272242 27.000000
-23.245084 22.973929 -64.423639 0.000000 59.000000 14.489039 21.000000
-20.564111 25.535604 -64.967553 0.000000 31.000000 14.030322 0.000000
-20.236564 24.033850 -60.292696 0.000000 34.000000 14.069921 0.000000
-21.798493 22.067301 -59.658564 0.000000 48.000000 14.119262 0.000000
-21.427411 24.533961 -64.850610 0.000000 25.000000 14.050278 0.000000
-19.773062 24.776437 -60.737827 0.000000 43.000000 14.088678 0.000000
-21.283078 23.155126 -60.676246 0.000000 51.000000 14.169011 0.000000
-19.682141 24.528913 -59.888352 0.000000 41.000000 14.089227 0.000000
-21.564955 22.799103 -60.680568 0.000000 61.000000 14.145895 0.000000
-21.541037 22.418324 -59.426029 0.000000 50.000000 14.217065 7.000000
-22.737780 22.562412 -61.354068 0.000000 72.000000 14.668486 24.000000
-22.111618 23.409115 -64.251797 0.000000 37.000000 13.989001 0.000000
-22.359735 22.730842 -62.908559 0.000000 50.000000 14.091660 0.000000
-21.714058 22.742038 -60.012215 0.000000 65.000000 14.393917 7.000000
-22.298284 22.701070 -62.568533 0.000000 46.000000 14.117783 0.000000
-20.352297 23.890276 -60.613285 0.000000 39.000000 13.978049 0.000000
-21.114811 25.011517 -64.972000 0.000000 45.000000 14.095267 0.000000
-21.615535 23.097128 -60.134221 0.000000 59.000000 14.516127 7.000000
-23.261596 22.606284 -65.029732 0.000000 41.000000 14.107443 0.000000
-20.721114 23.734346 -60.789927 0.000000 46.000000 14.099823 0.000000
-21.621690 24.353777 -64.184531 0.000000 53.000000 14.252169 1.000000
-20.871230 25.002916 -64.152714 0.000000 45.000000 14.129083 0.000000
-20.667210 23.392713 -59.782648 0.000000 43.000000 14.108964 0.000000
-21.753653 24.304631 -64.751266 0.000000 44.000000 14.167240 0.000000
-21.955745 24.159290 -64.948802 0.000000 44.000000 14.169315 0.000000
-19.853940 26.218508 -64.311026 0.000000 29.000000 14.122599 0.000000
-22.276328 22.337796 -60.255111 0.000000 68.000000 14.480619 24.000000
-21.600294 22.568359 -59.328187 0.000000 45.000000 14.381253 7.000000
-22.068189 22.533382 -61.502640 0.000000 51.000000 14.125208 0.000000
-21.189259 22.894163 -60.621497 0.000000 30.000000 13.949429 0.000000
-22.545681 22.907855 -63.719810 0.000000 45.000000 14.125265 0.000000
-20.840356 25.043687 -64.253796 0.000000 41.000000 14.105975 0.000000
-21.814326 23.877989 -62.021248 0.000000 63.000000 14.659517 18.000000
-18.628365 25.701038 -59.636489 0.000000 39.000000 14.136755 0.000000
-20.998502 25.154561 -65.053998 0.000000 35.000000 14.080266 0.000000
-21.061434 24.085877 -62.558758 0.000000 39.000000 14.103975 0.000000
-21.803623 23.945995 -64.164551 0.000000 41.000000 14.130052 0.000000
-20.646033 23.706626 -59.490685 0.000000 58.000000 14.370203 2.000000
-19.762439 25.738272 -62.505206 0.000000 48.000000 14.226812 30.000000
-22.003676 22.531704 -61.442009 0.000000 46.000000 14.093331 0.000000
-20.803026 23.437384 -60.189910 0.000000 54.000000 14.128531 0.000000
-21.700820 22.791977 -61.161502 0.000000 44.000000 14.113136 0.000000
-22.396422 22.059409 -61.695971 0.000000 38.000000 14.010880 0.000000
-22.260187 22.045541 -59.838017 0.000000 49.000000 14.392987 23.000000
-18.535691 25.755257 -59.475613 0.000000 22.000000 14.146425 0.000000
-21.128932 23.167802 -59.639356 0.000000 63.000000 14.338583 10.000000
-22.182688 23.162376 -61.878127 0.000000 63.000000 14.509303 8.000000
-21.897947 21.695005 -59.294075 0.000000 36.000000 14.050701 0.000000
-20.903224 24.971466 -63.165183 0.000000 50.000000 14.392590 5.000000
-21.096490 23.796572 -61.291706 0.000000 47.000000 14.279392 6.000000
-22.157919 21.755575 -59.485941 0.000000 67.000000 14.227205 23.000000
-20.807969 23.678672 -60.720822 0.000000 51.000000 14.145626 0.000000
-23.187596 22.898734 -63.908818 0.000000 44.000000 14.535223 21.000000
-22.642558 22.114373 -62.599601 0.000000 37.000000 13.986170 0.000000
-21.758997 24.081403 -61.719567 0.000000 3.000000 14.828273 19.000000
-23.049329 22.142451 -62.580607 0.000000 33.000000 14.304065 0.000000
-23.001730 22.229719 -64.128715 0.000000 41.000000 13.916976 0.000000
-21.098412 23.375536 -60.713498 0.000000 59.000000 14.165428 0.000000
-22.365228 22.888941 -63.339696 0.000000 58.000000 14.082547 0.000000
-20.470739 24.747271 -62.535431 0.000000 52.000000 14.102323 0.000000
-18.813799 25.562111 -59.847905 0.000000 37.000000 14.127168 0.000000
-22.773145 23.096448 -64.439954 0.000000 69.000000 14.220361 9.000000
-22.977707 23.505943 -64.652071 0.000000 57.000000 14.573247 9.000000
-22.429765 22.761829 -63.042123 0.000000 46.000000 14.126953 0.000000
-20.628567 24.458160 -62.066815 0.000000 37.000000 14.156450 0.000000
-21.725453 22.164437 -59.597135 0.000000 39.000000 14.144254 0.000000
-22.046723 23.680663 -64.168765 0.000000 36.000000 14.136517 0.000000
-23.287504 22.128085 -64.036420 0.000000 42.000000 14.083939 0.000000
-18.803625 25.633888 -59.940560 0.000000 40.000000 14.141015 0.000000
-22.375063 22.505145 -62.259007 0.000000 33.000000 14.130455 0.000000
-19.994326 24.735629 -61.333900 0.000000 31.000000 14.066089 0.000000
-21.256858 22.991390 -60.965049 0.000000 27.000000 13.969735 0.000000
-23.001556 22.061223 -63.641360 0.000000 42.000000 13.938152 0.000000
-21.952491 23.500358 -63.688580 0.000000 29.000000 14.080072 0.000000
-21.234959 24.864481 -65.091509 0.000000 21.000000 14.057398 0.000000
-22.873810 22.055898 -63.292937 0.000000 44.000000 13.933952 0.000000
-19.074810 25.116487 -59.509408 0.000000 56.000000 14.122298 0.000000
-21.615878 22.294119 -59.654799 0.000000 50.000000 14.132054 0.000000
-21.034370 24.129430 -61.489598 0.000000 46.000000 14.393864 6.000000
-22.590139 22.095098 -62.296417 0.000000 39.000000 14.015809 0.000000
-22.540016 21.740366 -61.415521 0.000000 40.000000 13.986050 0.000000
-20.278698 26.121914 -65.359932 0.000000 42.000000 14.092764 0.000000
-22.415618 21.885551 -61.524412 0.000000 35.000000 13.959455 0.000000
-20.151634 25.538027 -63.834909 0.000000 37.000000 14.031248 0.000000
-22.370968 21.887314 -61.352257 0.000000 36.000000 13.973570 0.000000
-22.614152 22.045611 -62.399212 0.000000 40.000000 13.974658 0.000000
-21.979717 23.428170 -63.907323 0.000000 23.000000 13.996252 0.000000
-21.732245 22.499017 -60.365156 0.000000 50.000000 14.159522 0.000000
-18.589731 26.159772 -60.266183 0.000000 46.000000 14.234494 0.000000
-21.601923 23.025903 -60.322245 0.000000 54.000000 14.411396 7.000000
-20.518240 24.206057 -61.732341 0.000000 35.000000 14.004263 0.000000
-21.906421 21.779335 -59.203539 0.000000 36.000000 14.134343 0.000000
-21.525073 23.950570 -62.085576 0.000000 67.000000 14.478926 18.000000
-19.924726 25.196294 -62.505326 0.000000 35.000000 13.999803 0.000000
-23.243916 22.728832 -65.025613 0.000000 50.000000 14.173644 0.000000
-20.913779 24.564327 -63.617507 0.000000 38.000000 14.022088 0.000000
-22.546827 21.756070 -61.293919 0.000000 40.000000 14.033030 0.000000
-20.388399 25.138821 -63.190067 0.000000 44.000000 14.119062 0.000000
-21.186661 22.869822 -60.565449 0.000000 27.000000 13.946838 0.000000
-22.650088 22.673227 -60.958400 0.000000 10.000000 14.779652 24.000000
-22.450667 23.188881 -64.219952 0.000000 50.000000 14.103245 0.000000
-22.239442 22.536084 -62.065105 0.000000 35.000000 14.102876 0.000000
-22.299450 22.748035 -62.866051 0.000000 44.000000 14.070075 0.000000
-20.039627 24.641144 -61.059273 0.000000 41.000000 14.111244 0.000000
-21.251104 24.719645 -64.375151 0.000000 39.000000 14.165821 0.000000
-21.973051 23.811844 -64.333152 0.000000 56.000000 14.123179 0.000000
-22.379254 21.942701 -61.501385 0.000000 42.000000 13.975496 0.000000
-23.280126 22.467598 -64.895463 0.000000 47.000000 14.068074 0.000000
-21.305507 24.521104 -64.492237 0.000000 45.000000 14.048150 0.000000
-21.245231 24.667791 -64.433472 0.000000 39.000000 14.113209 0.000000
-21.094524 24.765488 -64.502504 0.000000 38.000000 14.047839 0.000000
-19.895804 26.674766 -65.340117 0.000000 36.000000 14.171874 0.000000
-23.327551 22.889483 -64.780350 0.000000 50.000000 14.401122 21.000000
-21.501603 23.524635 -60.424747 0.000000 43.000000 14.628797 10.000000
-20.517679 23.993593 -60.830154 0.000000 42.000000 14.106542 0.000000
-20.584832 25.383768 -64.442201 0.000000 42.000000 14.087266 0.000000
-21.947200 23.005299 -60.022598 0.000000 45.000000 14.727706 7.000000
-22.401834 23.174232 -64.164736 0.000000 34.000000 14.073063 0.000000
-21.902895 21.837764 -59.319782 0.000000 41.000000 14.138305 0.000000
-22.357409 22.501714 -60.934538 0.000000 70.000000 14.464585 24.000000
-21.114033 22.580635 -59.743614 0.000000 21.000000 13.926873 0.000000
-20.474355 24.174074 -61.532704 0.000000 37.000000 14.004715 0.000000
-22.510715 22.270300 -62.275783 0.000000 29.000000 14.075066 0.000000
-21.769611 23.569757 -61.699940 0.000000 37.000000 14.515751 19.000000
-20.951933 22.688660 -59.306557 0.000000 26.000000 13.993207 0.000000
-19.426118 26.676101 -64.101675 0.000000 31.000000 14.158501 0.000000
-20.921415 22.797128 -59.282847 0.000000 37.000000 14.046305 0.000000
-20.761889 25.148251 -64.324847 0.000000 39.000000 14.096835 0.000000
-21.962739 22.765761 -59.893717 0.000000 81.000000 14.620608 7.000000
-21.074948 22.620361 -59.715816 0.000000 26.000000 13.931116 0.000000
-20.298164 25.295737 -63.217550 0.000000 39.000000 14.146165 0.000000
-21.720804 23.885701 -63.821065 0.000000 35.000000 14.122177 0.000000
-22.373776 22.105723 -59.655969 0.000000 66.000000 14.561633 23.000000
-21.719571 23.935215 -61.337129 0.000000 70.000000 14.807513 19.000000
-21.209232 24.021398 -62.837768 0.000000 28.000000 14.096622 0.000000
-20.800655 24.507505 -62.982680 0.000000 34.000000 14.071236 0.000000
-21.643740 22.192151 -59.558293 0.000000 44.000000 14.112852 0.000000
-18.922131 25.598737 -60.236996 0.000000 28.000000 14.126473 0.000000
-20.017268 25.445189 -63.518245 0.000000 21.000000 13.958219 0.000000
-21.947802 22.369258 -60.877455 0.000000 46.000000 14.098305 0.000000
-20.322454 23.928555 -60.223075 0.000000 49.000000 14.083602 0.000000
-22.574413 22.987955 -64.086579 0.000000 40.000000 14.100368 0.000000
-21.915321 22.079091 -60.117721 0.000000 42.000000 14.090466 0.000000
-21.530248 23.298681 -61.210772 0.000000 36.000000 14.298684 19.000000
-21.380705 23.268932 -60.705097 0.000000 63.000000 14.304592 10.000000
-22.401895 22.675018 -62.962978 0.000000 48.000000 14.072392 0.000000
-22.376175 21.861855 -61.402486 0.000000 40.000000 13.947916 0.000000
-22.622289 22.353437 -61.314888 0.000000 80.000000 14.462145 24.000000
-21.171673 25.036952 -65.023135 0.000000 25.000000 14.139206 0.000000
-22.700889 22.044104 -62.835791 0.000000 43.000000 13.921531 0.000000
-22.159737 23.560511 -63.662376 0.000000 26.000000 14.275551 0.000000
-22.772323 22.032634 -63.000184 0.000000 47.000000 13.922716 0.000000
-19.857560 24.485117 -60.245772 0.000000 42.000000 14.094393 0.000000
-19.239226 25.179456 -60.599939 0.000000 37.000000 13.994143 0.000000
-22.678202 21.851376 -61.978499 0.000000 45.000000 14.008480 0.000000
-20.593213 23.661627 -59.649648 0.000000 57.000000 14.261375 2.000000
-21.761528 22.775813 -60.302287 0.000000 40.000000 14.373367 7.000000
-22.569762 22.042411 -60.861735 0.000000 64.000000 14.345689 24.000000
-22.681978 22.667331 -61.339632 0.000000 65.000000 14.698544 24.000000
-21.077690 22.705336 -59.750977 0.000000 29.000000 13.977880 0.000000
-18.894357 25.779925 -60.595903 0.000000 25.000000 14.126957 0.000000
-22.777360 22.088380 -63.002101 0.000000 41.000000 13.961317 0.000000
-21.505770 24.523836 -64.254211 0.000000 43.000000 14.257878 1.000000
-21.291361 24.855324 -65.012182 0.000000 45.000000 14.113392 0.000000
-22.514303 21.962289 -60.006120 0.000000 67.000000 14.480041 23.000000
-21.379716 24.542995 -64.987637 0.000000 38.000000 13.985312 0.000000
-22.612115 21.987542 -61.897630 0.000000 47.000000 14.068461 0.000000
-19.447602 26.715311 -63.684316 0.000000 33.000000 14.309031 20.000000
-21.579732 23.578518 -61.109439 0.000000 67.000000 14.539254 19.000000
-19.677332 24.924689 -60.085275 0.000000 34.000000 14.285535 3.000000
-22.429957 22.507514 -61.403054 0.000000 65.000000 14.397396 24.000000
-20.137402 23.898693 -59.507266 0.000000 42.000000 14.119073 0.000000
-22.085250 23.673577 -64.398960 0.000000 52.000000 14.099277 0.000000
-21.065159 22.649477 -59.649483 0.000000 29.000000 13.960019 0.000000
-21.030176 23.921358 -61.887489 0.000000 45.000000 14.153614 0.000000
-22.318820 23.267130 -64.298071 0.000000 52.000000 14.036788 0.000000
-21.802133 24.107652 -64.585917 0.000000 49.000000 14.120713 0.000000
-19.764430 25.314885 -62.471803 0.000000 31.000000 13.967797 0.000000
-22.635952 22.921409 -64.090143 0.000000 62.000000 14.101742 0.000000
-21.393762 23.668054 -61.278972 0.000000 66.000000 14.416626 19.000000
-19.674391 24.904767 -60.105033 0.000000 45.000000 14.265524 3.000000
-22.386817 22.566363 -62.490091 0.000000 46.000000 14.117001 0.000000
-23.712136 22.537576 -64.890289 0.000000 53.000000 14.427279 22.000000
-19.764882 26.007137 -63.546528 0.000000 33.000000 14.125093 0.000000
-21.778176 24.088009 -64.447728 0.000000 29.000000 14.127270 0.000000
-23.329347 22.487592 -65.127197 0.000000 51.000000 14.055407 0.000000
-22.289154 22.962969 -61.801664 0.000000 78.000000 14.479861 8.000000
-22.488541 22.144379 -61.963633 0.000000 24.000000 14.061180 0.000000
-21.757318 23.053198 -60.211529 0.000000 64.000000 14.570647 7.000000
-22.349679 23.407145 -64.421083 0.000000 37.000000 14.115791 0.000000
-21.830989 23.873942 -64.184754 0.000000 44.000000 14.098751 0.000000
-22.596558 22.791682 -63.720155 0.000000 45.000000 14.088192 0.000000
-22.499300 22.908709 -63.683793 0.000000 53.000000 14.101662 0.000000
-21.847805 24.254061 -65.194417 0.000000 29.000000 14.086557 0.000000
-22.267250 23.112990 -63.657872 0.000000 50.000000 14.070105 0.000000
-20.573026 23.844157 -60.616578 0.000000 49.000000 14.107945 0.000000
-20.139135 25.844062 -64.277894 0.000000 33.000000 14.100046 0.000000
-23.487218 22.292514 -64.243870 0.000000 40.000000 14.278682 0.000000
-21.001708 23.920217 -61.334102 0.000000 55.000000 14.278106 6.000000
-20.753206 23.821530 -60.945276 0.000000 49.000000 14.137597 0.000000
-22.551947 22.159812 -61.503847 0.000000 56.000000 14.238178 24.000000
-21.726952 22.115698 -59.560483 0.000000 54.000000 14.124006 0.000000
-21.488258 22.271868 -59.279168 0.000000 50.000000 14.124353 0.000000
-22.048318 23.890359 -64.707951 0.000000 64.000000 14.128911 0.000000
-20.133478 25.288412 -63.087028 0.000000 49.000000 14.056465 0.000000
-19.635661 26.260814 -63.771285 0.000000 43.000000 14.133458 0.000000
-21.640299 23.760786 -63.418989 0.000000 45.000000 14.090327 0.000000
-21.204842 23.160137 -60.133573 0.000000 50.000000 14.258495 10.000000
-21.939980 23.804473 -64.041139 0.000000 41.000000 14.171477 0.000000
-22.612924 21.859581 -61.987055 0.000000 41.000000 13.964096 0.000000
-21.075843 24.028738 -61.403453 0.000000 55.000000 14.382613 6.000000
-21.295223 24.475395 -64.543472 0.000000 42.000000 13.998115 0.000000
-21.675322 22.756313 -60.330320 0.000000 61.000000 14.291052 7.000000
-20.331113 24.633025 -61.792187 0.000000 42.000000 14.124307 0.000000
-21.823225 23.228155 -61.695993 0.000000 49.000000 14.338428 8.000000
-19.101324 26.264660 -62.339361 0.000000 43.000000 14.125791 0.000000
-22.569308 21.768850 -61.419794 0.000000 33.000000 14.024284 0.000000
-19.310028 25.382737 -60.732700 0.000000 38.000000 14.139783 0.000000
-22.265622 22.714182 -62.645550 0.000000 40.000000 14.082131 0.000000
-20.620430 23.414352 -59.661965 0.000000 54.000000 14.120608 0.000000
-20.171131 24.993585 -62.213963 0.000000 34.000000 14.126402 0.000000
-22.113564 23.147493 -63.627565 0.000000 37.000000 13.988569 0.000000
-21.860404 22.562820 -60.993287 0.000000 45.000000 14.127483 0.000000
-20.687640 24.951611 -63.358712 0.000000 24.000000 14.172588 0.000000
-21.608770 23.901212 -62.312574 0.000000 51.000000 14.448406 18.000000
-20.602480 25.201962 -63.988369 0.000000 48.000000 14.104067 0.000000
-22.574664 22.519031 -62.767660 0.000000 28.000000 14.149981 0.000000
-22.534882 21.859742 -61.634522 0.000000 40.000000 14.000520 0.000000
-18.766514 26.187799 -60.399471 0.000000 39.000000 14.345407 27.000000
-20.197655 25.126275 -62.566780 0.000000 43.000000 14.137030 0.000000
-19.485346 26.184689 -63.307506 0.000000 39.000000 14.098269 0.000000
-22.231584 22.402897 -61.652185 0.000000 54.000000 14.121315 0.000000
-19.468170 26.200884 -63.282767 0.000000 40.000000 14.102632 0.000000
-21.108877 22.575654 -59.498515 0.000000 31.000000 13.984571 0.000000
-20.598762 23.515552 -59.889088 0.000000 51.000000 14.109385 0.000000
-19.266155 25.500498 -60.769100 0.000000 30.000000 14.173260 0.000000
-19.966818 25.740061 -63.517898 0.000000 51.000000 14.109251 0.000000
-19.712252 25.434042 -62.351612 0.000000 36.000000 14.037415 0.000000
