-18.730490 -56.729884 21.458622 0.000000 38.000000 14.122979 0.000000
-24.410363 -55.822904 22.265576 0.000000 62.000000 14.738918 26.000000
-20.913963 -53.343722 20.025372 0.000000 53.000000 14.227424 0.000000
-18.421436 -56.721455 21.402852 0.000000 27.000000 14.069760 0.000000
-23.764129 -54.963006 21.545456 0.000000 70.000000 14.687803 27.000000
-24.254893 -54.892976 21.651454 0.000000 69.000000 14.715980 27.000000
-23.048089 -54.921676 21.514694 0.000000 73.000000 14.474028 5.000000
-22.085185 -56.799461 22.644730 0.000000 58.000000 14.221011 0.000000
-17.707664 -55.283451 20.228766 0.000000 43.000000 14.071474 0.000000
-23.383071 -53.281220 20.428346 0.000000 78.000000 14.621172 27.000000
-22.067012 -55.288786 21.735343 0.000000 56.000000 14.183790 0.000000
-22.820895 -54.632259 21.566449 0.000000 42.000000 14.216580 0.000000
-21.539954 -57.392464 22.859246 0.000000 41.000000 14.182652 0.000000
-22.128535 -53.501231 20.096735 0.000000 64.000000 14.618842 7.000000
-24.765925 -56.314328 22.630323 0.000000 73.000000 14.801702 26.000000
-22.871367 -52.733450 19.966026 0.000000 65.000000 14.561099 23.000000
-19.479166 -57.561069 21.798082 0.000000 51.000000 14.497798 13.000000
-22.285745 -54.021562 20.565024 0.000000 53.000000 14.552443 9.000000
-19.935331 -54.525174 20.234321 0.000000 57.000000 14.359953 11.000000
-24.725382 -56.182086 22.570721 0.000000 74.000000 14.770464 26.000000
-23.346653 -56.145056 22.820046 0.000000 36.000000 14.131460 0.000000
-18.775064 -56.319031 20.730163 0.000000 51.000000 14.516083 18.000000
-23.164575 -56.004514 22.765464 0.000000 43.000000 14.048945 0.000000
-21.779587 -52.638937 19.856396 0.000000 41.000000 14.269796 0.000000
-20.309205 -54.415148 20.588150 0.000000 50.000000 14.132389 0.000000
-23.400073 -55.030097 22.067402 0.000000 37.000000 14.190032 0.000000
-24.467782 -56.094085 22.385919 0.000000 39.000000 14.796673 26.000000
-23.281109 -55.119840 21.838437 0.000000 52.000000 14.384065 5.000000
-24.010945 -56.686023 22.819507 0.000000 59.000000 14.607899 1.000000
-22.116832 -55.309400 21.751339 0.000000 35.000000 14.196472 0.000000
-22.725235 -54.094103 21.029486 0.000000 55.000000 14.348063 9.000000
-18.776071 -56.277120 20.681786 0.000000 29.000000 14.534186 18.000000
-24.130655 -56.118625 22.843041 0.000000 49.000000 14.337829 26.000000
-21.535478 -53.628397 20.047231 0.000000 52.000000 14.542939 4.000000
-22.714294 -55.979323 22.402088 0.000000 54.000000 14.192479 0.000000
-23.795263 -55.056133 21.662136 0.000000 53.000000 14.650313 26.000000
-20.042875 -58.124339 22.753573 0.000000 31.000000 14.183647 0.000000
-24.348932 -54.949085 21.612425 0.000000 68.000000 14.804481 24.000000
-19.600366 -58.439263 22.910098 0.000000 29.000000 14.082411 0.000000
-20.886537 -58.068643 23.092453 0.000000 40.000000 14.138470 0.000000
-23.441660 -56.231700 23.038621 0.000000 42.000000 14.027893 0.000000
-20.780475 -55.569438 21.119657 0.000000 39.000000 14.431645 8.000000
-23.411320 -55.452699 21.742230 0.000000 76.000000 14.669906 5.000000
-21.190031 -54.293684 20.707534 0.000000 61.000000 14.242275 0.000000
-21.824081 -55.921601 22.035291 0.000000 45.000000 14.188566 0.000000
-21.197310 -55.826217 21.741668 0.000000 57.000000 14.186613 0.000000
-22.537376 -51.995733 19.487078 0.000000 65.000000 14.472224 28.000000
-21.399881 -55.808242 21.916758 0.000000 44.000000 14.097820 0.000000
-21.707811 -55.391857 21.642494 0.000000 30.000000 14.201735 0.000000
-18.448770 -54.009845 19.692583 0.000000 24.000000 14.084064 0.000000
-22.905715 -56.005745 22.543659 0.000000 47.000000 14.149833 0.000000
-21.106699 -55.817308 21.691205 0.000000 47.000000 14.195270 0.000000
-22.485549 -52.394086 19.570115 0.000000 67.000000 14.591301 28.000000
-20.969407 -55.791724 21.611967 0.000000 43.000000 14.204504 0.000000
-20.921555 -53.576348 20.194311 0.000000 32.000000 14.211292 0.000000
-22.005972 -53.449273 20.030543 0.000000 61.000000 14.608665 7.000000
-20.563006 -55.700644 21.386611 0.000000 45.000000 14.216640 0.000000
-22.319375 -52.330933 19.426559 0.000000 53.000000 14.624613 28.000000
-23.672242 -54.801265 21.333640 0.000000 55.000000 14.748817 27.000000
-24.244916 -55.700648 21.964002 0.000000 74.000000 14.869993 26.000000
-19.831348 -55.886778 21.439226 0.000000 22.000000 14.046095 0.000000
-24.490405 -55.298483 21.817293 0.000000 67.000000 14.859221 24.000000
-20.162317 -55.591944 21.157704 0.000000 46.000000 14.224451 0.000000
-21.859582 -57.690723 23.188266 0.000000 29.000000 14.165471 0.000000
-21.829639 -53.146309 19.710762 0.000000 74.000000 14.659565 7.000000
-21.195790 -55.974233 21.869902 0.000000 25.000000 14.157686 0.000000
-19.488185 -54.661317 20.314861 0.000000 40.000000 14.228033 0.000000
-21.201708 -56.158175 21.943451 0.000000 22.000000 14.193340 0.000000
-19.421169 -54.781816 20.022533 0.000000 37.000000 14.504560 25.000000
-19.323318 -55.771504 20.988559 0.000000 34.000000 14.196860 0.000000
-18.317726 -54.058978 19.575295 0.000000 24.000000 14.163751 0.000000
-22.754138 -53.985118 21.135446 0.000000 37.000000 14.216144 0.000000
-22.130290 -53.197011 20.246209 0.000000 56.000000 14.344649 7.000000
-18.727475 -54.435047 19.899243 0.000000 36.000000 14.217479 0.000000
-18.931123 -54.488840 20.217820 0.000000 29.000000 14.049610 0.000000
-20.044012 -53.819886 20.165895 0.000000 22.000000 14.090861 0.000000
-22.817782 -57.031977 23.087272 0.000000 38.000000 14.204462 0.000000
-19.122721 -55.230989 20.665755 0.000000 36.000000 14.122469 0.000000
-18.706780 -54.391885 20.006456 0.000000 39.000000 14.102821 0.000000
-24.003580 -55.811815 22.276515 0.000000 73.000000 14.600824 26.000000
-19.860319 -57.724904 22.420841 0.000000 35.000000 14.194227 0.000000
-22.000754 -55.558936 21.901547 0.000000 37.000000 14.166429 0.000000
-21.876159 -52.823955 19.544445 0.000000 76.000000 14.644569 7.000000
-18.394201 -54.235091 19.668617 0.000000 32.000000 14.200933 0.000000
-22.297200 -56.736885 22.653195 0.000000 63.000000 14.246923 0.000000
-18.899577 -56.140487 21.024043 0.000000 34.000000 14.226373 0.000000
-23.787634 -53.897301 20.440482 0.000000 64.000000 15.046492 27.000000
-20.933012 -54.694172 20.732073 0.000000 48.000000 14.347258 2.000000
-22.564634 -54.063289 20.435812 0.000000 57.000000 14.762604 9.000000
-21.167454 -55.981915 21.782656 0.000000 24.000000 14.223354 0.000000
-17.752527 -54.401804 19.523137 0.000000 44.000000 14.207721 0.000000
-20.306203 -54.475151 20.579198 0.000000 25.000000 14.169099 0.000000
-23.347456 -55.946694 22.174367 0.000000 70.000000 14.552132 5.000000
-19.689331 -57.951792 22.420883 0.000000 66.000000 14.257171 0.000000
-23.245651 -55.990006 22.831723 0.000000 31.000000 14.012782 0.000000
-22.051557 -56.510094 22.450996 0.000000 52.000000 14.220484 0.000000
-19.394155 -54.879327 20.168973 0.000000 38.000000 14.427606 25.000000
-23.284145 -55.511058 21.685554 0.000000 46.000000 14.706543 5.000000
-20.930518 -56.676887 22.108499 0.000000 39.000000 14.240552 0.000000
-21.026526 -55.663752 21.567552 0.000000 29.000000 14.192863 0.000000
-19.855958 -56.543500 21.718730 0.000000 35.000000 14.160801 0.000000
-23.605698 -56.662737 23.213893 0.000000 53.000000 14.154732 0.000000
-21.585202 -55.360568 21.536367 0.000000 64.000000 14.234235 0.000000
-24.381338 -56.217778 22.423035 0.000000 75.000000 14.803121 26.000000
-20.876068 -53.409530 20.066610 0.000000 56.000000 14.215976 0.000000
-20.371074 -55.443328 21.188276 0.000000 48.000000 14.187946 0.000000
-19.649509 -53.374819 19.538138 0.000000 40.000000 14.251920 0.000000
-20.898186 -56.655407 22.094853 0.000000 59.000000 14.230851 0.000000
-23.915119 -55.592587 21.837829 0.000000 79.000000 14.816791 26.000000
-20.927117 -57.155121 22.471472 0.000000 58.000000 14.188972 0.000000
-24.146774 -55.785792 22.299647 0.000000 73.000000 14.612504 26.000000
-22.505954 -52.599783 19.705861 0.000000 73.000000 14.592201 28.000000
-24.988893 -56.022780 22.422647 0.000000 68.000000 14.889316 24.000000
-22.063809 -54.232994 21.161554 0.000000 18.000000 14.110828 0.000000
-22.599491 -55.490219 22.106804 0.000000 33.000000 14.148011 0.000000
-23.459680 -56.006134 22.496274 0.000000 62.000000 14.356648 5.000000
-22.333574 -52.461784 19.506717 0.000000 75.000000 14.630554 28.000000
-21.121674 -55.850414 21.703836 0.000000 46.000000 14.206404 0.000000
-21.850935 -53.523080 20.659054 0.000000 36.000000 14.091856 0.000000
-25.010708 -56.099641 22.612536 0.000000 79.000000 14.781688 24.000000
-24.244393 -55.518707 22.128586 0.000000 74.000000 14.644869 26.000000
-19.960935 -55.143845 20.805343 0.000000 27.000000 14.220490 0.000000
-21.190919 -53.651313 20.137497 0.000000 44.000000 14.376988 4.000000
-21.605593 -56.230492 22.279157 0.000000 37.000000 14.081903 0.000000
-21.826364 -55.538809 21.782712 0.000000 45.000000 14.199097 0.000000
-19.275965 -56.485328 21.392090 0.000000 36.000000 14.218559 0.000000
-22.293034 -53.189131 20.461125 0.000000 33.000000 14.216733 0.000000
-22.110343 -55.428262 21.835540 0.000000 53.000000 14.186789 0.000000
-22.468480 -55.656143 22.105392 0.000000 42.000000 14.193392 0.000000
-23.351098 -55.904609 22.701244 0.000000 30.000000 14.106838 0.000000
-22.589274 -56.406688 22.636292 0.000000 37.000000 14.182047 0.000000
-22.402685 -55.322403 21.850909 0.000000 51.000000 14.209618 0.000000
-20.657283 -54.972531 21.062083 0.000000 40.000000 14.138226 0.000000
-24.343893 -55.889233 22.340281 0.000000 80.000000 14.692047 26.000000
-22.094492 -53.546773 20.333859 0.000000 73.000000 14.440258 7.000000
-19.933587 -56.895314 21.909132 0.000000 48.000000 14.209030 0.000000
-19.723811 -57.835232 22.417464 0.000000 31.000000 14.211355 0.000000
-20.642468 -53.585228 19.718702 0.000000 55.000000 14.514675 6.000000
-20.767624 -54.356828 20.637931 0.000000 23.000000 14.202023 0.000000
-24.662442 -56.067285 22.673679 0.000000 68.000000 14.610103 26.000000
-22.265619 -53.155067 20.451084 0.000000 46.000000 14.199242 0.000000
-23.509179 -55.106410 22.188586 0.000000 40.000000 14.164090 0.000000
-19.503338 -55.025966 20.350240 0.000000 70.000000 14.388844 25.000000
-19.502306 -56.159815 20.998579 0.000000 50.000000 14.439920 10.000000
-22.848294 -54.196003 21.346527 0.000000 39.000000 14.181311 0.000000
-20.006524 -57.353338 21.799974 0.000000 60.000000 14.551325 16.000000
-22.548904 -54.760388 21.595711 0.000000 35.000000 14.175211 0.000000
-22.048396 -53.920490 20.930746 0.000000 23.000000 14.134027 0.000000
-23.191425 -55.963746 22.746166 0.000000 39.000000 14.052021 0.000000
-20.732234 -54.453449 20.737352 0.000000 26.000000 14.160007 0.000000
-21.932599 -53.181252 19.764659 0.000000 80.000000 14.665082 7.000000
-21.662917 -53.253041 20.274891 0.000000 20.000000 14.207829 0.000000
-22.163232 -54.591555 21.348459 0.000000 42.000000 14.171921 0.000000
-18.707123 -56.172740 20.740413 0.000000 51.000000 14.413044 18.000000
-22.860724 -52.752239 19.919122 0.000000 64.000000 14.605225 23.000000
-20.610415 -57.928899 22.950728 0.000000 36.000000 14.098079 0.000000
-22.903565 -55.343593 21.819197 0.000000 43.000000 14.398190 5.000000
-22.182604 -53.456015 20.265308 0.000000 73.000000 14.476366 7.000000
-20.978053 -53.417231 20.129352 0.000000 45.000000 14.200258 0.000000
-24.280349 -55.708067 22.223927 0.000000 54.000000 14.674818 26.000000
-18.967908 -56.915384 21.107560 0.000000 40.000000 14.572363 17.000000
-18.575410 -55.675857 20.646128 0.000000 23.000000 14.197330 0.000000
-21.472720 -53.886820 20.584563 0.000000 54.000000 14.221278 0.000000
-20.648636 -53.225674 19.870281 0.000000 43.000000 14.212090 0.000000
-21.002862 -53.943809 20.433605 0.000000 47.000000 14.229121 0.000000
-25.089354 -56.117203 22.465406 0.000000 71.000000 14.933194 24.000000
-19.191125 -56.886533 21.523725 0.000000 40.000000 14.289839 17.000000
-21.974361 -57.559393 22.862919 0.000000 54.000000 14.396309 29.000000
-20.086340 -53.254714 19.721412 0.000000 48.000000 14.175988 0.000000
-22.961570 -52.752432 19.704829 0.000000 77.000000 14.808866 23.000000
-22.036707 -52.523281 19.920782 0.000000 38.000000 14.237409 0.000000
-22.606093 -52.703238 19.957717 0.000000 46.000000 14.471861 28.000000
-20.325308 -54.853953 20.618508 0.000000 54.000000 14.335111 12.000000
-18.246498 -56.255981 21.027872 0.000000 30.000000 14.083283 0.000000
-22.713545 -53.616378 20.586922 0.000000 35.000000 14.459527 28.000000
-24.073946 -55.811818 22.304742 0.000000 71.000000 14.599442 26.000000
-20.723657 -55.536270 21.151956 0.000000 60.000000 14.371511 8.000000
-18.371902 -55.091123 20.218138 0.000000 33.000000 14.184514 0.000000
-20.459832 -55.716798 21.351799 0.000000 48.000000 14.221549 0.000000
-23.047765 -52.749719 19.875359 0.000000 69.000000 14.696110 23.000000
-19.824662 -55.946646 21.410236 0.000000 26.000000 14.097783 0.000000
-20.109487 -56.835908 22.172797 0.000000 30.000000 14.019677 0.000000
-24.345631 -56.003425 22.276836 0.000000 74.000000 14.801618 26.000000
-22.958111 -52.505137 19.636180 0.000000 59.000000 14.737909 23.000000
-21.342198 -53.864829 19.919675 0.000000 35.000000 14.706887 4.000000
-22.078682 -57.467758 23.001493 0.000000 41.000000 14.269792 0.000000
-19.407894 -56.564060 21.540887 0.000000 31.000000 14.178503 0.000000
-23.138936 -55.954124 22.729614 0.000000 33.000000 14.044545 0.000000
-20.997614 -55.653735 21.555779 0.000000 46.000000 14.188498 0.000000
-20.260976 -55.535269 21.196613 0.000000 45.000000 14.194335 0.000000
-23.452047 -53.760924 20.891299 0.000000 57.000000 14.511674 27.000000
-17.946196 -55.539965 20.388166 0.000000 43.000000 14.145341 0.000000
-22.241572 -53.193919 20.467936 0.000000 47.000000 14.198021 0.000000
-22.585800 -54.647061 20.870842 0.000000 80.000000 14.713827 9.000000
-22.432930 -53.346393 20.288585 0.000000 70.000000 14.478137 28.000000
-18.946849 -54.892892 20.429503 0.000000 36.000000 14.088319 0.000000
-24.571444 -56.027680 22.301692 0.000000 59.000000 14.862493 26.000000
-21.329566 -54.231202 20.750813 0.000000 35.000000 14.218116 0.000000
-18.781918 -54.178490 19.934800 0.000000 22.000000 14.075356 0.000000
-23.709601 -54.611177 21.260071 0.000000 71.000000 14.723220 27.000000
-20.712013 -55.547304 21.096520 0.000000 67.000000 14.418287 8.000000
-20.916711 -54.411003 20.642613 0.000000 49.000000 14.271011 0.000000
-20.372625 -57.748580 22.292061 0.000000 58.000000 14.465847 16.000000
-23.304699 -56.332127 23.051371 0.000000 38.000000 14.026856 0.000000
-22.768760 -55.917630 22.376341 0.000000 47.000000 14.198551 0.000000
-22.916936 -56.875891 23.061387 0.000000 46.000000 14.176405 0.000000
-21.695618 -55.272050 21.559206 0.000000 52.000000 14.204524 0.000000
-19.972834 -57.226549 21.744942 0.000000 52.000000 14.521246 16.000000
-21.832316 -55.257672 21.647901 0.000000 47.000000 14.167233 0.000000
-22.368034 -56.763313 22.016899 0.000000 51.000000 14.795202 3.000000
-19.676768 -54.811969 20.500067 0.000000 32.000000 14.212261 0.000000
-20.294059 -55.075880 20.690402 0.000000 53.000000 14.380048 12.000000
-24.272420 -56.317723 23.012534 0.000000 40.000000 14.345048 26.000000
-21.021725 -53.974552 20.418897 0.000000 38.000000 14.262297 0.000000
-22.419553 -55.213645 21.809839 0.000000 51.000000 14.192778 0.000000
-23.119680 -52.836140 20.007067 0.000000 68.000000 14.655495 23.000000
-22.551629 -55.210144 21.964355 0.000000 45.000000 14.106489 0.000000
-19.523264 -56.416587 21.283087 0.000000 52.000000 14.346845 10.000000
-22.192910 -53.843564 20.733715 0.000000 56.000000 14.297943 9.000000
-21.985739 -57.415543 22.858825 0.000000 62.000000 14.330189 29.000000
-18.637827 -55.161227 20.290051 0.000000 28.000000 14.242846 0.000000
-20.087529 -54.685544 20.265545 0.000000 46.000000 14.462277 11.000000
-18.756412 -53.922725 19.714030 0.000000 20.000000 14.116135 0.000000
-23.228688 -55.044649 21.829290 0.000000 45.000000 14.337415 5.000000
-20.868555 -52.669209 19.608518 0.000000 49.000000 14.208194 0.000000
-20.593111 -58.165845 22.853806 0.000000 64.000000 14.291063 19.000000
-20.536199 -57.346772 22.578239 0.000000 42.000000 14.081106 0.000000
-20.827121 -57.547347 22.750264 0.000000 43.000000 14.132370 0.000000
-21.377981 -54.383346 20.878517 0.000000 37.000000 14.206885 0.000000
-21.979796 -52.555916 19.952688 0.000000 43.000000 14.210903 0.000000
-21.900805 -52.456597 19.869371 0.000000 43.000000 14.203792 0.000000
-22.554866 -52.700455 20.001766 0.000000 54.000000 14.419341 28.000000
-21.182241 -58.025656 23.254858 0.000000 24.000000 14.075548 0.000000
-21.487193 -52.657552 19.470003 0.000000 73.000000 14.502087 7.000000
-20.502046 -55.788445 21.476681 0.000000 39.000000 14.169927 0.000000
-18.717025 -53.790909 19.571834 0.000000 31.000000 14.152101 0.000000
-18.875745 -53.774011 19.529851 0.000000 39.000000 14.225657 0.000000
-19.009530 -53.757362 19.563661 0.000000 43.000000 14.230610 0.000000
-24.342016 -55.969957 22.275036 0.000000 74.000000 14.785014 26.000000
-24.207621 -55.891766 22.114535 0.000000 76.000000 14.834038 26.000000
-22.197211 -55.354489 21.810241 0.000000 47.000000 14.196228 0.000000
-20.601132 -53.715509 19.707661 0.000000 39.000000 14.577024 6.000000
-19.808459 -53.695365 19.800288 0.000000 42.000000 14.251141 0.000000
-23.640134 -53.790860 20.524418 0.000000 75.000000 14.880009 27.000000
-20.858809 -53.716858 20.254050 0.000000 43.000000 14.215212 0.000000
-21.023198 -54.948489 21.054839 0.000000 47.000000 14.243116 0.000000
-20.358046 -52.872116 19.411678 0.000000 36.000000 14.314626 6.000000
-22.782836 -52.619785 20.464629 0.000000 41.000000 14.074332 0.000000
-22.531540 -52.438706 19.885844 0.000000 63.000000 14.373161 28.000000
-20.791070 -52.891304 19.674340 0.000000 48.000000 14.244061 0.000000
-19.093721 -56.997004 21.674557 0.000000 43.000000 14.194511 0.000000
-21.053289 -52.926027 19.797770 0.000000 42.000000 14.241777 0.000000
-22.231445 -51.989249 19.448034 0.000000 40.000000 14.407446 28.000000
-22.357488 -52.484359 19.497967 0.000000 81.000000 14.656320 28.000000
-20.524031 -55.153584 20.898409 0.000000 74.000000 14.321503 12.000000
-21.285623 -52.955775 20.063375 0.000000 39.000000 14.113183 0.000000
-21.753387 -53.830299 20.879199 0.000000 32.000000 14.040246 0.000000
-21.405458 -52.975053 20.177400 0.000000 37.000000 14.067382 0.000000
-20.207573 -56.029092 21.500126 0.000000 33.000000 14.183425 0.000000
-23.216732 -55.113605 21.646206 0.000000 54.000000 14.516428 5.000000
-23.205199 -56.590908 22.978409 0.000000 40.000000 14.186587 0.000000
-23.069198 -52.953020 20.075872 0.000000 79.000000 14.643855 23.000000
-23.230151 -56.405641 23.006326 0.000000 42.000000 14.077784 0.000000
-19.728734 -54.572378 20.431379 0.000000 35.000000 14.162086 0.000000
-22.854185 -54.091761 21.276030 0.000000 43.000000 14.187164 0.000000
-19.098957 -53.862534 19.665322 0.000000 24.000000 14.229059 0.000000
-22.774202 -54.340436 21.425841 0.000000 40.000000 14.167977 0.000000
-24.095220 -54.401939 21.091661 0.000000 74.000000 14.870297 27.000000
-23.808924 -54.241505 21.335910 0.000000 78.000000 14.504931 27.000000
-23.927499 -54.472134 22.000802 0.000000 40.000000 14.121394 0.000000
-22.107480 -53.637431 20.260587 0.000000 74.000000 14.549253 7.000000
-21.048542 -52.800205 19.752119 0.000000 46.000000 14.213417 0.000000
-21.724364 -54.407577 20.681475 0.000000 59.000000 14.483423 15.000000
-20.275198 -54.714299 20.685497 0.000000 33.000000 14.195078 0.000000
-20.162388 -55.173362 20.937041 0.000000 32.000000 14.190428 0.000000
-20.831163 -55.302067 21.302581 0.000000 51.000000 14.164008 0.000000
-22.566298 -52.478138 20.252386 0.000000 41.000000 14.107982 0.000000
-22.590803 -55.932465 22.330665 0.000000 34.000000 14.188825 0.000000
-22.658223 -53.271008 20.247460 0.000000 66.000000 14.541604 28.000000
-21.293743 -52.817556 19.935071 0.000000 36.000000 14.149137 0.000000
-22.050375 -57.033575 22.973047 0.000000 36.000000 14.064160 0.000000
-21.900911 -57.099516 22.963005 0.000000 31.000000 14.060238 0.000000
-23.360301 -54.326036 20.787276 0.000000 75.000000 14.854024 27.000000
-21.319561 -54.964171 21.052367 0.000000 50.000000 14.343141 2.000000
-22.361817 -52.992833 19.900431 0.000000 58.000000 14.590549 28.000000
-21.325062 -57.322217 22.768494 0.000000 34.000000 14.154959 0.000000
-22.681112 -54.689494 21.009874 0.000000 75.000000 14.652128 9.000000
-21.479615 -57.657043 23.044672 0.000000 40.000000 14.148760 0.000000
-22.225949 -54.857767 21.474883 0.000000 46.000000 14.223863 0.000000
-22.046217 -57.661521 23.192513 0.000000 42.000000 14.203980 0.000000
-22.128731 -52.676549 19.867287 0.000000 44.000000 14.386194 28.000000
-20.412060 -57.614153 22.636252 0.000000 32.000000 14.132036 0.000000
-19.969305 -57.720107 22.476045 0.000000 37.000000 14.180387 0.000000
-21.772069 -55.435529 21.697980 0.000000 36.000000 14.198628 0.000000
-19.805659 -53.919850 19.689704 0.000000 47.000000 14.453242 11.000000
-19.671953 -57.779995 22.369335 0.000000 40.000000 14.206436 0.000000
-21.013922 -57.914277 23.159921 0.000000 28.000000 14.044549 0.000000
-19.137311 -57.206644 21.517581 0.000000 30.000000 14.440622 17.000000
-20.706846 -53.843913 19.941612 0.000000 63.000000 14.485464 6.000000
-23.014172 -55.717653 22.486299 0.000000 48.000000 14.083117 0.000000
-22.280039 -53.534930 20.677152 0.000000 46.000000 14.213693 0.000000
-21.764858 -52.212749 19.650350 0.000000 42.000000 14.215627 0.000000
-21.344154 -54.757566 21.076447 0.000000 61.000000 14.226513 0.000000
-23.789383 -55.820034 22.697789 0.000000 35.000000 14.200000 0.000000
-21.383538 -52.724519 19.607315 0.000000 59.000000 14.393725 7.000000
-22.204452 -51.786617 19.652839 0.000000 39.000000 14.131343 0.000000
-22.662125 -52.639363 20.387885 0.000000 38.000000 14.109475 0.000000
-22.895223 -56.641053 22.881425 0.000000 29.000000 14.196016 0.000000
-22.877466 -55.498227 22.062801 0.000000 30.000000 14.272065 0.000000
-20.695904 -53.109993 19.790715 0.000000 44.000000 14.232041 0.000000
-21.174950 -52.718178 19.828588 0.000000 28.000000 14.148588 0.000000
-24.579651 -55.449202 22.141729 0.000000 44.000000 14.700959 24.000000
-23.265785 -56.626534 23.029052 0.000000 45.000000 14.182195 0.000000
-23.371905 -54.193374 20.831187 0.000000 74.000000 14.754912 27.000000
-22.947174 -55.322198 21.777463 0.000000 61.000000 14.434278 5.000000
-21.567431 -53.512184 20.581357 0.000000 36.000000 14.062845 0.000000
-20.987254 -53.466579 20.085339 0.000000 34.000000 14.263566 0.000000
-18.857639 -57.463367 21.934651 0.000000 49.000000 14.149190 0.000000
-22.792427 -56.493905 22.744714 0.000000 44.000000 14.200514 0.000000
-21.270762 -57.379161 22.770133 0.000000 45.000000 14.165982 0.000000
-21.275168 -53.031245 20.102007 0.000000 28.000000 14.117074 0.000000
-21.923508 -52.663628 19.985598 0.000000 46.000000 14.221814 0.000000
-22.836246 -55.589320 22.260759 0.000000 42.000000 14.145977 0.000000
-23.207536 -56.545968 22.948025 0.000000 53.000000 14.189042 0.000000
-22.690010 -55.614642 22.202989 0.000000 38.000000 14.160963 0.000000
-20.417329 -54.963479 20.447125 0.000000 65.000000 14.556844 12.000000
-19.525188 -57.697049 22.027553 0.000000 65.000000 14.395546 13.000000
-20.505694 -56.182159 21.652706 0.000000 48.000000 14.228495 0.000000
-23.257255 -53.035217 20.395713 0.000000 69.000000 14.484619 23.000000
-23.638252 -55.774171 22.591197 0.000000 46.000000 14.216822 0.000000
-22.248651 -55.681950 22.058062 0.000000 37.000000 14.177832 0.000000
-22.589530 -56.634154 22.780376 0.000000 41.000000 14.181125 0.000000
-22.509495 -53.114158 19.995349 0.000000 83.000000 14.620329 28.000000
-22.872931 -54.522740 21.142798 0.000000 72.000000 14.518707 9.000000
-21.820435 -55.727343 21.844452 0.000000 41.000000 14.243005 0.000000
-21.981017 -56.686057 22.585682 0.000000 45.000000 14.179530 0.000000
-21.666062 -54.679419 21.198334 0.000000 38.000000 14.186433 0.000000
-21.828510 -56.694920 22.543660 0.000000 42.000000 14.171566 0.000000
-21.397049 -56.073866 21.973612 0.000000 40.000000 14.185668 0.000000
-23.875414 -55.604554 22.178312 0.000000 57.000000 14.536087 26.000000
-17.797597 -54.714448 19.716896 0.000000 46.000000 14.223498 0.000000
-22.775124 -52.527756 19.837965 0.000000 59.000000 14.530947 23.000000
-20.577677 -56.155759 21.671788 0.000000 38.000000 14.221605 0.000000
-21.902902 -52.768693 19.924757 0.000000 35.000000 14.317867 7.000000
-20.787237 -55.776489 21.562818 0.000000 34.000000 14.181064 0.000000
-18.848195 -54.760376 20.315240 0.000000 31.000000 14.083379 0.000000
-20.640275 -55.775137 21.522988 0.000000 36.000000 14.167841 0.000000
-21.733272 -54.408504 20.696903 0.000000 58.000000 14.474153 15.000000
-20.842308 -57.058614 22.316391 0.000000 47.000000 14.239416 0.000000
-19.770753 -53.993548 19.706769 0.000000 57.000000 14.466203 11.000000
-22.389134 -52.616623 19.646616 0.000000 37.000000 14.613022 28.000000
-24.537904 -55.957226 22.377155 0.000000 64.000000 14.755719 26.000000
-20.366252 -53.843129 20.163367 0.000000 50.000000 14.202628 0.000000
-20.562714 -58.287211 22.902925 0.000000 50.000000 14.303684 19.000000
-21.941330 -52.908648 20.056064 0.000000 47.000000 14.294519 7.000000
-19.920841 -55.736651 21.249460 0.000000 32.000000 14.150338 0.000000
-20.152831 -56.653804 22.085184 0.000000 31.000000 14.011275 0.000000
-17.775461 -55.660245 20.408003 0.000000 21.000000 14.138379 0.000000
-19.622400 -55.708664 21.192840 0.000000 30.000000 14.091122 0.000000
-20.033812 -57.040351 21.837117 0.000000 57.000000 14.371079 16.000000
-19.971351 -53.911087 19.961129 0.000000 47.000000 14.280185 11.000000
-22.604133 -52.589160 20.135457 0.000000 48.000000 14.270069 0.000000
-22.529514 -52.306494 19.587443 0.000000 64.000000 14.546307 28.000000
-21.679019 -52.113745 19.589461 0.000000 31.000000 14.188499 0.000000
-20.142762 -57.847209 22.418961 0.000000 48.000000 14.343563 16.000000
-19.511556 -56.520104 21.508427 0.000000 43.000000 14.213931 0.000000
-22.317543 -56.598295 21.973579 0.000000 72.000000 14.731198 3.000000
-22.812231 -56.044681 22.479284 0.000000 40.000000 14.193082 0.000000
-21.819814 -54.274114 20.518611 0.000000 65.000000 14.576215 15.000000
-20.558227 -55.886330 21.551974 0.000000 31.000000 14.175852 0.000000
-19.090285 -56.430803 21.345284 0.000000 41.000000 14.172256 0.000000
-18.712728 -55.532347 20.603131 0.000000 34.000000 14.201051 0.000000
-22.725378 -53.227465 20.118796 0.000000 54.000000 14.643761 28.000000
-20.767864 -53.809026 19.960897 0.000000 73.000000 14.470777 6.000000
-20.139060 -53.659318 19.892017 0.000000 27.000000 14.259363 0.000000
-21.893758 -53.023632 19.697441 0.000000 73.000000 14.627649 7.000000
-20.224887 -53.114212 19.512522 0.000000 33.000000 14.315448 6.000000
-21.819971 -53.219387 19.832778 0.000000 68.000000 14.595210 7.000000
-22.277365 -53.165120 20.205053 0.000000 61.000000 14.406402 28.000000
-23.502751 -56.031429 22.405709 0.000000 79.000000 14.455623 5.000000
-17.793852 -55.262864 20.183052 0.000000 32.000000 14.124124 0.000000
-23.806615 -54.202799 20.849108 0.000000 73.000000 14.877366 27.000000
-22.189023 -57.213335 23.003353 0.000000 40.000000 14.172929 0.000000
-18.289460 -55.513729 20.392436 0.000000 54.000000 14.232945 0.000000
-17.459827 -55.114566 19.891348 0.000000 28.000000 14.182800 0.000000
-20.096643 -58.003462 22.700663 0.000000 41.000000 14.181435 0.000000
-22.669545 -52.915524 20.133155 0.000000 56.000000 14.457161 28.000000
-24.091912 -55.649858 21.926738 0.000000 74.000000 14.827816 26.000000
-21.977521 -57.687202 23.202810 0.000000 28.000000 14.187803 0.000000
-20.246096 -56.882774 22.223585 0.000000 22.000000 14.043972 0.000000
-22.294886 -52.213660 19.412899 0.000000 45.000000 14.568773 28.000000
-20.535381 -58.549762 23.107096 0.000000 43.000000 14.263674 0.000000
-24.687820 -56.250615 22.590883 0.000000 76.000000 14.777500 26.000000
-21.457600 -54.710046 21.144650 0.000000 42.000000 14.181895 0.000000
-22.498466 -54.326594 20.654362 0.000000 76.000000 14.699570 9.000000
-21.905995 -52.800781 19.608321 0.000000 58.000000 14.590362 7.000000
-21.937937 -54.328564 21.070940 0.000000 38.000000 14.194094 0.000000
-22.661265 -54.782980 21.711312 0.000000 31.000000 14.127546 0.000000
-21.238201 -56.697317 22.285854 0.000000 50.000000 14.201340 0.000000
-21.925312 -56.659126 22.539470 0.000000 35.000000 14.186236 0.000000
-21.613035 -56.441646 22.441184 0.000000 37.000000 14.060424 0.000000
-22.162961 -57.382239 23.160383 0.000000 45.000000 14.123891 0.000000
-21.753597 -56.353638 22.416208 0.000000 39.000000 14.078712 0.000000
-22.310528 -57.286951 23.098420 0.000000 45.000000 14.170461 0.000000
-23.171340 -52.977353 20.181001 0.000000 62.000000 14.602415 23.000000
-24.014470 -56.096005 23.008051 0.000000 46.000000 14.157923 0.000000
-22.044950 -56.179921 22.302838 0.000000 39.000000 14.170726 0.000000
-22.594539 -57.113578 23.065324 0.000000 57.000000 14.195654 0.000000
-23.625849 -55.954084 22.271785 0.000000 74.000000 14.561903 5.000000
-20.596905 -54.342784 20.572369 0.000000 44.000000 14.195910 0.000000
-18.573217 -54.826388 19.740197 0.000000 67.000000 14.497178 21.000000
-21.221847 -56.886881 22.401045 0.000000 39.000000 14.199477 0.000000
-22.917202 -54.466218 21.057669 0.000000 56.000000 14.572209 9.000000
-19.704280 -55.765992 21.284463 0.000000 39.000000 14.071135 0.000000
-18.019791 -54.500440 19.687763 0.000000 34.000000 14.206116 0.000000
-21.954019 -55.235281 21.661438 0.000000 36.000000 14.181961 0.000000
-23.644670 -54.868010 21.468731 0.000000 49.000000 14.665262 27.000000
-22.348246 -54.752193 21.668618 0.000000 28.000000 14.051245 0.000000
-23.431305 -56.667031 23.268245 0.000000 41.000000 14.060047 0.000000
-23.574386 -56.599774 23.313566 0.000000 42.000000 14.032899 0.000000
-21.864948 -52.133012 19.623241 0.000000 46.000000 14.227524 0.000000
-22.899144 -53.658090 21.028750 0.000000 33.000000 14.180614 0.000000
-22.932116 -53.416020 20.461148 0.000000 71.000000 14.525928 28.000000
-21.490311 -53.709951 20.016648 0.000000 67.000000 14.595203 4.000000
-21.456760 -53.375092 20.433061 0.000000 36.000000 14.079391 0.000000
-22.313853 -56.261092 22.403617 0.000000 36.000000 14.212282 0.000000
-22.807411 -53.229283 20.247281 0.000000 49.000000 14.565957 28.000000
-22.593997 -53.004568 19.917831 0.000000 80.000000 14.653032 28.000000
-19.811683 -54.793944 20.588395 0.000000 29.000000 14.172877 0.000000
-22.641376 -52.404088 19.760888 0.000000 61.000000 14.489822 28.000000
-22.455561 -53.711269 20.703347 0.000000 53.000000 14.335254 9.000000
-21.356703 -54.893287 20.828923 0.000000 64.000000 14.498790 2.000000
-22.432355 -52.896146 19.741262 0.000000 73.000000 14.691420 28.000000
-19.538337 -57.575330 21.945349 0.000000 53.000000 14.404196 13.000000
-19.724473 -58.022394 22.411998 0.000000 45.000000 14.310792 13.000000
-21.534641 -54.388336 20.965931 0.000000 42.000000 14.186508 0.000000
-21.869744 -55.193605 21.610923 0.000000 53.000000 14.175985 0.000000
-20.475896 -56.900675 22.247856 0.000000 30.000000 14.103312 0.000000
-18.603150 -56.860754 21.429104 0.000000 38.000000 14.174392 0.000000
-21.284091 -54.311712 20.769452 0.000000 52.000000 14.230045 0.000000
-22.414697 -54.319138 20.672310 0.000000 69.000000 14.655849 9.000000
-24.133763 -55.046918 21.737184 0.000000 55.000000 14.687990 27.000000
-21.488438 -55.058051 21.305044 0.000000 60.000000 14.238181 0.000000
-20.971580 -54.855545 21.043323 0.000000 42.000000 14.189627 0.000000
-20.622564 -56.469816 21.883034 0.000000 50.000000 14.223935 0.000000
-19.393425 -55.246426 20.783653 0.000000 29.000000 14.117456 0.000000
-20.379337 -53.149580 19.276130 0.000000 48.000000 14.571033 6.000000
-24.683960 -55.372219 21.757018 0.000000 47.000000 15.004043 24.000000
-20.268550 -53.930973 20.272670 0.000000 39.000000 14.129251 0.000000
-20.461046 -55.394374 21.166452 0.000000 39.000000 14.208099 0.000000
-23.176599 -55.895145 22.726736 0.000000 27.000000 14.028434 0.000000
-23.441108 -55.561511 21.974025 0.000000 54.000000 14.547081 5.000000
-24.814045 -56.318232 22.735887 0.000000 37.000000 14.733139 26.000000
-21.748527 -52.533191 19.451227 0.000000 40.000000 14.533665 7.000000
-20.251996 -54.505222 20.578098 0.000000 42.000000 14.168745 0.000000
-21.881146 -54.459334 20.812781 0.000000 67.000000 14.451366 15.000000
-19.727079 -53.648545 19.756049 0.000000 35.000000 14.238374 0.000000
-20.205362 -55.970072 21.370595 0.000000 44.000000 14.257355 0.000000
-22.589124 -52.428619 19.621201 0.000000 70.000000 14.599065 28.000000
-20.495899 -53.852580 19.904791 0.000000 53.000000 14.455441 6.000000
-20.662381 -54.316616 20.494689 0.000000 40.000000 14.265226 0.000000
-20.791966 -53.421559 20.066672 0.000000 56.000000 14.196456 0.000000
-19.934634 -57.832013 22.495792 0.000000 31.000000 14.210614 0.000000
-23.851945 -54.392077 21.110430 0.000000 66.000000 14.776210 27.000000
-24.253886 -55.184736 22.554379 0.000000 41.000000 14.135023 0.000000
-23.493807 -53.770105 20.755658 0.000000 64.000000 14.638453 27.000000
-22.232767 -52.472986 19.512521 0.000000 46.000000 14.600905 28.000000
-18.840956 -55.997484 20.968985 0.000000 34.000000 14.180522 0.000000
-20.237322 -53.143819 19.287241 0.000000 64.000000 14.515983 6.000000
-19.461893 -56.855702 21.743642 0.000000 42.000000 14.179096 0.000000
-20.444007 -54.076670 20.466584 0.000000 31.000000 14.099954 0.000000
-22.292782 -53.118045 20.446136 0.000000 32.000000 14.192734 0.000000
-19.043444 -56.732917 21.380636 0.000000 48.000000 14.282562 17.000000
-19.878768 -56.655462 21.810918 0.000000 42.000000 14.150084 0.000000
-22.547074 -54.648601 21.521665 0.000000 42.000000 14.177758 0.000000
-19.659841 -55.611003 21.111475 0.000000 40.000000 14.118667 0.000000
-22.520565 -52.693800 19.751871 0.000000 69.000000 14.607156 28.000000
-20.324169 -56.465018 21.786982 0.000000 47.000000 14.208295 0.000000
-20.468564 -56.408095 21.798915 0.000000 53.000000 14.213719 0.000000
-21.913459 -55.167223 21.591186 0.000000 48.000000 14.191829 0.000000
-23.149190 -56.104275 22.809642 0.000000 42.000000 14.059170 0.000000
-18.494410 -55.448115 20.456351 0.000000 35.000000 14.210434 0.000000
-23.669504 -55.364147 21.783921 0.000000 60.000000 14.669886 26.000000
-22.675817 -54.666369 20.818041 0.000000 73.000000 14.793571 9.000000
-20.888487 -56.253018 21.918634 0.000000 39.000000 14.166205 0.000000
-20.547128 -55.288077 21.082773 0.000000 50.000000 14.247921 0.000000
-21.052220 -56.198412 21.835868 0.000000 52.000000 14.255083 0.000000
-21.500988 -56.625786 22.104443 0.000000 49.000000 14.391339 22.000000
-21.178134 -56.157932 21.953863 0.000000 44.000000 14.177651 0.000000
-20.397780 -54.267545 20.592485 0.000000 41.000000 14.081033 0.000000
-21.516319 -56.822579 22.338415 0.000000 38.000000 14.306938 22.000000
-21.268892 -57.323765 22.731931 0.000000 42.000000 14.168168 0.000000
-19.523550 -57.520491 22.195132 0.000000 39.000000 14.170395 0.000000
-23.740564 -54.779799 21.376842 0.000000 48.000000 14.723854 27.000000
-24.549397 -55.677105 22.571479 0.000000 36.000000 14.460511 26.000000
-20.547185 -54.692257 20.948901 0.000000 40.000000 14.054074 0.000000
-22.440102 -55.140481 21.771275 0.000000 46.000000 14.193069 0.000000
-20.536059 -54.896752 20.575748 0.000000 55.000000 14.455355 12.000000
-21.840456 -52.447727 19.878391 0.000000 28.000000 14.173676 0.000000
-20.575460 -57.291170 22.452977 0.000000 42.000000 14.165930 0.000000
-22.072140 -57.545576 23.042955 0.000000 56.000000 14.273779 29.000000
-21.377520 -52.633432 19.570173 0.000000 53.000000 14.375713 7.000000
-22.190299 -52.701259 19.726819 0.000000 64.000000 14.530756 28.000000
-22.552136 -53.086317 19.956206 0.000000 46.000000 14.650765 28.000000
-21.961854 -54.915521 21.443539 0.000000 51.000000 14.198135 0.000000
-22.492438 -55.825107 22.230988 0.000000 47.000000 14.184950 0.000000
-23.692712 -53.722590 20.535041 0.000000 51.000000 14.852832 27.000000
-22.217820 -52.478029 19.550761 0.000000 70.000000 14.568065 28.000000
-23.684968 -54.831960 21.403387 0.000000 35.000000 14.711966 27.000000
-23.653779 -56.106253 22.168230 0.000000 78.000000 14.731036 5.000000
-20.185727 -57.826283 22.398675 0.000000 42.000000 14.362388 16.000000
-22.176317 -52.318605 19.285240 0.000000 48.000000 14.688897 28.000000
-23.093035 -55.725986 22.347827 0.000000 53.000000 14.223029 0.000000
-17.847579 -54.857856 19.679277 0.000000 40.000000 14.341700 20.000000
-22.994036 -54.762572 21.650344 0.000000 60.000000 14.267547 0.000000
-21.683107 -52.258273 19.498230 0.000000 46.000000 14.336571 7.000000
-24.087460 -54.732674 21.544048 0.000000 79.000000 14.670523 27.000000
-23.099937 -53.833449 21.190743 0.000000 35.000000 14.199800 0.000000
-21.084531 -54.756739 20.574557 0.000000 66.000000 14.552097 2.000000
-22.621310 -53.569537 20.853494 0.000000 39.000000 14.192691 0.000000
-20.578084 -58.520096 23.125063 0.000000 43.000000 14.247129 0.000000
-22.866965 -54.529879 21.165678 0.000000 83.000000 14.502051 9.000000
-23.871024 -55.372965 21.746064 0.000000 70.000000 14.766152 26.000000
-23.112195 -55.909750 22.681566 0.000000 40.000000 14.052700 0.000000
-19.891083 -53.887139 19.739365 0.000000 65.000000 14.422569 11.000000
-21.806203 -53.074889 19.716989 0.000000 63.000000 14.611233 7.000000
-23.014332 -56.224250 22.716894 0.000000 23.000000 14.153791 0.000000
-20.773393 -53.461175 20.052255 0.000000 47.000000 14.222514 0.000000
-23.537584 -54.218507 20.900586 0.000000 76.000000 14.762016 27.000000
-21.022723 -57.289216 22.577571 0.000000 61.000000 14.200372 0.000000
-19.563766 -54.183056 20.074559 0.000000 31.000000 14.202570 0.000000
-22.028317 -52.205781 19.528048 0.000000 71.000000 14.390852 28.000000
-19.805370 -54.524459 20.315474 0.000000 51.000000 14.254614 0.000000
-21.051370 -52.420169 19.600155 0.000000 41.000000 14.144335 0.000000
-21.429784 -53.090140 20.220013 0.000000 35.000000 14.098705 0.000000
-22.034926 -54.626190 21.286988 0.000000 58.000000 14.200062 0.000000
-20.221366 -58.656733 23.110734 0.000000 50.000000 14.219485 0.000000
-22.451140 -54.485860 20.878594 0.000000 69.000000 14.584968 9.000000
-22.091222 -55.477681 21.848259 0.000000 48.000000 14.195753 0.000000
-24.691715 -55.986692 22.995443 0.000000 38.000000 14.318573 26.000000
-21.892676 -52.377015 19.806494 0.000000 39.000000 14.211730 0.000000
-21.983148 -57.438039 22.842483 0.000000 69.000000 14.353984 29.000000
-18.064842 -55.065692 20.044957 0.000000 39.000000 14.218013 0.000000
-23.643574 -55.603711 22.145928 0.000000 47.000000 14.491315 5.000000
-18.320832 -54.977967 20.130044 0.000000 40.000000 14.182734 0.000000
-19.949016 -54.160588 19.687480 0.000000 67.000000 14.620582 11.000000
-21.524190 -55.022169 21.331338 0.000000 35.000000 14.209655 0.000000
-21.638105 -56.025496 22.142005 0.000000 42.000000 14.098578 0.000000
-20.942891 -57.088411 22.410396 0.000000 41.000000 14.209244 0.000000
-21.319365 -53.210610 20.178054 0.000000 33.000000 14.160029 0.000000
-22.013945 -57.099733 22.989901 0.000000 44.000000 14.073007 0.000000
-18.816375 -53.854491 19.589671 0.000000 40.000000 14.200123 0.000000
-20.861265 -54.880293 21.098680 0.000000 36.000000 14.123972 0.000000
-24.479938 -56.120523 22.260913 0.000000 62.000000 14.914617 26.000000
-19.086659 -53.804264 19.662106 0.000000 38.000000 14.198393 0.000000
-21.111462 -57.660980 22.867876 0.000000 46.000000 14.181485 0.000000
-22.437165 -56.412854 22.519738 0.000000 35.000000 14.232970 0.000000
-19.689327 -54.660653 20.448937 0.000000 39.000000 14.180666 0.000000
-23.075880 -54.912574 21.438352 0.000000 44.000000 14.539456 5.000000
-23.410589 -56.438349 23.132504 0.000000 42.000000 14.047403 0.000000
-19.190966 -56.608684 21.463285 0.000000 27.000000 14.197781 0.000000
-20.237359 -53.561323 19.649770 0.000000 44.000000 14.435037 6.000000
-22.431383 -55.847260 22.195636 0.000000 44.000000 14.206137 0.000000
-20.390660 -57.746159 22.371881 0.000000 57.000000 14.405704 16.000000
-24.082896 -56.241272 23.092075 0.000000 46.000000 14.184532 0.000000
-20.163525 -53.678466 20.049543 0.000000 37.000000 14.149411 0.000000
-23.432875 -54.322499 20.786462 0.000000 81.000000 14.874949 27.000000
-22.797135 -54.564879 20.955852 0.000000 75.000000 14.667843 9.000000
-20.950268 -54.548774 20.757850 0.000000 52.000000 14.258041 0.000000
-22.441104 -52.497218 19.738268 0.000000 70.000000 14.494379 28.000000
-19.484843 -56.385118 20.983099 0.000000 53.000000 14.561250 10.000000
-21.348153 -54.543860 20.982463 0.000000 49.000000 14.195280 0.000000
-20.403059 -56.053363 21.590878 0.000000 38.000000 14.181925 0.000000
-21.480938 -54.546294 21.062862 0.000000 47.000000 14.172011 0.000000
-20.868968 -56.638606 22.088864 0.000000 44.000000 14.218289 0.000000
-22.523465 -55.404252 21.999751 0.000000 45.000000 14.167716 0.000000
-24.262880 -55.165781 21.921006 0.000000 54.000000 14.639153 26.000000
-24.586051 -55.601295 22.686743 0.000000 42.000000 14.340250 24.000000
-19.005055 -55.311692 20.301663 0.000000 63.000000 14.421336 21.000000
-22.061423 -53.467977 20.056928 0.000000 78.000000 14.613710 7.000000
-22.334997 -54.604707 21.311041 0.000000 34.000000 14.260984 0.000000
-23.698249 -56.523073 22.781216 0.000000 79.000000 14.461183 1.000000
-22.096048 -53.748750 20.748570 0.000000 44.000000 14.208478 0.000000
-22.241623 -53.769368 20.761960 0.000000 65.000000 14.252371 0.000000
-22.880838 -54.679058 21.677132 0.000000 50.000000 14.169214 0.000000
-22.507835 -53.778759 20.833380 0.000000 47.000000 14.280428 9.000000
-22.639309 -52.117926 19.448417 0.000000 57.000000 14.596308 28.000000
-24.463222 -56.211595 22.538823 0.000000 76.000000 14.731462 26.000000
-18.697147 -54.054627 19.798418 0.000000 32.000000 14.096865 0.000000
-24.279366 -55.818445 22.327306 0.000000 69.000000 14.647036 26.000000
-23.330482 -54.467201 20.864212 0.000000 70.000000 14.854410 27.000000
-21.271445 -56.253560 21.895654 0.000000 48.000000 14.301427 22.000000
-23.231615 -55.838373 22.511221 0.000000 56.000000 14.190269 0.000000
-18.836150 -55.422604 20.282549 0.000000 46.000000 14.441609 21.000000
-20.541955 -55.132758 21.019769 0.000000 39.000000 14.218488 0.000000
-20.320657 -58.693284 23.218209 0.000000 40.000000 14.181475 0.000000
-20.917772 -57.464635 22.713063 0.000000 43.000000 14.148033 0.000000
-19.850477 -58.866978 23.169859 0.000000 34.000000 14.165565 0.000000
-22.475763 -54.009122 20.655921 0.000000 76.000000 14.530564 9.000000
-24.361671 -56.320852 22.523496 0.000000 48.000000 14.768314 26.000000
-20.883126 -56.357647 21.962266 0.000000 42.000000 14.182384 0.000000
-23.832910 -55.344571 21.706884 0.000000 73.000000 14.771791 26.000000
-20.974832 -52.837945 19.753286 0.000000 50.000000 14.209191 0.000000
-21.087764 -52.859472 19.862703 0.000000 35.000000 14.166149 0.000000
-23.227724 -53.251627 20.819643 0.000000 35.000000 14.243264 0.000000
-21.324809 -52.913709 20.042813 0.000000 44.000000 14.120371 0.000000
-22.305896 -57.533154 23.184573 0.000000 58.000000 14.224284 0.000000
-21.374889 -52.208335 19.531870 0.000000 41.000000 14.190441 0.000000
-19.588482 -55.506872 20.962341 0.000000 43.000000 14.164539 0.000000
-23.924541 -56.684690 22.828630 0.000000 68.000000 14.573599 1.000000
-21.631683 -52.298258 19.611170 0.000000 46.000000 14.250079 0.000000
-17.513770 -55.082439 19.954398 0.000000 26.000000 14.132052 0.000000
-23.695930 -55.255183 21.692040 0.000000 45.000000 14.696841 26.000000
-20.920433 -56.750463 22.193043 0.000000 47.000000 14.206555 0.000000
-22.622702 -55.125692 21.937275 0.000000 25.000000 14.107154 0.000000
-22.434836 -53.141232 19.997818 0.000000 81.000000 14.609360 28.000000
-22.096269 -53.266571 20.205091 0.000000 72.000000 14.402723 7.000000
-17.619992 -54.649792 19.605953 0.000000 28.000000 14.226263 0.000000
-22.826304 -54.676661 20.816991 0.000000 65.000000 14.845376 9.000000
-22.934278 -52.858148 20.571990 0.000000 44.000000 14.154514 0.000000
-24.272264 -55.532712 21.936887 0.000000 68.000000 14.815098 26.000000
-21.438224 -53.485987 20.039912 0.000000 65.000000 14.447130 4.000000
-22.184242 -57.471330 23.234327 0.000000 23.000000 14.115841 0.000000
-22.171563 -52.039930 19.552010 0.000000 33.000000 14.331034 28.000000
-20.148763 -57.737583 22.323120 0.000000 46.000000 14.367169 16.000000
-19.687506 -55.087350 20.700717 0.000000 29.000000 14.193164 0.000000
-22.931366 -56.101471 22.609185 0.000000 38.000000 14.153265 0.000000
-22.790023 -56.148614 22.543184 0.000000 53.000000 14.187435 0.000000
-19.441397 -57.963141 22.061566 0.000000 63.000000 14.477450 13.000000
-23.578817 -54.207259 21.079831 0.000000 69.000000 14.624237 27.000000
-24.843867 -55.905412 22.735330 0.000000 37.000000 14.533499 24.000000
-21.828538 -52.603532 19.723882 0.000000 43.000000 14.373649 7.000000
-18.490207 -54.006921 19.726354 0.000000 36.000000 14.067932 0.000000
-21.365417 -55.195455 21.360313 0.000000 27.000000 14.225812 0.000000
-20.442038 -57.898235 22.490202 0.000000 66.000000 14.402910 16.000000
-21.888345 -56.407728 22.475586 0.000000 38.000000 14.099170 0.000000
-23.611525 -55.899138 22.668631 0.000000 45.000000 14.209539 0.000000
-21.744248 -56.440760 22.398117 0.000000 37.000000 14.134606 0.000000
-22.774430 -57.029599 23.021792 0.000000 39.000000 14.242908 0.000000
-21.772818 -57.503025 23.004667 0.000000 47.000000 14.192126 0.000000
-21.318471 -56.525321 22.188038 0.000000 39.000000 14.217516 0.000000
-23.139219 -55.549258 22.131274 0.000000 56.000000 14.322241 5.000000
-21.164240 -56.554450 22.191026 0.000000 36.000000 14.182982 0.000000
-19.832500 -53.244875 19.633808 0.000000 42.000000 14.164522 0.000000
-21.021534 -56.576062 22.135921 0.000000 43.000000 14.195012 0.000000
-21.311292 -57.579714 22.906882 0.000000 50.000000 14.169583 0.000000
-21.521796 -55.938736 22.070835 0.000000 27.000000 14.076686 0.000000
-22.864042 -55.724149 22.425455 0.000000 44.000000 14.089862 0.000000
-23.173964 -54.588083 21.727574 0.000000 22.000000 14.171526 0.000000
-22.941585 -56.991350 23.080005 0.000000 40.000000 14.227373 0.000000
-18.250109 -55.979653 20.715471 0.000000 40.000000 14.196422 0.000000
-23.910647 -56.454380 22.655364 0.000000 60.000000 14.592479 1.000000
-24.211418 -54.885859 21.645005 0.000000 62.000000 14.704363 27.000000
-23.974698 -54.644146 21.390009 0.000000 69.000000 14.715672 27.000000
-20.109174 -56.686997 21.969526 0.000000 30.000000 14.108134 0.000000
-17.517194 -54.799990 19.673673 0.000000 42.000000 14.216476 0.000000
-23.707113 -54.978592 21.553217 0.000000 63.000000 14.672107 27.000000
-19.938236 -57.683258 22.467357 0.000000 37.000000 14.159283 0.000000
-19.551524 -56.701335 21.659137 0.000000 36.000000 14.196309 0.000000
-17.994942 -54.481153 19.632041 0.000000 43.000000 14.233747 0.000000
-24.134846 -55.192457 21.915958 0.000000 78.000000 14.617823 26.000000
-23.577480 -54.036675 20.875210 0.000000 74.000000 14.702491 27.000000
-19.251176 -56.702281 21.575768 0.000000 36.000000 14.172753 0.000000
-18.720530 -54.651892 19.960179 0.000000 38.000000 14.276069 21.000000
-18.980297 -56.686969 21.406124 0.000000 42.000000 14.219524 0.000000
-19.968980 -55.542123 20.798882 0.000000 59.000000 14.429935 14.000000
-19.900928 -58.465101 22.882508 0.000000 27.000000 14.209122 0.000000
-21.870864 -57.709615 22.978394 0.000000 42.000000 14.347795 29.000000
-18.901679 -57.627785 22.053588 0.000000 36.000000 14.149922 0.000000
-22.658687 -55.703916 22.268028 0.000000 45.000000 14.144200 0.000000
-23.191556 -54.816750 21.698532 0.000000 57.000000 14.316158 5.000000
-20.442775 -58.598006 23.228269 0.000000 37.000000 14.162207 0.000000
-20.580038 -58.449084 23.103893 0.000000 38.000000 14.228824 0.000000
-20.796133 -58.203396 23.147054 0.000000 40.000000 14.135211 0.000000
-19.985962 -55.674768 21.179112 0.000000 48.000000 14.195535 0.000000
-20.887118 -54.146373 20.212085 0.000000 51.000000 14.475287 6.000000
-20.856129 -53.386032 20.057308 0.000000 33.000000 14.205514 0.000000
-21.199297 -55.696533 21.764693 0.000000 39.000000 14.102937 0.000000
-23.802440 -55.931636 22.828229 0.000000 39.000000 14.155274 0.000000
-18.566069 -54.814355 19.781074 0.000000 50.000000 14.455929 21.000000
-19.566778 -57.055475 21.923391 0.000000 29.000000 14.167173 0.000000
-23.594917 -53.758041 20.429830 0.000000 78.000000 14.925950 27.000000
-21.207664 -54.827775 20.558114 0.000000 72.000000 14.638782 2.000000
