2.732938 75.694259 -28.634688 0.000000 60.000000 14.835072 26.000000
0.516085 76.433565 -27.714988 0.000000 64.000000 14.525130 13.000000
2.959006 76.671427 -30.015442 0.000000 65.000000 14.820615 28.000000
4.005117 73.571054 -28.374844 0.000000 68.000000 14.389377 0.000000
1.952828 78.519557 -31.433484 0.000000 70.000000 14.621296 16.000000
1.006194 74.652559 -26.598258 0.000000 53.000000 14.308509 0.000000
4.721313 74.058421 -29.554719 0.000000 59.000000 14.460539 10.000000
3.878915 74.844087 -29.679709 0.000000 71.000000 14.397876 30.000000
0.396860 76.649352 -27.447044 0.000000 50.000000 14.735461 13.000000
3.404531 77.014581 -31.061629 0.000000 64.000000 14.720624 29.000000
-0.136653 77.094123 -26.686786 0.000000 44.000000 15.117398 13.000000
0.612064 75.199396 -26.596581 0.000000 51.000000 14.422504 2.000000
1.730489 78.526257 -31.096390 0.000000 65.000000 14.681037 18.000000
4.063963 73.490190 -28.458306 0.000000 55.000000 14.327810 0.000000
3.533577 77.849484 -31.983566 0.000000 71.000000 14.811212 12.000000
0.961141 78.822344 -30.578611 0.000000 65.000000 14.705364 18.000000
0.992844 74.518739 -26.438216 0.000000 59.000000 14.304814 0.000000
1.184501 74.394707 -26.437601 0.000000 58.000000 14.337825 0.000000
1.500676 78.629753 -31.050740 0.000000 48.000000 14.638609 18.000000
1.130847 74.674460 -26.673301 0.000000 48.000000 14.352533 0.000000
2.803348 78.326195 -31.843246 0.000000 66.000000 14.765197 15.000000
1.072120 76.720555 -28.990003 0.000000 79.000000 14.329638 0.000000
1.133394 76.632604 -28.043810 0.000000 71.000000 14.822279 21.000000
3.268800 73.721608 -27.938655 0.000000 41.000000 14.298466 0.000000
1.689380 78.276834 -31.294737 0.000000 55.000000 14.396132 18.000000
2.701283 77.433865 -30.317231 0.000000 78.000000 14.981415 27.000000
3.068561 78.233966 -32.309910 0.000000 65.000000 14.606945 12.000000
2.032625 74.071810 -26.900135 0.000000 44.000000 14.371761 0.000000
2.883516 75.317454 -28.637402 0.000000 37.000000 14.686660 26.000000
1.105600 74.631953 -26.546879 0.000000 54.000000 14.380280 0.000000
0.078988 75.957144 -27.015541 0.000000 54.000000 14.359941 0.000000
4.520105 74.750388 -29.409815 0.000000 68.000000 14.851760 11.000000
0.970572 78.869299 -30.467527 0.000000 76.000000 14.799871 18.000000
0.574158 78.249591 -29.639690 0.000000 48.000000 14.638828 20.000000
3.533728 74.678893 -29.324314 0.000000 41.000000 14.291235 0.000000
2.383731 77.999626 -30.840036 0.000000 69.000000 14.866956 27.000000
-0.375477 79.193642 -29.463559 0.000000 27.000000 14.775819 17.000000
2.025705 76.029893 -28.971053 0.000000 47.000000 14.457040 23.000000
2.885789 75.502698 -29.454428 0.000000 62.000000 14.360282 26.000000
3.826772 77.085756 -31.305865 0.000000 71.000000 14.873275 11.000000
-0.282360 78.199029 -28.635931 0.000000 67.000000 14.662228 14.000000
-0.309369 77.619805 -28.123972 0.000000 69.000000 14.565965 14.000000
0.084744 76.129359 -27.096063 0.000000 72.000000 14.426063 13.000000
-0.765330 78.586945 -29.104219 0.000000 65.000000 14.373028 0.000000
1.111234 74.762037 -26.778810 0.000000 51.000000 14.338363 0.000000
2.370526 76.475870 -30.049218 0.000000 38.000000 14.345839 28.000000
0.406869 78.696067 -29.716084 0.000000 46.000000 14.777949 19.000000
0.154693 77.307638 -28.696943 0.000000 57.000000 14.327703 0.000000
3.450777 75.364647 -29.206458 0.000000 55.000000 14.731432 30.000000
2.814147 75.582573 -28.462436 0.000000 56.000000 14.905595 26.000000
4.116995 75.466659 -29.340104 0.000000 51.000000 15.102145 30.000000
1.121394 74.322334 -26.340917 0.000000 62.000000 14.309431 0.000000
4.915802 73.954852 -29.154294 0.000000 76.000000 14.724169 10.000000
3.848978 74.927029 -29.763155 0.000000 73.000000 14.386893 30.000000
1.162838 74.522985 -26.512361 0.000000 64.000000 14.364276 0.000000
2.226081 77.791009 -30.086361 0.000000 51.000000 15.055984 24.000000
3.621297 76.936425 -30.383244 0.000000 65.000000 15.163083 29.000000
2.814182 77.446722 -31.635638 0.000000 46.000000 14.340293 29.000000
-1.077417 78.664679 -28.499996 0.000000 69.000000 14.570029 7.000000
4.165457 74.279748 -28.707137 0.000000 72.000000 14.738919 10.000000
0.378638 77.477413 -29.087056 0.000000 34.000000 14.349232 0.000000
-0.722053 77.554429 -27.958881 0.000000 36.000000 14.379519 0.000000
3.465184 74.800041 -28.955019 0.000000 67.000000 14.526843 9.000000
3.996369 73.454039 -28.427875 0.000000 50.000000 14.283385 0.000000
2.083586 77.774898 -30.608952 0.000000 62.000000 14.681949 24.000000
2.501244 75.333780 -28.656776 0.000000 78.000000 14.468221 26.000000
0.746032 77.694717 -29.126133 0.000000 47.000000 14.671915 20.000000
-0.234074 75.884182 -26.606095 0.000000 49.000000 14.357865 0.000000
3.648814 76.736076 -30.387004 0.000000 67.000000 15.052947 29.000000
0.608408 78.866048 -30.331698 0.000000 65.000000 14.664793 19.000000
3.907883 73.636014 -28.470759 0.000000 59.000000 14.322150 0.000000
1.651200 76.525419 -28.892756 0.000000 46.000000 14.591987 23.000000
1.414480 77.747363 -29.632327 0.000000 45.000000 14.811790 22.000000
1.773572 78.614929 -30.883914 0.000000 59.000000 14.875385 18.000000
-0.271954 77.448455 -28.374423 0.000000 51.000000 14.345894 0.000000
0.455673 76.722016 -27.101056 0.000000 66.000000 15.001141 13.000000
3.607636 74.393244 -28.308102 0.000000 77.000000 14.706814 9.000000
1.557827 78.641335 -30.454226 0.000000 37.000000 15.001171 18.000000
4.540695 74.909236 -29.503076 0.000000 57.000000 14.911188 11.000000
1.531680 77.918830 -29.763977 0.000000 53.000000 14.913347 22.000000
2.104265 76.215141 -28.703623 0.000000 76.000000 14.761037 23.000000
1.203368 76.167385 -27.929852 0.000000 62.000000 14.636398 21.000000
1.343414 78.697909 -30.453409 0.000000 34.000000 14.914272 18.000000
4.720577 73.825133 -29.024151 0.000000 81.000000 14.603088 10.000000
2.276445 77.302187 -29.530606 0.000000 53.000000 15.083414 24.000000
1.122036 74.668465 -26.587995 0.000000 57.000000 14.389966 0.000000
3.470844 77.596719 -31.987031 0.000000 58.000000 14.617369 12.000000
3.445058 77.102087 -30.868004 0.000000 75.000000 14.902592 29.000000
1.252305 74.321714 -26.391390 0.000000 53.000000 14.356405 0.000000
2.577831 76.242580 -28.929311 0.000000 50.000000 14.925975 25.000000
2.159916 78.447851 -31.347960 0.000000 78.000000 14.741391 16.000000
4.340925 73.587281 -28.549176 0.000000 63.000000 14.496604 10.000000
1.042556 74.902109 -25.852302 0.000000 49.000000 14.887127 2.000000
3.752648 76.840378 -30.982241 0.000000 72.000000 14.854506 11.000000
1.826311 76.653533 -28.742769 0.000000 50.000000 14.852197 23.000000
0.558591 78.658461 -30.109491 0.000000 37.000000 14.628357 19.000000
3.774276 77.390149 -31.441084 0.000000 67.000000 14.958245 11.000000
2.739671 76.690993 -29.983021 0.000000 52.000000 14.725144 28.000000
3.446116 74.539752 -28.487206 0.000000 69.000000 14.608291 9.000000
0.368961 75.732268 -27.032034 0.000000 70.000000 14.377460 0.000000
3.880124 73.638920 -28.442811 0.000000 45.000000 14.323238 0.000000
1.989792 74.689786 -26.595305 0.000000 82.000000 14.894142 3.000000
0.655837 76.377984 -28.166441 0.000000 43.000000 14.326194 0.000000
0.511231 78.814157 -29.546960 0.000000 66.000000 15.001966 19.000000
0.843556 77.462425 -29.246392 0.000000 70.000000 14.518928 20.000000
1.809294 76.522481 -28.599651 0.000000 61.000000 14.838962 23.000000
4.385663 74.194808 -29.381853 0.000000 44.000000 14.446910 10.000000
3.629128 77.385114 -31.390129 0.000000 85.000000 14.899917 11.000000
3.825000 77.344550 -31.473764 0.000000 72.000000 14.941316 11.000000
3.007757 74.514936 -27.869152 0.000000 68.000000 14.677385 4.000000
3.095640 73.748992 -27.774360 0.000000 59.000000 14.305528 0.000000
3.635851 74.626920 -28.496725 0.000000 62.000000 14.765224 9.000000
1.103089 74.684273 -26.669488 0.000000 54.000000 14.344827 0.000000
3.519122 77.285171 -31.639737 0.000000 61.000000 14.640339 11.000000
1.603198 74.914652 -26.720224 0.000000 60.000000 14.744980 3.000000
4.396428 75.888446 -30.332388 0.000000 57.000000 14.985175 11.000000
2.179529 75.834650 -28.325615 0.000000 67.000000 14.773419 23.000000
3.733830 75.462896 -29.151449 0.000000 72.000000 14.983358 30.000000
2.698806 78.632816 -31.769877 0.000000 76.000000 14.934736 15.000000
3.215435 75.708669 -29.440304 0.000000 49.000000 14.683222 30.000000
-0.451637 78.743455 -29.354906 0.000000 31.000000 14.513003 17.000000
3.175879 74.729989 -28.513248 0.000000 72.000000 14.557608 9.000000
-0.847477 79.138779 -28.415960 0.000000 71.000000 15.039610 7.000000
4.114418 73.888423 -28.343826 0.000000 74.000000 14.664612 10.000000
3.433525 77.127522 -30.534060 0.000000 74.000000 15.092446 29.000000
4.108275 76.555493 -30.883133 0.000000 68.000000 14.934951 11.000000
3.120656 74.209345 -28.139523 0.000000 49.000000 14.406642 4.000000
2.642728 76.392876 -29.258179 0.000000 79.000000 14.877891 25.000000
1.324380 74.250492 -26.462346 0.000000 49.000000 14.315108 0.000000
1.206994 74.405715 -26.472764 0.000000 60.000000 14.338428 0.000000
2.904600 76.398839 -29.635940 0.000000 69.000000 14.826518 28.000000
2.637286 74.224057 -27.547345 0.000000 53.000000 14.460485 8.000000
4.547041 74.690042 -29.496191 0.000000 72.000000 14.783092 11.000000
0.172953 76.125867 -27.179288 0.000000 65.000000 14.429180 13.000000
3.832689 76.173821 -30.475661 0.000000 62.000000 14.762428 11.000000
2.635530 76.566965 -29.346496 0.000000 76.000000 14.933564 25.000000
-1.083942 78.827579 -28.356749 0.000000 40.000000 14.744483 7.000000
3.746178 77.654514 -31.707739 0.000000 72.000000 14.961269 11.000000
2.336264 76.964183 -29.848709 0.000000 81.000000 14.736535 24.000000
2.813291 74.537492 -27.790378 0.000000 69.000000 14.623032 4.000000
3.524818 76.637474 -30.240253 0.000000 78.000000 15.000709 29.000000
2.978324 78.186216 -31.531127 0.000000 60.000000 14.947412 15.000000
3.375347 74.833268 -29.135847 0.000000 66.000000 14.398275 0.000000
2.843461 77.255350 -30.716432 0.000000 34.000000 14.736175 29.000000
1.257618 76.587475 -29.035822 0.000000 52.000000 14.328417 0.000000
2.209829 77.814279 -29.910628 0.000000 64.000000 15.156191 24.000000
2.606776 74.138661 -27.023612 0.000000 74.000000 14.673736 8.000000
3.208593 76.574914 -29.782429 0.000000 78.000000 15.029436 28.000000
4.714016 74.177593 -29.160162 0.000000 64.000000 14.743531 10.000000
3.974203 75.635770 -29.570416 0.000000 72.000000 15.000558 30.000000
0.152045 77.534825 -28.669677 0.000000 78.000000 14.481328 5.000000
0.398490 78.171279 -29.823629 0.000000 51.000000 14.390700 19.000000
1.035541 74.792583 -26.804144 0.000000 50.000000 14.300354 0.000000
0.633853 75.187454 -26.246120 0.000000 65.000000 14.617208 2.000000
-0.402117 78.839605 -29.591148 0.000000 67.000000 14.472816 17.000000
3.887439 74.892064 -29.780033 0.000000 67.000000 14.378092 30.000000
2.608573 77.581115 -31.052901 0.000000 62.000000 14.621409 27.000000
3.999535 73.596180 -28.407319 0.000000 61.000000 14.384145 0.000000
3.321554 77.964706 -32.039356 0.000000 58.000000 14.731283 12.000000
0.589276 78.507485 -30.338278 0.000000 32.000000 14.428761 19.000000
2.956144 74.473182 -27.971894 0.000000 67.000000 14.566547 4.000000
2.228922 78.311708 -31.340688 0.000000 68.000000 14.700563 16.000000
3.578880 74.775973 -28.734893 0.000000 71.000000 14.695944 9.000000
1.015917 74.487564 -26.340363 0.000000 63.000000 14.351665 0.000000
0.545948 78.908107 -29.790731 0.000000 44.000000 14.947903 19.000000
-0.361223 75.934262 -26.611912 0.000000 41.000000 14.313137 0.000000
2.955513 76.944630 -30.618653 0.000000 52.000000 14.661007 29.000000
4.320887 74.025731 -28.979471 0.000000 75.000000 14.523240 10.000000
-0.007612 76.386687 -26.962537 0.000000 46.000000 14.604647 13.000000
0.514748 76.741653 -26.996048 0.000000 63.000000 15.103795 13.000000
1.731847 77.732614 -29.957727 0.000000 65.000000 14.807607 24.000000
3.019161 74.735506 -28.759661 0.000000 45.000000 14.338279 9.000000
3.007577 77.077768 -30.503768 0.000000 71.000000 14.835139 27.000000
1.636625 78.241141 -30.832902 0.000000 62.000000 14.593911 18.000000
3.124132 77.195562 -31.509032 0.000000 62.000000 14.430403 29.000000
1.539086 78.578139 -30.621590 0.000000 70.000000 14.860863 18.000000
1.801511 75.540531 -27.654613 0.000000 72.000000 14.739180 3.000000
3.998187 75.303263 -30.003628 0.000000 63.000000 14.574345 30.000000
2.750638 75.670481 -28.453102 0.000000 70.000000 14.928741 26.000000
4.139664 73.847844 -28.355129 0.000000 67.000000 14.647821 10.000000
3.575687 75.913801 -29.852881 0.000000 64.000000 14.792189 30.000000
-0.278710 77.228753 -27.984415 0.000000 58.000000 14.417340 13.000000
-0.498949 78.440920 -29.220179 0.000000 78.000000 14.371986 0.000000
1.387447 76.205971 -28.205838 0.000000 77.000000 14.615886 21.000000
1.216801 77.518754 -29.484729 0.000000 70.000000 14.637651 22.000000
0.028480 77.792547 -28.665003 0.000000 56.000000 14.572626 5.000000
4.219382 76.374637 -30.768762 0.000000 75.000000 14.948465 11.000000
1.481288 78.213206 -30.816262 0.000000 62.000000 14.497052 18.000000
2.839941 74.789775 -28.037462 0.000000 70.000000 14.660409 4.000000
2.387193 74.775587 -27.289225 0.000000 70.000000 14.798313 8.000000
2.261883 77.750948 -30.411695 0.000000 69.000000 14.875595 24.000000
2.119993 74.682671 -26.961974 0.000000 42.000000 14.765585 3.000000
4.034442 75.581666 -29.505982 0.000000 45.000000 15.036355 30.000000
3.641128 74.773267 -29.514480 0.000000 59.000000 14.307899 0.000000
3.668108 74.635390 -29.287407 0.000000 45.000000 14.360975 0.000000
-0.433800 76.213894 -26.807185 0.000000 54.000000 14.338854 13.000000
1.167483 74.390391 -26.433668 0.000000 57.000000 14.327580 0.000000
0.695988 75.183828 -26.327941 0.000000 43.000000 14.606131 2.000000
0.627678 76.969269 -28.705980 0.000000 27.000000 14.383516 0.000000
1.831221 74.883701 -26.751473 0.000000 70.000000 14.839006 3.000000
4.874287 74.032383 -29.086265 0.000000 75.000000 14.785210 10.000000
1.430078 74.760956 -26.662147 0.000000 67.000000 14.582693 3.000000
2.020655 75.265665 -28.075728 0.000000 34.000000 14.466447 23.000000
3.193349 74.728422 -28.504011 0.000000 66.000000 14.571602 9.000000
3.080088 73.733443 -27.743774 0.000000 56.000000 14.303601 0.000000
2.428669 75.230917 -28.498620 0.000000 57.000000 14.448852 26.000000
3.432091 77.304444 -31.693579 0.000000 44.000000 14.573470 11.000000
0.842658 76.091005 -27.404204 0.000000 42.000000 14.667916 13.000000
2.496994 75.173541 -28.544963 0.000000 73.000000 14.427291 26.000000
0.763640 78.252334 -30.416502 0.000000 57.000000 14.328226 18.000000
2.664922 75.262329 -28.523060 0.000000 69.000000 14.589791 26.000000
2.105200 75.653230 -28.423887 0.000000 44.000000 14.565742 23.000000
4.528070 74.902371 -29.986841 0.000000 70.000000 14.637953 11.000000
3.131352 73.696837 -27.650366 0.000000 55.000000 14.360771 0.000000
3.989684 73.468467 -28.397304 0.000000 56.000000 14.305031 0.000000
-0.973916 78.525986 -28.873831 0.000000 29.000000 14.341062 0.000000
2.819918 74.858144 -28.706415 0.000000 52.000000 14.329226 0.000000
1.747058 78.159688 -31.380554 0.000000 42.000000 14.310206 0.000000
3.486915 77.007257 -30.892868 0.000000 77.000000 14.854416 29.000000
4.187692 74.107750 -28.385309 0.000000 81.000000 14.819482 10.000000
-0.394642 75.984875 -26.575278 0.000000 43.000000 14.345175 0.000000
2.677836 78.316222 -31.765262 0.000000 65.000000 14.729646 15.000000
3.684736 77.657272 -31.747343 0.000000 70.000000 14.906496 11.000000
3.385941 77.709283 -32.036506 0.000000 62.000000 14.611723 12.000000
3.446571 77.454976 -30.844115 0.000000 77.000000 15.134436 29.000000
0.551780 76.618374 -26.974983 0.000000 45.000000 15.060143 13.000000
2.517439 74.795415 -27.792675 0.000000 52.000000 14.612411 23.000000
2.053549 77.041737 -29.683860 0.000000 41.000000 14.712409 24.000000
1.686909 76.709707 -29.085642 0.000000 59.000000 14.621847 22.000000
0.084959 75.464384 -26.543753 0.000000 38.000000 14.314177 0.000000
3.344934 77.805732 -31.917086 0.000000 56.000000 14.712554 12.000000
2.460438 74.528759 -27.801809 0.000000 40.000000 14.410186 23.000000
3.543398 76.702580 -30.263688 0.000000 50.000000 15.038854 29.000000
1.348885 77.790270 -29.570995 0.000000 65.000000 14.834079 22.000000
2.645736 77.534777 -30.653250 0.000000 73.000000 14.830247 27.000000
4.135323 75.172875 -29.912904 0.000000 63.000000 14.621093 11.000000
3.122092 73.669137 -27.732372 0.000000 51.000000 14.293995 0.000000
1.208618 77.599280 -29.472041 0.000000 70.000000 14.689608 22.000000
3.617103 74.511348 -28.422112 0.000000 48.000000 14.723495 9.000000
1.461788 77.700617 -29.946281 0.000000 51.000000 14.639992 24.000000
2.132876 77.512869 -29.711829 0.000000 64.000000 15.033636 24.000000
3.880497 73.605775 -28.463469 0.000000 46.000000 14.291790 0.000000
-0.387378 78.711288 -29.597518 0.000000 78.000000 14.398488 17.000000
1.714722 75.017116 -26.884070 0.000000 63.000000 14.783238 3.000000
2.942278 74.785721 -28.581418 0.000000 58.000000 14.421911 4.000000
1.047018 74.754312 -26.737466 0.000000 53.000000 14.319336 0.000000
3.578903 74.651576 -29.283254 0.000000 50.000000 14.322342 0.000000
3.577715 74.378134 -28.952718 0.000000 59.000000 14.331574 0.000000
-0.022491 77.305336 -27.714467 0.000000 59.000000 14.756890 13.000000
1.183069 74.447302 -26.525468 0.000000 57.000000 14.321958 0.000000
3.732262 76.289042 -30.365234 0.000000 73.000000 14.836100 29.000000
3.533984 77.149710 -31.289523 0.000000 48.000000 14.754634 11.000000
0.625898 76.976880 -28.730079 0.000000 39.000000 14.374163 0.000000
-0.152438 76.713825 -26.357885 0.000000 60.000000 15.051392 13.000000
3.370582 77.514632 -30.871706 0.000000 52.000000 15.113023 29.000000
4.387849 74.203116 -28.469635 0.000000 47.000000 14.946942 10.000000
4.071306 75.966630 -30.348633 0.000000 57.000000 14.839249 11.000000
2.041178 74.077107 -26.946559 0.000000 47.000000 14.354790 0.000000
2.355345 77.687224 -31.414275 0.000000 42.000000 14.346977 27.000000
3.022702 76.536523 -30.193329 0.000000 65.000000 14.677323 28.000000
1.019306 74.589219 -26.420860 0.000000 61.000000 14.372850 0.000000
1.845728 75.267236 -27.043655 0.000000 47.000000 14.926153 3.000000
3.580575 76.820433 -30.904148 0.000000 67.000000 14.786294 29.000000
1.177474 76.037827 -28.155060 0.000000 60.000000 14.419701 21.000000
2.731118 76.212200 -29.782706 0.000000 80.000000 14.532817 28.000000
1.904113 74.674970 -27.593985 0.000000 41.000000 14.295676 0.000000
3.388146 74.911506 -29.223617 0.000000 43.000000 14.406423 30.000000
2.074766 75.789137 -28.464665 0.000000 73.000000 14.610293 23.000000
4.466263 75.052983 -29.931261 0.000000 68.000000 14.725842 11.000000
3.472676 76.114698 -29.673300 0.000000 49.000000 14.954750 30.000000
3.058647 73.711346 -27.728618 0.000000 54.000000 14.285919 0.000000
1.226584 76.619678 -29.050096 0.000000 53.000000 14.322889 0.000000
2.224892 78.441636 -31.510004 0.000000 80.000000 14.686921 16.000000
3.099889 77.676305 -31.260165 0.000000 76.000000 14.848306 29.000000
0.385503 76.581243 -26.981373 0.000000 59.000000 14.938899 13.000000
2.244668 75.553691 -28.602573 0.000000 45.000000 14.487090 26.000000
1.599922 77.512122 -29.841545 0.000000 36.000000 14.658988 24.000000
4.095417 76.586611 -30.839549 0.000000 67.000000 14.970431 11.000000
2.580569 78.047823 -31.653395 0.000000 61.000000 14.568858 15.000000
0.393859 76.503404 -27.028369 0.000000 66.000000 14.870136 13.000000
-1.093870 78.768047 -28.580225 0.000000 56.000000 14.581099 7.000000
1.084739 77.227937 -29.345657 0.000000 52.000000 14.457887 22.000000
2.589441 77.411195 -30.966768 0.000000 63.000000 14.552113 27.000000
0.235484 75.512659 -25.908153 0.000000 41.000000 14.773823 1.000000
3.835625 75.858326 -29.681804 0.000000 73.000000 14.998755 30.000000
3.877537 76.436774 -30.629784 0.000000 67.000000 14.867085 11.000000
2.807765 77.090455 -30.311550 0.000000 41.000000 14.833029 27.000000
2.870255 75.672445 -28.772755 0.000000 51.000000 14.825201 26.000000
4.687078 74.768073 -29.794870 0.000000 66.000000 14.749552 11.000000
3.664337 76.149688 -30.439302 0.000000 59.000000 14.671166 29.000000
1.991550 75.403011 -27.276734 0.000000 72.000000 14.967093 3.000000
1.104826 74.795498 -26.880592 0.000000 46.000000 14.300304 0.000000
-0.221284 75.981583 -26.776511 0.000000 46.000000 14.333123 0.000000
1.975072 76.873775 -29.602808 0.000000 47.000000 14.607722 24.000000
0.716222 76.483694 -27.313733 0.000000 54.000000 14.887402 13.000000
2.815448 76.307751 -29.715569 0.000000 64.000000 14.676291 28.000000
0.808115 76.221693 -28.091913 0.000000 43.000000 14.356809 0.000000
3.690073 76.457768 -30.273095 0.000000 77.000000 14.966154 29.000000
-0.796278 78.570225 -29.092046 0.000000 52.000000 14.351632 0.000000
4.196371 76.095218 -30.639321 0.000000 67.000000 14.832732 11.000000
2.118192 77.339799 -29.643037 0.000000 67.000000 14.955546 24.000000
3.274903 75.158511 -29.026828 0.000000 71.000000 14.600950 9.000000
2.048315 74.079751 -26.890451 0.000000 46.000000 14.390858 0.000000
3.760551 76.624127 -30.830415 0.000000 60.000000 14.807552 11.000000
1.262498 76.175876 -28.247872 0.000000 60.000000 14.503274 21.000000
3.417955 77.187682 -31.424637 0.000000 65.000000 14.638799 11.000000
3.653491 74.799609 -29.567468 0.000000 55.000000 14.302553 0.000000
-0.892849 77.850629 -28.023144 0.000000 48.000000 14.430347 6.000000
3.105083 74.331975 -27.810146 0.000000 52.000000 14.651778 4.000000
4.615374 74.791552 -29.674079 0.000000 67.000000 14.788527 11.000000
2.629084 76.300731 -29.029575 0.000000 68.000000 14.936883 25.000000
4.084121 74.953990 -29.683716 0.000000 58.000000 14.580663 11.000000
3.747113 74.761314 -29.646599 0.000000 60.000000 14.289469 0.000000
0.975614 77.289025 -29.504836 0.000000 39.000000 14.347250 22.000000
2.453693 74.494407 -27.712634 0.000000 52.000000 14.433370 8.000000
0.866459 77.258733 -29.137825 0.000000 72.000000 14.464881 22.000000
2.525261 74.001166 -27.069410 0.000000 70.000000 14.517499 8.000000
1.925779 77.613811 -30.867141 0.000000 40.000000 14.352680 24.000000
1.675802 76.873901 -29.387613 0.000000 67.000000 14.553556 22.000000
2.619989 74.033922 -27.096577 0.000000 40.000000 14.577069 8.000000
0.330788 75.525145 -25.468900 0.000000 38.000000 15.073602 1.000000
-1.101292 78.282312 -27.941883 0.000000 71.000000 14.622169 6.000000
2.477149 74.846944 -27.607655 0.000000 81.000000 14.721395 23.000000
4.339149 74.376941 -29.207989 0.000000 37.000000 14.627007 10.000000
2.681810 75.967853 -29.147453 0.000000 29.000000 14.697479 25.000000
-0.670880 79.034506 -29.360420 0.000000 59.000000 14.564808 17.000000
4.038498 73.618614 -28.520639 0.000000 60.000000 14.358907 10.000000
2.986888 74.743940 -28.457773 0.000000 66.000000 14.488450 4.000000
0.418074 78.227947 -30.066882 0.000000 65.000000 14.305249 19.000000
-0.404535 78.819430 -29.825313 0.000000 57.000000 14.332251 17.000000
0.153522 76.893164 -27.387418 0.000000 57.000000 14.779585 13.000000
2.991888 74.343752 -27.600293 0.000000 73.000000 14.708053 4.000000
3.655445 76.103476 -30.552939 0.000000 64.000000 14.576044 11.000000
-0.000801 78.871833 -29.840138 0.000000 41.000000 14.586894 19.000000
1.143072 74.645613 -26.732889 0.000000 50.000000 14.309435 0.000000
2.709857 77.462756 -30.823635 0.000000 58.000000 14.730113 27.000000
0.431501 75.187907 -26.216178 0.000000 42.000000 14.518272 2.000000
-0.191073 76.266883 -26.737219 0.000000 49.000000 14.547907 13.000000
-0.180178 75.804543 -26.357972 0.000000 29.000000 14.473670 1.000000
0.210149 75.202447 -25.399480 0.000000 50.000000 14.842961 1.000000
2.958831 77.627987 -32.082119 0.000000 52.000000 14.293187 0.000000
0.098050 77.735943 -28.898201 0.000000 38.000000 14.451136 5.000000
4.276948 75.221046 -29.900600 0.000000 74.000000 14.738298 11.000000
4.471593 74.969614 -30.105942 0.000000 55.000000 14.582837 11.000000
1.167389 74.446093 -26.547261 0.000000 51.000000 14.300473 0.000000
1.820743 78.361963 -31.436301 0.000000 55.000000 14.447054 16.000000
2.380178 77.899031 -30.686899 0.000000 57.000000 14.885642 27.000000
3.852466 74.738890 -29.729288 0.000000 65.000000 14.290957 0.000000
3.929117 74.203788 -28.657193 0.000000 46.000000 14.584205 10.000000
2.460669 76.730283 -30.200407 0.000000 37.000000 14.472642 27.000000
1.473393 77.387284 -29.605273 0.000000 62.000000 14.637539 22.000000
4.431018 74.001510 -28.378304 0.000000 51.000000 14.896415 10.000000
3.369334 74.754888 -29.157864 0.000000 67.000000 14.334500 0.000000
1.100343 74.332403 -26.334633 0.000000 57.000000 14.307046 0.000000
3.665638 76.162270 -30.095707 0.000000 44.000000 14.865621 29.000000
3.366913 78.356597 -32.184996 0.000000 71.000000 14.920493 12.000000
2.339184 74.842767 -27.602175 0.000000 68.000000 14.643086 23.000000
3.980912 73.542272 -28.426594 0.000000 55.000000 14.329782 0.000000
3.938766 73.977225 -28.539401 0.000000 52.000000 14.513457 10.000000
0.402980 76.489007 -26.986179 0.000000 63.000000 14.889273 13.000000
3.625735 76.816495 -30.311531 0.000000 54.000000 15.130317 29.000000
4.521054 75.269200 -29.984010 0.000000 63.000000 14.862149 11.000000
2.628997 76.186306 -28.998826 0.000000 78.000000 14.882769 25.000000
3.615925 74.751520 -29.511772 0.000000 56.000000 14.281552 0.000000
3.733135 76.241575 -30.364525 0.000000 71.000000 14.807652 29.000000
4.024574 73.542640 -28.467577 0.000000 53.000000 14.332735 0.000000
1.416572 76.390687 -28.706416 0.000000 61.000000 14.475745 21.000000
4.490197 74.589965 -29.499219 0.000000 77.000000 14.687192 11.000000
4.748380 74.646255 -29.637451 0.000000 68.000000 14.794433 11.000000
4.355434 76.014604 -30.415954 0.000000 69.000000 14.994525 11.000000
4.410663 74.896628 -29.481918 0.000000 68.000000 14.840679 11.000000
4.323470 74.413051 -28.884422 0.000000 73.000000 14.815477 10.000000
3.707748 74.880960 -29.527427 0.000000 56.000000 14.405437 30.000000
1.562497 75.996793 -28.449384 0.000000 68.000000 14.454683 21.000000
3.381692 77.076215 -30.970439 0.000000 74.000000 14.795029 29.000000
3.964115 73.510527 -28.454101 0.000000 62.000000 14.285700 0.000000
3.715453 74.437321 -28.969482 0.000000 40.000000 14.437639 10.000000
1.966926 74.559944 -27.293194 0.000000 52.000000 14.423202 3.000000
4.176672 76.328285 -30.535175 0.000000 75.000000 15.021870 11.000000
2.545649 74.539615 -27.980673 0.000000 56.000000 14.368705 0.000000
4.491407 75.007103 -29.547082 0.000000 63.000000 14.919733 11.000000
3.898226 74.688106 -29.697941 0.000000 69.000000 14.302643 0.000000
1.743128 75.606804 -28.178634 0.000000 51.000000 14.463253 23.000000
0.513337 76.697086 -27.172190 0.000000 66.000000 14.980133 13.000000
2.736901 75.388445 -29.267571 0.000000 38.000000 14.305879 26.000000
2.874029 74.815403 -28.665558 0.000000 56.000000 14.355790 0.000000
-0.041886 77.077334 -27.168883 0.000000 69.000000 14.900187 13.000000
2.745740 78.570634 -31.795617 0.000000 73.000000 14.909154 15.000000
0.850880 77.658039 -29.285103 0.000000 81.000000 14.623029 20.000000
4.184376 75.792377 -30.485208 0.000000 68.000000 14.722162 11.000000
3.894632 75.900716 -29.958193 0.000000 43.000000 14.909036 30.000000
3.312286 74.789524 -29.231617 0.000000 67.000000 14.283450 0.000000
0.289568 78.823528 -29.703447 0.000000 53.000000 14.796638 19.000000
3.931244 73.571180 -28.397127 0.000000 45.000000 14.335261 0.000000
1.114301 74.736308 -26.790035 0.000000 54.000000 14.318140 0.000000
2.633701 76.246877 -28.936570 0.000000 53.000000 14.956570 25.000000
2.244745 75.409654 -28.006014 0.000000 58.000000 14.720963 23.000000
3.445239 74.671463 -29.146470 0.000000 60.000000 14.332411 0.000000
3.768421 77.472276 -31.597497 0.000000 57.000000 14.921008 11.000000
3.066050 74.196393 -28.043860 0.000000 41.000000 14.419260 4.000000
4.080139 74.306007 -28.840646 0.000000 67.000000 14.634231 10.000000
2.527121 74.493448 -27.977704 0.000000 49.000000 14.331216 0.000000
3.495010 77.823531 -31.961415 0.000000 64.000000 14.785165 12.000000
3.067254 73.807460 -27.827725 0.000000 57.000000 14.296586 0.000000
3.605711 76.978988 -30.435391 0.000000 70.000000 15.152274 29.000000
3.683661 74.798199 -29.572552 0.000000 57.000000 14.316140 0.000000
4.299750 76.476179 -30.487600 0.000000 56.000000 15.209202 11.000000
3.137969 76.247773 -30.041216 0.000000 75.000000 14.646966 28.000000
1.135882 74.551577 -26.587676 0.000000 55.000000 14.325811 0.000000
0.379760 76.707305 -26.947139 0.000000 77.000000 15.032044 13.000000
4.738529 74.646869 -29.626320 0.000000 59.000000 14.795218 11.000000
2.960658 78.048460 -31.555304 0.000000 41.000000 14.839132 15.000000
3.691861 76.471063 -30.152807 0.000000 47.000000 15.040484 29.000000
-0.305581 78.706655 -29.600387 0.000000 39.000000 14.440729 17.000000
3.365541 76.799008 -30.449413 0.000000 75.000000 14.896485 29.000000
4.826749 73.537058 -29.047049 0.000000 42.000000 14.473252 10.000000
3.851599 74.685169 -29.653322 0.000000 62.000000 14.298378 0.000000
1.922998 75.008801 -27.165091 0.000000 53.000000 14.744823 3.000000
1.714530 77.036739 -29.603943 0.000000 35.000000 14.559196 24.000000
-0.311165 77.366163 -28.208317 0.000000 50.000000 14.362569 14.000000
1.314993 76.874217 -28.558501 0.000000 62.000000 14.796627 21.000000
2.228971 78.415252 -31.390243 0.000000 66.000000 14.737755 16.000000
1.409657 78.544816 -30.606053 0.000000 43.000000 14.774855 18.000000
2.317826 76.932985 -30.035319 0.000000 50.000000 14.605756 24.000000
2.333907 77.033081 -29.947530 0.000000 56.000000 14.724286 24.000000
3.995867 73.525009 -28.487174 0.000000 53.000000 14.294862 0.000000
3.917892 73.583416 -28.479138 0.000000 46.000000 14.290825 0.000000
3.064509 73.808832 -27.836131 0.000000 58.000000 14.291319 0.000000
3.276756 77.374635 -31.908577 0.000000 57.000000 14.411893 11.000000
3.664542 74.054775 -28.273435 0.000000 74.000000 14.548891 9.000000
0.988245 74.659330 -26.582284 0.000000 62.000000 14.311100 0.000000
2.642951 77.628410 -30.560742 0.000000 45.000000 14.936576 27.000000
3.703545 74.712641 -29.447839 0.000000 56.000000 14.342103 0.000000
3.658866 76.069766 -30.330493 0.000000 63.000000 14.677544 29.000000
0.360874 76.859415 -27.300154 0.000000 70.000000 14.924226 13.000000
4.421016 75.872728 -30.336065 0.000000 62.000000 14.987498 11.000000
4.193292 74.417081 -29.299570 0.000000 61.000000 14.519056 11.000000
3.958670 75.639215 -29.503578 0.000000 77.000000 15.029997 30.000000
2.883760 75.985759 -29.968884 0.000000 41.000000 14.379211 28.000000
3.648776 73.811827 -28.060974 0.000000 42.000000 14.504753 9.000000
3.352294 75.390733 -29.317390 0.000000 66.000000 14.631345 30.000000
3.667680 74.645677 -29.441202 0.000000 54.000000 14.283860 0.000000
4.223542 76.231059 -30.720522 0.000000 65.000000 14.888226 11.000000
1.577615 78.211077 -30.748565 0.000000 42.000000 14.587315 18.000000
-0.582766 78.398562 -29.127735 0.000000 69.000000 14.348031 0.000000
3.741450 74.206585 -28.402167 0.000000 72.000000 14.616899 9.000000
2.469401 75.786956 -29.146851 0.000000 34.000000 14.464872 25.000000
2.033841 75.931400 -28.268287 0.000000 80.000000 14.781126 23.000000
-1.153760 78.747367 -28.713601 0.000000 43.000000 14.461984 7.000000
3.065277 76.876447 -30.245095 0.000000 65.000000 14.883636 27.000000
3.778305 74.670484 -29.422758 0.000000 61.000000 14.372269 0.000000
-0.239532 77.293402 -27.446031 0.000000 62.000000 14.770984 13.000000
3.298718 74.481677 -28.291564 0.000000 70.000000 14.594204 9.000000
4.174673 75.320243 -29.979843 0.000000 81.000000 14.698373 11.000000
3.738350 74.697177 -29.574346 0.000000 58.000000 14.283940 0.000000
4.096133 76.815991 -30.799366 0.000000 80.000000 15.134320 11.000000
2.688857 74.312452 -27.078990 0.000000 66.000000 14.797974 8.000000
0.783537 76.445804 -27.518752 0.000000 62.000000 14.791438 13.000000
2.407444 78.047665 -31.156152 0.000000 70.000000 14.739097 27.000000
4.542179 73.660789 -28.443001 0.000000 41.000000 14.714275 10.000000
4.250199 75.332313 -30.072820 0.000000 76.000000 14.698595 11.000000
1.022203 76.182880 -27.883531 0.000000 43.000000 14.567706 21.000000
2.956236 76.997710 -30.613138 0.000000 45.000000 14.697201 27.000000
2.118721 75.866338 -28.337058 0.000000 71.000000 14.752123 23.000000
0.821473 74.750552 -26.527246 0.000000 54.000000 14.302126 0.000000
3.361111 76.122509 -30.259446 0.000000 64.000000 14.578746 29.000000
2.814869 78.426277 -31.817820 0.000000 71.000000 14.847370 15.000000
4.668154 73.564499 -29.060010 0.000000 73.000000 14.392733 10.000000
1.400883 76.639821 -28.229521 0.000000 51.000000 14.878813 21.000000
3.812419 74.732898 -29.662312 0.000000 57.000000 14.300658 0.000000
3.685754 74.784717 -29.579400 0.000000 57.000000 14.305297 0.000000
2.988813 77.838493 -32.285520 0.000000 62.000000 14.330290 12.000000
4.020366 73.927998 -28.457542 0.000000 50.000000 14.573882 10.000000
-0.557401 79.197336 -29.292597 0.000000 58.000000 14.766851 17.000000
3.876881 74.484081 -28.804962 0.000000 73.000000 14.647639 10.000000
3.373208 77.487167 -31.790554 0.000000 48.000000 14.600311 11.000000
1.887980 74.715178 -26.738303 0.000000 62.000000 14.774376 3.000000
3.273017 75.565360 -29.275974 0.000000 71.000000 14.716442 30.000000
1.640912 76.163018 -28.312467 0.000000 46.000000 14.676215 21.000000
3.785383 74.774154 -29.679097 0.000000 62.000000 14.301645 0.000000
2.809818 76.052128 -29.259302 0.000000 79.000000 14.762040 26.000000
2.450248 75.644417 -28.651919 0.000000 44.000000 14.633706 26.000000
-0.239368 77.714332 -28.733520 0.000000 55.000000 14.334441 0.000000
3.089709 77.233902 -30.729776 0.000000 62.000000 14.856159 29.000000
1.447275 77.599336 -29.906851 0.000000 55.000000 14.590470 22.000000
1.457339 76.306899 -28.076440 0.000000 82.000000 14.788140 21.000000
2.430246 75.138118 -27.677509 0.000000 68.000000 14.836758 23.000000
4.447162 73.532387 -28.604345 0.000000 67.000000 14.493426 10.000000
4.251871 74.282717 -28.928195 0.000000 70.000000 14.670416 10.000000
1.813988 78.503302 -31.501209 0.000000 66.000000 14.495410 16.000000
3.695202 74.785906 -29.504041 0.000000 62.000000 14.352201 0.000000
4.266440 75.962259 -30.384454 0.000000 59.000000 14.928465 11.000000
1.757138 75.439045 -27.821511 0.000000 68.000000 14.560844 3.000000
2.548435 76.148887 -29.604896 0.000000 56.000000 14.485718 25.000000
2.117706 75.559705 -28.399018 0.000000 59.000000 14.528543 23.000000
0.771011 75.691060 -27.519105 0.000000 68.000000 14.317740 13.000000
0.825878 75.760733 -27.524586 0.000000 53.000000 14.389122 13.000000
2.833027 75.859349 -29.471395 0.000000 58.000000 14.541383 26.000000
2.355586 77.440355 -30.125711 0.000000 78.000000 14.891886 24.000000
0.680156 76.354318 -27.293881 0.000000 53.000000 14.797631 13.000000
1.658333 76.095902 -28.463387 0.000000 41.000000 14.563009 23.000000
2.376453 75.471818 -27.920151 0.000000 50.000000 14.880964 23.000000
2.541612 75.198885 -28.584424 0.000000 72.000000 14.447047 26.000000
2.549872 74.006773 -26.996704 0.000000 60.000000 14.574346 8.000000
3.778257 76.056058 -30.234575 0.000000 58.000000 14.789079 11.000000
1.231445 75.371817 -27.560258 0.000000 42.000000 14.360833 3.000000
3.892716 74.620076 -29.457829 0.000000 56.000000 14.387401 0.000000
-0.310076 78.119857 -28.380501 0.000000 68.000000 14.735726 14.000000
4.164791 74.546401 -28.856111 0.000000 70.000000 14.822687 10.000000
-0.202300 75.805497 -26.478563 0.000000 45.000000 14.396383 0.000000
0.985310 77.805924 -29.739106 0.000000 41.000000 14.545400 20.000000
2.435109 76.779695 -29.779324 0.000000 58.000000 14.716467 25.000000
1.152513 74.630159 -26.543057 0.000000 49.000000 14.407999 0.000000
3.334591 74.919663 -29.166619 0.000000 62.000000 14.411761 30.000000
2.518235 74.459429 -27.793453 0.000000 39.000000 14.404835 0.000000
3.812908 76.962679 -31.092048 0.000000 56.000000 14.905025 11.000000
3.763419 74.689142 -29.553778 0.000000 60.000000 14.304405 0.000000
4.093535 76.230853 -30.775847 0.000000 70.000000 14.784004 11.000000
3.312356 76.997797 -30.293171 0.000000 73.000000 15.073533 29.000000
3.465468 78.010163 -32.094210 0.000000 57.000000 14.811773 12.000000
3.697210 74.792444 -29.517679 0.000000 63.000000 14.350006 0.000000
3.983146 73.586037 -28.362494 0.000000 54.000000 14.392787 0.000000
3.533751 74.528243 -29.107108 0.000000 53.000000 14.315702 0.000000
2.751336 77.070202 -30.468782 0.000000 58.000000 14.703241 27.000000
0.658894 77.084343 -28.961041 0.000000 42.000000 14.334400 0.000000
2.933478 75.205938 -29.246947 0.000000 48.000000 14.316392 0.000000
3.989920 76.575690 -30.676810 0.000000 73.000000 14.991576 11.000000
2.321605 74.713575 -27.469826 0.000000 50.000000 14.624852 23.000000
4.519071 74.260431 -29.097110 0.000000 78.000000 14.717643 10.000000
3.686768 77.045487 -30.465878 0.000000 75.000000 15.223100 29.000000
2.550170 75.612066 -28.531949 0.000000 49.000000 14.735633 26.000000
1.253525 78.621294 -30.803646 0.000000 72.000000 14.626127 18.000000
0.996131 74.426429 -26.322222 0.000000 54.000000 14.312421 0.000000
3.668581 74.714756 -29.535458 0.000000 55.000000 14.276051 0.000000
4.768333 74.600279 -29.637033 0.000000 78.000000 14.777631 11.000000
3.894928 74.666422 -29.569321 0.000000 56.000000 14.356966 0.000000
1.569873 75.479568 -28.076347 0.000000 49.000000 14.341164 0.000000
2.637771 78.173023 -31.681458 0.000000 48.000000 14.663660 15.000000
1.265341 78.739729 -30.686602 0.000000 67.000000 14.769388 18.000000
2.939999 75.957609 -29.564203 0.000000 67.000000 14.612890 26.000000
0.173819 76.800000 -26.984092 0.000000 58.000000 14.951858 13.000000
4.763180 74.435456 -29.412751 0.000000 70.000000 14.794219 10.000000
3.328956 78.171475 -32.166733 0.000000 67.000000 14.794338 12.000000
-0.252850 77.550602 -28.213110 0.000000 69.000000 14.507205 14.000000
3.847465 74.713014 -29.626082 0.000000 60.000000 14.327966 0.000000
4.455421 75.516891 -30.221495 0.000000 77.000000 14.849248 11.000000
3.376849 74.823162 -29.171289 0.000000 66.000000 14.373708 0.000000
0.191702 76.928892 -27.518147 0.000000 62.000000 14.752694 13.000000
3.740110 74.703267 -29.454090 0.000000 62.000000 14.353784 0.000000
3.737257 74.598059 -29.274072 0.000000 49.000000 14.384565 0.000000
2.634723 76.669325 -29.511876 0.000000 72.000000 14.906856 25.000000
3.680034 76.283219 -30.219651 0.000000 73.000000 14.881495 29.000000
3.202874 74.136820 -27.892964 0.000000 42.000000 14.542152 4.000000
2.476467 76.085166 -29.184248 0.000000 53.000000 14.632931 25.000000
3.794171 74.688409 -29.482376 0.000000 60.000000 14.360132 0.000000
4.041273 74.572154 -29.135897 0.000000 59.000000 14.616740 10.000000
0.820316 74.807542 -25.703047 0.000000 55.000000 14.782701 2.000000
1.542672 76.417702 -28.207168 0.000000 54.000000 14.834534 21.000000
3.890485 74.839413 -29.700765 0.000000 75.000000 14.390192 0.000000
3.490784 77.009647 -30.720009 0.000000 64.000000 14.951643 29.000000
4.602448 74.806709 -29.684495 0.000000 64.000000 14.784883 11.000000
1.529210 76.229476 -28.288628 0.000000 78.000000 14.666467 21.000000
2.225071 78.360417 -31.339530 0.000000 66.000000 14.729090 16.000000
1.041376 74.470802 -26.298071 0.000000 54.000000 14.378715 0.000000
1.242804 77.630528 -29.528187 0.000000 59.000000 14.698031 22.000000
4.373783 74.657242 -29.436984 0.000000 66.000000 14.696041 11.000000
1.238480 74.625277 -26.703862 0.000000 53.000000 14.366996 0.000000
4.503906 74.957599 -29.555662 0.000000 62.000000 14.891631 11.000000
1.141744 75.506586 -27.527498 0.000000 40.000000 14.410672 0.000000
2.356416 74.873389 -27.798592 0.000000 47.000000 14.565544 23.000000
4.396383 74.958987 -29.538800 0.000000 49.000000 14.840284 11.000000
3.940542 75.658663 -30.171344 0.000000 63.000000 14.670309 11.000000
3.853910 74.779504 -29.689850 0.000000 66.000000 14.338219 0.000000
3.551078 77.294360 -30.398819 0.000000 41.000000 15.335773 29.000000
1.391117 76.439233 -28.722403 0.000000 58.000000 14.482572 21.000000
3.014823 77.299608 -30.740053 0.000000 68.000000 14.848483 29.000000
-0.637076 77.524802 -27.830925 0.000000 54.000000 14.478926 6.000000
3.351111 75.053058 -29.181388 0.000000 64.000000 14.495617 30.000000
-0.741446 78.551291 -29.114288 0.000000 53.000000 14.359171 0.000000
4.168946 76.278411 -30.495687 0.000000 68.000000 15.008014 11.000000
2.483960 76.971668 -30.409719 0.000000 58.000000 14.521811 27.000000
4.795690 73.511566 -29.126465 0.000000 74.000000 14.396808 10.000000
2.937921 76.758320 -30.119989 0.000000 75.000000 14.805704 27.000000
1.629789 77.729478 -29.869661 0.000000 52.000000 14.795115 24.000000
1.462281 76.086052 -28.241649 0.000000 37.000000 14.565092 21.000000
2.911972 77.032081 -30.727353 0.000000 47.000000 14.631384 29.000000
-1.169945 79.477164 -28.673616 0.000000 39.000000 14.925337 7.000000
2.338420 77.212035 -30.135023 0.000000 72.000000 14.735975 24.000000
3.852027 74.657999 -29.570177 0.000000 59.000000 14.326828 0.000000
4.798498 73.986480 -29.072283 0.000000 70.000000 14.721184 10.000000
-0.215932 77.939349 -28.971708 0.000000 43.000000 14.357952 0.000000
4.722579 74.453010 -29.400144 0.000000 71.000000 14.788729 10.000000
2.360409 76.660126 -29.744797 0.000000 46.000000 14.618661 25.000000
-0.293241 76.646839 -26.656504 0.000000 58.000000 14.768089 13.000000
4.286464 76.009920 -30.335862 0.000000 65.000000 14.995633 11.000000
4.370961 74.263404 -29.006092 0.000000 64.000000 14.684255 10.000000
1.476300 77.283056 -29.212061 0.000000 68.000000 14.787583 22.000000
3.593227 74.814696 -29.545483 0.000000 56.000000 14.289400 0.000000
2.932705 74.759162 -28.683916 0.000000 57.000000 14.344572 0.000000
2.753802 77.386488 -30.573100 0.000000 80.000000 14.843631 27.000000
1.849077 75.416289 -27.530748 0.000000 48.000000 14.756572 3.000000
1.480511 77.134025 -29.835018 0.000000 48.000000 14.360780 24.000000
0.789621 74.774858 -26.490284 0.000000 50.000000 14.318979 0.000000
0.315306 75.617823 -26.797176 0.000000 42.000000 14.403234 2.000000
3.582274 76.782849 -30.417602 0.000000 73.000000 15.027336 29.000000
3.865553 76.680937 -30.800266 0.000000 61.000000 14.918862 11.000000
-1.198792 79.511603 -28.601663 0.000000 69.000000 14.969100 7.000000
3.671784 76.937649 -31.103899 0.000000 71.000000 14.802651 11.000000
3.144955 74.259383 -27.737443 0.000000 78.000000 14.669009 4.000000
0.557778 75.362254 -26.882890 0.000000 42.000000 14.337235 0.000000
2.162602 76.260247 -28.801223 0.000000 50.000000 14.769367 23.000000
3.421420 77.832543 -31.993926 0.000000 66.000000 14.731165 12.000000
0.545469 75.187070 -26.492468 0.000000 52.000000 14.433245 2.000000
-0.013633 77.882785 -29.094567 0.000000 49.000000 14.371904 0.000000
2.406606 77.402942 -30.436388 0.000000 64.000000 14.729745 27.000000
2.693030 75.324472 -29.139073 0.000000 55.000000 14.310864 26.000000
2.915805 76.784610 -30.313430 0.000000 70.000000 14.704653 27.000000
2.586305 77.612221 -30.942769 0.000000 67.000000 14.687527 27.000000
3.300203 76.231020 -29.965999 0.000000 70.000000 14.769855 29.000000
-0.021444 75.557565 -26.072074 0.000000 46.000000 14.566315 1.000000
0.023552 77.115489 -27.739215 0.000000 51.000000 14.652452 13.000000
1.396800 74.086551 -26.296102 0.000000 44.000000 14.345079 0.000000
3.510764 75.202347 -29.600898 0.000000 72.000000 14.451908 30.000000
3.174653 76.403571 -30.165389 0.000000 73.000000 14.696962 29.000000
-0.606746 79.028152 -29.083599 0.000000 48.000000 14.747266 17.000000
4.704899 74.250815 -29.186030 0.000000 59.000000 14.769575 10.000000
2.355815 74.401685 -27.768765 0.000000 42.000000 14.289873 8.000000
3.488185 74.735311 -29.267347 0.000000 57.000000 14.330947 0.000000
4.503982 75.111411 -29.838967 0.000000 66.000000 14.833404 11.000000
3.817072 74.784281 -29.690254 0.000000 57.000000 14.319939 0.000000
-0.488001 76.153024 -26.582287 0.000000 54.000000 14.392031 13.000000
-0.574605 78.434259 -29.157154 0.000000 67.000000 14.358823 0.000000
4.386730 75.102084 -29.714668 0.000000 65.000000 14.828027 11.000000
0.334126 76.786634 -27.380822 0.000000 50.000000 14.820343 13.000000
-0.259574 77.551952 -28.241219 0.000000 48.000000 14.488992 14.000000
3.999803 73.469731 -28.458741 0.000000 48.000000 14.278337 0.000000
-0.247439 77.333812 -28.136217 0.000000 68.000000 14.417945 0.000000
0.535003 75.168512 -26.551941 0.000000 31.000000 14.383624 2.000000
1.791652 78.444223 -31.324005 0.000000 60.000000 14.542059 18.000000
4.047818 73.572576 -28.422559 0.000000 65.000000 14.388853 0.000000
0.776424 77.682767 -29.277972 0.000000 41.000000 14.599699 20.000000
1.963069 77.963517 -30.681877 0.000000 59.000000 14.690293 24.000000
2.658283 75.192834 -28.755697 0.000000 56.000000 14.417170 26.000000
2.619688 77.209628 -30.915287 0.000000 41.000000 14.472675 27.000000
0.930319 74.882137 -26.734173 0.000000 51.000000 14.333539 0.000000
2.781245 78.228593 -31.670968 0.000000 77.000000 14.785511 15.000000
-0.462357 77.161810 -27.215735 0.000000 57.000000 14.687201 13.000000
1.125822 74.984512 -26.987234 0.000000 47.000000 14.371364 0.000000
4.282749 75.506841 -30.154773 0.000000 78.000000 14.780654 11.000000
2.773012 75.323943 -28.734776 0.000000 52.000000 14.574944 26.000000
4.280404 74.246911 -29.010166 0.000000 42.000000 14.620206 10.000000
0.031887 75.418972 -26.384744 0.000000 41.000000 14.341894 0.000000
3.647249 75.663614 -29.539899 0.000000 79.000000 14.847787 30.000000
3.826638 74.754428 -29.678779 0.000000 58.000000 14.313160 0.000000
-0.274783 77.058244 -26.882975 0.000000 61.000000 14.910272 13.000000
1.903151 76.083395 -28.592874 0.000000 82.000000 14.624850 23.000000
4.306296 74.063572 -28.475680 0.000000 37.000000 14.810928 10.000000
2.595847 74.612507 -27.245284 0.000000 75.000000 14.840337 8.000000
2.865938 77.747148 -31.792170 0.000000 73.000000 14.470741 15.000000
1.795045 74.114878 -26.803746 0.000000 50.000000 14.315022 0.000000
4.455974 74.558096 -29.533706 0.000000 60.000000 14.629317 11.000000
2.777454 74.214972 -27.310357 0.000000 83.000000 14.663070 8.000000
0.885942 76.516463 -28.172612 0.000000 52.000000 14.539670 21.000000
2.653567 76.714858 -30.199147 0.000000 75.000000 14.573820 27.000000
2.485618 78.179365 -30.912087 0.000000 72.000000 14.997142 27.000000
2.547693 78.388230 -31.847716 0.000000 70.000000 14.655289 15.000000
3.668593 76.130045 -29.961278 0.000000 74.000000 14.920141 29.000000
2.997651 77.905938 -32.201776 0.000000 51.000000 14.422325 12.000000
4.100769 75.436380 -29.845513 0.000000 75.000000 14.800675 30.000000
3.723015 74.805268 -29.572344 0.000000 53.000000 14.343067 30.000000
-0.521919 78.438403 -29.161506 0.000000 62.000000 14.389080 0.000000
3.589333 76.469810 -30.572711 0.000000 71.000000 14.753996 29.000000
-0.512556 79.223038 -29.265265 0.000000 73.000000 14.823103 17.000000
3.607547 74.620193 -28.525831 0.000000 77.000000 14.729173 9.000000
2.690015 77.520457 -30.366521 0.000000 73.000000 15.001820 27.000000
3.469770 76.308195 -30.760135 0.000000 50.000000 14.484509 29.000000
4.427822 75.209431 -30.177974 0.000000 68.000000 14.667075 11.000000
2.160891 77.692432 -29.720504 0.000000 63.000000 15.155875 24.000000
2.307493 77.712761 -30.403408 0.000000 76.000000 14.882499 24.000000
2.601413 78.056594 -30.832265 0.000000 42.000000 15.030525 27.000000
3.914602 76.019122 -29.714313 0.000000 70.000000 15.125567 30.000000
2.932131 74.018431 -27.747384 0.000000 81.000000 14.393351 4.000000
1.523863 76.804361 -28.343910 0.000000 42.000000 14.988727 21.000000
1.173382 76.878074 -29.024849 0.000000 68.000000 14.465872 22.000000
3.758394 74.770562 -29.521129 0.000000 58.000000 14.369517 0.000000
2.990910 75.065248 -29.073825 0.000000 50.000000 14.355903 0.000000
0.721075 75.752044 -27.345765 0.000000 68.000000 14.420744 13.000000
1.750886 76.456671 -28.917103 0.000000 68.000000 14.593191 23.000000
1.901035 77.572559 -29.838931 0.000000 53.000000 14.869498 24.000000
4.249225 74.397548 -29.024634 0.000000 70.000000 14.687673 10.000000
3.581551 75.593001 -29.133043 0.000000 45.000000 14.986854 30.000000
1.974798 74.783307 -26.656925 0.000000 58.000000 14.910031 3.000000
2.017153 75.240883 -27.403412 0.000000 58.000000 14.812964 3.000000
2.620130 76.152413 -29.008621 0.000000 67.000000 14.851468 25.000000
2.697730 76.953752 -30.752306 0.000000 32.000000 14.447280 27.000000
3.614354 73.957883 -28.387929 0.000000 36.000000 14.398435 9.000000
4.070704 76.194578 -30.326803 0.000000 53.000000 14.991570 11.000000
4.193915 74.454109 -28.794043 0.000000 68.000000 14.815861 10.000000
