-9.519907 -31.753580 43.471164 0.000000 54.000000 14.715190 16.000000
-8.707350 -32.795196 41.725753 0.000000 71.000000 14.827544 23.000000
-6.785314 -34.320530 40.085699 0.000000 46.000000 14.434989 0.000000
-6.688005 -34.411522 40.279334 0.000000 40.000000 14.420728 0.000000
-9.207133 -32.110215 42.840745 0.000000 52.000000 14.728339 18.000000
-8.857945 -32.875729 43.352197 0.000000 38.000000 14.972436 22.000000
-9.108235 -31.975463 39.346493 0.000000 63.000000 14.609884 20.000000
-6.167286 -34.950019 42.894358 0.000000 41.000000 14.358454 0.000000
-7.895961 -33.897386 40.813427 0.000000 56.000000 14.970429 4.000000
-6.838814 -34.261194 42.515137 0.000000 39.000000 14.403880 0.000000
-6.878713 -35.004989 42.706284 0.000000 47.000000 14.927397 1.000000
-7.735179 -33.294328 38.008520 0.000000 45.000000 14.484527 0.000000
-8.730702 -33.147505 38.279442 0.000000 78.000000 15.124489 26.000000
-8.554194 -33.352536 40.709730 0.000000 60.000000 15.098460 10.000000
-7.326199 -33.759632 42.400164 0.000000 47.000000 14.433700 0.000000
-9.810690 -32.660782 42.000973 0.000000 1.000000 15.556027 18.000000
-10.074720 -31.813367 44.054799 0.000000 72.000000 15.160746 16.000000
-8.258599 -33.451678 39.199079 0.000000 73.000000 14.963963 26.000000
-9.694642 -31.805374 38.729890 0.000000 58.000000 14.941089 19.000000
-7.531310 -34.481778 43.698736 0.000000 39.000000 15.051518 3.000000
-9.245915 -31.658889 40.456574 0.000000 39.000000 14.486869 0.000000
-10.657947 -31.315046 38.521757 0.000000 4.000000 15.334050 7.000000
-8.914494 -32.748725 39.311668 0.000000 57.000000 14.981974 25.000000
-6.817431 -34.652056 42.343865 0.000000 57.000000 14.650955 1.000000
-6.645662 -34.793559 38.989244 0.000000 61.000000 14.660747 21.000000
-9.589219 -31.463016 42.283726 0.000000 54.000000 14.588271 29.000000
-7.347005 -33.546847 42.963352 0.000000 34.000000 14.299952 0.000000
-7.373507 -33.600832 41.493845 0.000000 42.000000 14.374680 0.000000
-7.363469 -34.092784 41.376273 0.000000 47.000000 14.696958 4.000000
-10.061298 -31.146152 38.834321 0.000000 63.000000 14.772970 7.000000
-8.543824 -33.393944 40.815334 0.000000 50.000000 15.117002 10.000000
-9.592742 -32.434610 39.979754 0.000000 42.000000 15.268897 9.000000
-8.483815 -33.304096 38.660004 0.000000 49.000000 15.040185 26.000000
-6.788796 -34.413252 42.328635 0.000000 42.000000 14.470492 0.000000
-9.343696 -32.923439 42.499512 0.000000 64.000000 15.377043 23.000000
-9.570251 -32.392496 39.953064 0.000000 68.000000 15.224393 9.000000
-6.164294 -34.861686 43.792654 0.000000 40.000000 14.285692 0.000000
-6.919363 -34.230340 44.081119 0.000000 40.000000 14.423068 0.000000
-10.386744 -30.365584 41.521263 0.000000 56.000000 14.459856 0.000000
-9.493488 -31.557139 41.744715 0.000000 55.000000 14.586733 29.000000
-9.357518 -31.410808 42.397828 0.000000 37.000000 14.379404 0.000000
-10.349051 -31.198241 43.723029 0.000000 63.000000 14.958920 15.000000
-9.715950 -31.938547 43.621816 0.000000 82.000000 14.982661 16.000000
-8.512562 -33.318800 39.290169 0.000000 60.000000 15.063271 26.000000
-6.946864 -34.193282 43.830446 0.000000 44.000000 14.422060 0.000000
-10.457651 -31.022293 40.835659 0.000000 56.000000 14.959680 13.000000
-8.845716 -32.963514 40.970302 0.000000 69.000000 15.052649 24.000000
-9.272796 -32.312315 41.831632 0.000000 62.000000 14.925113 18.000000
-6.295825 -34.720607 39.693627 0.000000 40.000000 14.342436 0.000000
-7.127998 -33.754687 41.457764 0.000000 40.000000 14.294955 0.000000
-6.529735 -34.589936 39.369232 0.000000 48.000000 14.433646 0.000000
-8.155885 -33.724085 43.829385 0.000000 63.000000 15.009445 11.000000
-6.962890 -35.240110 43.928895 0.000000 73.000000 15.131181 2.000000
-8.638297 -32.942458 43.777973 0.000000 62.000000 14.847877 22.000000
-8.322334 -33.405517 42.448896 0.000000 75.000000 14.938679 12.000000
-6.951859 -34.208956 42.514805 0.000000 53.000000 14.453223 0.000000
-7.188063 -34.069521 38.912654 0.000000 50.000000 14.582606 27.000000
-6.081423 -34.875990 42.539779 0.000000 39.000000 14.249690 0.000000
-7.790259 -33.292629 38.366253 0.000000 42.000000 14.519796 26.000000
-6.262366 -34.728811 40.614702 0.000000 47.000000 14.311101 0.000000
-9.340631 -32.300052 44.097433 0.000000 45.000000 14.938201 16.000000
-7.607639 -33.638575 38.600977 0.000000 81.000000 14.611579 28.000000
-6.855554 -34.195252 41.679400 0.000000 37.000000 14.383140 0.000000
-10.615879 -31.188674 40.426632 0.000000 65.000000 15.193812 13.000000
-7.032802 -33.919013 41.361537 0.000000 36.000000 14.334940 0.000000
-7.981795 -33.415196 38.913166 0.000000 60.000000 14.737162 26.000000
-9.688430 -31.980519 41.585441 0.000000 45.000000 15.016458 18.000000
-8.845023 -32.970430 43.883616 0.000000 60.000000 15.019137 22.000000
-9.173170 -33.078748 42.640715 0.000000 75.000000 15.351843 23.000000
-7.195349 -33.686476 42.323767 0.000000 29.000000 14.288424 0.000000
-9.953901 -31.693904 39.004056 0.000000 66.000000 15.056260 19.000000
-7.399558 -33.685328 38.380019 0.000000 51.000000 14.490656 0.000000
-7.210506 -33.844989 38.672923 0.000000 47.000000 14.452604 0.000000
-9.727302 -31.693951 40.629179 0.000000 64.000000 14.866551 17.000000
-6.804049 -34.256446 40.151957 0.000000 45.000000 14.405329 0.000000
-9.090026 -32.861024 42.660360 0.000000 62.000000 15.144400 23.000000
-6.736041 -34.327115 40.382580 0.000000 38.000000 14.398854 0.000000
-8.214567 -33.506051 41.261195 0.000000 68.000000 14.940829 10.000000
-6.669268 -34.401614 40.612291 0.000000 38.000000 14.395865 0.000000
-6.683986 -34.364255 38.925445 0.000000 42.000000 14.403676 0.000000
-9.041216 -32.936923 43.942772 0.000000 44.000000 15.142134 22.000000
-6.227706 -34.865383 38.704817 0.000000 29.000000 14.401066 0.000000
-8.719398 -32.847961 40.981381 0.000000 69.000000 14.881331 24.000000
-10.396801 -30.897443 38.476203 0.000000 62.000000 14.861519 7.000000
-9.480814 -32.116316 43.907824 0.000000 59.000000 14.922460 16.000000
-6.261696 -34.720970 40.028063 0.000000 43.000000 14.312943 0.000000
-7.913342 -33.460789 44.022515 0.000000 50.000000 14.650642 11.000000
-6.167710 -34.783656 40.220287 0.000000 43.000000 14.282290 0.000000
-7.870110 -33.155053 43.234642 0.000000 33.000000 14.424626 0.000000
-8.970570 -32.487827 39.089931 0.000000 39.000000 14.852525 25.000000
-6.119472 -34.821073 42.273264 0.000000 42.000000 14.244827 0.000000
-6.193220 -34.818403 43.847628 0.000000 39.000000 14.277646 0.000000
-10.307346 -31.224376 42.617798 0.000000 56.000000 14.959565 15.000000
-7.948746 -33.432589 41.313105 0.000000 61.000000 14.693172 4.000000
-9.542592 -31.566604 38.500957 0.000000 71.000000 14.671494 19.000000
-6.154227 -34.805311 40.615129 0.000000 39.000000 14.281600 0.000000
-10.404238 -31.019204 41.829154 0.000000 48.000000 14.905013 15.000000
-8.586543 -33.239925 40.466988 0.000000 75.000000 15.050550 10.000000
-7.216436 -34.293562 43.349559 0.000000 79.000000 14.695941 3.000000
-10.324033 -31.139494 41.554427 0.000000 50.000000 14.929085 15.000000
-10.384208 -30.505184 42.247890 0.000000 32.000000 14.541730 6.000000
-7.857287 -33.111874 41.418837 0.000000 40.000000 14.409708 0.000000
-7.106103 -34.251346 38.944893 0.000000 63.000000 14.642465 27.000000
-8.095430 -33.384035 43.585385 0.000000 63.000000 14.740687 11.000000
-6.942735 -34.908795 42.583302 0.000000 70.000000 14.912483 1.000000
-9.414762 -31.863206 42.808706 0.000000 69.000000 14.718578 18.000000
-8.440437 -33.644752 38.841793 0.000000 73.000000 15.232822 26.000000
-9.949160 -31.853858 44.032064 0.000000 24.000000 15.094544 16.000000
-7.774126 -33.801554 39.169087 0.000000 68.000000 14.836979 30.000000
-6.130926 -34.806558 40.274462 0.000000 32.000000 14.269476 0.000000
-10.122428 -31.036729 42.815396 0.000000 61.000000 14.694095 15.000000
-8.653089 -32.251397 38.165338 0.000000 57.000000 14.470266 0.000000
-9.575621 -31.717730 43.758723 0.000000 44.000000 14.729051 16.000000
-7.273133 -33.960145 43.653919 0.000000 36.000000 14.511778 3.000000
-7.065783 -33.859628 41.840659 0.000000 24.000000 14.313695 0.000000
-7.524263 -33.562762 42.017347 0.000000 40.000000 14.454797 0.000000
-7.931815 -33.852781 44.145957 0.000000 63.000000 14.924349 11.000000
-10.325145 -31.020495 44.090717 0.000000 68.000000 14.817775 15.000000
-7.119944 -33.745917 42.329279 0.000000 38.000000 14.271855 0.000000
-7.363097 -33.642606 39.937944 0.000000 38.000000 14.414885 0.000000
-6.995879 -34.066652 41.236302 0.000000 57.000000 14.407564 0.000000
-10.351422 -30.836968 38.889067 0.000000 67.000000 14.782043 14.000000
-6.664881 -34.448929 39.966919 0.000000 40.000000 14.432498 0.000000
-6.216190 -34.728453 38.319919 0.000000 25.000000 14.306096 0.000000
-6.097901 -34.872085 42.254105 0.000000 41.000000 14.263045 0.000000
-6.104067 -34.917459 43.384886 0.000000 43.000000 14.283314 0.000000
-9.044782 -32.309698 42.641870 0.000000 47.000000 14.743092 23.000000
-7.205728 -33.875939 43.467833 0.000000 35.000000 14.407797 0.000000
-7.767511 -34.106920 41.272902 0.000000 57.000000 15.008637 4.000000
-8.538771 -33.122335 38.159738 0.000000 74.000000 14.966299 26.000000
-9.734885 -31.116560 42.008723 0.000000 38.000000 14.469148 0.000000
-8.505133 -33.122334 39.257967 0.000000 59.000000 14.927069 26.000000
-10.358956 -30.970290 42.547061 0.000000 69.000000 14.829385 15.000000
-8.236166 -33.462979 41.057305 0.000000 61.000000 14.930809 10.000000
-8.698775 -32.881485 41.704358 0.000000 70.000000 14.879007 23.000000
-10.431290 -31.291385 38.218831 0.000000 68.000000 15.153370 7.000000
-7.065192 -34.865970 43.525828 0.000000 51.000000 14.962944 2.000000
-6.936610 -34.164794 39.573334 0.000000 49.000000 14.450373 0.000000
-8.204884 -33.327143 38.540583 0.000000 67.000000 14.849369 26.000000
-8.924464 -32.476062 39.460659 0.000000 43.000000 14.805551 25.000000
-7.614131 -33.727402 43.792308 0.000000 50.000000 14.608663 11.000000
-6.734448 -34.363988 40.343271 0.000000 45.000000 14.422777 0.000000
-8.538149 -33.657635 41.208819 0.000000 57.000000 15.283633 10.000000
-8.570296 -33.286096 38.785409 0.000000 49.000000 15.090963 26.000000
-10.652108 -30.596665 43.655490 0.000000 44.000000 14.784117 5.000000
-8.632513 -33.160334 39.518918 0.000000 38.000000 15.043921 26.000000
-9.238167 -33.004821 43.962855 0.000000 67.000000 15.333858 22.000000
-10.053738 -31.120921 42.522692 0.000000 42.000000 14.702889 15.000000
-9.986707 -31.811519 40.103590 0.000000 70.000000 15.144972 17.000000
-6.756682 -34.336987 40.621566 0.000000 40.000000 14.417728 0.000000
-6.826600 -34.220522 38.547587 0.000000 42.000000 14.418866 0.000000
-6.147161 -34.922806 38.925458 0.000000 60.000000 14.376544 0.000000
-6.945443 -34.116364 38.378345 0.000000 52.000000 14.440064 0.000000
-6.966447 -34.131116 40.313722 0.000000 52.000000 14.440565 0.000000
-7.109967 -33.826369 39.885917 0.000000 38.000000 14.349645 0.000000
-7.167586 -33.648412 39.641961 0.000000 40.000000 14.276972 0.000000
-9.354718 -31.724666 42.875194 0.000000 43.000000 14.580566 18.000000
-9.210082 -32.358659 39.996713 0.000000 61.000000 14.933014 9.000000
-8.842638 -32.386381 39.340842 0.000000 55.000000 14.686322 25.000000
-9.542464 -32.340635 41.755913 0.000000 65.000000 15.145823 18.000000
-6.306839 -34.756271 39.649467 0.000000 43.000000 14.375004 0.000000
-8.491765 -33.229096 40.551272 0.000000 73.000000 14.971649 10.000000
-6.742850 -34.370767 39.204193 0.000000 34.000000 14.448262 0.000000
-10.232734 -31.166187 43.852302 0.000000 55.000000 14.849236 15.000000
-8.962342 -33.029194 42.514129 0.000000 25.000000 15.163399 23.000000
-6.100014 -34.861123 40.306764 0.000000 37.000000 14.282444 0.000000
-6.169753 -34.898054 38.709072 0.000000 41.000000 14.379648 0.000000
-10.308000 -31.365047 40.852509 0.000000 65.000000 15.076698 13.000000
-8.001585 -33.670962 42.677139 0.000000 45.000000 14.873960 12.000000
-9.265157 -32.847837 42.375068 0.000000 57.000000 15.269715 23.000000
-6.193119 -34.787687 41.619621 0.000000 41.000000 14.285839 0.000000
-8.543393 -33.259066 40.404531 0.000000 68.000000 15.031992 10.000000
-9.287582 -31.992422 43.169410 0.000000 48.000000 14.705418 18.000000
-6.832493 -34.258394 42.790713 0.000000 39.000000 14.393748 0.000000
-6.941857 -34.144820 41.061939 0.000000 52.000000 14.421736 0.000000
-9.770907 -31.005920 38.612115 0.000000 41.000000 14.466003 0.000000
-7.082360 -33.806278 42.407345 0.000000 37.000000 14.283130 0.000000
-10.503727 -31.005807 39.696174 0.000000 40.000000 14.997705 13.000000
-8.502996 -32.717703 42.192349 0.000000 58.000000 14.617622 23.000000
-9.284760 -33.011313 42.357975 0.000000 61.000000 15.393607 23.000000
-8.225706 -32.494697 41.605220 0.000000 30.000000 14.269896 0.000000
-7.308817 -34.402819 44.021022 0.000000 71.000000 14.828972 3.000000
-10.489777 -31.000235 39.892772 0.000000 50.000000 14.981060 13.000000
-9.782982 -31.489341 41.865741 0.000000 63.000000 14.755538 29.000000
-10.264196 -30.332172 41.040575 0.000000 34.000000 14.352500 0.000000
-8.369584 -33.526618 40.147467 0.000000 68.000000 15.084379 10.000000
-10.658900 -30.769057 39.613191 0.000000 51.000000 14.956380 8.000000
-7.673349 -33.401937 38.657250 0.000000 38.000000 14.501903 0.000000
-7.285295 -34.173577 38.682899 0.000000 69.000000 14.727412 27.000000
-9.138218 -33.021373 41.058244 0.000000 50.000000 15.307960 24.000000
-8.548888 -33.279627 41.362851 0.000000 68.000000 15.037431 10.000000
-10.368533 -30.634546 42.813445 0.000000 37.000000 14.609067 15.000000
-6.172471 -34.961787 39.569020 0.000000 34.000000 14.413095 0.000000
-7.038995 -33.931876 41.431523 0.000000 37.000000 14.347231 0.000000
-9.060530 -31.849868 43.562774 0.000000 36.000000 14.436128 0.000000
-8.644264 -32.895003 43.636762 0.000000 72.000000 14.822482 22.000000
-6.918012 -34.163075 40.316377 0.000000 60.000000 14.425782 0.000000
-6.825706 -34.259650 42.038098 0.000000 38.000000 14.399248 0.000000
-8.052481 -33.809936 43.651508 0.000000 36.000000 14.992012 11.000000
-9.919348 -31.609189 43.562614 0.000000 71.000000 14.915156 16.000000
-6.369408 -34.885093 43.105710 0.000000 49.000000 14.462937 0.000000
-9.119851 -32.106918 39.316943 0.000000 65.000000 14.706625 20.000000
-10.265050 -30.790296 39.584341 0.000000 34.000000 14.677601 14.000000
-9.802241 -31.421077 40.599436 0.000000 69.000000 14.740682 17.000000
-6.686685 -34.861288 39.100586 0.000000 66.000000 14.735051 21.000000
-10.272111 -31.266022 43.756619 0.000000 58.000000 14.946408 15.000000
-7.187392 -34.308929 40.044373 0.000000 53.000000 14.727232 27.000000
-8.829553 -32.783319 39.340507 0.000000 53.000000 14.941422 26.000000
-6.896034 -35.073760 41.583823 0.000000 81.000000 15.000672 1.000000
-9.303412 -32.416648 40.278597 0.000000 59.000000 15.037575 9.000000
-6.971141 -35.266801 42.731284 0.000000 56.000000 15.170595 1.000000
-9.594987 -32.074508 41.581454 0.000000 70.000000 15.009628 18.000000
-8.682563 -32.904005 39.173602 0.000000 60.000000 14.914629 26.000000
-10.087816 -31.062221 42.590789 0.000000 57.000000 14.688226 15.000000
-8.869433 -32.340767 39.151003 0.000000 57.000000 14.678294 25.000000
-7.826596 -33.163069 41.486273 0.000000 43.000000 14.420137 0.000000
-6.625103 -34.455598 38.835741 0.000000 38.000000 14.421926 0.000000
-7.620514 -33.427763 41.768257 0.000000 50.000000 14.439623 0.000000
-6.927792 -34.277927 43.780631 0.000000 35.000000 14.464976 0.000000
-7.314931 -33.532735 43.326970 0.000000 36.000000 14.261955 0.000000
-7.193773 -34.233661 39.631509 0.000000 51.000000 14.687094 27.000000
-7.218175 -33.661281 43.449924 0.000000 50.000000 14.274076 0.000000
-7.180750 -33.652062 41.959327 0.000000 43.000000 14.259295 0.000000
-7.110615 -33.819357 42.128302 0.000000 36.000000 14.316501 0.000000
-7.013730 -34.201972 42.514499 0.000000 64.000000 14.494645 0.000000
-6.837528 -34.238731 42.516591 0.000000 40.000000 14.387917 0.000000
-8.485522 -32.855280 42.852936 0.000000 71.000000 14.687873 23.000000
-9.692770 -31.554843 42.597213 0.000000 60.000000 14.722612 29.000000
-8.716070 -33.601197 38.751780 0.000000 61.000000 15.410203 26.000000
-6.255055 -34.762104 40.773797 0.000000 23.000000 14.325816 0.000000
-10.676701 -30.653165 43.174067 0.000000 75.000000 14.846344 6.000000
-10.286617 -30.703801 43.423681 0.000000 39.000000 14.586390 15.000000
-6.991607 -34.902209 41.576122 0.000000 41.000000 14.957489 1.000000
-9.612010 -32.396844 40.401694 0.000000 59.000000 15.252602 9.000000
-8.085578 -33.547710 43.974888 0.000000 74.000000 14.837526 11.000000
-7.325148 -34.476120 43.626257 0.000000 67.000000 14.895138 3.000000
-6.145123 -34.853130 43.943481 0.000000 44.000000 14.263758 0.000000
-8.001210 -33.400317 38.259441 0.000000 71.000000 14.750134 26.000000
-6.079166 -34.823782 38.293286 0.000000 36.000000 14.267994 0.000000
-10.278708 -31.967530 38.832648 0.000000 2.000000 15.482941 19.000000
-6.187403 -34.746581 38.098200 0.000000 38.000000 14.299614 0.000000
-7.967273 -33.574474 42.819987 0.000000 59.000000 14.782185 12.000000
-8.569011 -32.928438 38.380110 0.000000 67.000000 14.856605 26.000000
-7.248237 -34.626738 43.435700 0.000000 59.000000 14.940812 3.000000
-6.489379 -34.601550 39.717633 0.000000 47.000000 14.406840 0.000000
-6.578312 -34.502082 39.521600 0.000000 45.000000 14.409238 0.000000
-10.006908 -31.803275 38.901503 0.000000 25.000000 15.170035 19.000000
-9.742484 -32.208474 41.860053 0.000000 64.000000 15.205264 18.000000
-8.981804 -33.014730 42.694577 0.000000 64.000000 15.165914 23.000000
-8.136665 -33.209794 43.375207 0.000000 72.000000 14.657854 11.000000
-7.362555 -33.619501 37.955185 0.000000 28.000000 14.424661 0.000000
-6.126781 -34.849364 40.826573 0.000000 42.000000 14.287822 0.000000
-7.063607 -35.246996 42.801429 0.000000 6.000000 15.225340 1.000000
-8.841590 -33.172823 41.311060 0.000000 55.000000 15.184830 10.000000
-9.101340 -32.307674 41.584012 0.000000 50.000000 14.797519 18.000000
-6.708695 -34.370182 38.860206 0.000000 47.000000 14.426875 0.000000
-6.668839 -35.258824 42.980729 0.000000 7.000000 14.936911 1.000000
-6.944970 -34.109766 41.638563 0.000000 39.000000 14.393223 0.000000
-8.915994 -32.379250 41.672192 0.000000 57.000000 14.706100 23.000000
-6.126729 -34.924756 43.451653 0.000000 38.000000 14.304198 0.000000
-9.088840 -32.276215 41.946973 0.000000 62.000000 14.762534 23.000000
-8.887209 -32.155024 39.711283 0.000000 60.000000 14.560370 9.000000
-8.666940 -32.814826 39.354596 0.000000 62.000000 14.841156 26.000000
-9.199710 -32.276660 39.001181 0.000000 68.000000 14.883430 20.000000
-6.726088 -34.582937 41.544112 0.000000 55.000000 14.547133 1.000000
-8.659655 -32.203352 38.113606 0.000000 45.000000 14.443767 0.000000
-7.409460 -33.644748 38.408544 0.000000 44.000000 14.470586 0.000000
-9.070226 -32.049660 41.622341 0.000000 65.000000 14.601702 18.000000
-7.605300 -33.846028 40.800876 0.000000 73.000000 14.719852 4.000000
-7.211436 -33.869786 39.174704 0.000000 37.000000 14.463364 0.000000
-8.714164 -32.784780 40.102872 0.000000 66.000000 14.846619 25.000000
-8.130594 -33.270773 41.699458 0.000000 57.000000 14.715651 10.000000
-8.781596 -32.929237 41.086343 0.000000 66.000000 14.980527 24.000000
-7.867502 -33.803570 39.369945 0.000000 44.000000 14.905274 30.000000
-7.172068 -34.524364 43.416710 0.000000 43.000000 14.816025 3.000000
-6.799669 -34.259672 38.881639 0.000000 42.000000 14.420618 0.000000
-7.363330 -34.333615 43.703933 0.000000 58.000000 14.827490 3.000000
-6.969582 -34.748248 43.484476 0.000000 73.000000 14.813726 2.000000
-6.657968 -34.440975 39.370921 0.000000 44.000000 14.429737 0.000000
-8.327306 -33.192032 38.587470 0.000000 72.000000 14.849791 26.000000
-9.849269 -31.360802 41.853991 0.000000 46.000000 14.719295 29.000000
-8.571966 -33.371930 43.900250 0.000000 42.000000 15.083448 11.000000
-7.682480 -33.503170 41.592982 0.000000 43.000000 14.538348 4.000000
-7.507233 -33.667779 42.548280 0.000000 62.000000 14.505328 12.000000
-8.932133 -32.470297 43.445543 0.000000 63.000000 14.755974 22.000000
-8.882406 -32.194200 39.644730 0.000000 42.000000 14.583791 25.000000
-6.920700 -35.131143 42.670878 0.000000 51.000000 15.043296 1.000000
-7.286550 -33.713542 38.346810 0.000000 29.000000 14.425745 0.000000
-6.392518 -34.925872 43.962282 0.000000 46.000000 14.496298 0.000000
-8.519149 -32.730169 41.852656 0.000000 38.000000 14.642355 23.000000
-6.902930 -34.311015 43.624402 0.000000 43.000000 14.470554 0.000000
-9.242115 -32.404747 40.531250 0.000000 54.000000 14.980721 9.000000
-9.232617 -32.301265 39.836644 0.000000 56.000000 14.913570 9.000000
-7.104909 -33.766843 41.711254 0.000000 37.000000 14.282598 0.000000
-7.229652 -33.638974 41.658675 0.000000 38.000000 14.290863 0.000000
-6.829809 -35.128544 43.050007 0.000000 53.000000 14.968975 1.000000
-7.362912 -33.752670 43.898433 0.000000 33.000000 14.437055 0.000000
-6.969726 -34.923227 42.634101 0.000000 68.000000 14.941559 1.000000
-9.317051 -32.244223 38.977838 0.000000 64.000000 14.949480 20.000000
-10.525540 -30.592508 42.412773 0.000000 49.000000 14.703123 6.000000
-7.446520 -34.181468 41.276345 0.000000 60.000000 14.819271 4.000000
-8.236574 -32.878548 43.284557 0.000000 59.000000 14.512420 11.000000
-9.063252 -31.922957 43.023761 0.000000 51.000000 14.493879 0.000000
-7.576395 -33.988517 41.396788 0.000000 43.000000 14.785703 4.000000
-9.193457 -31.484876 42.846449 0.000000 30.000000 14.300846 0.000000
-8.675490 -32.910659 44.061799 0.000000 65.000000 14.850698 22.000000
-6.099500 -34.816307 38.005528 0.000000 39.000000 14.281866 0.000000
-7.472363 -33.640873 38.564142 0.000000 54.000000 14.512840 28.000000
-9.956038 -30.932261 41.408888 0.000000 48.000000 14.518630 13.000000
-8.915424 -31.965985 40.874047 0.000000 38.000000 14.440244 0.000000
-10.543124 -30.681617 39.009341 0.000000 47.000000 14.819610 14.000000
-7.108198 -33.782571 41.487191 0.000000 27.000000 14.298434 0.000000
-8.248228 -33.284919 38.527549 0.000000 77.000000 14.853645 26.000000
-7.560665 -33.831045 41.587062 0.000000 62.000000 14.666463 4.000000
-8.810502 -32.534764 42.945347 0.000000 49.000000 14.714859 23.000000
-9.631003 -32.102964 40.499459 0.000000 61.000000 15.069405 9.000000
-8.213307 -33.599718 39.999652 0.000000 72.000000 15.018671 10.000000
-9.322965 -32.100315 39.607456 0.000000 50.000000 14.849740 9.000000
-6.140034 -34.817378 40.224449 0.000000 35.000000 14.284124 0.000000
-8.851107 -32.885841 43.482581 0.000000 67.000000 14.972408 22.000000
-9.098515 -32.446415 40.111176 0.000000 51.000000 14.906998 9.000000
-6.153177 -34.933040 43.483439 0.000000 42.000000 14.329012 0.000000
-9.036799 -32.922751 44.057234 0.000000 73.000000 15.127912 22.000000
-7.238917 -33.652344 43.510334 0.000000 53.000000 14.282781 0.000000
-8.719393 -32.602623 41.509813 0.000000 39.000000 14.710814 23.000000
-7.818878 -33.401416 41.451825 0.000000 55.000000 14.573862 4.000000
-6.821595 -34.267408 40.791591 0.000000 24.000000 14.417452 0.000000
-10.393990 -30.885983 39.182444 0.000000 68.000000 14.842662 14.000000
-8.894688 -33.069298 39.204221 0.000000 49.000000 15.182500 26.000000
-9.086190 -31.856778 43.084332 0.000000 64.000000 14.466024 0.000000
-8.259078 -33.467210 43.476513 0.000000 66.000000 14.919465 11.000000
-8.311838 -32.786899 42.690227 0.000000 61.000000 14.514997 23.000000
-8.614356 -33.418731 41.129442 0.000000 72.000000 15.182014 10.000000
-6.082802 -34.863914 40.366120 0.000000 36.000000 14.270721 0.000000
-8.078987 -33.544217 42.814401 0.000000 21.000000 14.845268 12.000000
-9.883450 -31.094028 38.140333 0.000000 48.000000 14.614697 7.000000
-6.324990 -34.844334 38.472243 0.000000 35.000000 14.462477 0.000000
-8.449440 -33.095296 40.957025 0.000000 58.000000 14.845618 10.000000
-6.086758 -34.851998 41.634733 0.000000 37.000000 14.249339 0.000000
-6.235820 -34.892802 39.924241 0.000000 55.000000 14.409661 0.000000
-10.007094 -31.247581 43.604879 0.000000 36.000000 14.738691 15.000000
-10.201504 -31.164565 41.881808 0.000000 59.000000 14.850333 15.000000
-7.049622 -35.156474 41.825727 0.000000 30.000000 15.167123 1.000000
-6.533784 -34.580705 39.392292 0.000000 51.000000 14.430203 0.000000
-7.177284 -33.677788 42.410919 0.000000 21.000000 14.268049 0.000000
-6.725574 -34.341798 39.011984 0.000000 40.000000 14.418548 0.000000
-9.128553 -32.679871 40.024351 0.000000 48.000000 15.086255 25.000000
-9.433253 -31.538503 42.769489 0.000000 49.000000 14.516210 29.000000
-6.838203 -34.217617 40.648270 0.000000 40.000000 14.398451 0.000000
-9.122680 -32.101793 43.115144 0.000000 60.000000 14.656281 18.000000
-9.850422 -31.085432 39.808945 0.000000 74.000000 14.562823 13.000000
-6.734742 -34.751052 39.237930 0.000000 65.000000 14.695518 21.000000
-7.274297 -33.750231 38.142619 0.000000 37.000000 14.443735 0.000000
-8.709643 -32.188975 38.251727 0.000000 34.000000 14.469621 0.000000
-7.370008 -33.597395 37.932397 0.000000 34.000000 14.415757 0.000000
-7.333672 -33.610206 39.850079 0.000000 38.000000 14.372487 0.000000
-8.090961 -33.885009 44.152575 0.000000 64.000000 15.064292 11.000000
-7.351178 -34.340860 40.244992 0.000000 66.000000 14.867927 27.000000
-7.046395 -33.853664 39.645115 0.000000 27.000000 14.323619 0.000000
-7.808175 -33.154399 39.321396 0.000000 45.000000 14.428581 0.000000
-9.090892 -32.491239 43.280298 0.000000 75.000000 14.890317 22.000000
-8.947589 -32.594426 40.753770 0.000000 39.000000 14.885055 24.000000
-8.545987 -33.358348 38.696650 0.000000 72.000000 15.122213 26.000000
-6.325530 -34.681703 39.760265 0.000000 42.000000 14.337742 0.000000
-6.419385 -34.708406 38.159801 0.000000 40.000000 14.446118 0.000000
-6.390177 -34.858571 38.697163 0.000000 56.000000 14.517621 21.000000
-6.195609 -34.772215 40.201303 0.000000 42.000000 14.295680 0.000000
-7.349613 -34.306191 39.301874 0.000000 54.000000 14.855806 27.000000
-10.625913 -30.817153 43.792843 0.000000 58.000000 14.909946 5.000000
-9.002161 -32.517622 43.342147 0.000000 45.000000 14.841039 22.000000
-6.122269 -34.939172 43.226505 0.000000 42.000000 14.313402 0.000000
-7.674460 -34.241211 41.196859 0.000000 65.000000 15.029919 4.000000
-9.006395 -33.123033 42.603245 0.000000 76.000000 15.257668 23.000000
-6.852141 -34.487926 41.983016 0.000000 64.000000 14.571954 1.000000
-8.334290 -33.569154 40.223831 0.000000 53.000000 15.085488 10.000000
-9.298241 -32.236807 39.138762 0.000000 61.000000 14.928446 20.000000
-7.003388 -34.689543 42.469290 0.000000 74.000000 14.812840 1.000000
-7.734378 -33.231557 39.082670 0.000000 41.000000 14.428183 0.000000
-7.003285 -34.047248 40.915706 0.000000 45.000000 14.404271 0.000000
-10.460543 -31.264409 38.540107 0.000000 78.000000 15.153010 7.000000
-9.880448 -31.381036 41.812254 0.000000 64.000000 14.756555 29.000000
-9.879117 -31.143765 42.758361 0.000000 54.000000 14.585039 15.000000
-8.933583 -32.948921 41.053217 0.000000 51.000000 15.107281 24.000000
-8.987296 -32.631557 43.136113 0.000000 54.000000 14.908646 22.000000
-9.433508 -31.991522 38.913856 0.000000 61.000000 14.868433 19.000000
-7.414358 -33.629192 40.189254 0.000000 43.000000 14.440867 0.000000
-7.991897 -33.159474 42.382599 0.000000 50.000000 14.529277 12.000000
-7.458916 -33.915183 41.267372 0.000000 62.000000 14.650951 4.000000
-7.690231 -33.271694 38.428898 0.000000 56.000000 14.430523 0.000000
-7.227430 -33.567935 39.141844 0.000000 35.000000 14.274301 0.000000
-8.889026 -32.006344 43.137229 0.000000 35.000000 14.418295 0.000000
-7.192042 -33.744414 39.447825 0.000000 54.000000 14.361745 0.000000
-10.549631 -30.717419 39.819360 0.000000 43.000000 14.837887 8.000000
-7.374540 -34.027405 43.834480 0.000000 37.000000 14.629848 3.000000
-8.867104 -32.951056 39.214821 0.000000 72.000000 15.082927 26.000000
-9.983616 -31.715149 38.861950 0.000000 72.000000 15.094400 19.000000
-6.857556 -34.200732 40.280747 0.000000 53.000000 14.406343 0.000000
-8.218976 -33.894414 43.951004 0.000000 49.000000 15.168509 11.000000
-8.006713 -33.592451 43.876583 0.000000 73.000000 14.809912 11.000000
-6.590443 -34.509075 40.831021 0.000000 45.000000 14.406035 0.000000
-6.316330 -34.946218 43.001836 0.000000 63.000000 14.465530 0.000000
-9.324587 -32.193633 38.449342 0.000000 44.000000 14.928161 20.000000
-9.579101 -32.242161 40.340194 0.000000 53.000000 15.125681 9.000000
-8.873184 -32.883899 41.241978 0.000000 42.000000 15.016478 24.000000
-9.438197 -31.605733 40.817366 0.000000 64.000000 14.589950 17.000000
-7.245474 -33.579836 39.014329 0.000000 34.000000 14.297326 0.000000
-7.017019 -34.208441 42.670785 0.000000 61.000000 14.499393 0.000000
-8.876250 -32.771339 43.775683 0.000000 76.000000 14.910952 22.000000
-7.103280 -33.782661 42.435752 0.000000 38.000000 14.282585 0.000000
-7.731694 -33.577915 44.177669 0.000000 39.000000 14.591504 11.000000
-8.954141 -32.077788 39.262057 0.000000 44.000000 14.564484 20.000000
-6.283848 -34.924083 38.979208 0.000000 59.000000 14.478501 0.000000
-7.960050 -33.017725 43.118670 0.000000 19.000000 14.401480 0.000000
-7.020607 -34.356547 39.444505 0.000000 68.000000 14.642533 27.000000
-8.236875 -33.133204 39.620917 0.000000 37.000000 14.729849 26.000000
-8.472289 -33.084867 39.816638 0.000000 70.000000 14.870398 10.000000
-7.725400 -33.580225 41.521782 0.000000 71.000000 14.622644 4.000000
-7.572990 -33.471583 43.038578 0.000000 39.000000 14.417068 0.000000
-7.588133 -33.498977 41.611239 0.000000 62.000000 14.465049 0.000000
-9.846696 -31.422544 38.453613 0.000000 38.000000 14.802470 19.000000
-8.512951 -33.089170 43.400944 0.000000 67.000000 14.857281 11.000000
-7.106717 -34.592244 44.032433 0.000000 56.000000 14.804697 2.000000
-10.638572 -31.015530 40.484229 0.000000 51.000000 15.094446 13.000000
-7.142040 -33.715029 41.766220 0.000000 36.000000 14.274970 0.000000
-8.327488 -33.081155 39.318208 0.000000 30.000000 14.766514 26.000000
-6.779562 -35.063548 42.180085 0.000000 70.000000 14.899418 1.000000
-8.142455 -33.386215 42.486108 0.000000 37.000000 14.791354 12.000000
-7.470318 -33.956205 41.563637 0.000000 28.000000 14.682988 4.000000
-6.283819 -34.825418 44.080174 0.000000 58.000000 14.346799 0.000000
-7.996009 -33.857930 40.831249 0.000000 69.000000 15.018385 4.000000
-6.188437 -34.984963 43.732784 0.000000 45.000000 14.386697 0.000000
-8.666746 -32.964867 40.196196 0.000000 68.000000 14.930255 25.000000
-9.404767 -32.296696 38.157548 0.000000 65.000000 15.060407 20.000000
-10.218219 -30.322918 41.771136 0.000000 33.000000 14.302653 0.000000
-7.364858 -34.303951 40.056291 0.000000 64.000000 14.855925 27.000000
-9.251627 -31.894072 40.747597 0.000000 35.000000 14.644284 9.000000
-7.162056 -33.729401 43.505225 0.000000 48.000000 14.277017 0.000000
-8.956401 -33.254788 39.081608 0.000000 71.000000 15.353806 26.000000
-6.205826 -34.884002 43.686311 0.000000 53.000000 14.332886 0.000000
-9.860194 -31.381117 40.985875 0.000000 43.000000 14.752192 17.000000
-6.153280 -34.812175 40.096081 0.000000 41.000000 14.292175 0.000000
-6.194395 -34.749320 38.048987 0.000000 39.000000 14.307284 0.000000
-6.257252 -34.737439 39.932302 0.000000 42.000000 14.321858 0.000000
-8.565366 -33.369377 40.544439 0.000000 65.000000 15.120150 10.000000
-9.042406 -32.465728 42.836399 0.000000 52.000000 14.842916 23.000000
-6.495722 -34.611590 39.649186 0.000000 51.000000 14.419147 0.000000
-8.475470 -33.448990 43.406046 0.000000 50.000000 15.069377 11.000000
-9.462066 -32.106375 38.780300 0.000000 62.000000 14.968057 19.000000
-9.082690 -31.890192 41.658420 0.000000 53.000000 14.504121 18.000000
-9.194785 -32.204101 42.831363 0.000000 52.000000 14.781906 18.000000
-8.716358 -32.756432 42.113255 0.000000 36.000000 14.803386 23.000000
-9.273620 -32.766154 42.415382 0.000000 65.000000 15.220997 23.000000
-7.729701 -33.242317 37.977203 0.000000 36.000000 14.446149 0.000000
-8.527931 -33.200911 40.002083 0.000000 69.000000 14.986870 10.000000
-9.927150 -31.314432 44.107426 0.000000 42.000000 14.717267 16.000000
-6.399108 -34.735314 40.522147 0.000000 45.000000 14.418473 0.000000
-8.892016 -32.856470 40.906289 0.000000 45.000000 15.016537 24.000000
-10.563112 -30.610773 42.254573 0.000000 56.000000 14.745334 6.000000
-10.403059 -30.836021 43.544973 0.000000 63.000000 14.759763 15.000000
-8.067006 -33.284703 41.946397 0.000000 59.000000 14.674401 10.000000
-8.442602 -33.520328 40.987337 0.000000 71.000000 15.123721 10.000000
-9.640414 -31.462364 39.097044 0.000000 47.000000 14.667102 19.000000
-9.394174 -32.201536 43.923821 0.000000 57.000000 14.914587 16.000000
-10.203504 -31.238994 38.435957 0.000000 58.000000 14.945966 7.000000
-8.972642 -32.037165 42.816083 0.000000 30.000000 14.505279 18.000000
-7.406894 -33.640022 39.332908 0.000000 47.000000 14.453589 0.000000
-9.001504 -32.982464 40.982242 0.000000 68.000000 15.181163 24.000000
-8.644256 -32.239386 38.173855 0.000000 53.000000 14.455564 0.000000
-6.818600 -34.202346 38.415167 0.000000 35.000000 14.402491 0.000000
-9.579760 -31.593472 39.642912 0.000000 48.000000 14.702360 19.000000
-9.275739 -31.822991 40.970039 0.000000 66.000000 14.611944 17.000000
-9.693606 -31.896545 44.130746 0.000000 65.000000 14.931426 16.000000
-7.059828 -33.981918 38.087298 0.000000 43.000000 14.439307 0.000000
-9.972004 -31.819219 43.834725 0.000000 47.000000 15.090993 16.000000
-9.100265 -32.257485 41.772608 0.000000 58.000000 14.760797 18.000000
-6.888658 -34.138071 38.540546 0.000000 44.000000 14.410163 0.000000
-9.607935 -32.472837 40.342583 0.000000 57.000000 15.301034 9.000000
-6.929128 -34.907870 42.514731 0.000000 62.000000 14.902618 1.000000
-7.575369 -33.683693 38.012463 0.000000 66.000000 14.625246 28.000000
-6.733466 -34.315395 39.005007 0.000000 39.000000 14.406899 0.000000
-6.652617 -34.439222 40.827673 0.000000 41.000000 14.405776 0.000000
-8.359513 -33.187822 43.163631 0.000000 64.000000 14.811892 11.000000
-6.585289 -34.504473 39.464804 0.000000 48.000000 14.416763 0.000000
-10.442851 -31.248764 43.639869 0.000000 40.000000 15.063560 15.000000
-6.412414 -34.665357 39.865466 0.000000 41.000000 14.390184 0.000000
-8.276537 -32.842432 43.882241 0.000000 55.000000 14.510371 11.000000
-6.192192 -34.758616 41.677046 0.000000 38.000000 14.265011 0.000000
-6.188762 -34.775925 40.177686 0.000000 47.000000 14.293361 0.000000
-9.370272 -32.329168 39.955240 0.000000 45.000000 15.033177 9.000000
-8.621801 -33.578340 44.077889 0.000000 70.000000 15.255989 11.000000
-6.112243 -34.841238 41.935834 0.000000 40.000000 14.257253 0.000000
-6.202757 -34.867603 43.494045 0.000000 48.000000 14.322140 0.000000
-8.659976 -32.905545 40.359112 0.000000 64.000000 14.883531 25.000000
-9.990385 -31.283471 38.325809 0.000000 46.000000 14.818342 7.000000
-7.152828 -33.728167 38.913961 0.000000 29.000000 14.328591 0.000000
-10.472528 -31.209590 43.259917 0.000000 36.000000 15.064430 15.000000
-7.150975 -33.699373 41.385110 0.000000 41.000000 14.276099 0.000000
-6.694359 -34.803998 38.424110 0.000000 53.000000 14.711276 21.000000
-10.556027 -30.721526 43.846858 0.000000 55.000000 14.793397 5.000000
-10.500438 -31.232367 43.505196 0.000000 58.000000 15.097247 15.000000
-7.573702 -33.484347 42.978563 0.000000 42.000000 14.426889 0.000000
-6.205721 -34.817295 39.637377 0.000000 26.000000 14.340569 0.000000
-10.172463 -31.803482 43.655735 0.000000 52.000000 15.232097 16.000000
-7.896392 -33.085287 42.862514 0.000000 33.000000 14.402455 0.000000
-8.341159 -33.090970 43.438763 0.000000 83.000000 14.730051 11.000000
-7.293473 -34.278365 39.979317 0.000000 67.000000 14.786684 27.000000
-8.964800 -31.978807 42.785053 0.000000 41.000000 14.460902 0.000000
-7.998062 -33.966712 41.289325 0.000000 28.000000 15.086580 4.000000
-8.594164 -32.932241 43.839852 0.000000 82.000000 14.807395 22.000000
-7.204201 -34.928222 43.721632 0.000000 66.000000 15.105480 2.000000
-8.461670 -33.007506 42.988529 0.000000 77.000000 14.769927 23.000000
-10.318397 -31.365362 43.417914 0.000000 54.000000 15.051534 15.000000
-10.334533 -30.436902 42.994637 0.000000 44.000000 14.449535 0.000000
-7.856903 -33.553839 41.418855 0.000000 46.000000 14.704306 4.000000
-8.848389 -31.993980 39.400370 0.000000 44.000000 14.428022 0.000000
-9.411457 -32.169713 42.267454 0.000000 57.000000 14.927609 18.000000
-8.106401 -33.303146 38.509133 0.000000 69.000000 14.760418 26.000000
-7.709547 -33.391323 41.602829 0.000000 57.000000 14.483753 0.000000
-8.569248 -32.836667 40.013035 0.000000 68.000000 14.774471 25.000000
-7.054277 -34.852186 44.023735 0.000000 76.000000 14.939190 2.000000
-7.335431 -33.619829 41.928650 0.000000 34.000000 14.353384 0.000000
-8.479251 -32.678769 39.930629 0.000000 56.000000 14.603158 25.000000
-9.562457 -32.123604 40.268606 0.000000 57.000000 15.035106 9.000000
-8.600466 -32.915929 39.319618 0.000000 40.000000 14.859557 26.000000
-8.920272 -32.780379 43.210952 0.000000 62.000000 14.957060 22.000000
-10.433181 -31.130845 39.413789 0.000000 52.000000 15.032238 14.000000
-8.242105 -33.334183 38.172117 0.000000 57.000000 14.886543 26.000000
-8.641022 -33.062816 40.157533 0.000000 48.000000 14.976950 25.000000
-6.872753 -34.212657 42.646885 0.000000 43.000000 14.395072 0.000000
-7.203178 -34.013095 39.476801 0.000000 52.000000 14.548931 27.000000
-7.287189 -34.121294 38.682597 0.000000 69.000000 14.693944 27.000000
-8.425122 -33.542817 40.403162 0.000000 72.000000 15.133248 10.000000
-9.106703 -32.306324 40.222373 0.000000 70.000000 14.818191 9.000000
-7.805719 -33.589501 38.512015 0.000000 41.000000 14.727505 28.000000
-7.972619 -33.334468 38.546198 0.000000 76.000000 14.681204 26.000000
-6.332496 -34.713958 40.371012 0.000000 25.000000 14.356566 0.000000
-10.177554 -31.212289 43.077725 0.000000 61.000000 14.848900 15.000000
-7.278020 -33.561248 43.032612 0.000000 38.000000 14.257290 0.000000
-9.969431 -31.153976 42.985656 0.000000 44.000000 14.656180 15.000000
-7.860925 -33.263768 43.366899 0.000000 39.000000 14.488614 0.000000
-7.480904 -33.477935 38.985659 0.000000 33.000000 14.405046 0.000000
-7.397999 -33.814781 40.879619 0.000000 61.000000 14.543599 4.000000
-8.588304 -33.593521 41.256902 0.000000 66.000000 15.277588 10.000000
-10.180876 -31.014272 43.955800 0.000000 58.000000 14.707919 15.000000
-9.204228 -32.631100 42.484297 0.000000 53.000000 15.078317 23.000000
-6.954941 -35.125718 44.054715 0.000000 65.000000 15.047313 2.000000
-10.357373 -31.308598 40.183258 0.000000 65.000000 15.084446 13.000000
-10.179190 -30.956432 42.905503 0.000000 45.000000 14.681630 15.000000
-8.395781 -32.792791 43.660700 0.000000 45.000000 14.568916 22.000000
-8.620513 -33.601417 44.011555 0.000000 39.000000 15.271283 11.000000
-6.906053 -34.202610 44.082153 0.000000 39.000000 14.394641 0.000000
-8.346273 -33.436646 41.443015 0.000000 69.000000 14.990262 10.000000
-6.747132 -34.353877 42.716101 0.000000 41.000000 14.394845 0.000000
-9.132225 -32.971357 41.067973 0.000000 71.000000 15.270000 24.000000
-7.244236 -33.602312 38.880222 0.000000 29.000000 14.313132 0.000000
-8.634491 -32.743954 41.696102 0.000000 72.000000 14.739474 23.000000
-6.059907 -34.843122 38.031259 0.000000 36.000000 14.269938 0.000000
-6.201486 -34.760076 41.356930 0.000000 23.000000 14.277039 0.000000
-8.564540 -33.520015 39.984718 0.000000 68.000000 15.227268 10.000000
-8.288860 -33.505582 40.416074 0.000000 53.000000 15.006756 10.000000
-6.083890 -34.923353 40.980658 0.000000 45.000000 14.303256 0.000000
-9.218158 -31.986258 40.756313 0.000000 57.000000 14.680753 9.000000
-10.149369 -32.036337 44.074657 0.000000 4.000000 15.364853 16.000000
-8.729266 -32.865191 43.339155 0.000000 75.000000 14.869740 22.000000
-6.283470 -34.735515 40.683983 0.000000 39.000000 14.330397 0.000000
-8.691361 -32.833192 41.421952 0.000000 64.000000 14.844909 24.000000
-8.447077 -33.356036 41.853097 0.000000 68.000000 15.006259 10.000000
-6.325050 -34.718760 40.713573 0.000000 22.000000 14.349803 0.000000
-9.322520 -31.875837 41.298766 0.000000 70.000000 14.677800 18.000000
-7.604843 -33.459069 42.113042 0.000000 43.000000 14.444389 0.000000
-9.251208 -32.000502 41.571109 0.000000 77.000000 14.704353 18.000000
-9.578602 -32.083815 39.689320 0.000000 42.000000 15.028061 9.000000
-8.702071 -32.927691 40.278743 0.000000 62.000000 14.930694 25.000000
-6.436056 -34.765725 39.354360 0.000000 65.000000 14.481357 0.000000
-6.344688 -34.794673 39.542526 0.000000 42.000000 14.430196 0.000000
-8.496602 -33.496316 40.386120 0.000000 57.000000 15.155676 10.000000
-10.267058 -31.200076 42.105827 0.000000 73.000000 14.919956 15.000000
-8.298532 -32.832488 44.064010 0.000000 56.000000 14.517770 11.000000
-6.940679 -35.062841 42.132536 0.000000 67.000000 15.019553 1.000000
-6.099412 -34.906648 40.926681 0.000000 39.000000 14.304367 0.000000
-10.347831 -31.076991 41.908426 0.000000 59.000000 14.900537 15.000000
-7.834510 -33.661600 42.840215 0.000000 49.000000 14.741179 12.000000
-7.975387 -33.330531 42.526383 0.000000 64.000000 14.629256 12.000000
-6.560977 -34.685141 40.799118 0.000000 69.000000 14.501975 0.000000
-7.263049 -33.573498 39.013469 0.000000 31.000000 14.306198 0.000000
-10.327777 -31.108223 42.881616 0.000000 66.000000 14.893876 15.000000
-6.847198 -34.254447 40.430477 0.000000 44.000000 14.432536 0.000000
-6.847332 -34.258267 42.046535 0.000000 38.000000 14.414322 0.000000
-8.836458 -32.912216 39.289375 0.000000 57.000000 15.033227 26.000000
-6.768620 -34.699953 38.490508 0.000000 62.000000 14.696304 21.000000
-7.265137 -34.113644 39.344437 0.000000 42.000000 14.663872 27.000000
-6.871129 -35.226989 42.623207 0.000000 71.000000 15.070943 1.000000
-10.012965 -31.324364 41.119682 0.000000 73.000000 14.826375 13.000000
-10.167985 -31.811406 43.785782 0.000000 71.000000 15.232370 16.000000
-7.235879 -34.805873 43.888217 0.000000 16.000000 15.045287 2.000000
-7.771857 -33.618066 40.680071 0.000000 44.000000 14.693357 4.000000
-9.899519 -31.467436 39.262067 0.000000 51.000000 14.861326 19.000000
-10.378817 -30.881049 43.462254 0.000000 41.000000 14.772820 15.000000
-7.519531 -33.509885 41.586916 0.000000 43.000000 14.421550 0.000000
-7.675921 -33.439233 41.584348 0.000000 55.000000 14.490915 0.000000
-7.795000 -33.187820 39.733753 0.000000 40.000000 14.435744 0.000000
-6.918862 -34.997556 42.728480 0.000000 75.000000 14.952052 1.000000
-9.647804 -31.521485 42.995271 0.000000 64.000000 14.661728 29.000000
-8.958064 -31.960515 40.985742 0.000000 34.000000 14.466908 0.000000
-9.853192 -30.897212 38.922562 0.000000 38.000000 14.450746 0.000000
-8.129738 -33.334383 42.836410 0.000000 61.000000 14.742778 12.000000
-10.386112 -31.385574 40.156711 0.000000 47.000000 15.157551 13.000000
-9.066177 -33.103044 42.812279 0.000000 69.000000 15.286156 23.000000
-8.363160 -33.173656 38.673345 0.000000 59.000000 14.863124 26.000000
-7.729388 -33.281100 38.032724 0.000000 45.000000 14.471076 0.000000
-7.647839 -33.407671 43.293878 0.000000 35.000000 14.426873 0.000000
-7.132461 -33.748530 41.269291 0.000000 31.000000 14.296603 0.000000
-7.788349 -33.713047 38.269573 0.000000 65.000000 14.800130 28.000000
-7.087216 -33.888437 40.755468 0.000000 38.000000 14.362888 0.000000
-9.322892 -31.748461 38.716351 0.000000 47.000000 14.626427 19.000000
-8.510345 -33.221056 40.279576 0.000000 71.000000 14.983632 10.000000
-7.469086 -33.643239 38.229927 0.000000 52.000000 14.516292 28.000000
-9.988705 -31.173769 39.917289 0.000000 46.000000 14.723350 13.000000
-8.916680 -32.767155 39.191534 0.000000 70.000000 14.997449 26.000000
-9.837642 -31.729141 43.804001 0.000000 49.000000 14.931222 16.000000
-6.920035 -35.218410 43.969762 0.000000 67.000000 15.084258 2.000000
-6.888568 -34.854773 41.683468 0.000000 69.000000 14.847715 1.000000
-6.120518 -34.833838 42.258773 0.000000 41.000000 14.254310 0.000000
-6.122687 -34.907524 40.843976 0.000000 44.000000 14.323353 0.000000
-9.775162 -31.272717 42.185194 0.000000 39.000000 14.601056 29.000000
-7.919762 -33.372160 42.443727 0.000000 62.000000 14.616671 12.000000
-6.362889 -34.920658 42.200916 0.000000 45.000000 14.493492 0.000000
-10.477761 -30.588097 39.382935 0.000000 42.000000 14.703709 8.000000
-9.015454 -32.519091 43.098646 0.000000 55.000000 14.855061 22.000000
-10.713549 -30.634567 43.659268 0.000000 61.000000 14.855115 5.000000
-10.357552 -30.844330 41.980926 0.000000 34.000000 14.751607 15.000000
-8.444405 -33.538432 43.912448 0.000000 37.000000 15.099380 11.000000
-6.447694 -35.054305 42.412846 0.000000 36.000000 14.643085 1.000000
-9.159678 -33.044991 42.475897 0.000000 65.000000 15.321400 23.000000
-8.420937 -33.678131 38.717293 0.000000 67.000000 15.242178 26.000000
-7.164040 -34.910120 43.686190 0.000000 70.000000 15.063949 2.000000
-8.120016 -33.487726 40.679083 0.000000 69.000000 14.865700 10.000000
-7.328791 -34.267821 39.219720 0.000000 65.000000 14.815758 27.000000
-9.381324 -31.387526 40.443160 0.000000 30.000000 14.406834 0.000000
-9.376703 -32.148371 41.619014 0.000000 59.000000 14.895858 18.000000
-8.636213 -33.295933 38.877713 0.000000 62.000000 15.145427 26.000000
-6.698900 -34.426870 41.059895 0.000000 28.000000 14.429006 0.000000
-7.165509 -35.094849 44.084033 0.000000 46.000000 15.183159 2.000000
-7.755421 -33.548800 39.216292 0.000000 74.000000 14.653798 30.000000
-8.021666 -33.761267 42.589907 0.000000 38.000000 14.950294 12.000000
-7.719692 -33.235092 38.976682 0.000000 25.000000 14.420972 0.000000
-7.317782 -33.615740 42.638181 0.000000 57.000000 14.328352 0.000000
-9.137615 -32.401357 43.103091 0.000000 37.000000 14.867432 22.000000
-7.373705 -34.322487 43.333828 0.000000 85.000000 14.832571 3.000000
-10.441467 -31.008650 42.809557 0.000000 44.000000 14.913042 15.000000
-7.003780 -34.033367 41.510876 0.000000 42.000000 14.387696 0.000000
-8.315582 -33.429665 37.927160 0.000000 79.000000 15.008135 26.000000
-6.798938 -34.296402 41.710458 0.000000 43.000000 14.408061 0.000000
-6.155079 -34.805714 41.980229 0.000000 40.000000 14.264881 0.000000
-7.907115 -33.453099 41.265479 0.000000 53.000000 14.676466 4.000000
-6.163932 -34.871296 43.039790 0.000000 45.000000 14.301553 0.000000
-6.402608 -34.890195 43.239712 0.000000 58.000000 14.489338 0.000000
-9.331030 -31.514279 38.760181 0.000000 46.000000 14.475673 0.000000
-8.175951 -33.484943 41.052765 0.000000 59.000000 14.900676 10.000000
-7.434321 -33.740498 43.785626 0.000000 36.000000 14.483573 0.000000
-8.600987 -33.054173 40.774706 0.000000 68.000000 14.933398 10.000000
-8.483290 -33.358966 42.509509 0.000000 74.000000 15.026710 12.000000
-7.021946 -34.325534 39.409367 0.000000 51.000000 14.623291 27.000000
-9.221329 -31.649433 42.273638 0.000000 34.000000 14.438793 0.000000
-6.662650 -34.985275 43.225429 0.000000 66.000000 14.746628 2.000000
-7.925382 -33.063085 42.839134 0.000000 38.000000 14.409535 0.000000
-7.614000 -33.481598 42.975658 0.000000 54.000000 14.455105 0.000000
-7.426809 -33.511542 42.901460 0.000000 38.000000 14.336629 0.000000
-7.268041 -33.579832 42.865567 0.000000 38.000000 14.264414 0.000000
-8.506330 -32.542444 38.829224 0.000000 66.000000 14.546587 26.000000
-6.146817 -34.944960 43.993766 0.000000 42.000000 14.325641 0.000000
-8.372801 -33.420622 42.562134 0.000000 42.000000 14.984881 12.000000
-6.244185 -34.839952 39.506032 0.000000 36.000000 14.386028 0.000000
-6.336336 -34.748332 39.324276 0.000000 45.000000 14.395874 0.000000
-6.580112 -34.619516 39.048455 0.000000 59.000000 14.495040 0.000000
-6.753240 -34.399071 38.656259 0.000000 65.000000 14.481958 0.000000
-9.301411 -31.872491 42.194471 0.000000 56.000000 14.648284 18.000000
-8.510265 -33.300552 42.671973 0.000000 78.000000 15.005727 12.000000
-6.996142 -34.010803 38.010737 0.000000 42.000000 14.412137 0.000000
-7.273971 -34.229397 39.413853 0.000000 62.000000 14.746787 27.000000
-8.645018 -33.069182 41.064218 0.000000 71.000000 14.972468 10.000000
-7.317206 -33.541225 39.592980 0.000000 31.000000 14.317518 0.000000
-6.193601 -34.821393 39.750241 0.000000 50.000000 14.332820 0.000000
-6.648947 -34.805351 38.355862 0.000000 65.000000 14.679239 21.000000
-10.700888 -30.663293 43.137107 0.000000 51.000000 14.871592 6.000000
-8.484349 -33.543774 43.352269 0.000000 69.000000 15.139924 11.000000
-6.562489 -34.520676 39.404406 0.000000 43.000000 14.411373 0.000000
-6.686821 -34.415801 39.290271 0.000000 54.000000 14.435470 0.000000
-6.688660 -34.404817 40.976490 0.000000 47.000000 14.407743 0.000000
