-0.000697 1.656082 25.077091 0.000000 59.000000 15.092503 20.000000
3.975390 -0.096569 24.477156 0.000000 46.000000 14.453156 0.000000
4.921260 1.221420 24.460206 0.000000 53.000000 14.444745 0.000000
3.610479 0.434972 24.442675 0.000000 42.000000 14.426128 0.000000
-0.762766 1.619833 24.888075 0.000000 71.000000 14.907217 20.000000
3.493752 0.545029 24.315448 0.000000 42.000000 14.300673 0.000000
3.089919 0.997900 24.586552 0.000000 51.000000 14.578605 15.000000
0.457743 1.054465 24.459318 0.000000 47.000000 14.466096 0.000000
4.849278 1.734575 24.458619 0.000000 45.000000 14.448846 0.000000
1.997120 2.876488 24.990033 0.000000 69.000000 15.007333 28.000000
4.822704 2.086350 24.472267 0.000000 50.000000 14.466269 0.000000
1.199636 1.075173 24.460290 0.000000 49.000000 14.463299 0.000000
3.137972 2.925621 24.451215 0.000000 40.000000 14.462934 0.000000
5.061250 1.840487 24.424875 0.000000 42.000000 14.415060 0.000000
0.945408 -0.357672 24.492792 0.000000 53.000000 14.482361 0.000000
2.490751 2.448360 24.456378 0.000000 40.000000 14.466641 0.000000
0.596570 -0.653258 24.500330 0.000000 52.000000 14.488718 0.000000
4.822510 2.796254 24.531517 0.000000 56.000000 14.532850 0.000000
3.558035 2.112962 24.509162 0.000000 53.000000 14.510227 0.000000
2.783687 -0.941998 24.784367 0.000000 59.000000 14.758011 26.000000
3.465684 3.531758 24.784119 0.000000 72.000000 14.800318 7.000000
1.485657 -0.720152 24.531199 0.000000 36.000000 14.514121 0.000000
4.917064 2.509531 24.674102 0.000000 52.000000 14.671956 12.000000
1.254043 2.509064 25.143252 0.000000 71.000000 15.160735 28.000000
3.573671 3.337914 24.445253 0.000000 50.000000 14.458892 0.000000
4.282818 -1.491160 24.485106 0.000000 42.000000 14.445048 0.000000
4.933281 1.890331 24.487200 0.000000 52.000000 14.478583 0.000000
2.958732 0.859259 24.657857 0.000000 63.000000 14.649178 15.000000
4.092502 3.247303 24.438905 0.000000 57.000000 14.448823 0.000000
1.379931 1.668098 24.972584 0.000000 71.000000 14.980715 29.000000
3.699515 3.214459 24.450793 0.000000 60.000000 14.462481 0.000000
3.865952 1.256208 24.973677 0.000000 45.000000 14.964206 9.000000
-0.400354 0.347191 24.708041 0.000000 63.000000 14.712103 21.000000
4.464931 3.895750 24.489001 0.000000 42.000000 14.503615 0.000000
-0.485676 1.320516 24.912188 0.000000 80.000000 14.926749 20.000000
2.157218 3.101058 24.352150 0.000000 38.000000 14.370954 0.000000
1.858084 2.802250 25.067564 0.000000 77.000000 15.084838 28.000000
2.500449 -1.846047 24.447762 0.000000 41.000000 14.413610 0.000000
1.194962 -1.849608 24.530977 0.000000 40.000000 14.503791 0.000000
1.562156 1.974588 24.945849 0.000000 59.000000 14.956170 29.000000
4.654862 0.931831 24.604361 0.000000 44.000000 14.587329 14.000000
1.656517 1.309144 24.343586 0.000000 40.000000 14.346567 0.000000
3.595856 3.397875 24.451591 0.000000 49.000000 14.465730 0.000000
3.566033 3.230812 24.475773 0.000000 59.000000 14.488345 0.000000
3.397265 2.532876 24.540140 0.000000 62.000000 14.546404 0.000000
1.748700 1.894090 25.078110 0.000000 77.000000 15.086589 29.000000
4.389566 2.751519 24.404046 0.000000 46.000000 14.407250 0.000000
1.343607 2.803815 24.663313 0.000000 54.000000 14.683393 28.000000
5.513716 1.150362 24.667305 0.000000 38.000000 14.647915 11.000000
4.281756 2.449176 24.473375 0.000000 46.000000 14.474030 0.000000
5.412174 0.759630 24.459410 0.000000 41.000000 14.436543 0.000000
4.241116 2.242194 24.476033 0.000000 54.000000 14.474768 0.000000
3.089226 -1.386739 24.347682 0.000000 40.000000 14.315121 0.000000
4.218140 2.093463 24.542410 0.000000 60.000000 14.539727 0.000000
2.852836 1.168483 24.474915 0.000000 48.000000 14.470011 0.000000
3.808852 3.081849 24.792778 0.000000 63.000000 14.802486 17.000000
-0.679331 1.050774 24.485719 0.000000 71.000000 14.498562 0.000000
4.009794 1.681195 24.465627 0.000000 43.000000 14.459809 0.000000
2.280411 0.069663 24.327759 0.000000 37.000000 14.314587 0.000000
2.444133 -2.834389 24.571908 0.000000 62.000000 14.527840 2.000000
3.487172 0.658146 24.346473 0.000000 38.000000 14.332900 0.000000
2.218079 -0.237566 24.502954 0.000000 46.000000 14.486931 0.000000
3.647457 3.653820 24.524026 0.000000 35.000000 14.540527 0.000000
2.832314 1.728438 24.457061 0.000000 49.000000 14.458053 0.000000
3.676648 -0.194061 24.475730 0.000000 42.000000 14.452327 0.000000
1.981773 0.925918 24.733344 0.000000 56.000000 14.730593 30.000000
3.527586 3.193536 24.472320 0.000000 34.000000 14.484714 0.000000
1.586727 -0.054942 24.563226 0.000000 42.000000 14.552475 22.000000
1.647492 1.998881 24.871938 0.000000 79.000000 14.882057 29.000000
2.215139 -1.122713 24.565120 0.000000 53.000000 14.539964 24.000000
1.555889 -1.501342 24.554171 0.000000 64.000000 14.528644 0.000000
2.929711 -0.975870 24.743810 0.000000 60.000000 14.716323 26.000000
2.601088 3.310217 24.626639 0.000000 61.000000 14.645202 7.000000
3.343131 1.353650 24.454895 0.000000 41.000000 14.449273 0.000000
2.761189 3.359694 24.844684 0.000000 55.000000 14.862883 7.000000
3.355530 3.418919 24.932704 0.000000 75.000000 14.948318 7.000000
2.631017 -2.517674 24.503118 0.000000 31.000000 14.461323 0.000000
4.127270 0.114614 24.452246 0.000000 30.000000 14.429614 0.000000
5.834642 1.042276 24.453668 0.000000 31.000000 14.431453 0.000000
1.314161 -3.030471 24.517650 0.000000 46.000000 14.477626 0.000000
1.420798 2.316970 24.919403 0.000000 65.000000 14.934022 28.000000
-0.351074 0.703705 24.567786 0.000000 70.000000 14.575275 21.000000
2.072878 3.183287 24.303025 0.000000 38.000000 14.323134 0.000000
3.504140 3.893106 24.325528 0.000000 36.000000 14.345284 0.000000
4.227871 3.950928 24.520892 0.000000 63.000000 14.537347 0.000000
0.251169 -1.348373 24.362615 0.000000 30.000000 14.345686 0.000000
3.630342 3.200521 24.480942 0.000000 61.000000 14.492855 0.000000
4.311446 0.893989 24.491355 0.000000 44.000000 14.475783 0.000000
3.996009 3.153323 24.458974 0.000000 57.000000 14.468438 0.000000
4.827770 2.974225 24.334566 0.000000 44.000000 14.337723 0.000000
3.421868 -2.773494 24.400787 0.000000 31.000000 14.352110 0.000000
-0.393412 0.868568 24.462253 0.000000 55.000000 14.471680 0.000000
1.801883 -0.591221 24.806459 0.000000 70.000000 14.788996 23.000000
1.958975 -3.134830 24.508531 0.000000 44.000000 14.463968 0.000000
3.482621 -1.882752 24.481883 0.000000 34.000000 14.442076 0.000000
1.199594 2.593133 25.060806 0.000000 66.000000 15.079456 28.000000
4.127574 -1.294798 24.591695 0.000000 43.000000 14.554492 5.000000
5.945968 0.887349 24.469122 0.000000 35.000000 14.444708 0.000000
4.093916 4.079606 24.708645 0.000000 52.000000 14.727136 6.000000
0.639785 1.628730 24.966359 0.000000 75.000000 14.978058 20.000000
1.679866 1.621675 24.753256 0.000000 71.000000 14.759312 29.000000
1.643222 2.365126 24.976745 0.000000 60.000000 14.990663 28.000000
0.685201 1.527895 24.885242 0.000000 75.000000 14.895661 20.000000
3.625284 -0.250398 24.494637 0.000000 37.000000 14.470927 0.000000
2.210829 -1.125633 24.528388 0.000000 54.000000 14.503228 0.000000
3.649626 -0.053986 24.489338 0.000000 47.000000 14.467526 0.000000
0.268487 0.098800 24.778849 0.000000 66.000000 14.776749 21.000000
3.099513 1.960611 24.402783 0.000000 37.000000 14.404743 0.000000
2.270219 -0.714368 24.500687 0.000000 46.000000 14.479458 0.000000
3.715381 0.342929 24.489394 0.000000 48.000000 14.471330 0.000000
-0.484481 1.260063 25.156627 0.000000 76.000000 15.170540 20.000000
3.673626 0.643195 24.332924 0.000000 33.000000 14.318196 0.000000
0.590453 1.275889 24.453664 0.000000 52.000000 14.462017 0.000000
5.941935 -0.716341 24.450254 0.000000 31.000000 14.409296 0.000000
2.385933 0.070147 24.403527 0.000000 43.000000 14.389788 0.000000
1.201376 -1.520200 24.488544 0.000000 46.000000 14.464730 0.000000
2.691802 0.943507 24.498855 0.000000 53.000000 14.492490 0.000000
4.067315 1.875389 24.502013 0.000000 51.000000 14.497890 0.000000
4.298357 1.248797 24.394085 0.000000 32.000000 14.382256 0.000000
1.709240 -1.461951 24.798819 0.000000 74.000000 14.772859 24.000000
4.178696 2.245383 24.509090 0.000000 59.000000 14.508190 0.000000
5.350344 0.516914 24.516419 0.000000 60.000000 14.491373 0.000000
4.215155 2.412679 24.481191 0.000000 46.000000 14.481826 0.000000
5.290637 1.871853 24.488154 0.000000 47.000000 14.477427 0.000000
3.149954 -0.703948 24.573372 0.000000 53.000000 14.547523 26.000000
2.418168 1.519592 24.536225 0.000000 32.000000 14.537278 0.000000
5.198662 1.805399 24.499510 0.000000 49.000000 14.488590 0.000000
3.600969 3.359321 24.448443 0.000000 48.000000 14.462157 0.000000
5.284113 1.328234 24.468717 0.000000 43.000000 14.452411 0.000000
4.165553 -2.105438 24.572000 0.000000 27.000000 14.526220 3.000000
3.384274 -2.273884 24.671965 0.000000 53.000000 14.628633 3.000000
5.026872 2.891124 24.460238 0.000000 49.000000 14.461459 0.000000
4.284949 1.544691 24.493665 0.000000 56.000000 14.484957 0.000000
3.428483 -0.075511 24.483655 0.000000 35.000000 14.462809 0.000000
4.967463 -1.534859 24.733398 0.000000 58.000000 14.689196 1.000000
-0.894502 0.822305 24.380704 0.000000 36.000000 14.392349 0.000000
3.398168 3.201605 24.446975 0.000000 48.000000 14.460148 0.000000
1.171656 0.058824 24.581547 0.000000 47.000000 14.574198 22.000000
4.336197 -0.036844 24.573743 0.000000 60.000000 14.548417 25.000000
1.432620 1.375267 24.825068 0.000000 67.000000 14.829901 29.000000
5.146562 -0.791283 24.613074 0.000000 38.000000 14.575601 10.000000
0.091273 2.088454 24.789936 0.000000 54.000000 14.809341 20.000000
4.122249 -1.077555 24.851258 0.000000 60.000000 14.816310 5.000000
3.575549 3.294297 24.450310 0.000000 51.000000 14.463488 0.000000
3.087850 -0.768543 24.643010 0.000000 57.000000 14.616822 26.000000
4.992090 -1.878228 24.397749 0.000000 24.000000 14.349891 0.000000
1.312211 2.443231 25.204271 0.000000 73.000000 15.220758 28.000000
3.725667 2.536339 24.318562 0.000000 42.000000 14.323113 0.000000
2.394033 1.686399 24.368789 0.000000 64.000000 14.371706 0.000000
4.008548 3.765624 24.675471 0.000000 43.000000 14.691179 6.000000
4.282071 -0.471290 24.334136 0.000000 38.000000 14.304629 0.000000
3.338775 1.555092 24.447257 0.000000 49.000000 14.443740 0.000000
3.359033 2.568470 24.730415 0.000000 44.000000 14.737239 18.000000
3.345624 1.967081 24.525652 0.000000 49.000000 14.526349 0.000000
1.444321 2.254222 25.310809 0.000000 81.000000 15.324627 28.000000
2.866910 1.426322 24.472607 0.000000 46.000000 14.470291 0.000000
3.341694 3.256442 24.612975 0.000000 43.000000 14.627007 7.000000
-0.196401 -0.164588 24.800065 0.000000 38.000000 14.797738 21.000000
1.257534 0.279645 24.495776 0.000000 53.000000 14.490253 0.000000
2.561007 1.083156 24.478250 0.000000 54.000000 14.474031 0.000000
0.158705 0.940912 24.467477 0.000000 48.000000 14.474687 0.000000
2.423049 0.923861 24.503507 0.000000 51.000000 14.498381 0.000000
3.339770 0.562083 24.306455 0.000000 39.000000 14.292684 0.000000
1.762333 0.229570 24.527808 0.000000 59.000000 14.519056 0.000000
0.515112 1.862815 25.404001 0.000000 59.000000 15.418758 20.000000
4.844245 -0.581692 24.374593 0.000000 31.000000 14.340924 0.000000
4.646949 0.867253 24.761386 0.000000 64.000000 14.743719 14.000000
2.066272 2.815212 25.130508 0.000000 80.000000 15.146794 28.000000
1.454131 1.042846 24.434181 0.000000 44.000000 14.435491 0.000000
0.478897 1.805575 24.930871 0.000000 43.000000 14.945263 20.000000
3.108582 3.438979 24.685086 0.000000 56.000000 14.702250 7.000000
2.762202 -3.141250 24.412042 0.000000 34.000000 14.363107 0.000000
-0.346504 1.623503 25.194297 0.000000 46.000000 15.211221 20.000000
3.959534 2.996416 24.522665 0.000000 64.000000 14.530700 0.000000
4.116741 -1.316588 24.779496 0.000000 51.000000 14.742114 5.000000
4.056137 1.696643 24.451511 0.000000 44.000000 14.445605 0.000000
0.803559 -0.299740 24.861656 0.000000 41.000000 14.852560 22.000000
2.267968 1.644288 24.730475 0.000000 67.000000 14.733609 30.000000
0.407086 1.873232 25.140785 0.000000 54.000000 15.156247 20.000000
5.573562 1.885172 24.375736 0.000000 59.000000 14.363636 0.000000
1.001462 -2.540573 24.402415 0.000000 34.000000 14.369139 0.000000
1.043726 -2.343901 24.352339 0.000000 33.000000 14.320871 0.000000
4.832967 1.872255 24.482597 0.000000 41.000000 14.474332 0.000000
3.322995 -1.718026 24.529091 0.000000 35.000000 14.491840 0.000000
2.912776 2.993810 24.847117 0.000000 51.000000 14.860723 7.000000
1.225684 -1.029883 24.557475 0.000000 49.000000 14.538591 23.000000
4.639928 1.394910 24.384142 0.000000 46.000000 14.371989 0.000000
2.961219 2.212410 24.848498 0.000000 64.000000 14.853771 18.000000
1.782678 3.101165 24.306975 0.000000 40.000000 14.327794 0.000000
3.544351 1.536944 24.473398 0.000000 46.000000 14.468588 0.000000
1.642660 3.116622 24.845664 0.000000 72.000000 14.867357 28.000000
0.660713 -0.773994 24.414290 0.000000 42.000000 14.401092 0.000000
4.189754 -0.210856 24.718345 0.000000 58.000000 14.691998 25.000000
0.744354 1.763388 24.518769 0.000000 51.000000 14.531328 0.000000
-0.384453 1.569614 25.042342 0.000000 71.000000 15.058924 20.000000
3.581416 1.013317 24.941574 0.000000 36.000000 14.931124 9.000000
0.339227 1.798288 25.261072 0.000000 64.000000 15.276116 20.000000
1.498534 0.535864 24.484219 0.000000 49.000000 14.480050 0.000000
2.590993 2.203548 24.973522 0.000000 86.000000 14.980683 29.000000
1.644320 0.745058 24.498581 0.000000 55.000000 14.495789 0.000000
2.199797 -1.370169 24.810896 0.000000 63.000000 14.783250 24.000000
3.756387 3.145554 24.684473 0.000000 39.000000 14.695128 17.000000
3.493041 2.320424 24.343694 0.000000 41.000000 14.347262 0.000000
3.467127 3.666283 24.598034 0.000000 74.000000 14.615627 7.000000
3.718772 2.652398 24.318754 0.000000 39.000000 14.324541 0.000000
3.920219 2.869391 24.432015 0.000000 40.000000 14.438955 0.000000
4.086170 3.059718 24.493532 0.000000 71.000000 14.501543 0.000000
4.175217 3.199054 24.448307 0.000000 41.000000 14.457282 0.000000
0.463792 1.549580 25.073134 0.000000 73.000000 15.084953 20.000000
3.253790 2.889091 24.474464 0.000000 46.000000 14.485182 0.000000
0.352151 1.828292 25.393685 0.000000 73.000000 15.408961 20.000000
2.457606 0.737087 24.577287 0.000000 50.000000 14.570041 15.000000
3.784817 3.500662 24.441348 0.000000 45.000000 14.455535 0.000000
3.993797 3.689514 24.540215 0.000000 54.000000 14.555225 0.000000
0.488810 0.968916 24.440325 0.000000 48.000000 14.446054 0.000000
1.318742 2.793604 24.884801 0.000000 60.000000 14.904894 28.000000
5.114488 2.180234 24.455750 0.000000 54.000000 14.449157 0.000000
0.547692 0.561119 24.689703 0.000000 57.000000 14.690886 21.000000
1.103040 -1.272174 24.719915 0.000000 44.000000 14.699175 19.000000
4.330187 2.553316 24.397943 0.000000 48.000000 14.399419 0.000000
4.881845 1.142200 24.695634 0.000000 53.000000 14.679550 14.000000
3.093004 2.241048 24.735192 0.000000 65.000000 14.740061 18.000000
0.438408 1.822772 25.444112 0.000000 74.000000 15.458864 20.000000
3.850705 2.980430 24.538535 0.000000 65.000000 14.546988 0.000000
3.540845 3.155957 24.499419 0.000000 59.000000 14.511351 0.000000
2.942164 0.900744 24.740123 0.000000 78.000000 14.731956 15.000000
4.086841 4.245616 24.361027 0.000000 44.000000 14.381294 0.000000
2.705136 3.595351 24.301083 0.000000 42.000000 14.322055 0.000000
5.241460 0.428750 24.826880 0.000000 72.000000 14.801486 25.000000
4.026039 3.660903 24.442552 0.000000 45.000000 14.457100 0.000000
5.136541 0.834233 24.461398 0.000000 45.000000 14.440781 0.000000
3.728257 3.384430 24.454032 0.000000 53.000000 14.467321 0.000000
6.232454 -0.585194 24.486147 0.000000 40.000000 14.444981 0.000000
3.418890 3.109461 24.466775 0.000000 46.000000 14.478884 0.000000
3.245349 2.962751 24.456159 0.000000 52.000000 14.467685 0.000000
1.283931 -1.055722 24.667306 0.000000 60.000000 14.647835 23.000000
4.229412 3.463325 24.433559 0.000000 45.000000 14.444974 0.000000
0.117613 0.070824 25.079822 0.000000 49.000000 15.078222 21.000000
2.158059 2.491125 24.873901 0.000000 59.000000 14.886364 28.000000
0.360458 0.823295 24.519910 0.000000 55.000000 14.524818 0.000000
2.453628 1.652212 24.364274 0.000000 56.000000 14.366518 0.000000
2.402336 1.419310 24.678942 0.000000 74.000000 14.679034 30.000000
2.580534 1.851991 24.297267 0.000000 35.000000 14.300898 0.000000
1.107357 1.416028 24.502434 0.000000 35.000000 14.509457 0.000000
2.922150 3.581717 24.343581 0.000000 39.000000 14.363244 0.000000
1.728831 0.641722 24.476320 0.000000 51.000000 14.472009 0.000000
4.072871 -0.328584 24.494233 0.000000 22.000000 14.467312 0.000000
3.501678 3.017111 24.744314 0.000000 50.000000 14.755006 17.000000
4.123010 4.026571 24.580684 0.000000 48.000000 14.598479 6.000000
4.093271 2.382052 24.439421 0.000000 49.000000 14.440397 0.000000
1.993396 2.377105 24.931363 0.000000 61.000000 14.943528 28.000000
1.735252 -0.518767 24.367813 0.000000 39.000000 14.351486 0.000000
0.310254 1.458852 25.186894 0.000000 76.000000 15.198592 20.000000
6.310793 0.128382 24.593388 0.000000 57.000000 14.559166 4.000000
1.202316 0.579287 24.808565 0.000000 71.000000 14.806413 21.000000
4.652303 1.571149 24.447341 0.000000 45.000000 14.436938 0.000000
0.628461 1.527710 24.691699 0.000000 70.000000 14.702434 20.000000
4.748626 1.230881 24.340894 0.000000 59.000000 14.326466 0.000000
5.056400 0.979591 24.744442 0.000000 37.000000 14.725738 14.000000
1.284197 2.776139 24.976637 0.000000 66.000000 14.996729 28.000000
3.933191 1.606752 24.461305 0.000000 38.000000 14.455129 0.000000
4.861585 -1.762229 24.434788 0.000000 31.000000 14.388826 0.000000
5.227343 0.572061 24.483815 0.000000 59.000000 14.460001 0.000000
5.353695 0.031238 24.357700 0.000000 44.000000 14.327629 0.000000
3.022081 -1.458646 24.377548 0.000000 33.000000 14.344602 0.000000
1.702691 -0.517203 24.432591 0.000000 47.000000 14.416451 0.000000
3.762738 -1.054798 24.524695 0.000000 45.000000 14.491935 0.000000
5.722478 -0.719199 24.461744 0.000000 37.000000 14.421934 0.000000
5.786691 -0.876824 24.478613 0.000000 41.000000 14.436828 0.000000
5.866766 -1.014601 24.527798 0.000000 55.000000 14.484157 0.000000
5.861998 -1.249792 24.437007 0.000000 35.000000 14.390968 0.000000
5.902674 -1.437300 24.424928 0.000000 41.000000 14.376734 0.000000
-0.340122 1.497649 25.127993 0.000000 69.000000 15.143588 20.000000
2.498129 1.435997 24.592872 0.000000 57.000000 14.592628 30.000000
2.146163 2.613138 24.939056 0.000000 69.000000 14.952839 28.000000
3.823429 -1.744518 24.523610 0.000000 41.000000 14.483399 0.000000
2.589880 2.286349 24.849875 0.000000 54.000000 14.857906 29.000000
0.939510 0.512714 24.609577 0.000000 47.000000 14.608162 21.000000
3.496646 -2.308835 24.842742 0.000000 60.000000 14.798434 3.000000
3.102168 -1.611357 24.694207 0.000000 46.000000 14.659232 5.000000
0.341468 -1.289953 24.359449 0.000000 21.000000 14.342639 0.000000
2.550821 2.163218 24.524738 0.000000 43.000000 14.531728 0.000000
-0.278181 0.188489 24.538258 0.000000 65.000000 14.540036 0.000000
2.318716 1.336846 24.683942 0.000000 62.000000 14.683631 30.000000
3.017166 -1.012082 24.697348 0.000000 26.000000 14.669020 26.000000
4.031899 3.369792 24.462499 0.000000 42.000000 14.474006 0.000000
2.843324 2.717537 24.468151 0.000000 43.000000 14.479301 0.000000
4.194715 3.490623 24.456727 0.000000 44.000000 14.468609 0.000000
1.476427 1.905614 24.906325 0.000000 70.000000 14.916396 29.000000
3.403544 3.516303 25.060802 0.000000 63.000000 15.077156 7.000000
3.214794 2.976236 24.473472 0.000000 54.000000 14.485300 0.000000
5.135363 0.377824 24.569815 0.000000 40.000000 14.544482 25.000000
3.203821 2.615332 24.936146 0.000000 75.000000 14.944273 18.000000
6.169127 0.141499 24.383582 0.000000 23.000000 14.350270 0.000000
3.923379 3.441623 24.460789 0.000000 45.000000 14.473621 0.000000
4.100094 3.551971 24.457240 0.000000 53.000000 14.470264 0.000000
0.326374 1.372807 25.005287 0.000000 61.000000 15.016022 20.000000
0.769276 -1.109292 24.638406 0.000000 58.000000 14.621146 19.000000
2.121465 1.325933 24.425287 0.000000 31.000000 14.425940 0.000000
3.193133 -0.772003 24.678228 0.000000 67.000000 14.651437 26.000000
1.565929 1.470997 25.008523 0.000000 59.000000 15.013617 29.000000
-0.179763 0.191777 24.497118 0.000000 55.000000 14.498404 0.000000
3.588410 3.464444 24.589684 0.000000 60.000000 14.604542 7.000000
4.900420 0.634583 24.444398 0.000000 46.000000 14.422988 0.000000
1.757120 -1.580568 24.651554 0.000000 49.000000 14.624121 24.000000
2.750777 -0.049841 24.670505 0.000000 58.000000 14.653550 27.000000
6.055844 -0.553275 24.470716 0.000000 31.000000 14.430829 0.000000
3.216112 2.420785 24.746725 0.000000 45.000000 14.752789 18.000000
4.733575 1.249555 24.334976 0.000000 61.000000 14.320822 0.000000
2.267966 2.280676 25.136935 0.000000 63.000000 15.146616 29.000000
2.465172 2.181159 25.158962 0.000000 56.000000 15.166554 29.000000
4.510622 1.699178 24.482622 0.000000 60.000000 14.474300 0.000000
2.274811 -1.557865 24.376106 0.000000 39.000000 14.346147 0.000000
-0.913646 0.885212 24.408383 0.000000 41.000000 14.420779 0.000000
4.249073 2.118687 24.546883 0.000000 63.000000 14.544294 0.000000
4.125014 2.234017 24.510520 0.000000 59.000000 14.509791 0.000000
3.984831 2.336323 24.446965 0.000000 53.000000 14.448050 0.000000
4.990522 2.549048 24.649395 0.000000 32.000000 14.647264 12.000000
3.703672 2.546138 24.314260 0.000000 46.000000 14.319031 0.000000
2.166062 2.822396 25.079143 0.000000 80.000000 15.094971 28.000000
3.492034 2.248010 24.326303 0.000000 46.000000 14.329130 0.000000
3.050039 3.699982 24.321417 0.000000 41.000000 14.341617 0.000000
4.238517 4.427659 24.295692 0.000000 36.000000 14.317030 0.000000
4.271335 3.567965 24.442470 0.000000 43.000000 14.454741 0.000000
0.168617 0.764983 24.668280 0.000000 73.000000 14.673606 21.000000
3.941692 -1.153162 24.682438 0.000000 69.000000 14.647690 5.000000
2.544702 2.092859 24.991284 0.000000 78.000000 14.997549 29.000000
1.290675 0.932562 24.445303 0.000000 38.000000 14.446351 0.000000
1.378560 -3.446329 24.457783 0.000000 41.000000 14.413122 0.000000
4.337986 -0.914023 24.426943 0.000000 24.000000 14.392555 0.000000
1.954119 -1.063206 24.499458 0.000000 24.000000 14.476323 0.000000
2.622741 0.751672 24.626644 0.000000 71.000000 14.618659 15.000000
6.199735 -0.493275 24.439334 0.000000 28.000000 14.399297 0.000000
4.150466 0.967058 24.364562 0.000000 35.000000 14.350618 0.000000
1.217310 2.673583 25.128034 0.000000 77.000000 15.147415 28.000000
3.900090 3.141331 24.445397 0.000000 40.000000 14.455253 0.000000
2.355108 2.626200 24.488648 0.000000 49.000000 14.501474 0.000000
2.737474 -2.659644 24.746092 0.000000 44.000000 14.702242 2.000000
3.375897 3.261964 24.509873 0.000000 40.000000 14.523785 0.000000
0.277008 2.235588 24.489156 0.000000 41.000000 14.509104 0.000000
1.655026 0.803512 24.504837 0.000000 57.000000 14.502591 0.000000
1.790308 -1.863097 24.356241 0.000000 33.000000 14.325732 0.000000
3.422996 3.300325 24.457859 0.000000 46.000000 14.471918 0.000000
3.036672 0.153059 24.570391 0.000000 38.000000 14.554004 27.000000
0.234230 0.499538 24.855739 0.000000 77.000000 14.857957 21.000000
5.126730 -0.756590 24.684027 0.000000 57.000000 14.647014 10.000000
3.415873 -2.278612 24.853955 0.000000 58.000000 14.810392 3.000000
4.905693 2.950951 24.422790 0.000000 47.000000 14.425282 0.000000
5.607277 -0.156666 24.409165 0.000000 33.000000 14.375788 0.000000
2.295306 -1.317865 24.707819 0.000000 65.000000 14.680207 24.000000
1.239249 -0.250320 24.571593 0.000000 46.000000 14.560688 22.000000
3.187805 -1.718577 24.809572 0.000000 54.000000 14.773022 5.000000
4.305745 4.185421 24.562923 0.000000 57.000000 14.581379 6.000000
5.032458 2.479756 24.460456 0.000000 56.000000 14.457397 0.000000
4.567895 1.462889 24.401352 0.000000 55.000000 14.390287 0.000000
5.063007 2.318981 24.463926 0.000000 46.000000 14.459042 0.000000
3.884931 1.505377 24.496797 0.000000 62.000000 14.489831 0.000000
-0.530905 1.949793 24.295244 0.000000 35.000000 14.316590 0.000000
5.144210 2.004804 24.506748 0.000000 58.000000 14.498180 0.000000
0.137254 0.582037 24.723796 0.000000 63.000000 14.727396 21.000000
1.484485 2.121454 24.913387 0.000000 36.000000 14.925644 28.000000
1.680695 2.067034 24.720468 0.000000 57.000000 14.731123 29.000000
1.822016 -1.211447 24.516502 0.000000 56.000000 14.492543 0.000000
4.843255 3.221423 25.004896 0.000000 49.000000 15.010478 8.000000
1.088253 2.759345 24.815986 0.000000 50.000000 14.836967 28.000000
5.205725 1.304795 24.477935 0.000000 41.000000 14.461807 0.000000
2.749149 0.483867 24.493048 0.000000 48.000000 14.481627 0.000000
4.002259 0.241886 24.481690 0.000000 43.000000 14.461042 0.000000
2.641478 0.226794 24.340616 0.000000 45.000000 14.327128 0.000000
4.422540 0.548883 24.606134 0.000000 31.000000 14.586393 14.000000
4.025620 -0.126231 24.494195 0.000000 50.000000 14.469618 0.000000
2.420514 2.445941 24.456502 0.000000 44.000000 14.467117 0.000000
2.817862 -0.952090 24.651751 0.000000 54.000000 14.625116 26.000000
4.341774 0.475738 24.478054 0.000000 36.000000 14.458000 0.000000
1.186475 2.511573 25.177478 0.000000 59.000000 15.195348 28.000000
1.085331 -0.663413 24.329413 0.000000 34.000000 14.315084 0.000000
5.232086 -0.178347 24.439990 0.000000 46.000000 14.408401 0.000000
4.003350 -1.505041 24.507165 0.000000 47.000000 14.468463 0.000000
1.758446 1.129783 24.500092 0.000000 50.000000 14.500662 0.000000
5.226829 -0.924129 24.484700 0.000000 38.000000 14.445432 0.000000
5.531892 -1.735068 24.351029 0.000000 24.000000 14.301755 0.000000
2.345805 1.732103 24.484817 0.000000 75.000000 14.488457 0.000000
2.917615 3.553709 24.643045 0.000000 46.000000 14.662423 7.000000
2.717718 0.480845 24.507442 0.000000 49.000000 14.496158 0.000000
3.916738 -2.143240 24.723697 0.000000 57.000000 14.678852 3.000000
4.228986 3.853510 24.632473 0.000000 54.000000 14.647908 6.000000
2.499895 2.213045 25.075881 0.000000 62.000000 15.083622 29.000000
3.740415 3.475467 24.438320 0.000000 43.000000 14.452486 0.000000
3.941144 3.557108 24.448257 0.000000 47.000000 14.462188 0.000000
5.113574 -1.427524 24.712571 0.000000 47.000000 14.668695 1.000000
1.647871 -0.012433 24.481152 0.000000 40.000000 14.470517 0.000000
4.457979 3.454753 24.678241 0.000000 58.000000 14.688324 8.000000
3.190362 3.049492 24.458331 0.000000 43.000000 14.471048 0.000000
2.275484 3.421716 24.316636 0.000000 41.000000 14.338120 0.000000
2.737412 3.495982 24.796474 0.000000 69.000000 14.816212 7.000000
0.008970 1.176423 24.478464 0.000000 34.000000 14.488910 0.000000
2.783333 -0.625952 24.482625 0.000000 47.000000 14.459556 0.000000
3.981078 3.316512 24.442164 0.000000 46.000000 14.453395 0.000000
4.663663 1.663245 24.468971 0.000000 38.000000 14.459457 0.000000
1.464419 -2.462590 24.490904 0.000000 41.000000 14.455942 0.000000
0.552400 1.830918 25.204622 0.000000 76.000000 15.218862 20.000000
5.183882 -1.934675 24.424097 0.000000 39.000000 14.374624 0.000000
1.671881 -3.796048 24.366342 0.000000 25.000000 14.316499 0.000000
2.340416 3.275249 24.330989 0.000000 36.000000 14.350610 0.000000
6.310241 -0.681181 24.522841 0.000000 61.000000 14.480264 0.000000
2.823717 3.318250 24.857375 0.000000 67.000000 14.874810 7.000000
3.877629 3.405632 24.441836 0.000000 42.000000 14.454543 0.000000
0.707732 1.982696 24.947984 0.000000 72.000000 14.962976 20.000000
0.375416 2.016016 25.264470 0.000000 81.000000 15.281569 20.000000
0.430519 1.901659 25.200153 0.000000 64.000000 15.215779 20.000000
1.726962 -0.843195 24.702811 0.000000 36.000000 14.683154 23.000000
4.300469 -0.433402 24.352733 0.000000 39.000000 14.323517 0.000000
5.505467 0.752238 24.466521 0.000000 41.000000 14.443076 0.000000
1.238392 0.175497 24.498964 0.000000 29.000000 14.492468 0.000000
3.019323 2.153460 24.893272 0.000000 61.000000 14.897621 18.000000
4.116172 0.286668 24.462205 0.000000 43.000000 14.441410 0.000000
1.509646 2.780044 25.104705 0.000000 67.000000 15.123618 28.000000
1.541320 2.560150 25.070658 0.000000 63.000000 15.087132 28.000000
1.274772 0.395009 24.478747 0.000000 59.000000 14.474325 0.000000
5.058114 1.078221 24.636780 0.000000 65.000000 14.619093 14.000000
4.200344 1.165963 24.389095 0.000000 39.000000 14.376936 0.000000
5.058911 1.802130 24.391125 0.000000 38.000000 14.380929 0.000000
5.078142 2.012316 24.493830 0.000000 57.000000 14.485695 0.000000
5.014158 2.155971 24.464405 0.000000 50.000000 14.458099 0.000000
3.799379 1.479916 24.514954 0.000000 62.000000 14.508183 0.000000
4.966586 2.310395 24.455070 0.000000 52.000000 14.450616 0.000000
1.680376 2.082606 24.562604 0.000000 26.000000 14.573432 29.000000
4.941807 2.478240 24.477057 0.000000 53.000000 14.474468 0.000000
4.346208 0.754407 24.687185 0.000000 65.000000 14.669971 14.000000
3.093362 2.367858 24.723575 0.000000 54.000000 14.729753 18.000000
4.875998 2.799569 24.486658 0.000000 56.000000 14.487741 0.000000
2.724340 3.517688 24.758034 0.000000 66.000000 14.778069 7.000000
1.298846 1.994647 24.591581 0.000000 45.000000 14.603547 28.000000
1.708496 2.084385 24.826824 0.000000 79.000000 14.837502 29.000000
1.578918 1.674778 25.117626 0.000000 78.000000 15.124748 29.000000
3.503913 2.616116 24.420836 0.000000 48.000000 14.427395 0.000000
3.503213 3.161546 24.500329 0.000000 56.000000 14.512521 0.000000
-0.569464 1.946848 25.036997 0.000000 61.000000 15.058469 20.000000
3.377198 3.796026 24.391972 0.000000 37.000000 14.411402 0.000000
0.501746 0.542710 24.713346 0.000000 63.000000 14.714584 21.000000
4.861475 -1.050040 24.486677 0.000000 41.000000 14.448070 0.000000
3.299398 -0.009795 24.743189 0.000000 63.000000 14.723697 27.000000
3.305652 -1.507982 24.465402 0.000000 40.000000 14.430418 0.000000
3.612609 3.188802 24.493980 0.000000 58.000000 14.505867 0.000000
1.729069 1.771671 25.035072 0.000000 55.000000 15.042395 29.000000
0.961364 -1.427707 24.525786 0.000000 47.000000 14.504213 0.000000
4.311356 3.768318 24.448153 0.000000 40.000000 14.462278 0.000000
4.157817 3.760544 24.502843 0.000000 46.000000 14.517708 0.000000
3.449955 2.617323 24.497475 0.000000 49.000000 14.504331 0.000000
2.145209 2.929820 24.496207 0.000000 45.000000 14.513296 0.000000
3.367265 3.656877 24.501488 0.000000 61.000000 14.519527 0.000000
3.884357 3.023024 24.639968 0.000000 66.000000 14.648673 17.000000
0.889107 0.506948 24.607378 0.000000 58.000000 14.606174 21.000000
3.427348 3.961584 24.327924 0.000000 40.000000 14.348800 0.000000
5.698662 -1.554993 24.386257 0.000000 43.000000 14.337945 0.000000
0.489955 1.865822 24.961628 0.000000 77.000000 14.976581 20.000000
3.883001 0.920519 24.359165 0.000000 48.000000 14.346177 0.000000
3.313263 -0.655404 24.714043 0.000000 62.000000 14.687809 26.000000
2.404459 3.389027 24.302731 0.000000 33.000000 14.323185 0.000000
4.455675 2.809386 24.305122 0.000000 40.000000 14.308576 0.000000
6.419983 -0.477929 24.463452 0.000000 36.000000 14.422389 0.000000
0.947045 2.620545 24.831601 0.000000 58.000000 14.851905 28.000000
4.494560 2.365021 24.506142 0.000000 57.000000 14.504783 0.000000
3.917581 -0.352096 24.593757 0.000000 70.000000 14.567420 26.000000
4.488966 0.942779 24.439961 0.000000 36.000000 14.423944 0.000000
5.831538 -0.844678 24.465469 0.000000 39.000000 14.423777 0.000000
3.258026 1.290290 24.459554 0.000000 49.000000 14.453734 0.000000
2.933110 3.154168 24.960204 0.000000 75.000000 14.975349 7.000000
4.403521 1.839793 24.544453 0.000000 68.000000 14.538154 0.000000
1.491217 2.443565 25.199835 0.000000 69.000000 15.215364 28.000000
4.289141 1.452919 24.511788 0.000000 60.000000 14.502109 0.000000
-0.455264 1.601065 25.234376 0.000000 65.000000 15.251650 20.000000
1.160028 -1.063508 24.586793 0.000000 59.000000 14.567912 19.000000
2.792872 0.237016 24.321731 0.000000 45.000000 14.307537 0.000000
4.056940 0.976151 24.328494 0.000000 49.000000 14.315148 0.000000
4.434868 2.048094 24.484383 0.000000 58.000000 14.480072 0.000000
4.069775 0.836948 24.428390 0.000000 48.000000 14.413531 0.000000
3.643983 -0.692565 24.455351 0.000000 33.000000 14.426975 0.000000
2.254851 2.722865 24.940795 0.000000 51.000000 14.955128 28.000000
6.023273 -0.119185 24.554149 0.000000 37.000000 14.518916 0.000000
1.269139 0.617188 24.632745 0.000000 79.000000 14.630638 21.000000
2.598485 -0.685290 24.506795 0.000000 45.000000 14.484104 0.000000
5.058814 0.849559 24.470768 0.000000 49.000000 14.450726 0.000000
-0.561610 0.663814 24.476440 0.000000 53.000000 14.484654 0.000000
3.900198 3.563793 24.439166 0.000000 39.000000 14.453386 0.000000
3.493951 -2.160235 24.914147 0.000000 51.000000 14.871384 3.000000
3.797591 0.535865 24.434792 0.000000 33.000000 14.418283 0.000000
4.338500 2.158584 24.470612 0.000000 47.000000 14.467960 0.000000
3.088923 0.007390 24.635222 0.000000 55.000000 14.617045 27.000000
2.526364 2.413549 24.472683 0.000000 49.000000 14.482394 0.000000
4.163506 -0.877460 24.380312 0.000000 27.000000 14.347242 0.000000
0.251063 0.471286 24.839204 0.000000 73.000000 14.841041 21.000000
4.169128 1.675076 24.509148 0.000000 54.000000 14.502408 0.000000
1.654097 -2.932024 24.506845 0.000000 49.000000 14.466014 0.000000
3.272098 1.673046 24.488993 0.000000 46.000000 14.487050 0.000000
5.759919 -0.312934 24.776461 0.000000 46.000000 14.740625 10.000000
2.787970 -2.443691 24.495667 0.000000 41.000000 14.453794 0.000000
0.084966 -0.316347 24.512741 0.000000 50.000000 14.507355 0.000000
3.673655 2.741806 24.503240 0.000000 43.000000 14.510181 0.000000
3.251614 -1.521578 24.524708 0.000000 42.000000 14.489870 0.000000
0.663596 1.614411 24.982268 0.000000 46.000000 14.993690 20.000000
2.798139 3.602353 24.329126 0.000000 36.000000 14.349669 0.000000
3.328380 3.720986 24.483141 0.000000 46.000000 14.502052 0.000000
0.817757 0.642098 24.615157 0.000000 74.000000 14.615732 21.000000
1.052098 -1.015775 24.699659 0.000000 55.000000 14.681843 19.000000
4.302918 3.810843 24.457593 0.000000 41.000000 14.472202 0.000000
4.503986 3.829399 24.471035 0.000000 44.000000 14.484755 0.000000
3.405844 3.165343 24.508633 0.000000 49.000000 14.521386 0.000000
4.973172 2.456494 24.467897 0.000000 51.000000 14.464916 0.000000
3.805441 3.187983 24.512172 0.000000 65.000000 14.523014 0.000000
3.973928 3.178033 24.473848 0.000000 57.000000 14.483685 0.000000
4.435290 -2.344772 24.371402 0.000000 30.000000 14.321715 0.000000
-0.348183 0.676563 24.622329 0.000000 82.000000 14.629519 21.000000
4.196342 2.725431 24.493626 0.000000 62.000000 14.497592 0.000000
0.620656 -0.244146 24.651234 0.000000 56.000000 14.643709 22.000000
3.003700 -2.683431 24.509896 0.000000 40.000000 14.464387 0.000000
2.969616 -1.456555 24.333883 0.000000 21.000000 14.301243 0.000000
2.990712 -2.470006 24.522097 0.000000 48.000000 14.478862 0.000000
5.201080 -1.768645 24.363630 0.000000 32.000000 14.315784 0.000000
2.946681 -2.286389 24.491132 0.000000 35.000000 14.450032 0.000000
2.145485 -0.531670 24.509954 0.000000 41.000000 14.491282 0.000000
0.725975 0.021564 24.499358 0.000000 45.000000 14.494023 0.000000
1.877978 1.831565 25.025041 0.000000 55.000000 15.032184 29.000000
2.832983 -1.538941 24.404005 0.000000 53.000000 14.371243 0.000000
2.876748 -2.209332 24.477324 0.000000 36.000000 14.437397 0.000000
2.804464 -1.358056 24.372103 0.000000 40.000000 14.341365 0.000000
4.462858 0.636233 24.744384 0.000000 52.000000 14.725319 14.000000
5.111185 -0.371434 24.388266 0.000000 29.000000 14.355335 0.000000
3.436696 1.975175 24.669744 0.000000 77.000000 14.670026 16.000000
0.613904 1.818672 24.913958 0.000000 66.000000 14.927761 20.000000
1.775389 0.812520 24.461704 0.000000 48.000000 14.458908 0.000000
2.135687 -1.214074 24.860402 0.000000 75.000000 14.834709 24.000000
0.764518 0.334767 24.942495 0.000000 52.000000 14.940158 21.000000
4.285372 0.928320 24.513323 0.000000 46.000000 14.498244 0.000000
5.421077 -1.369826 24.793679 0.000000 44.000000 14.748743 1.000000
4.171986 1.013817 24.335385 0.000000 48.000000 14.321810 0.000000
2.832377 0.229525 24.327285 0.000000 46.000000 14.312801 0.000000
4.475729 0.848955 24.642681 0.000000 78.000000 14.625752 14.000000
0.639895 1.688959 24.928244 0.000000 67.000000 14.940567 20.000000
4.500259 3.720989 24.580182 0.000000 44.000000 14.592795 8.000000
1.226877 0.031374 24.550701 0.000000 46.000000 14.542774 22.000000
3.562413 -0.821238 24.353296 0.000000 25.000000 14.324036 0.000000
3.066416 1.111833 24.513290 0.000000 47.000000 14.506652 0.000000
2.749610 1.917695 24.295645 0.000000 29.000000 14.299047 0.000000
-0.546854 1.429673 25.159962 0.000000 63.000000 15.175962 20.000000
0.901072 -0.153054 24.468050 0.000000 26.000000 14.459973 0.000000
0.740528 1.752371 24.931691 0.000000 68.000000 14.944129 20.000000
2.168012 -0.059403 24.392828 0.000000 51.000000 14.378922 0.000000
0.749203 1.335232 24.443151 0.000000 43.000000 14.451266 0.000000
-0.849945 1.694449 24.691167 0.000000 33.000000 14.711561 20.000000
1.206585 0.200241 24.509091 0.000000 53.000000 14.503021 0.000000
3.518214 3.306406 24.454115 0.000000 49.000000 14.467726 0.000000
3.627381 -1.308665 24.926965 0.000000 72.000000 14.892282 5.000000
2.022885 1.141056 24.664292 0.000000 59.000000 14.663548 30.000000
1.013455 0.451313 24.822788 0.000000 31.000000 14.820327 21.000000
3.704302 4.122365 24.308414 0.000000 39.000000 14.329465 0.000000
-0.753239 1.438783 24.810542 0.000000 38.000000 14.827768 20.000000
0.947531 -1.139240 24.835133 0.000000 59.000000 14.816594 19.000000
3.570481 3.134359 24.472792 0.000000 57.000000 14.484344 0.000000
3.518902 3.139279 24.513153 0.000000 54.000000 14.525030 0.000000
4.502396 3.846411 24.462480 0.000000 45.000000 14.476385 0.000000
6.581558 -1.189728 24.341138 0.000000 23.000000 14.291863 0.000000
3.490753 3.935931 24.315336 0.000000 36.000000 14.335607 0.000000
2.061238 3.230365 24.293895 0.000000 41.000000 14.314554 0.000000
1.742753 2.484837 25.007231 0.000000 65.000000 15.021849 28.000000
3.804153 4.105248 24.332953 0.000000 37.000000 14.353290 0.000000
3.666536 3.632886 24.438432 0.000000 53.000000 14.454621 0.000000
3.594303 3.461172 24.445209 0.000000 50.000000 14.460011 0.000000
3.521638 3.291527 24.452721 0.000000 49.000000 14.466160 0.000000
3.960240 -0.194106 24.474074 0.000000 37.000000 14.449148 0.000000
4.131032 2.726034 24.516434 0.000000 63.000000 14.520755 0.000000
5.718609 -0.290083 24.685530 0.000000 64.000000 14.650158 10.000000
5.787692 0.654470 24.739134 0.000000 41.000000 14.713145 13.000000
-0.174913 1.954391 25.061468 0.000000 71.000000 15.080898 20.000000
4.745850 -0.348258 24.396785 0.000000 39.000000 14.366054 0.000000
-0.388295 1.944709 24.536278 0.000000 35.000000 14.556790 0.000000
3.884374 -0.808250 24.433486 0.000000 40.000000 14.402626 0.000000
5.316312 2.220719 24.475982 0.000000 54.000000 14.468722 0.000000
4.375731 0.133406 24.473493 0.000000 49.000000 14.449720 0.000000
-0.296707 0.304205 24.751329 0.000000 47.000000 14.754387 21.000000
2.251865 0.939517 24.512809 0.000000 56.000000 14.508764 0.000000
-0.530459 1.629046 24.971198 0.000000 65.000000 14.989182 20.000000
2.153070 0.765844 24.543594 0.000000 53.000000 14.538283 0.000000
5.458494 0.438160 24.632374 0.000000 63.000000 14.605925 25.000000
4.100668 3.203260 24.437910 0.000000 46.000000 14.447330 0.000000
3.562981 -0.032835 24.458747 0.000000 39.000000 14.437621 0.000000
1.715015 -2.249858 24.426130 0.000000 37.000000 14.392025 0.000000
2.975469 1.024896 24.527565 0.000000 51.000000 14.520516 0.000000
2.416046 -1.676226 24.334872 0.000000 23.000000 14.302935 0.000000
-0.134799 1.615954 25.135285 0.000000 60.000000 15.150999 20.000000
0.972365 0.960927 24.419596 0.000000 60.000000 14.422647 0.000000
3.864388 -1.070924 24.441448 0.000000 36.000000 14.407981 0.000000
1.050532 -0.719514 24.406358 0.000000 41.000000 14.391631 0.000000
4.353312 1.554375 24.468651 0.000000 49.000000 14.459678 0.000000
-0.782056 1.054443 24.832885 0.000000 39.000000 14.846294 20.000000
2.273813 -0.036326 24.445729 0.000000 48.000000 14.431489 0.000000
2.199128 -0.171158 24.537840 0.000000 41.000000 14.522602 0.000000
1.163135 2.762519 25.025937 0.000000 75.000000 15.046535 28.000000
5.245753 0.866707 24.461240 0.000000 43.000000 14.440372 0.000000
1.345803 -1.191240 24.485145 0.000000 44.000000 14.463954 0.000000
3.573247 3.556851 24.547192 0.000000 65.000000 14.563089 7.000000
1.757997 -0.566079 24.817857 0.000000 67.000000 14.800889 23.000000
2.352662 2.547127 24.462610 0.000000 48.000000 14.474634 0.000000
1.295355 2.742753 24.961215 0.000000 67.000000 14.980903 28.000000
3.539718 3.998683 24.313860 0.000000 37.000000 14.334517 0.000000
4.221429 3.956869 24.514587 0.000000 67.000000 14.531138 0.000000
4.344578 3.884998 24.440363 0.000000 42.000000 14.455516 0.000000
5.022660 1.247000 24.406259 0.000000 31.000000 14.390521 0.000000
3.414728 3.147095 24.476872 0.000000 49.000000 14.489391 0.000000
3.945299 3.003768 24.486824 0.000000 58.000000 14.495014 0.000000
4.977915 2.304248 24.455450 0.000000 53.000000 14.450871 0.000000
3.641013 0.334640 24.475240 0.000000 42.000000 14.457490 0.000000
4.379627 2.793672 24.384669 0.000000 59.000000 14.388363 0.000000
4.517030 2.716672 24.344121 0.000000 41.000000 14.346285 0.000000
2.356627 0.479357 24.803349 0.000000 71.000000 14.793968 15.000000
5.223809 2.516138 24.450773 0.000000 54.000000 14.447063 0.000000
3.330976 0.546192 24.315338 0.000000 43.000000 14.301449 0.000000
5.075660 0.284964 24.726780 0.000000 48.000000 14.700798 25.000000
3.491464 2.933933 24.818011 0.000000 74.000000 14.827893 17.000000
4.659779 -0.678559 24.397419 0.000000 31.000000 14.363738 0.000000
1.876285 0.676703 24.478529 0.000000 43.000000 14.473787 0.000000
-0.187043 1.894180 24.884433 0.000000 63.000000 14.903319 20.000000
2.236951 -1.917200 24.463721 0.000000 41.000000 14.430248 0.000000
0.880833 2.529684 24.846913 0.000000 54.000000 14.866633 28.000000
1.166824 2.526298 25.010318 0.000000 70.000000 15.028457 28.000000
0.807611 -2.279440 24.432221 0.000000 41.000000 14.402681 0.000000
2.544952 -0.831397 24.489357 0.000000 40.000000 14.465445 0.000000
0.110801 0.038658 24.739355 0.000000 57.000000 14.737483 21.000000
2.645430 -0.591038 24.535848 0.000000 44.000000 14.513877 0.000000
1.830551 2.839683 24.890059 0.000000 51.000000 14.907880 28.000000
0.386561 2.456393 24.841180 0.000000 45.000000 14.862797 20.000000
4.444076 2.233119 24.477402 0.000000 53.000000 14.474953 0.000000
1.436387 -0.657699 24.491371 0.000000 56.000000 14.475205 0.000000
2.841145 0.300784 24.335061 0.000000 43.000000 14.321265 0.000000
3.909928 1.347348 24.790556 0.000000 69.000000 14.781803 9.000000
2.926951 0.506936 24.346697 0.000000 35.000000 14.334570 0.000000
0.117020 -0.496716 24.479008 0.000000 52.000000 14.471589 0.000000
2.189294 0.034571 24.350625 0.000000 39.000000 14.337578 0.000000
3.324502 1.709466 24.664714 0.000000 55.000000 14.662854 16.000000
2.260121 1.657223 24.552082 0.000000 53.000000 14.555404 30.000000
3.421662 1.533457 24.466279 0.000000 44.000000 14.462092 0.000000
-0.354384 0.617372 24.553218 0.000000 60.000000 14.559834 21.000000
-0.188068 2.081453 24.294464 0.000000 37.000000 14.315330 0.000000
4.717395 0.950517 24.688194 0.000000 51.000000 14.671013 14.000000
3.004469 -1.732880 24.706317 0.000000 37.000000 14.670611 5.000000
2.114339 -1.031464 24.494521 0.000000 44.000000 14.470854 0.000000
1.829677 0.393020 24.477869 0.000000 43.000000 14.470447 0.000000
4.386741 1.023792 24.360715 0.000000 43.000000 14.346089 0.000000
2.536903 1.595844 24.527606 0.000000 57.000000 14.528810 0.000000
3.815892 2.405583 24.400599 0.000000 58.000000 14.403310 0.000000
2.165155 -0.945245 24.502196 0.000000 46.000000 14.479146 0.000000
3.922188 2.590141 24.419697 0.000000 46.000000 14.423742 0.000000
2.759784 1.977215 24.540035 0.000000 39.000000 14.543981 0.000000
3.501815 3.182136 24.500693 0.000000 57.000000 14.513105 0.000000
2.158055 2.754375 25.086638 0.000000 52.000000 15.101806 28.000000
3.692688 3.490234 24.448732 0.000000 48.000000 14.463306 0.000000
1.484604 2.200527 24.836472 0.000000 72.000000 14.849551 28.000000
4.320508 4.292284 24.510384 0.000000 44.000000 14.529869 0.000000
0.791581 -1.024396 24.466490 0.000000 39.000000 14.449999 0.000000
0.770076 1.394007 24.464015 0.000000 49.000000 14.472623 0.000000
0.858294 -0.294260 24.793201 0.000000 80.000000 14.783873 22.000000
4.514874 0.734289 24.619760 0.000000 66.000000 14.601438 14.000000
4.132687 2.853650 24.524112 0.000000 70.000000 14.529742 0.000000
2.296415 -0.403955 24.667203 0.000000 43.000000 14.649029 27.000000
0.661113 1.738312 25.091912 0.000000 74.000000 15.104620 20.000000
2.942798 2.069790 24.648599 0.000000 61.000000 14.652511 18.000000
2.363874 -0.475683 24.608006 0.000000 43.000000 14.588733 27.000000
4.465398 3.923039 24.508691 0.000000 45.000000 14.523583 0.000000
4.231347 0.866421 24.511012 0.000000 46.000000 14.495584 0.000000
2.232156 2.935316 24.471836 0.000000 51.000000 14.488517 0.000000
0.384126 2.106947 25.080113 0.000000 81.000000 15.098117 20.000000
3.734138 3.485464 24.444493 0.000000 50.000000 14.458795 0.000000
2.861433 1.252440 24.449702 0.000000 47.000000 14.445621 0.000000
3.502476 3.199044 24.493089 0.000000 59.000000 14.505673 0.000000
3.571680 1.965463 24.519443 0.000000 59.000000 14.518910 0.000000
0.016354 0.881054 24.499526 0.000000 65.000000 14.506880 0.000000
4.368867 3.510727 24.479243 0.000000 47.000000 14.490396 0.000000
5.513454 1.552399 24.445459 0.000000 36.000000 14.430239 0.000000
4.239405 1.845062 24.472728 0.000000 55.000000 14.467369 0.000000
4.067782 3.204244 24.445574 0.000000 50.000000 14.455180 0.000000
2.363156 2.639432 24.553538 0.000000 47.000000 14.566453 28.000000
4.265660 2.915789 24.497208 0.000000 61.000000 14.502768 0.000000
0.657301 -1.694548 24.481503 0.000000 54.000000 14.458809 0.000000
1.513609 1.228880 24.387971 0.000000 46.000000 14.390887 0.000000
3.770338 3.493906 24.442183 0.000000 49.000000 14.456378 0.000000
5.739207 -0.327413 24.784458 0.000000 69.000000 14.748583 10.000000
1.167573 0.915390 24.419961 0.000000 46.000000 14.421494 0.000000
4.863194 1.188849 24.421833 0.000000 42.000000 14.406350 0.000000
0.350275 0.749939 24.708200 0.000000 81.000000 14.712392 21.000000
2.333703 1.578401 24.484252 0.000000 59.000000 14.486369 0.000000
4.116441 0.806850 24.484905 0.000000 49.000000 14.469480 0.000000
1.601404 0.978414 24.503090 0.000000 42.000000 14.502939 0.000000
5.686195 1.298665 24.780791 0.000000 47.000000 14.761999 11.000000
2.460516 2.521008 24.463603 0.000000 45.000000 14.474778 0.000000
0.492376 2.269719 24.758402 0.000000 67.000000 14.777528 20.000000
1.869097 -1.773291 24.361454 0.000000 21.000000 14.331449 0.000000
2.259025 0.639962 24.597876 0.000000 55.000000 14.590692 15.000000
1.458558 2.203339 25.193727 0.000000 69.000000 15.206951 28.000000
5.784449 -0.221651 24.490314 0.000000 50.000000 14.455309 0.000000
3.895275 2.696337 24.460136 0.000000 50.000000 14.465420 0.000000
0.893416 1.374649 24.475341 0.000000 47.000000 14.483087 0.000000
2.451174 -0.545044 24.529818 0.000000 50.000000 14.509365 0.000000
3.828792 2.601552 24.308133 0.000000 31.000000 14.312805 0.000000
-0.047684 -0.687595 24.447209 0.000000 31.000000 14.438705 0.000000
2.987050 -2.330624 24.488288 0.000000 38.000000 14.446515 0.000000
3.801618 -2.051056 24.747396 0.000000 50.000000 14.704120 3.000000
3.199439 3.222556 24.676397 0.000000 58.000000 14.690838 7.000000
-0.968923 1.505401 24.840483 0.000000 40.000000 14.859553 20.000000
5.544557 1.474319 24.603245 0.000000 51.000000 14.587041 11.000000
4.936225 3.104447 24.689531 0.000000 37.000000 14.693427 8.000000
5.123534 1.392834 24.387728 0.000000 58.000000 14.372957 0.000000
3.667945 -0.432261 24.816956 0.000000 66.000000 14.791116 26.000000
5.016997 -0.593206 24.631968 0.000000 43.000000 14.597235 10.000000
5.668138 0.792222 24.460440 0.000000 44.000000 14.436535 0.000000
5.870248 0.314846 24.336556 0.000000 42.000000 14.306643 0.000000
5.976074 0.196046 24.368197 0.000000 39.000000 14.336486 0.000000
4.042650 3.993451 24.766198 0.000000 44.000000 14.784070 6.000000
6.605991 -0.992100 24.356056 0.000000 31.000000 14.308690 0.000000
4.721054 2.507974 24.545350 0.000000 40.000000 14.544249 0.000000
0.670704 1.710229 24.819602 0.000000 63.000000 14.831987 20.000000
