73.630249 -4.833511 21.338016 0.000000 23.000000 14.710753 30.000000
75.140160 -4.422423 21.385892 0.000000 35.000000 14.717843 21.000000
75.704819 -8.061718 20.672424 0.000000 53.000000 14.366863 1.000000
76.435814 -5.783770 21.134967 0.000000 58.000000 14.602435 27.000000
73.452850 -5.536004 21.127658 0.000000 55.000000 14.570720 8.000000
74.463310 -8.724653 20.398652 0.000000 47.000000 14.159823 0.000000
75.993881 -5.265084 21.499210 0.000000 43.000000 14.913734 16.000000
74.405022 -9.064873 20.251690 0.000000 35.000000 14.047140 0.000000
73.544617 -4.976958 21.368459 0.000000 50.000000 14.755198 30.000000
76.083565 -8.722257 20.614063 0.000000 46.000000 14.373947 5.000000
74.084564 -10.120647 20.292124 0.000000 33.000000 14.191526 0.000000
78.561287 -4.386334 20.748710 0.000000 34.000000 14.080208 0.000000
74.762527 -8.565483 20.763969 0.000000 62.000000 14.507656 4.000000
73.726974 -8.384465 20.880280 0.000000 77.000000 14.605543 4.000000
74.582512 -9.078182 20.330062 0.000000 46.000000 14.126442 0.000000
75.516762 -9.652777 20.605916 0.000000 36.000000 14.457633 9.000000
74.757515 -5.888276 20.746375 0.000000 32.000000 14.226048 0.000000
77.877441 -6.162786 20.486302 0.000000 23.000000 13.994323 0.000000
77.581856 -6.471292 20.602060 0.000000 31.000000 14.139950 0.000000
77.420387 -6.710085 20.612489 0.000000 49.000000 14.173885 0.000000
77.299675 -6.924610 20.590372 0.000000 41.000000 14.173038 0.000000
77.223816 -7.116915 20.528423 0.000000 43.000000 14.130361 0.000000
74.973297 -5.152504 21.078033 0.000000 47.000000 14.483506 28.000000
73.408676 -9.407372 20.235366 0.000000 25.000000 14.064682 0.000000
76.857269 -6.900102 20.617504 0.000000 46.000000 14.197620 0.000000
78.741226 -7.998053 20.353082 0.000000 28.000000 14.042798 0.000000
79.083115 -7.620241 20.459607 0.000000 54.000000 14.111533 0.000000
75.600777 -8.359371 20.759562 0.000000 63.000000 14.482938 18.000000
78.920868 -7.838212 20.429934 0.000000 51.000000 14.103507 0.000000
73.811745 -5.230161 20.866581 0.000000 30.000000 14.280746 30.000000
78.334381 -8.506391 20.415330 0.000000 54.000000 14.154889 0.000000
76.879662 -6.770315 20.662911 0.000000 38.000000 14.230002 0.000000
77.616203 -9.395352 20.170965 0.000000 22.000000 13.999410 0.000000
77.876793 -9.224764 20.122002 0.000000 28.000000 13.933857 0.000000
78.485252 -8.953714 20.436801 0.000000 32.000000 14.220382 0.000000
75.113373 -9.883139 20.330886 0.000000 44.000000 14.206670 0.000000
75.076462 -4.915721 21.382819 0.000000 76.000000 14.763447 21.000000
77.075966 -9.885210 20.258259 0.000000 53.000000 14.134601 0.000000
76.897423 -10.067900 20.230619 0.000000 47.000000 14.125118 0.000000
74.909348 -9.893046 20.334470 0.000000 38.000000 14.211213 0.000000
73.268631 -8.960969 20.410363 0.000000 40.000000 14.194789 0.000000
76.037262 -5.025786 21.387943 0.000000 46.000000 14.779404 16.000000
74.114212 -6.883427 20.567781 0.000000 40.000000 14.146494 0.000000
74.280792 -6.700459 20.599897 0.000000 44.000000 14.160404 0.000000
77.723145 -5.374895 20.740032 0.000000 37.000000 14.169092 0.000000
74.792976 -6.240195 20.509103 0.000000 27.000000 14.024649 0.000000
76.416054 -7.387231 20.588617 0.000000 40.000000 14.216928 0.000000
73.349159 -6.294349 20.472375 0.000000 30.000000 13.993443 0.000000
75.067474 -5.922750 20.650013 0.000000 40.000000 14.133557 0.000000
77.185478 -7.618241 20.535420 0.000000 39.000000 14.186779 0.000000
75.246231 -5.741647 20.694008 0.000000 36.000000 14.159472 0.000000
76.383995 -5.643331 21.472908 0.000000 47.000000 14.924874 16.000000
76.765808 -9.118091 20.245719 0.000000 29.000000 14.046448 0.000000
73.672935 -5.896557 20.753303 0.000000 51.000000 14.233759 0.000000
76.533119 -4.586676 20.868188 0.000000 49.000000 14.218867 0.000000
77.336555 -3.949065 20.900302 0.000000 43.000000 14.187925 0.000000
75.907791 -5.941797 21.158627 0.000000 56.000000 14.641569 27.000000
73.936768 -4.820790 21.097628 0.000000 43.000000 14.470283 30.000000
73.450546 -9.645202 20.300084 0.000000 40.000000 14.152546 0.000000
74.981201 -9.628544 20.824405 0.000000 59.000000 14.672666 10.000000
75.557220 -9.156544 20.290017 0.000000 42.000000 14.094323 0.000000
73.982491 -9.302672 20.202803 0.000000 37.000000 14.021950 0.000000
75.796135 -8.998115 20.295133 0.000000 45.000000 14.083785 0.000000
74.189384 -9.158519 20.219240 0.000000 35.000000 14.024086 0.000000
75.848274 -8.913504 20.468579 0.000000 61.000000 14.248039 0.000000
74.365059 -9.028997 20.270606 0.000000 34.000000 14.062424 0.000000
74.486862 -8.925404 20.374681 0.000000 50.000000 14.155773 0.000000
74.728981 -8.773872 20.371182 0.000000 47.000000 14.137342 0.000000
75.054604 -5.185115 21.362516 0.000000 45.000000 14.769818 28.000000
76.064812 -8.456122 20.730435 0.000000 76.000000 14.463498 1.000000
76.966980 -8.231844 20.426493 0.000000 48.000000 14.138914 0.000000
77.489113 -6.858181 20.626290 0.000000 37.000000 14.202228 0.000000
73.594170 -8.427260 20.472560 0.000000 43.000000 14.204033 0.000000
74.827644 -5.210288 21.094429 0.000000 42.000000 14.505522 20.000000
75.575661 -8.170605 20.602706 0.000000 38.000000 14.308226 18.000000
74.695038 -8.354928 20.563110 0.000000 39.000000 14.287006 4.000000
75.584862 -9.817151 20.627236 0.000000 53.000000 14.495065 9.000000
73.265022 -7.141257 20.585306 0.000000 42.000000 14.189368 0.000000
78.613106 -7.284759 20.544408 0.000000 46.000000 14.162826 0.000000
74.145508 -5.534343 21.158585 0.000000 50.000000 14.601333 20.000000
77.887550 -6.874836 20.568979 0.000000 41.000000 14.146839 0.000000
75.699600 -5.517020 20.763814 0.000000 35.000000 14.206778 0.000000
74.120613 -6.696033 20.664997 0.000000 30.000000 14.224750 0.000000
77.240044 -7.332431 20.504420 0.000000 43.000000 14.127736 0.000000
77.437271 -7.226591 20.584934 0.000000 55.000000 14.197416 0.000000
77.756058 -7.068987 20.573405 0.000000 47.000000 14.170396 0.000000
77.585846 -4.024594 21.736494 0.000000 53.000000 15.027490 15.000000
77.087906 -8.847714 20.629117 0.000000 70.000000 14.401304 6.000000
73.865402 -8.074891 20.855843 0.000000 57.000000 14.550687 4.000000
75.712105 -8.036546 20.664550 0.000000 49.000000 14.356544 1.000000
79.076729 -6.432354 20.526862 0.000000 29.000000 14.061278 0.000000
75.508629 -6.967284 20.650500 0.000000 43.000000 14.237082 0.000000
75.758446 -8.383777 20.691480 0.000000 37.000000 14.417596 18.000000
73.327225 -4.678405 20.820279 0.000000 34.000000 14.180240 0.000000
77.633980 -4.944390 20.813541 0.000000 26.000000 14.199774 0.000000
78.110825 -5.883973 20.689444 0.000000 38.000000 14.168970 0.000000
75.169907 -9.852386 20.817792 0.000000 54.000000 14.688167 10.000000
75.902016 -4.560666 21.333126 0.000000 45.000000 14.678971 17.000000
73.515160 -6.174471 20.600651 0.000000 37.000000 14.109267 0.000000
77.352074 -8.388250 20.453142 0.000000 51.000000 14.180862 0.000000
73.914040 -4.354884 21.327295 0.000000 45.000000 14.652869 25.000000
77.776932 -7.649070 20.467342 0.000000 29.000000 14.122074 0.000000
73.415550 -7.179852 20.554891 0.000000 47.000000 14.162909 0.000000
73.430138 -7.357395 20.502039 0.000000 45.000000 14.127829 0.000000
78.989738 -10.010364 20.263014 0.000000 51.000000 14.151679 0.000000
76.491951 -9.098008 20.271028 0.000000 27.000000 14.069652 0.000000
78.465736 -4.457026 20.763823 0.000000 33.000000 14.102221 0.000000
75.179634 -8.822336 20.422646 0.000000 42.000000 14.193336 0.000000
76.680275 -5.929558 20.975182 0.000000 47.000000 14.457811 27.000000
78.984428 -9.383591 20.273490 0.000000 62.000000 14.100274 0.000000
73.646729 -6.639563 20.757445 0.000000 39.000000 14.311177 14.000000
76.751129 -6.104211 20.599701 0.000000 26.000000 14.101391 0.000000
75.838821 -6.061956 20.544881 0.000000 27.000000 14.042670 0.000000
78.015587 -5.666236 20.683412 0.000000 32.000000 14.141488 0.000000
78.449677 -6.456855 20.482832 0.000000 25.000000 14.019879 0.000000
77.939606 -5.888193 20.646991 0.000000 42.000000 14.127140 0.000000
75.654327 -6.504478 20.536132 0.000000 34.000000 14.077617 0.000000
77.927383 -6.075002 20.562977 0.000000 31.000000 14.061965 0.000000
73.557526 -8.093948 20.848439 0.000000 44.000000 14.545199 4.000000
74.575760 -5.305838 21.220806 0.000000 50.000000 14.640709 20.000000
74.254288 -4.539039 20.890387 0.000000 35.000000 14.236258 0.000000
77.808769 -4.420672 21.344006 0.000000 56.000000 14.675988 26.000000
73.880989 -10.110089 20.262017 0.000000 38.000000 14.160525 0.000000
77.485336 -6.817666 20.596379 0.000000 51.000000 14.168466 0.000000
77.454689 -5.983606 20.707584 0.000000 31.000000 14.196850 0.000000
77.387337 -7.034147 20.566425 0.000000 51.000000 14.160013 0.000000
74.633789 -6.258096 20.504991 0.000000 30.000000 14.022323 0.000000
77.296440 -7.246023 20.524728 0.000000 43.000000 14.139421 0.000000
77.200722 -7.456029 20.484628 0.000000 41.000000 14.120233 0.000000
76.793823 -9.005784 20.420400 0.000000 64.000000 14.209198 0.000000
76.968422 -7.880179 20.430609 0.000000 42.000000 14.108319 0.000000
74.709373 -8.385360 20.450736 0.000000 40.000000 14.178183 0.000000
75.072121 -7.386663 20.531144 0.000000 34.000000 14.159679 0.000000
74.383682 -4.423409 20.966464 0.000000 37.000000 14.300558 25.000000
76.696617 -8.310442 20.402309 0.000000 49.000000 14.122601 0.000000
74.511734 -8.763391 20.395457 0.000000 45.000000 14.160465 0.000000
76.379379 -8.592608 20.536742 0.000000 40.000000 14.284214 0.000000
73.104424 -4.008416 21.045615 0.000000 49.000000 14.338384 24.000000
75.344200 -7.797094 20.417027 0.000000 22.000000 14.086607 0.000000
74.320732 -9.259569 20.198244 0.000000 35.000000 14.013161 0.000000
75.544640 -4.820129 21.447070 0.000000 47.000000 14.817955 17.000000
74.006485 -9.888399 20.315854 0.000000 43.000000 14.192230 0.000000
74.047150 -8.135338 21.063267 0.000000 49.000000 14.763062 4.000000
74.945900 -7.838143 20.464126 0.000000 67.000000 14.137525 0.000000
77.586250 -9.013590 20.370187 0.000000 38.000000 14.160000 0.000000
78.954781 -8.576522 20.408911 0.000000 46.000000 14.155419 0.000000
78.752914 -8.778075 20.392730 0.000000 44.000000 14.159200 0.000000
78.502068 -8.992014 20.411905 0.000000 41.000000 14.199386 0.000000
78.360512 -9.282269 20.177094 0.000000 30.000000 13.994353 0.000000
75.175430 -5.487689 21.100512 0.000000 32.000000 14.538941 28.000000
77.776398 -9.712985 20.279455 0.000000 47.000000 14.138704 0.000000
77.575806 -9.889181 20.262496 0.000000 42.000000 14.139209 0.000000
77.365547 -10.066589 20.248027 0.000000 44.000000 14.142312 0.000000
73.189606 -6.171370 20.534024 0.000000 36.000000 14.042659 0.000000
77.275665 -5.325560 21.242169 0.000000 49.000000 14.663913 7.000000
73.354233 -5.864624 20.707442 0.000000 42.000000 14.184972 0.000000
73.526985 -5.654899 20.712152 0.000000 37.000000 14.168970 0.000000
73.695084 -5.451350 20.725190 0.000000 38.000000 14.161864 0.000000
76.325302 -4.315746 21.229115 0.000000 45.000000 14.551307 17.000000
73.308670 -4.336968 20.793658 0.000000 25.000000 14.120067 0.000000
73.442612 -4.181432 20.863017 0.000000 33.000000 14.173745 0.000000
73.616188 -3.999154 20.896728 0.000000 40.000000 14.189310 0.000000
73.348885 -9.895743 20.280324 0.000000 39.000000 14.157598 0.000000
73.509697 -9.727963 20.295548 0.000000 47.000000 14.156196 0.000000
74.169609 -9.161007 20.193598 0.000000 36.000000 13.998815 0.000000
77.927711 -5.890066 20.730334 0.000000 23.000000 14.210262 0.000000
74.374191 -8.887695 20.375812 0.000000 51.000000 14.153178 0.000000
74.636993 -9.509621 20.616859 0.000000 52.000000 14.454401 10.000000
73.945618 -6.125770 20.577752 0.000000 34.000000 14.081676 0.000000
74.947151 -8.376664 20.427110 0.000000 52.000000 14.153814 0.000000
75.312866 -9.521988 20.517061 0.000000 42.000000 14.356310 10.000000
75.661324 -7.813549 20.394150 0.000000 51.000000 14.065465 0.000000
75.813950 -7.668370 20.469027 0.000000 41.000000 14.125655 0.000000
75.971382 -7.525071 20.542312 0.000000 39.000000 14.184446 0.000000
77.795616 -5.541098 21.164995 0.000000 71.000000 14.608378 7.000000
74.187065 -6.137243 20.626918 0.000000 27.000000 14.131734 0.000000
75.923706 -9.952332 20.474524 0.000000 74.000000 14.356433 9.000000
77.778282 -9.272541 20.194478 0.000000 30.000000 14.010693 0.000000
74.419632 -8.150798 20.871978 0.000000 52.000000 14.574231 4.000000
74.942337 -7.257983 20.542140 0.000000 45.000000 14.157928 0.000000
73.811462 -4.412300 21.121139 0.000000 42.000000 14.453382 25.000000
75.168213 -7.092772 20.553160 0.000000 44.000000 14.152596 0.000000
77.208382 -6.618062 20.604399 0.000000 59.000000 14.156756 0.000000
75.402695 -6.925779 20.564793 0.000000 52.000000 14.147699 0.000000
74.008606 -6.025189 20.810609 0.000000 41.000000 14.303475 3.000000
73.963097 -9.130101 20.306946 0.000000 32.000000 14.108561 0.000000
75.176529 -5.638038 20.735781 0.000000 36.000000 14.190820 0.000000
78.721565 -9.749545 20.264623 0.000000 49.000000 14.127551 0.000000
76.296158 -6.112953 20.999721 0.000000 48.000000 14.500322 27.000000
76.151344 -6.416441 20.585191 0.000000 42.000000 14.117752 0.000000
76.448090 -10.044369 20.300263 0.000000 36.000000 14.192101 0.000000
76.487144 -6.207225 20.529818 0.000000 29.000000 14.042011 0.000000
78.684273 -5.651484 20.616453 0.000000 33.000000 14.073401 0.000000
76.749931 -6.038451 20.539612 0.000000 30.000000 14.035108 0.000000
77.960732 -5.731063 20.733456 0.000000 28.000000 14.197683 0.000000
74.518883 -8.328462 20.630990 0.000000 62.000000 14.351944 4.000000
77.761353 -9.109820 20.243848 0.000000 25.000000 14.043770 0.000000
77.147957 -5.777582 20.679191 0.000000 38.000000 14.148272 0.000000
75.538712 -5.854895 20.684225 0.000000 35.000000 14.160908 0.000000
78.857193 -5.035902 20.635509 0.000000 23.000000 14.031638 0.000000
78.074677 -6.626334 20.505199 0.000000 28.000000 14.058856 0.000000
75.372589 -5.516172 21.029456 0.000000 41.000000 14.471041 28.000000
78.993584 -4.731864 20.678838 0.000000 30.000000 14.044763 0.000000
77.879028 -5.698780 20.715220 0.000000 25.000000 14.176351 0.000000
73.837143 -8.982558 20.423505 0.000000 28.000000 14.209997 0.000000
77.116096 -9.910298 20.252811 0.000000 51.000000 14.131655 0.000000
77.415993 -9.774219 20.245350 0.000000 47.000000 14.110806 0.000000
77.247604 -6.223658 20.649050 0.000000 48.000000 14.162282 0.000000
78.138565 -9.463798 20.152951 0.000000 30.000000 13.988235 0.000000
73.789444 -8.879547 20.473695 0.000000 63.000000 14.249780 0.000000
73.818146 -8.339141 20.818893 0.000000 68.000000 14.539984 4.000000
78.924004 -9.119725 20.288124 0.000000 47.000000 14.088807 0.000000
77.530159 -9.778646 20.309634 0.000000 41.000000 14.175213 0.000000
78.652748 -6.821528 20.578784 0.000000 31.000000 14.151337 0.000000
77.556503 -4.191410 21.703938 0.000000 78.000000 15.011548 15.000000
77.299355 -5.333111 21.095332 0.000000 24.000000 14.518537 7.000000
77.830521 -9.063347 20.290294 0.000000 54.000000 14.085405 0.000000
78.648064 -8.767573 20.392028 0.000000 51.000000 14.157465 0.000000
78.971268 -8.656606 20.394513 0.000000 53.000000 14.148992 0.000000
79.278397 -8.554226 20.416480 0.000000 54.000000 14.160752 0.000000
76.470589 -4.808864 21.078470 0.000000 84.000000 14.450042 17.000000
73.606186 -3.984400 21.255440 0.000000 36.000000 14.544817 24.000000
74.524117 -6.671112 20.619706 0.000000 37.000000 14.177222 0.000000
75.985664 -5.988561 20.718867 0.000000 49.000000 14.208567 0.000000
74.577141 -5.347673 20.848670 0.000000 35.000000 14.274515 20.000000
76.951187 -6.975526 20.616739 0.000000 41.000000 14.204299 0.000000
73.910294 -6.945815 20.559576 0.000000 37.000000 14.144484 0.000000
75.929031 -6.576366 20.563101 0.000000 44.000000 14.111546 0.000000
73.858238 -7.146499 20.542321 0.000000 37.000000 14.147110 0.000000
76.007713 -6.707704 20.615924 0.000000 25.000000 14.177068 0.000000
78.169922 -6.321937 20.523489 0.000000 24.000000 14.047029 0.000000
76.471634 -6.066996 20.598304 0.000000 26.000000 14.096329 0.000000
77.621384 -4.019194 20.983909 0.000000 53.000000 14.278043 15.000000
75.609306 -7.271955 20.605860 0.000000 54.000000 14.222715 0.000000
75.297066 -4.632361 21.212251 0.000000 50.000000 14.565758 21.000000
75.538544 -7.481400 20.581722 0.000000 57.000000 14.219356 0.000000
76.591537 -6.323194 20.580582 0.000000 33.000000 14.103967 0.000000
77.659515 -8.505048 20.448454 0.000000 33.000000 14.187719 0.000000
76.539619 -4.531311 20.989428 0.000000 42.000000 14.334054 17.000000
75.295921 -8.265711 20.431830 0.000000 52.000000 14.147566 0.000000
75.208664 -8.466449 20.412480 0.000000 49.000000 14.148112 0.000000
75.117668 -8.665893 20.391630 0.000000 42.000000 14.147039 0.000000
75.018761 -8.865944 20.375998 0.000000 48.000000 14.151218 0.000000
75.352798 -9.686233 20.533420 0.000000 46.000000 14.388791 10.000000
73.705002 -6.099447 20.575232 0.000000 40.000000 14.076571 0.000000
75.019821 -5.324785 21.420970 0.000000 42.000000 14.841765 28.000000
77.142433 -7.584079 20.434666 0.000000 24.000000 14.083146 0.000000
74.083549 -6.107543 20.989213 0.000000 59.000000 14.489332 3.000000
77.702995 -4.162573 21.517431 0.000000 48.000000 14.823106 15.000000
79.140083 -5.292131 20.687585 0.000000 56.000000 14.108736 0.000000
77.902725 -10.123728 20.303370 0.000000 44.000000 14.203021 0.000000
77.436211 -9.167781 20.950997 0.000000 72.000000 14.753188 6.000000
78.679466 -10.134797 20.455424 0.000000 56.000000 14.355426 2.000000
76.893173 -4.985004 20.650052 0.000000 24.000000 14.041089 0.000000
78.719360 -6.349656 20.443857 0.000000 22.000000 13.970520 0.000000
73.398964 -5.359548 21.321920 0.000000 47.000000 14.746628 8.000000
76.820602 -5.793865 20.719368 0.000000 36.000000 14.189859 0.000000
79.086815 -9.993815 20.300955 0.000000 46.000000 14.187803 0.000000
77.741478 -7.716106 20.430165 0.000000 30.000000 14.091692 0.000000
75.642891 -10.045355 20.609908 0.000000 55.000000 14.500333 10.000000
75.380379 -9.669386 20.726665 0.000000 58.000000 14.579432 10.000000
78.253166 -9.942480 20.547681 0.000000 52.000000 14.428261 2.000000
74.172997 -8.012567 20.822948 0.000000 59.000000 14.511804 4.000000
76.760422 -8.816045 20.510154 0.000000 46.000000 14.279797 0.000000
79.208397 -8.518133 20.424092 0.000000 58.000000 14.164766 0.000000
77.593071 -3.967352 21.293508 0.000000 60.000000 14.581017 15.000000
79.019691 -8.726826 20.403234 0.000000 51.000000 14.164597 0.000000
74.635429 -7.463473 20.529002 0.000000 43.000000 14.165125 0.000000
78.847664 -8.925569 20.367352 0.000000 45.000000 14.148496 0.000000
76.597420 -9.264496 20.187914 0.000000 28.000000 14.003367 0.000000
75.791595 -4.039906 21.437349 0.000000 79.000000 14.731314 17.000000
78.584656 -9.284939 20.231312 0.000000 53.000000 14.048570 0.000000
78.274178 -9.520016 20.296671 0.000000 47.000000 14.136800 0.000000
76.532799 -5.589980 21.043371 0.000000 46.000000 14.492169 27.000000
77.874168 -9.903638 20.262020 0.000000 53.000000 14.140162 0.000000
76.583839 -5.276498 20.781723 0.000000 43.000000 14.200873 0.000000
73.102303 -4.001031 20.952532 0.000000 42.000000 14.245027 0.000000
73.233330 -8.760389 20.498282 0.000000 53.000000 14.262492 0.000000
73.889992 -8.578241 20.843651 0.000000 67.000000 14.588208 19.000000
74.577065 -7.284294 20.568677 0.000000 53.000000 14.186931 0.000000
74.793709 -7.079290 20.556294 0.000000 46.000000 14.154385 0.000000
73.188217 -7.281326 20.537957 0.000000 53.000000 14.156068 0.000000
75.960831 -9.020784 20.727639 0.000000 55.000000 14.516418 5.000000
73.827461 -6.786971 20.822583 0.000000 57.000000 14.390538 14.000000
75.159294 -6.709165 20.606043 0.000000 46.000000 14.167379 0.000000
77.161896 -9.170873 20.703068 0.000000 44.000000 14.506773 6.000000
76.151169 -10.028649 20.243463 0.000000 53.000000 14.134027 0.000000
79.238121 -5.031127 20.703639 0.000000 42.000000 14.098964 0.000000
73.917290 -5.967672 21.064636 0.000000 42.000000 14.550589 3.000000
75.917076 -6.054018 20.536286 0.000000 28.000000 14.033334 0.000000
75.715454 -8.194066 20.692074 0.000000 46.000000 14.399473 18.000000
75.628532 -4.513570 21.588391 0.000000 57.000000 14.928345 17.000000
73.668510 -8.841031 20.962100 0.000000 6.000000 14.732003 19.000000
73.719894 -8.030589 20.764843 0.000000 39.000000 14.455760 4.000000
76.814308 -4.552320 20.938065 0.000000 51.000000 14.285014 23.000000
75.087135 -5.520614 20.728667 0.000000 56.000000 14.172157 0.000000
77.359772 -4.840789 20.608244 0.000000 26.000000 13.985258 0.000000
78.470566 -7.110556 20.624100 0.000000 42.000000 14.224944 0.000000
77.549896 -4.675968 20.681093 0.000000 33.000000 14.041493 0.000000
77.715912 -4.529517 20.772201 0.000000 38.000000 14.117709 0.000000
75.914818 -5.566309 21.041118 0.000000 47.000000 14.487592 16.000000
77.748299 -7.119633 20.759092 0.000000 39.000000 14.360173 12.000000
76.636032 -9.271060 20.186426 0.000000 30.000000 14.002534 0.000000
75.446182 -5.301617 21.431999 0.000000 46.000000 14.850455 28.000000
75.090446 -9.218693 20.172604 0.000000 33.000000 13.983614 0.000000
76.890869 -8.935830 20.350109 0.000000 48.000000 14.132349 0.000000
74.696693 -8.614856 20.427594 0.000000 42.000000 14.177793 0.000000
75.458054 -8.114666 20.632318 0.000000 32.000000 14.332176 18.000000
75.115517 -9.778501 20.963829 0.000000 40.000000 14.826203 10.000000
77.376305 -8.640895 20.406725 0.000000 40.000000 14.159594 0.000000
77.464394 -9.248090 20.552884 0.000000 65.000000 14.364939 6.000000
75.550423 -5.443738 20.778943 0.000000 40.000000 14.214604 0.000000
74.813652 -9.698350 20.729629 0.000000 65.000000 14.585239 10.000000
76.109261 -7.931906 20.704134 0.000000 45.000000 14.385612 1.000000
76.599655 -8.316592 20.418446 0.000000 48.000000 14.139266 0.000000
78.844582 -7.844628 20.425919 0.000000 55.000000 14.100145 0.000000
76.890823 -8.166105 20.409204 0.000000 44.000000 14.115224 0.000000
75.927460 -9.827384 20.476528 0.000000 62.000000 14.346101 9.000000
76.972374 -6.854725 20.653777 0.000000 35.000000 14.229239 0.000000
77.480438 -7.867256 20.397431 0.000000 37.000000 14.074028 0.000000
76.838608 -8.515661 20.439732 0.000000 38.000000 14.180086 0.000000
75.752983 -4.202086 21.573449 0.000000 46.000000 14.882749 17.000000
78.177223 -7.523969 20.567014 0.000000 46.000000 14.208919 0.000000
76.911156 -9.535140 20.250897 0.000000 21.000000 14.092741 0.000000
78.844765 -7.223392 20.540167 0.000000 49.000000 14.152552 0.000000
78.118568 -9.745100 20.577155 0.000000 62.000000 14.438120 2.000000
77.971077 -4.857518 20.655478 0.000000 25.000000 14.033912 0.000000
74.434700 -6.118297 20.599770 0.000000 46.000000 14.102849 0.000000
78.747803 -4.692506 20.697911 0.000000 24.000000 14.059860 0.000000
73.147301 -3.969729 21.105886 0.000000 42.000000 14.394545 24.000000
73.798409 -6.050854 20.918127 0.000000 63.000000 14.413000 3.000000
74.833511 -9.635263 20.647865 0.000000 74.000000 14.497650 10.000000
75.098793 -7.214750 20.572310 0.000000 38.000000 14.183686 0.000000
78.753098 -7.111428 20.632185 0.000000 47.000000 14.233076 0.000000
74.264534 -7.528378 20.478043 0.000000 41.000000 14.120817 0.000000
74.046280 -7.208255 20.563926 0.000000 25.000000 14.174702 0.000000
79.073120 -7.936570 20.387016 0.000000 34.000000 14.070501 0.000000
73.869736 -8.936227 20.412203 0.000000 54.000000 14.194179 0.000000
73.885612 -9.096254 20.321942 0.000000 42.000000 14.120145 0.000000
74.500572 -4.914242 21.327166 0.000000 39.000000 14.707920 20.000000
74.122887 -5.944903 20.884594 0.000000 50.000000 14.369179 3.000000
76.074852 -9.333577 20.172874 0.000000 32.000000 13.995215 0.000000
73.914108 -6.044875 21.130636 0.000000 62.000000 14.623883 3.000000
77.303284 -3.998304 20.891613 0.000000 39.000000 14.184136 0.000000
75.265556 -4.455466 21.379530 0.000000 55.000000 14.714771 17.000000
79.321785 -5.224065 20.723178 0.000000 60.000000 14.137441 0.000000
74.026680 -6.737751 20.645766 0.000000 38.000000 14.209728 0.000000
78.724686 -9.968871 20.658064 0.000000 54.000000 14.540709 2.000000
79.113312 -5.705482 20.682621 0.000000 51.000000 14.144573 0.000000
74.504654 -9.860426 20.314007 0.000000 36.000000 14.187632 0.000000
77.212021 -9.474785 20.171630 0.000000 25.000000 14.007907 0.000000
76.596550 -6.581974 20.566079 0.000000 33.000000 14.115063 0.000000
78.930946 -6.158488 20.609984 0.000000 45.000000 14.116978 0.000000
73.304985 -8.251078 20.668892 0.000000 45.000000 14.382028 13.000000
78.935783 -6.334486 20.498566 0.000000 32.000000 14.023465 0.000000
76.335732 -7.042962 20.586691 0.000000 52.000000 14.181050 0.000000
78.324226 -9.742703 20.496036 0.000000 52.000000 14.357160 2.000000
76.256973 -7.241315 20.549774 0.000000 50.000000 14.163880 0.000000
78.441574 -6.913532 20.645960 0.000000 47.000000 14.227262 0.000000
74.509315 -5.394124 21.077604 0.000000 52.000000 14.506914 20.000000
76.043427 -5.690065 20.998457 0.000000 37.000000 14.457347 16.000000
76.092163 -7.788616 20.358212 0.000000 37.000000 14.027242 0.000000
78.515503 -8.853758 20.407921 0.000000 41.000000 14.181783 0.000000
76.084717 -5.782979 20.823725 0.000000 50.000000 14.292633 16.000000
78.085449 -7.890996 20.301988 0.000000 28.000000 13.981392 0.000000
75.624535 -8.446845 20.413723 0.000000 41.000000 14.147415 0.000000
77.001518 -4.546541 21.038151 0.000000 56.000000 14.384042 23.000000
76.180008 -4.018010 21.429174 0.000000 50.000000 14.721019 22.000000
74.126320 -5.707701 20.939207 0.000000 46.000000 14.400126 20.000000
76.711624 -8.096984 20.424266 0.000000 26.000000 14.123394 0.000000
75.281364 -9.015440 20.343554 0.000000 44.000000 14.133679 0.000000
75.291321 -9.147953 20.203374 0.000000 40.000000 14.007255 0.000000
77.214172 -8.994360 20.322182 0.000000 50.000000 14.110332 0.000000
76.480484 -8.364854 20.835788 0.000000 43.000000 14.559334 1.000000
75.201134 -5.269974 21.264702 0.000000 42.000000 14.680853 28.000000
74.607727 -9.946020 20.282464 0.000000 43.000000 14.164687 0.000000
78.245880 -7.214087 20.613486 0.000000 44.000000 14.224595 0.000000
79.239822 -9.464700 20.245185 0.000000 32.000000 14.080109 0.000000
73.198250 -7.371524 20.536035 0.000000 48.000000 14.163053 0.000000
73.334206 -7.179153 20.550964 0.000000 50.000000 14.158932 0.000000
73.474388 -6.985797 20.565540 0.000000 51.000000 14.154363 0.000000
73.573158 -6.818677 20.627237 0.000000 49.000000 14.199273 0.000000
74.272957 -5.982886 20.620621 0.000000 48.000000 14.110240 0.000000
73.091354 -5.682947 20.708856 0.000000 39.000000 14.168457 0.000000
77.738464 -5.301402 20.874141 0.000000 34.000000 14.295297 7.000000
74.363602 -9.796255 20.281004 0.000000 53.000000 14.148460 0.000000
75.072800 -9.223415 20.169814 0.000000 35.000000 13.981303 0.000000
73.463631 -9.367224 20.189003 0.000000 32.000000 14.014585 0.000000
75.169556 -9.095074 20.269998 0.000000 47.000000 14.068338 0.000000
78.714462 -5.040003 20.625357 0.000000 23.000000 14.021940 0.000000
76.881126 -5.842683 20.711998 0.000000 34.000000 14.187341 0.000000
73.745140 -9.083668 20.289430 0.000000 43.000000 14.086550 0.000000
77.582939 -5.416905 21.168388 0.000000 35.000000 14.599503 7.000000
73.789948 -9.105206 20.311483 0.000000 30.000000 14.110620 0.000000
76.166519 -4.656144 21.521215 0.000000 68.000000 14.875561 17.000000
78.371880 -10.028450 20.495348 0.000000 58.000000 14.384664 2.000000
76.053665 -8.301817 20.473358 0.000000 51.000000 14.192453 0.000000
74.429436 -8.480326 20.419462 0.000000 45.000000 14.156429 0.000000
73.719536 -5.413542 20.857541 0.000000 45.000000 14.289840 30.000000
76.899651 -7.704833 20.380579 0.000000 29.000000 14.041235 0.000000
78.166862 -5.246690 20.725111 0.000000 29.000000 14.141597 0.000000
74.237076 -5.732940 21.043471 0.000000 27.000000 14.506371 20.000000
77.280846 -7.400429 20.498969 0.000000 41.000000 14.129019 0.000000
75.434708 -9.807790 20.530367 0.000000 71.000000 14.397745 10.000000
78.388550 -6.865777 20.598453 0.000000 30.000000 14.175276 0.000000
75.665314 -7.537461 20.542217 0.000000 49.000000 14.185574 0.000000
76.035683 -5.037325 21.183299 0.000000 47.000000 14.576896 16.000000
75.838264 -7.405292 20.605954 0.000000 51.000000 14.235962 0.000000
73.938675 -9.868888 20.650125 0.000000 59.000000 14.522946 29.000000
76.131706 -7.214215 20.567733 0.000000 54.000000 14.179078 0.000000
78.343910 -6.678518 20.542852 0.000000 43.000000 14.101473 0.000000
76.001068 -9.931840 20.769387 0.000000 63.000000 14.647836 9.000000
73.346466 -6.896586 20.586811 0.000000 32.000000 14.166730 0.000000
73.714783 -5.685905 21.169928 0.000000 48.000000 14.627572 3.000000
78.964890 -6.289206 20.531807 0.000000 48.000000 14.052077 0.000000
76.904877 -6.711296 20.583477 0.000000 40.000000 14.145133 0.000000
76.452812 -4.105690 21.389726 0.000000 45.000000 14.690413 22.000000
75.239532 -5.986114 20.618781 0.000000 32.000000 14.108728 0.000000
73.517303 -5.471185 21.233592 0.000000 72.000000 14.669743 8.000000
77.830856 -6.154930 20.523594 0.000000 24.000000 14.030658 0.000000
78.004944 -6.043933 20.621506 0.000000 37.000000 14.117143 0.000000
73.395233 -6.488431 20.711498 0.000000 41.000000 14.250545 0.000000
78.640327 -5.684868 20.600009 0.000000 29.000000 14.060330 0.000000
78.892944 -5.544452 20.644795 0.000000 51.000000 14.091046 0.000000
79.181725 -5.390771 20.670002 0.000000 59.000000 14.100970 0.000000
78.172401 -4.828868 20.646659 0.000000 15.000000 14.022310 0.000000
74.069267 -5.354305 21.233115 0.000000 54.000000 14.657739 20.000000
76.730164 -10.065061 20.248714 0.000000 46.000000 14.142845 0.000000
76.886429 -9.996974 20.268464 0.000000 48.000000 14.155782 0.000000
77.296310 -9.082562 20.417578 0.000000 39.000000 14.213964 6.000000
77.596153 -5.480234 20.933995 0.000000 41.000000 14.372500 7.000000
77.851089 -9.616313 20.280119 0.000000 48.000000 14.129828 0.000000
77.848969 -5.804780 20.663939 0.000000 35.000000 14.135777 0.000000
76.101433 -8.854755 20.746220 0.000000 59.000000 14.518530 5.000000
77.479958 -4.069812 21.468453 0.000000 69.000000 14.765217 15.000000
79.085701 -9.173707 20.297452 0.000000 51.000000 14.103415 0.000000
75.126671 -5.265821 20.803170 0.000000 41.000000 14.221162 0.000000
76.587769 -6.523628 20.526948 0.000000 26.000000 14.070367 0.000000
75.138031 -5.448431 20.750285 0.000000 50.000000 14.186549 0.000000
77.142540 -7.491665 20.512703 0.000000 41.000000 14.151686 0.000000
75.112061 -5.650529 20.725522 0.000000 41.000000 14.181843 0.000000
74.743507 -5.565956 20.999576 0.000000 54.000000 14.446218 20.000000
75.112480 -5.836492 20.676303 0.000000 40.000000 14.151209 0.000000
75.108665 -6.022449 20.627576 0.000000 34.000000 14.121064 0.000000
77.131966 -5.635803 20.751977 0.000000 38.000000 14.206717 0.000000
74.277199 -8.068826 21.047449 0.000000 59.000000 14.740760 4.000000
74.278336 -5.965343 20.914781 0.000000 36.000000 14.401235 3.000000
74.680527 -5.278199 21.140347 0.000000 39.000000 14.557916 20.000000
77.136169 -6.015484 20.615353 0.000000 38.000000 14.108214 0.000000
77.761971 -4.324310 21.244091 0.000000 62.000000 14.567055 15.000000
77.133369 -6.207440 20.544790 0.000000 30.000000 14.056931 0.000000
76.637146 -6.755602 20.596616 0.000000 30.000000 14.162579 0.000000
76.989136 -6.469529 20.587604 0.000000 52.000000 14.125391 0.000000
74.829865 -7.068102 20.564087 0.000000 42.000000 14.161036 0.000000
78.291618 -7.870165 20.333672 0.000000 29.000000 14.010867 0.000000
77.516586 -10.042907 20.286599 0.000000 39.000000 14.178359 0.000000
77.917030 -7.567566 20.698194 0.000000 23.000000 14.343760 12.000000
73.865593 -5.409086 21.037175 0.000000 41.000000 14.468158 30.000000
76.718033 -7.146626 20.567155 0.000000 50.000000 14.171835 0.000000
76.655861 -7.351500 20.531078 0.000000 45.000000 14.156145 0.000000
76.658104 -7.523910 20.436142 0.000000 40.000000 14.078680 0.000000
73.492126 -4.186255 21.104788 0.000000 70.000000 14.414812 24.000000
75.037697 -8.947479 20.386523 0.000000 38.000000 14.169735 0.000000
75.144897 -7.732875 20.460527 0.000000 27.000000 14.123560 0.000000
74.144440 -9.002712 20.339383 0.000000 41.000000 14.128273 0.000000
74.165573 -9.140156 20.216395 0.000000 32.000000 14.019444 0.000000
75.806061 -6.365741 20.555793 0.000000 26.000000 14.083496 0.000000
79.179390 -7.184985 20.539029 0.000000 49.000000 14.147631 0.000000
77.277206 -5.161173 20.883791 0.000000 41.000000 14.291067 7.000000
74.286263 -5.307542 21.251510 0.000000 61.000000 14.671431 20.000000
77.234077 -8.247467 20.455234 0.000000 41.000000 14.169056 0.000000
78.231194 -8.455327 20.428851 0.000000 45.000000 14.163306 0.000000
77.832817 -9.009523 20.291491 0.000000 50.000000 14.081287 0.000000
77.796722 -9.151734 20.165918 0.000000 29.000000 13.970355 0.000000
76.579460 -6.847453 20.617496 0.000000 48.000000 14.192418 0.000000
76.438599 -6.405903 21.059907 0.000000 68.000000 14.589113 27.000000
73.765297 -7.078315 20.556670 0.000000 40.000000 14.154663 0.000000
75.245575 -4.686694 21.220678 0.000000 48.000000 14.579504 21.000000
76.370552 -4.122932 21.745030 0.000000 74.000000 15.045685 22.000000
78.662903 -6.158176 20.529219 0.000000 23.000000 14.036576 0.000000
73.216515 -10.028155 20.356079 0.000000 49.000000 14.246045 0.000000
73.856667 -9.240837 20.317816 0.000000 31.000000 14.130302 0.000000
73.553085 -9.649267 20.305727 0.000000 45.000000 14.158562 0.000000
73.659653 -9.485847 20.351407 0.000000 57.000000 14.187899 0.000000
78.830544 -5.765414 20.589301 0.000000 23.000000 14.057620 0.000000
75.845894 -5.561547 21.063942 0.000000 32.000000 14.509835 28.000000
73.153641 -8.470481 20.585632 0.000000 63.000000 14.320818 13.000000
74.232048 -8.781822 20.423380 0.000000 49.000000 14.190070 0.000000
77.827904 -10.044183 20.277143 0.000000 33.000000 14.169075 0.000000
73.397774 -5.520986 21.023427 0.000000 63.000000 14.465516 8.000000
77.360725 -5.296635 21.232372 0.000000 45.000000 14.651310 7.000000
77.652306 -7.384788 20.907050 0.000000 57.000000 14.533567 12.000000
74.760643 -9.773218 20.579032 0.000000 80.000000 14.442762 10.000000
75.589600 -7.329625 20.578981 0.000000 51.000000 14.201656 0.000000
78.793175 -6.049090 20.527232 0.000000 23.000000 14.023838 0.000000
75.598618 -8.435878 20.460418 0.000000 46.000000 14.192801 0.000000
76.349129 -6.120080 21.136572 0.000000 58.000000 14.637209 27.000000
75.291252 -4.836072 21.210631 0.000000 44.000000 14.584242 21.000000
75.978485 -9.894592 20.619862 0.000000 67.000000 14.495366 9.000000
73.864304 -10.004847 20.709901 0.000000 73.000000 14.595842 29.000000
78.998940 -6.731785 20.558890 0.000000 28.000000 14.122688 0.000000
77.485558 -4.008356 21.248247 0.000000 53.000000 14.540022 15.000000
74.737106 -6.812401 20.582489 0.000000 41.000000 14.154124 0.000000
73.849541 -5.593358 20.861980 0.000000 44.000000 14.311996 20.000000
75.301392 -4.859810 21.188176 0.000000 45.000000 14.564238 21.000000
76.965263 -7.668790 20.348754 0.000000 32.000000 14.006010 0.000000
75.157440 -6.444506 20.592965 0.000000 41.000000 14.128257 0.000000
77.120461 -5.965522 20.664335 0.000000 49.000000 14.152028 0.000000
78.347183 -9.961848 20.569369 0.000000 69.000000 14.451754 2.000000
77.341843 -5.778512 20.693176 0.000000 30.000000 14.162280 0.000000
76.605995 -4.533869 21.158353 0.000000 82.000000 14.502407 17.000000
75.652008 -4.891761 21.258052 0.000000 39.000000 14.636925 17.000000
75.767105 -5.923801 20.664120 0.000000 45.000000 14.147699 0.000000
74.095436 -4.280726 21.116427 0.000000 39.000000 14.435714 25.000000
75.962730 -5.757144 20.704486 0.000000 45.000000 14.171427 0.000000
78.463829 -6.198118 20.531548 0.000000 26.000000 14.042834 0.000000
78.787773 -4.684416 20.662050 0.000000 45.000000 14.023376 0.000000
79.020966 -4.505836 20.713524 0.000000 41.000000 14.056983 0.000000
77.141441 -5.927318 20.692686 0.000000 35.000000 14.176472 0.000000
79.252884 -4.330315 20.772609 0.000000 29.000000 14.098465 0.000000
79.246651 -5.026195 20.694657 0.000000 36.000000 14.089540 0.000000
77.658150 -4.499413 20.836613 0.000000 44.000000 14.178838 0.000000
76.318565 -10.025121 20.337450 0.000000 52.000000 14.227208 0.000000
74.057976 -9.241926 20.295387 0.000000 38.000000 14.108090 0.000000
76.858047 -9.699084 20.307316 0.000000 44.000000 14.165058 0.000000
77.211052 -9.509462 20.228503 0.000000 30.000000 14.067924 0.000000
75.405022 -4.629704 21.379885 0.000000 65.000000 14.732313 17.000000
77.842552 -9.158879 20.155633 0.000000 27.000000 13.960825 0.000000
77.967186 -9.058385 20.281611 0.000000 43.000000 14.076275 0.000000
78.028847 -8.983551 20.462031 0.000000 48.000000 14.248433 0.000000
76.477646 -9.115500 20.215191 0.000000 34.000000 14.015813 0.000000
76.646179 -9.008314 20.294817 0.000000 34.000000 14.084477 0.000000
74.060883 -5.829553 21.013372 0.000000 68.000000 14.485950 3.000000
76.860245 -8.885312 20.342135 0.000000 45.000000 14.119430 0.000000
77.451218 -4.535183 21.168084 0.000000 57.000000 14.512220 23.000000
77.056015 -8.772157 20.404473 0.000000 49.000000 14.170302 0.000000
76.330414 -4.695315 21.212676 0.000000 71.000000 14.572392 17.000000
73.616920 -8.873825 20.582227 0.000000 52.000000 14.357218 19.000000
74.333794 -7.633654 20.461723 0.000000 28.000000 14.114962 0.000000
76.455200 -4.958578 20.658943 0.000000 19.000000 14.047330 0.000000
77.154503 -4.697301 21.521068 0.000000 9.000000 14.879475 23.000000
74.035675 -5.898398 21.180742 0.000000 63.000000 14.659295 3.000000
75.667984 -6.007339 20.634474 0.000000 33.000000 14.126438 0.000000
76.095642 -6.392018 20.554515 0.000000 33.000000 14.084817 0.000000
73.982292 -8.412400 20.460320 0.000000 40.000000 14.190387 0.000000
75.508820 -6.791502 20.611127 0.000000 39.000000 14.180561 0.000000
73.437943 -5.187669 21.429493 0.000000 42.000000 14.836721 8.000000
73.432915 -5.890913 20.723316 0.000000 51.000000 14.203362 0.000000
73.445679 -6.582530 20.798736 0.000000 54.000000 14.346640 14.000000
76.616943 -8.396326 20.802431 0.000000 48.000000 14.529244 1.000000
76.072075 -5.160837 21.386106 0.000000 36.000000 14.790898 16.000000
78.659927 -8.930744 20.388818 0.000000 30.000000 14.170367 0.000000
73.698204 -7.976022 20.870181 0.000000 50.000000 14.555201 4.000000
75.198112 -5.191190 21.487435 0.000000 53.000000 14.894727 28.000000
73.425888 -6.653001 20.656352 0.000000 47.000000 14.211902 0.000000
73.600655 -9.310155 20.218169 0.000000 28.000000 14.037979 0.000000
73.454788 -6.818169 20.598443 0.000000 43.000000 14.170569 0.000000
73.796158 -3.991004 21.461565 0.000000 49.000000 14.750588 24.000000
74.229805 -7.209699 20.536059 0.000000 43.000000 14.147113 0.000000
77.961533 -5.858693 20.732305 0.000000 25.000000 14.209128 0.000000
78.192940 -4.378583 20.843003 0.000000 29.000000 14.173277 0.000000
75.277046 -6.869764 20.586189 0.000000 49.000000 14.163465 0.000000
77.177925 -9.301658 20.645077 0.000000 63.000000 14.461966 6.000000
75.705383 -7.170169 20.677948 0.000000 58.000000 14.284410 0.000000
75.609970 -9.282857 20.322538 0.000000 50.000000 14.139146 0.000000
75.158752 -7.485362 20.547052 0.000000 44.000000 14.185246 0.000000
77.464684 -9.133864 20.884411 0.000000 34.000000 14.683580 6.000000
75.053291 -4.629130 21.449677 0.000000 42.000000 14.801708 21.000000
74.917953 -8.661488 20.392196 0.000000 49.000000 14.147167 0.000000
73.072075 -9.077922 20.389052 0.000000 37.000000 14.185119 0.000000
74.833504 -8.866647 20.396614 0.000000 47.000000 14.171802 0.000000
73.147224 -9.200110 20.240795 0.000000 31.000000 14.049639 0.000000
78.051483 -9.806324 20.798502 0.000000 49.000000 14.664427 2.000000
73.632851 -9.708263 20.683154 0.000000 54.000000 14.539968 29.000000
77.692413 -5.715421 20.726180 0.000000 26.000000 14.188900 0.000000
74.347206 -8.165116 20.867384 0.000000 57.000000 14.571072 4.000000
76.798500 -7.878918 20.406838 0.000000 30.000000 14.084539 0.000000
74.181313 -5.638738 20.748136 0.000000 33.000000 14.203184 0.000000
76.306053 -7.550988 20.478267 0.000000 22.000000 14.123270 0.000000
73.790977 -9.306547 20.262257 0.000000 28.000000 14.081496 0.000000
78.040688 -5.500292 20.705323 0.000000 23.000000 14.146922 0.000000
73.747810 -6.565035 21.002879 0.000000 61.000000 14.548061 14.000000
74.647552 -4.513804 21.255339 0.000000 64.000000 14.596941 21.000000
77.930214 -7.599270 20.545288 0.000000 40.000000 14.194727 0.000000
76.949951 -9.092834 20.236301 0.000000 29.000000 14.034584 0.000000
73.442680 -5.249269 21.248802 0.000000 52.000000 14.662988 8.000000
77.502098 -6.825900 20.594276 0.000000 47.000000 14.167185 0.000000
77.412529 -7.035533 20.565712 0.000000 45.000000 14.159440 0.000000
78.540451 -5.602443 20.700068 0.000000 25.000000 14.151770 0.000000
77.257957 -7.435041 20.479183 0.000000 38.000000 14.112744 0.000000
77.195023 -7.622838 20.420552 0.000000 39.000000 14.072925 0.000000
77.053406 -7.844964 20.423272 0.000000 44.000000 14.097544 0.000000
75.139923 -9.784146 20.762599 0.000000 56.000000 14.626511 10.000000
75.592659 -5.424422 20.774276 0.000000 44.000000 14.208055 0.000000
79.190979 -7.736641 20.451590 0.000000 48.000000 14.115038 0.000000
74.877373 -6.093690 20.576335 0.000000 25.000000 14.077101 0.000000
76.604843 -8.492031 20.448206 0.000000 39.000000 14.186188 0.000000
78.893890 -8.177944 20.415153 0.000000 41.000000 14.122312 0.000000
78.742073 -5.777474 20.555354 0.000000 24.000000 14.025028 0.000000
73.595703 -7.440172 20.500424 0.000000 35.000000 14.134388 0.000000
76.326607 -9.179672 20.173036 0.000000 30.000000 13.980194 0.000000
75.981895 -5.287033 21.268426 0.000000 41.000000 14.686241 16.000000
78.300964 -9.163794 20.174181 0.000000 40.000000 13.979767 0.000000
73.596397 -6.450414 21.028842 0.000000 52.000000 14.562591 14.000000
78.321037 -5.214459 20.749432 0.000000 33.000000 14.162619 0.000000
77.208351 -6.518877 20.594248 0.000000 42.000000 14.136870 0.000000
77.634605 -9.823991 20.262934 0.000000 46.000000 14.133214 0.000000
77.464134 -10.017027 20.248455 0.000000 45.000000 14.137848 0.000000
76.946541 -4.696447 20.954810 0.000000 48.000000 14.315895 23.000000
75.508514 -5.401949 21.548756 0.000000 48.000000 14.976540 28.000000
78.814880 -9.097194 20.320029 0.000000 35.000000 14.118334 0.000000
74.407639 -7.028396 20.556842 0.000000 45.000000 14.149910 0.000000
78.662865 -9.911100 20.347684 0.000000 47.000000 14.226144 0.000000
74.713577 -6.640479 20.593156 0.000000 37.000000 14.147779 0.000000
73.114754 -6.858983 20.583637 0.000000 36.000000 14.159862 0.000000
77.817154 -8.494308 20.469403 0.000000 37.000000 14.207506 0.000000
73.127823 -9.165741 20.322354 0.000000 29.000000 14.127410 0.000000
75.142586 -6.185717 20.538200 0.000000 26.000000 14.048230 0.000000
73.354546 -6.526336 20.678555 0.000000 45.000000 14.221502 0.000000
76.547340 -4.175663 21.017774 0.000000 38.000000 14.327178 22.000000
77.390358 -8.264681 20.475247 0.000000 36.000000 14.190669 0.000000
76.660934 -8.344422 20.451299 0.000000 40.000000 14.174704 0.000000
73.963486 -4.334191 21.179441 0.000000 41.000000 14.503695 25.000000
73.813004 -5.982735 20.755153 0.000000 47.000000 14.244101 0.000000
75.779106 -5.226246 21.582975 0.000000 47.000000 14.993260 28.000000
73.919373 -5.053602 21.446863 0.000000 54.000000 14.840780 30.000000
76.155563 -9.194580 20.176640 0.000000 34.000000 13.985251 0.000000
74.726402 -7.326001 20.586447 0.000000 39.000000 14.208728 0.000000
74.711800 -9.195682 20.170989 0.000000 34.000000 13.979736 0.000000
77.595375 -6.746861 20.649057 0.000000 45.000000 14.213902 0.000000
76.530258 -8.791060 20.446011 0.000000 53.000000 14.213502 0.000000
75.904953 -6.129384 20.568028 0.000000 26.000000 14.072356 0.000000
78.500282 -10.044524 20.508955 0.000000 45.000000 14.399790 2.000000
77.827515 -9.004620 20.722070 0.000000 52.000000 14.509282 6.000000
77.051117 -8.418206 20.412611 0.000000 45.000000 14.143484 0.000000
75.316521 -8.646220 20.408996 0.000000 54.000000 14.162379 0.000000
75.667381 -8.785470 20.575385 0.000000 45.000000 14.341693 5.000000
75.900223 -5.390408 21.319483 0.000000 53.000000 14.747247 16.000000
73.636108 -5.985762 21.048417 0.000000 67.000000 14.536233 3.000000
74.520470 -8.450560 20.446762 0.000000 35.000000 14.180660 0.000000
77.949631 -7.815174 20.312179 0.000000 27.000000 13.984054 0.000000
78.035095 -7.713263 20.462172 0.000000 60.000000 14.123262 0.000000
76.261505 -9.774768 20.778053 0.000000 44.000000 14.640965 9.000000
76.813225 -7.613835 20.357520 0.000000 24.000000 14.009312 0.000000
74.583755 -9.801365 20.686356 0.000000 60.000000 14.552339 11.000000
77.524307 -5.711606 20.746159 0.000000 26.000000 14.208405 0.000000
79.100258 -8.295401 20.482773 0.000000 30.000000 14.201189 0.000000
74.806870 -4.405711 21.090004 0.000000 48.000000 14.421749 21.000000
78.166931 -9.214376 20.187914 0.000000 23.000000 13.998423 0.000000
77.182381 -7.340154 20.542514 0.000000 33.000000 14.166406 0.000000
76.720116 -5.652479 20.913227 0.000000 36.000000 14.368825 27.000000
74.806366 -4.115384 21.402107 0.000000 25.000000 14.703690 21.000000
78.888718 -6.330004 20.497612 0.000000 48.000000 14.022074 0.000000
76.154198 -7.256045 20.584389 0.000000 37.000000 14.199779 0.000000
73.063187 -4.374459 20.821758 0.000000 33.000000 14.151729 0.000000
76.497780 -8.095894 20.542199 0.000000 40.000000 14.240644 1.000000
73.415276 -5.420008 20.731362 0.000000 40.000000 14.164915 0.000000
73.465080 -5.593768 20.712190 0.000000 36.000000 14.162977 0.000000
79.284897 -7.744943 20.454892 0.000000 52.000000 14.119143 0.000000
75.900475 -5.212409 21.225243 0.000000 42.000000 14.635907 16.000000
73.657677 -6.087604 20.586896 0.000000 32.000000 14.087010 0.000000
75.495224 -6.516943 20.515844 0.000000 23.000000 14.058658 0.000000
74.742668 -5.308154 21.147680 0.000000 53.000000 14.568168 20.000000
73.892578 -4.552251 21.110006 0.000000 48.000000 14.456109 25.000000
76.247597 -5.042566 20.869705 0.000000 53.000000 14.265349 0.000000
73.630371 -8.309231 20.763898 0.000000 37.000000 14.482307 4.000000
74.646576 -5.471322 20.769754 0.000000 42.000000 14.208181 0.000000
75.836845 -5.136166 21.158483 0.000000 46.000000 14.561952 16.000000
73.637711 -8.596299 20.517670 0.000000 52.000000 14.265599 0.000000
73.718605 -8.913319 20.372083 0.000000 46.000000 14.151995 0.000000
74.625511 -5.193050 20.802074 0.000000 33.000000 14.212893 0.000000
78.660110 -9.857200 20.520141 0.000000 53.000000 14.392443 2.000000
77.165161 -6.033586 20.609249 0.000000 28.000000 14.103925 0.000000
73.821823 -8.934935 20.660581 0.000000 55.000000 14.441218 19.000000
73.589577 -9.845321 20.285286 0.000000 41.000000 14.157561 0.000000
73.556351 -10.027137 20.267630 0.000000 38.000000 14.157927 0.000000
78.188034 -10.119678 20.221589 0.000000 50.000000 14.121240 0.000000
76.306061 -9.793525 20.601201 0.000000 66.000000 14.466826 9.000000
78.354774 -4.342575 20.799374 0.000000 32.000000 14.126309 0.000000
74.758942 -6.690256 20.605762 0.000000 37.000000 14.165234 0.000000
75.996307 -5.568646 20.710354 0.000000 29.000000 14.158672 0.000000
75.992157 -6.088422 21.048821 0.000000 54.000000 14.546763 27.000000
78.253296 -5.228099 20.678304 0.000000 31.000000 14.093184 0.000000
75.940582 -5.980281 20.663051 0.000000 40.000000 14.152206 0.000000
74.129936 -5.813652 20.802546 0.000000 42.000000 14.274583 0.000000
74.836586 -6.164609 20.512575 0.000000 30.000000 14.020648 0.000000
78.989319 -7.134085 20.624006 0.000000 32.000000 14.227172 0.000000
75.940521 -6.348013 20.550966 0.000000 29.000000 14.076944 0.000000
78.070755 -5.916946 20.636259 0.000000 31.000000 14.119297 0.000000
78.993912 -6.175015 20.626989 0.000000 30.000000 14.135530 0.000000
77.344063 -4.010930 21.214200 0.000000 53.000000 14.506395 15.000000
74.805092 -10.074839 20.433091 0.000000 45.000000 14.327287 10.000000
79.112373 -5.511657 20.634085 0.000000 46.000000 14.077153 0.000000
76.199081 -5.801841 21.195272 0.000000 68.000000 14.664229 27.000000
77.894554 -6.575257 20.560249 0.000000 42.000000 14.108599 0.000000
75.564453 -7.255181 20.627354 0.000000 46.000000 14.242450 0.000000
77.755058 -6.828617 20.592955 0.000000 39.000000 14.166139 0.000000
77.970444 -6.250106 20.526542 0.000000 24.000000 14.042981 0.000000
76.893303 -5.348903 20.773910 0.000000 29.000000 14.200241 0.000000
77.560875 -4.369714 21.299106 0.000000 60.000000 14.626280 15.000000
77.199638 -7.427448 20.522618 0.000000 37.000000 14.155218 0.000000
75.063560 -4.642912 21.467321 0.000000 52.000000 14.820625 21.000000
77.565712 -7.459728 20.487512 0.000000 48.000000 14.123468 0.000000
