58.939663 -13.802500 -6.600175 0.000000 45.000000 14.522425 4.000000
63.101898 -14.453762 -5.376716 0.000000 38.000000 14.143467 0.000000
59.201485 -16.197166 -4.930192 0.000000 39.000000 15.090199 3.000000
63.172104 -14.601200 -5.277569 0.000000 46.000000 14.180971 0.000000
62.703297 -12.424977 -7.854711 0.000000 62.000000 14.399575 24.000000
64.226944 -13.031086 -7.919479 0.000000 47.000000 14.881252 23.000000
64.441711 -13.078324 -7.135999 0.000000 39.000000 14.372078 16.000000
63.461487 -12.928034 -7.186073 0.000000 45.000000 14.298495 0.000000
61.889988 -14.757325 -5.168856 0.000000 47.000000 14.218102 0.000000
63.456562 -15.032251 -4.910369 0.000000 52.000000 14.237000 0.000000
61.994919 -14.889207 -5.032358 0.000000 39.000000 14.218499 0.000000
63.672539 -15.137139 -4.644889 0.000000 30.000000 14.128517 0.000000
64.119118 -12.640078 -8.112505 0.000000 75.000000 14.733318 23.000000
63.945061 -12.914680 -7.839515 0.000000 52.000000 14.741926 23.000000
60.879963 -15.879877 -4.605240 0.000000 48.000000 14.636255 6.000000
62.428226 -15.248613 -4.491570 0.000000 32.000000 14.102546 0.000000
59.935253 -13.264279 -7.335639 0.000000 65.000000 14.644498 17.000000
64.094070 -15.732768 -4.183294 0.000000 41.000000 14.237696 0.000000
60.805988 -13.219005 -7.403414 0.000000 47.000000 14.658864 30.000000
62.747662 -15.670077 -4.154103 0.000000 37.000000 14.172281 0.000000
63.454597 -15.345422 -4.437100 0.000000 31.000000 14.134542 0.000000
58.939583 -12.966609 -7.010774 0.000000 48.000000 14.204752 0.000000
58.770489 -14.266203 -6.277696 0.000000 57.000000 14.632990 29.000000
59.164066 -12.814458 -7.164289 0.000000 45.000000 14.201547 0.000000
59.278141 -12.731707 -7.236255 0.000000 39.000000 14.191812 0.000000
59.385727 -12.653330 -7.319925 0.000000 49.000000 14.193344 0.000000
62.502171 -12.106960 -8.325369 0.000000 61.000000 14.496731 20.000000
61.953365 -12.268804 -7.893934 0.000000 32.000000 14.314229 0.000000
59.716293 -12.391431 -7.548831 0.000000 40.000000 14.163324 0.000000
64.275604 -15.091427 -5.269068 0.000000 55.000000 14.528342 8.000000
59.998974 -12.158631 -7.608814 0.000000 35.000000 14.037153 0.000000
60.105938 -12.062971 -7.687398 0.000000 28.000000 14.022704 0.000000
61.004215 -12.614476 -7.897641 0.000000 60.000000 14.565896 11.000000
60.433590 -11.697504 -8.322012 0.000000 53.000000 14.199343 0.000000
63.704250 -13.715181 -6.858836 0.000000 54.000000 14.638840 10.000000
58.783005 -13.938400 -6.306162 0.000000 52.000000 14.416507 4.000000
62.415874 -11.770425 -8.260198 0.000000 46.000000 14.209033 0.000000
63.984520 -12.896925 -7.787620 0.000000 56.000000 14.693151 23.000000
63.221287 -12.878207 -7.810180 0.000000 36.000000 14.695305 24.000000
64.193512 -15.546289 -4.759424 0.000000 60.000000 14.502768 14.000000
60.888237 -11.761809 -8.310312 0.000000 35.000000 14.237570 0.000000
61.250301 -12.276363 -7.606447 0.000000 30.000000 14.120351 0.000000
60.077538 -15.538803 -4.325821 0.000000 36.000000 14.196741 0.000000
59.239231 -14.937595 -4.980832 0.000000 43.000000 14.217644 0.000000
60.251305 -15.847548 -4.692770 0.000000 29.000000 14.673646 5.000000
58.877357 -12.349110 -8.254706 0.000000 78.000000 14.622235 7.000000
60.832901 -14.961862 -4.953964 0.000000 55.000000 14.216502 0.000000
59.558521 -14.664768 -5.218790 0.000000 35.000000 14.186025 0.000000
60.938107 -14.869498 -5.043363 0.000000 49.000000 14.211927 0.000000
60.163086 -13.029048 -7.294654 0.000000 61.000000 14.446570 18.000000
59.756496 -14.476528 -5.389292 0.000000 35.000000 14.168592 0.000000
59.903137 -14.351462 -5.394547 0.000000 29.000000 14.082111 0.000000
60.013817 -14.243220 -5.455820 0.000000 15.000000 14.046593 0.000000
61.373768 -14.460417 -5.349563 0.000000 36.000000 14.129436 0.000000
60.087502 -14.153883 -5.575264 0.000000 16.000000 14.065030 0.000000
61.505463 -14.339238 -5.386114 0.000000 29.000000 14.067455 0.000000
63.937748 -14.938073 -5.226103 0.000000 71.000000 14.388043 8.000000
64.158218 -16.147673 -4.481256 0.000000 49.000000 14.743271 13.000000
60.991108 -14.762477 -5.316163 0.000000 38.000000 14.323948 2.000000
61.660675 -14.077776 -5.831097 0.000000 47.000000 14.187564 0.000000
60.326321 -13.797669 -6.100891 0.000000 31.000000 14.172773 0.000000
63.844444 -11.762211 -8.330712 0.000000 62.000000 14.252004 0.000000
60.396358 -13.696623 -6.206535 0.000000 34.000000 14.173204 0.000000
64.154564 -15.781825 -4.336879 0.000000 32.000000 14.379533 14.000000
64.475914 -14.266919 -5.540725 0.000000 35.000000 14.122538 0.000000
61.903427 -13.213521 -7.461485 0.000000 52.000000 14.695174 19.000000
60.529312 -13.490865 -6.422526 0.000000 38.000000 14.174685 0.000000
58.915386 -12.832309 -7.154037 0.000000 33.000000 14.207303 0.000000
64.431725 -12.672097 -8.136013 0.000000 53.000000 14.772690 23.000000
62.241077 -13.265704 -6.469903 0.000000 33.000000 14.045279 0.000000
61.142838 -12.259144 -7.559644 0.000000 33.000000 14.075493 0.000000
59.760208 -12.811428 -7.823663 0.000000 67.000000 14.656531 11.000000
59.503407 -15.482503 -4.878576 0.000000 50.000000 14.539415 3.000000
62.628704 -11.730999 -8.281653 0.000000 40.000000 14.195498 0.000000
63.278408 -15.777387 -4.046772 0.000000 35.000000 14.175194 0.000000
63.307961 -15.665405 -4.203929 0.000000 38.000000 14.203460 0.000000
64.285835 -13.654316 -6.762250 0.000000 48.000000 14.528014 10.000000
63.529713 -15.051770 -4.830491 0.000000 44.000000 14.195683 0.000000
62.464825 -12.048910 -8.346149 0.000000 54.000000 14.469307 20.000000
63.604885 -14.793224 -5.066792 0.000000 42.000000 14.173207 0.000000
62.552197 -14.808468 -5.126089 0.000000 39.000000 14.225305 0.000000
60.032875 -12.957921 -7.135606 0.000000 45.000000 14.285042 18.000000
63.723415 -14.393527 -5.392219 0.000000 38.000000 14.110809 0.000000
63.967735 -12.909344 -7.860434 0.000000 76.000000 14.752585 23.000000
63.800838 -14.114490 -5.592551 0.000000 22.000000 14.048628 0.000000
63.681156 -14.042019 -5.876407 0.000000 39.000000 14.193212 0.000000
64.703308 -12.973406 -7.379978 0.000000 57.000000 14.465632 16.000000
61.758884 -13.376056 -7.119318 0.000000 47.000000 14.575063 19.000000
63.713211 -13.249317 -6.602353 0.000000 44.000000 14.125303 0.000000
64.642647 -11.834433 -8.160634 0.000000 30.000000 14.186127 0.000000
59.465359 -15.487967 -4.766014 0.000000 37.000000 14.465309 3.000000
65.015289 -12.272802 -7.745791 0.000000 42.000000 14.214397 0.000000
64.247955 -12.431867 -8.290975 0.000000 58.000000 14.707017 23.000000
63.563194 -13.850982 -6.714855 0.000000 47.000000 14.636873 10.000000
63.258617 -11.778536 -8.237206 0.000000 49.000000 14.198937 0.000000
64.887932 -11.864757 -8.116559 0.000000 54.000000 14.177420 0.000000
64.833534 -11.734072 -8.245003 0.000000 47.000000 14.172301 0.000000
60.240334 -13.466169 -6.752021 0.000000 29.000000 14.385340 0.000000
60.919792 -11.808750 -8.235252 0.000000 47.000000 14.219355 0.000000
59.619377 -11.785955 -8.230728 0.000000 39.000000 14.199792 0.000000
64.314781 -13.302320 -7.391324 0.000000 44.000000 14.710519 16.000000
63.507465 -13.710341 -6.480702 0.000000 57.000000 14.373179 10.000000
59.650341 -12.479153 -7.559819 0.000000 48.000000 14.234156 0.000000
61.292400 -12.977795 -7.244401 0.000000 47.000000 14.374795 30.000000
59.710827 -12.694004 -7.284984 0.000000 35.000000 14.198428 0.000000
63.890961 -15.945087 -4.568780 0.000000 53.000000 14.657968 14.000000
63.577007 -12.003379 -8.716311 0.000000 77.000000 14.693143 12.000000
62.633453 -12.922630 -7.260626 0.000000 40.000000 14.346291 0.000000
60.166275 -12.267053 -8.367629 0.000000 68.000000 14.641397 22.000000
64.207047 -12.540680 -8.137846 0.000000 66.000000 14.679260 23.000000
59.854309 -14.965931 -4.993638 0.000000 34.000000 14.246942 0.000000
64.181221 -14.003420 -6.004141 0.000000 40.000000 14.253959 0.000000
59.586857 -12.935233 -7.200381 0.000000 43.000000 14.313603 17.000000
64.953377 -13.260190 -7.124118 0.000000 51.000000 14.494896 16.000000
61.397484 -13.826220 -6.074725 0.000000 44.000000 14.175205 0.000000
60.027134 -13.764548 -6.152464 0.000000 46.000000 14.184662 0.000000
61.435299 -13.960157 -5.963904 0.000000 54.000000 14.194886 0.000000
60.073502 -13.888530 -6.027020 0.000000 43.000000 14.187031 0.000000
61.507980 -14.079404 -5.807972 0.000000 39.000000 14.172704 0.000000
61.580948 -14.204033 -5.657702 0.000000 32.000000 14.158326 0.000000
61.650944 -14.329480 -5.514032 0.000000 35.000000 14.149113 0.000000
59.502106 -16.128873 -4.346640 0.000000 42.000000 14.636389 6.000000
61.729370 -14.454044 -5.360919 0.000000 43.000000 14.132717 0.000000
62.345222 -12.766161 -7.877569 0.000000 40.000000 14.661286 25.000000
63.494987 -15.589087 -4.963842 0.000000 43.000000 14.675339 15.000000
62.769032 -12.256874 -8.316588 0.000000 46.000000 14.598673 20.000000
64.316505 -12.094449 -8.331767 0.000000 56.000000 14.492151 26.000000
58.926933 -15.552023 -5.034427 0.000000 29.000000 14.697569 3.000000
63.890259 -12.902964 -7.729356 0.000000 60.000000 14.657107 23.000000
64.148338 -13.092445 -7.335349 0.000000 55.000000 14.520470 16.000000
61.985046 -15.006387 -4.875091 0.000000 40.000000 14.193902 0.000000
62.293213 -13.727773 -6.665084 0.000000 42.000000 14.513579 9.000000
62.099548 -15.129428 -4.693641 0.000000 34.000000 14.156762 0.000000
61.173367 -12.331803 -8.545662 0.000000 65.000000 14.811493 22.000000
62.330505 -15.379062 -4.341774 0.000000 38.000000 14.092690 0.000000
63.776291 -12.488491 -8.427610 0.000000 44.000000 14.842555 12.000000
62.817360 -14.770229 -5.162002 0.000000 37.000000 14.222649 0.000000
62.571720 -15.823674 -3.994859 0.000000 41.000000 14.172556 0.000000
63.431911 -12.523729 -7.840046 0.000000 50.000000 14.460570 24.000000
60.077618 -16.451937 -4.642226 0.000000 46.000000 15.074134 6.000000
61.078938 -12.679457 -7.888725 0.000000 59.000000 14.606540 11.000000
64.609070 -12.884284 -7.826395 0.000000 71.000000 14.710926 23.000000
63.732658 -12.812198 -7.129694 0.000000 38.000000 14.175932 0.000000
63.210175 -12.185321 -8.173977 0.000000 63.000000 14.448234 12.000000
62.013359 -12.146779 -8.360831 0.000000 61.000000 14.550012 21.000000
59.680115 -12.645449 -7.422287 0.000000 30.000000 14.258636 11.000000
64.362373 -13.722562 -6.524294 0.000000 57.000000 14.412209 10.000000
60.300255 -15.209097 -5.068820 0.000000 30.000000 14.474298 5.000000
64.757278 -13.992890 -5.943815 0.000000 54.000000 14.204545 0.000000
62.252647 -12.293232 -8.359930 0.000000 72.000000 14.654923 20.000000
65.011017 -14.078087 -5.676441 0.000000 33.000000 14.080560 0.000000
62.243137 -13.301941 -7.092870 0.000000 48.000000 14.503317 19.000000
63.514450 -14.124099 -5.799685 0.000000 37.000000 14.199166 0.000000
61.698105 -13.182419 -7.271628 0.000000 64.000000 14.541127 19.000000
63.868294 -14.347374 -5.437487 0.000000 44.000000 14.108937 0.000000
60.134373 -12.964708 -7.491109 0.000000 60.000000 14.536415 18.000000
64.101791 -14.630942 -5.236091 0.000000 40.000000 14.173645 0.000000
58.772495 -14.033636 -6.396647 0.000000 72.000000 14.547872 4.000000
58.899921 -14.724246 -5.169362 0.000000 39.000000 14.194616 0.000000
59.020187 -14.660330 -5.247526 0.000000 35.000000 14.202751 0.000000
59.137924 -14.593499 -5.323988 0.000000 39.000000 14.207605 0.000000
62.545502 -13.303992 -7.311173 0.000000 55.000000 14.656152 19.000000
64.783302 -14.916806 -5.057459 0.000000 38.000000 14.255791 28.000000
59.459480 -14.394737 -5.602288 0.000000 32.000000 14.257330 0.000000
59.771595 -14.191241 -5.619840 0.000000 19.000000 14.122856 0.000000
60.261162 -13.174319 -7.322248 0.000000 68.000000 14.570387 18.000000
64.648689 -13.679929 -7.367965 0.000000 63.000000 14.966434 16.000000
63.378914 -12.263357 -8.250443 0.000000 63.000000 14.557484 12.000000
61.134689 -13.983223 -6.049381 0.000000 37.000000 14.270771 0.000000
60.258156 -13.801582 -6.115353 0.000000 35.000000 14.185619 0.000000
59.125572 -15.938160 -4.872116 0.000000 29.000000 14.863290 3.000000
63.556240 -15.761733 -4.206462 0.000000 49.000000 14.274632 14.000000
60.561256 -13.526984 -6.371477 0.000000 38.000000 14.165319 0.000000
60.651546 -13.436451 -6.473113 0.000000 43.000000 14.170548 0.000000
64.510910 -15.404232 -5.188022 0.000000 43.000000 14.697562 8.000000
61.121944 -12.161624 -8.457173 0.000000 51.000000 14.627507 22.000000
59.874046 -12.669854 -7.317969 0.000000 35.000000 14.203895 0.000000
64.534431 -12.300942 -8.000358 0.000000 61.000000 14.411176 23.000000
60.252216 -12.196632 -7.580516 0.000000 32.000000 14.044917 0.000000
61.564175 -12.317017 -7.537463 0.000000 39.000000 14.101818 0.000000
63.913506 -13.162340 -7.221094 0.000000 40.000000 14.491621 16.000000
60.394371 -11.786919 -8.300167 0.000000 49.000000 14.248631 0.000000
60.465626 -11.666409 -8.378494 0.000000 52.000000 14.216097 0.000000
61.786083 -11.754305 -8.339230 0.000000 49.000000 14.252213 0.000000
62.236084 -13.008541 -7.457199 0.000000 33.000000 14.544491 19.000000
61.336632 -15.674076 -4.179720 0.000000 44.000000 14.192924 0.000000
61.423496 -15.572387 -4.279745 0.000000 35.000000 14.188996 0.000000
63.813507 -14.657818 -5.245079 0.000000 44.000000 14.199244 0.000000
61.749245 -12.878062 -7.881496 0.000000 71.000000 14.744646 25.000000
63.103935 -15.736432 -4.079721 0.000000 47.000000 14.168526 0.000000
63.678787 -12.657609 -7.888337 0.000000 67.000000 14.590527 23.000000
60.609829 -12.284861 -8.342515 0.000000 71.000000 14.636817 22.000000
61.843266 -11.985616 -8.532345 0.000000 43.000000 14.552792 21.000000
60.390110 -13.346747 -7.215772 0.000000 40.000000 14.620817 18.000000
61.863792 -14.939926 -4.950103 0.000000 38.000000 14.198018 0.000000
63.504391 -15.172085 -4.618870 0.000000 35.000000 14.135660 0.000000
62.300877 -13.170481 -7.427721 0.000000 72.000000 14.640749 19.000000
63.536793 -15.068357 -4.782110 0.000000 44.000000 14.174092 0.000000
61.983749 -14.719640 -5.186118 0.000000 43.000000 14.202914 0.000000
59.853271 -14.854222 -5.093279 0.000000 24.000000 14.235527 0.000000
59.259655 -13.259270 -7.211354 0.000000 76.000000 14.554717 17.000000
63.656605 -14.834475 -5.024150 0.000000 48.000000 14.173368 0.000000
64.541451 -14.142138 -5.599640 0.000000 24.000000 14.073467 0.000000
63.714542 -14.713325 -5.143596 0.000000 45.000000 14.168882 0.000000
64.466454 -12.939391 -7.593509 0.000000 42.000000 14.589169 23.000000
63.984947 -15.752851 -4.675409 0.000000 47.000000 14.593369 14.000000
62.336971 -14.196722 -5.468521 0.000000 18.000000 14.021892 0.000000
63.847309 -14.459883 -5.347976 0.000000 40.000000 14.127951 0.000000
62.321682 -14.109364 -5.666604 0.000000 31.000000 14.096278 0.000000
63.921619 -14.326201 -5.437248 0.000000 44.000000 14.093513 0.000000
60.057270 -16.073631 -4.496926 0.000000 50.000000 14.700780 6.000000
64.020584 -14.178921 -5.493982 0.000000 36.000000 14.026717 0.000000
62.343136 -13.903425 -5.983371 0.000000 38.000000 14.167501 0.000000
64.163338 -13.986287 -6.747765 0.000000 61.000000 14.757194 10.000000
63.167789 -12.681381 -7.982343 0.000000 61.000000 14.672835 24.000000
61.670483 -11.972477 -8.509265 0.000000 61.000000 14.527322 21.000000
64.048988 -13.552512 -6.749196 0.000000 65.000000 14.445601 10.000000
58.826153 -13.675714 -6.635399 0.000000 70.000000 14.455483 4.000000
64.006828 -11.725026 -8.242126 0.000000 40.000000 14.163788 0.000000
64.908485 -11.909760 -8.090690 0.000000 52.000000 14.191914 0.000000
64.845337 -11.772822 -8.194636 0.000000 39.000000 14.165304 0.000000
60.253437 -11.621694 -8.401491 0.000000 46.000000 14.199819 0.000000
60.049767 -12.883717 -7.368605 0.000000 44.000000 14.393116 18.000000
60.273743 -12.087024 -7.677936 0.000000 34.000000 14.033477 0.000000
60.253777 -12.204574 -7.573187 0.000000 35.000000 14.045559 0.000000
62.776581 -13.266417 -6.935122 0.000000 43.000000 14.368346 19.000000
62.820969 -13.286210 -7.186820 0.000000 63.000000 14.557120 19.000000
60.253326 -13.429653 -6.503079 0.000000 38.000000 14.186426 0.000000
64.650482 -12.196516 -7.888180 0.000000 40.000000 14.258148 23.000000
58.811432 -12.605195 -7.419213 0.000000 47.000000 14.227497 0.000000
62.509449 -13.271920 -7.292856 0.000000 60.000000 14.620341 19.000000
58.818111 -12.821607 -7.172392 0.000000 38.000000 14.212317 0.000000
58.827110 -12.930348 -7.047516 0.000000 39.000000 14.204096 0.000000
59.470043 -12.238721 -8.319219 0.000000 38.000000 14.587416 7.000000
60.187946 -13.427575 -6.516866 0.000000 49.000000 14.194487 0.000000
60.185940 -13.560722 -6.421764 0.000000 49.000000 14.224497 0.000000
60.232166 -13.665094 -6.258422 0.000000 39.000000 14.186458 0.000000
60.251144 -13.789467 -6.141568 0.000000 37.000000 14.195065 0.000000
60.447670 -15.656624 -5.156505 0.000000 23.000000 14.857587 5.000000
60.427692 -14.251786 -5.554086 0.000000 14.000000 14.120897 0.000000
62.143536 -12.231633 -7.847329 0.000000 34.000000 14.255130 0.000000
60.362747 -16.100876 -4.703156 0.000000 57.000000 14.863399 6.000000
59.136414 -14.592455 -5.346776 0.000000 39.000000 14.222653 0.000000
59.776829 -11.975431 -8.017784 0.000000 32.000000 14.188689 0.000000
60.879765 -15.952424 -4.406951 0.000000 45.000000 14.551053 6.000000
60.488434 -16.004416 -4.479572 0.000000 46.000000 14.638870 6.000000
61.745384 -13.191494 -7.036881 0.000000 58.000000 14.384908 19.000000
59.268871 -14.972522 -4.986661 0.000000 47.000000 14.246854 0.000000
59.315907 -15.100486 -4.868527 0.000000 44.000000 14.257161 0.000000
62.249115 -13.861344 -6.584954 0.000000 51.000000 14.554276 9.000000
61.638515 -13.547378 -6.515407 0.000000 50.000000 14.279808 0.000000
60.635658 -13.621218 -6.355106 0.000000 40.000000 14.221875 0.000000
61.916969 -12.357325 -7.764497 0.000000 46.000000 14.288276 25.000000
61.685986 -13.611716 -6.486055 0.000000 49.000000 14.305820 0.000000
62.412537 -12.701518 -7.806804 0.000000 47.000000 14.565639 25.000000
59.300247 -13.583956 -6.590583 0.000000 45.000000 14.358288 4.000000
63.170715 -13.520446 -6.382966 0.000000 47.000000 14.168574 0.000000
61.710270 -13.475023 -6.520304 0.000000 52.000000 14.231063 0.000000
63.254028 -13.651475 -6.250099 0.000000 47.000000 14.170874 0.000000
63.337196 -13.784490 -6.122228 0.000000 40.000000 14.178069 0.000000
63.423405 -13.919647 -5.993790 0.000000 43.000000 14.186415 0.000000
61.978222 -13.836717 -6.099277 0.000000 37.000000 14.199792 0.000000
63.495304 -14.061671 -5.883826 0.000000 48.000000 14.212517 0.000000
62.090515 -13.951101 -5.938026 0.000000 34.000000 14.170418 0.000000
63.877293 -13.043911 -7.168186 0.000000 43.000000 14.369596 16.000000
63.818783 -12.616945 -8.049716 0.000000 68.000000 14.673114 23.000000
63.189152 -13.019012 -7.808073 0.000000 65.000000 14.795310 24.000000
62.349930 -14.172094 -5.577764 0.000000 21.000000 14.079886 0.000000
60.521809 -15.779955 -4.208067 0.000000 49.000000 14.288876 6.000000
60.085136 -13.888953 -6.049818 0.000000 32.000000 14.203142 0.000000
63.958790 -14.582367 -5.279644 0.000000 45.000000 14.168838 0.000000
58.943844 -13.497451 -7.078993 0.000000 58.000000 14.634583 17.000000
62.574055 -14.600017 -5.290754 0.000000 41.000000 14.189260 0.000000
59.967850 -14.368826 -5.793399 0.000000 31.000000 14.371162 0.000000
61.099697 -11.721514 -8.458440 0.000000 46.000000 14.311235 0.000000
62.909195 -14.996224 -4.893414 0.000000 45.000000 14.199283 0.000000
64.645294 -15.255691 -4.487796 0.000000 29.000000 14.105029 0.000000
60.312794 -12.337588 -8.351991 0.000000 58.000000 14.681383 22.000000
63.083366 -12.889143 -7.209438 0.000000 42.000000 14.286669 0.000000
59.353691 -13.710058 -6.542889 0.000000 47.000000 14.416091 4.000000
65.004921 -15.708964 -4.132387 0.000000 41.000000 14.185247 0.000000
62.432774 -13.692309 -6.504860 0.000000 30.000000 14.376934 9.000000
58.989265 -13.441333 -6.513331 0.000000 39.000000 14.201950 0.000000
61.962753 -12.585539 -7.920934 0.000000 53.000000 14.561193 25.000000
58.904762 -15.264077 -5.198692 0.000000 53.000000 14.603962 3.000000
62.848080 -13.009185 -7.114404 0.000000 68.000000 14.307283 19.000000
61.473934 -12.403347 -7.593304 0.000000 35.000000 14.202745 0.000000
58.918282 -12.512626 -7.505942 0.000000 49.000000 14.220922 0.000000
59.059212 -12.390310 -7.520330 0.000000 31.000000 14.142755 0.000000
59.179424 -12.284343 -7.568817 0.000000 32.000000 14.100012 0.000000
61.371807 -13.301329 -7.215364 0.000000 68.000000 14.587806 30.000000
64.776146 -12.426401 -8.132899 0.000000 82.000000 14.593479 23.000000
61.988415 -12.919835 -8.011579 0.000000 63.000000 14.864939 25.000000
59.576626 -14.290624 -5.730832 0.000000 30.000000 14.271428 0.000000
63.053177 -11.791325 -8.283769 0.000000 50.000000 14.240437 0.000000
59.998081 -15.269761 -5.100828 0.000000 46.000000 14.540205 5.000000
62.970406 -15.258327 -4.788458 0.000000 31.000000 14.315389 15.000000
64.025078 -12.898694 -8.059927 0.000000 37.000000 14.883226 23.000000
58.862247 -15.835360 -4.037864 0.000000 34.000000 14.210794 0.000000
59.842575 -15.187791 -4.563519 0.000000 27.000000 14.108601 0.000000
64.762199 -12.534922 -7.808014 0.000000 56.000000 14.446426 23.000000
61.412083 -15.298731 -4.371185 0.000000 30.000000 14.055194 0.000000
59.590553 -15.458007 -4.859933 0.000000 42.000000 14.508837 3.000000
61.531647 -15.204197 -4.443376 0.000000 23.000000 14.037124 0.000000
60.072124 -14.962924 -4.964871 0.000000 40.000000 14.224830 0.000000
64.619713 -14.877733 -5.144482 0.000000 41.000000 14.287971 8.000000
60.182751 -14.866317 -5.034640 0.000000 36.000000 14.203587 0.000000
61.621967 -15.066956 -4.803948 0.000000 49.000000 14.188223 0.000000
60.287525 -14.767903 -5.113974 0.000000 30.000000 14.187673 0.000000
61.704895 -14.978439 -4.920721 0.000000 49.000000 14.205400 0.000000
60.617886 -13.428343 -6.643899 0.000000 42.000000 14.283117 0.000000
61.803024 -14.880040 -5.015866 0.000000 42.000000 14.200459 0.000000
59.171280 -14.460139 -5.658564 0.000000 31.000000 14.343477 0.000000
61.880432 -14.790135 -5.136835 0.000000 43.000000 14.219544 0.000000
60.513309 -14.502445 -5.471014 0.000000 44.000000 14.243928 0.000000
61.514942 -12.132941 -8.458047 0.000000 70.000000 14.607444 21.000000
63.392593 -12.654200 -7.893927 0.000000 71.000000 14.591946 24.000000
62.080208 -14.577522 -5.309117 0.000000 43.000000 14.185781 0.000000
60.823162 -14.229493 -5.453431 0.000000 16.000000 14.035044 0.000000
62.219433 -14.449371 -5.336271 0.000000 37.000000 14.112261 0.000000
60.985035 -12.888411 -7.227157 0.000000 43.000000 14.298427 30.000000
63.775517 -16.066237 -4.288872 0.000000 50.000000 14.551200 14.000000
62.212734 -12.927372 -7.940256 0.000000 42.000000 14.820920 25.000000
62.416767 -14.221807 -5.495645 0.000000 30.000000 14.058774 0.000000
60.935093 -13.985605 -5.934712 0.000000 37.000000 14.192984 0.000000
62.492970 -13.873767 -6.482312 0.000000 43.000000 14.492062 9.000000
63.823368 -12.658783 -7.950807 0.000000 47.000000 14.634686 23.000000
62.487328 -14.043377 -5.818109 0.000000 39.000000 14.153770 0.000000
58.886429 -15.625148 -4.916809 0.000000 62.000000 14.668716 3.000000
62.545074 -13.939809 -5.941588 0.000000 42.000000 14.164750 0.000000
61.131466 -13.674592 -6.263319 0.000000 34.000000 14.196698 0.000000
59.104103 -14.436450 -5.736765 0.000000 42.000000 14.380626 0.000000
61.756607 -13.758251 -6.318655 0.000000 43.000000 14.295351 0.000000
61.292049 -13.438939 -6.427710 0.000000 33.000000 14.140861 0.000000
64.192139 -13.119383 -7.678167 0.000000 52.000000 14.777570 23.000000
61.089718 -13.507690 -7.490146 0.000000 65.000000 14.927028 30.000000
61.546257 -12.804240 -7.153546 0.000000 36.000000 14.186735 0.000000
63.013947 -12.928759 -7.001799 0.000000 51.000000 14.171254 0.000000
58.890438 -15.096856 -5.307155 0.000000 47.000000 14.558661 3.000000
63.308186 -15.648165 -4.860015 0.000000 51.000000 14.645925 15.000000
64.537598 -13.330434 -7.344241 0.000000 63.000000 14.698134 16.000000
63.308655 -12.162917 -7.603686 0.000000 44.000000 14.036686 0.000000
63.180813 -12.022696 -8.032218 0.000000 58.000000 14.232757 0.000000
59.739391 -12.916561 -7.208513 0.000000 36.000000 14.305786 17.000000
61.988770 -12.359802 -8.277949 0.000000 55.000000 14.646055 21.000000
59.846149 -12.988931 -7.333010 0.000000 71.000000 14.444255 17.000000
60.308624 -14.386241 -5.869759 0.000000 32.000000 14.436654 1.000000
64.491653 -14.725292 -5.179295 0.000000 41.000000 14.202256 0.000000
60.949974 -12.969662 -8.026519 0.000000 73.000000 14.911204 11.000000
59.021774 -12.402150 -8.383268 0.000000 67.000000 14.749593 7.000000
59.919460 -11.887978 -8.179245 0.000000 24.000000 14.237616 0.000000
64.159225 -12.910525 -7.941238 0.000000 52.000000 14.809460 23.000000
64.585258 -14.051253 -5.786454 0.000000 34.000000 14.137498 0.000000
60.825729 -13.186389 -7.077520 0.000000 39.000000 14.409406 30.000000
64.525986 -13.400978 -6.471106 0.000000 45.000000 14.143594 0.000000
63.985302 -11.762320 -8.232435 0.000000 38.000000 14.183944 0.000000
61.369576 -12.141869 -8.433486 0.000000 52.000000 14.596848 22.000000
61.956581 -13.094547 -7.486517 0.000000 57.000000 14.626795 19.000000
64.275047 -12.724396 -8.197590 0.000000 56.000000 14.853071 23.000000
60.922295 -13.351713 -7.386075 0.000000 63.000000 14.742473 30.000000
61.195896 -13.120023 -7.193018 0.000000 45.000000 14.441660 30.000000
59.197166 -12.781700 -7.226442 0.000000 47.000000 14.221034 0.000000
59.178867 -12.892173 -7.114283 0.000000 53.000000 14.222878 0.000000
62.686028 -13.068950 -7.897891 0.000000 69.000000 14.893570 24.000000
62.011780 -13.941590 -6.011715 0.000000 35.000000 14.214655 0.000000
59.951416 -13.213936 -7.433699 0.000000 64.000000 14.676208 18.000000
60.861336 -16.205028 -4.618747 0.000000 28.000000 14.879929 6.000000
61.653332 -11.645515 -8.363643 0.000000 40.000000 14.190743 0.000000
60.307652 -11.649085 -8.392828 0.000000 53.000000 14.213551 0.000000
61.043392 -13.352160 -7.307324 0.000000 58.000000 14.688195 30.000000
61.375755 -12.363531 -8.339932 0.000000 66.000000 14.691717 22.000000
62.178139 -12.627771 -8.066952 0.000000 57.000000 14.692866 25.000000
58.809563 -14.060541 -6.600290 0.000000 58.000000 14.708453 4.000000
61.792389 -12.312486 -7.566550 0.000000 38.000000 14.118720 0.000000
59.157703 -14.338481 -5.703606 0.000000 39.000000 14.287038 0.000000
60.764977 -12.070542 -8.249104 0.000000 66.000000 14.417610 22.000000
62.839668 -12.151239 -8.130962 0.000000 33.000000 14.393850 20.000000
61.736462 -12.650250 -7.864642 0.000000 64.000000 14.568796 25.000000
58.891636 -14.188027 -6.880165 0.000000 1.000000 14.994368 4.000000
60.765934 -13.640859 -6.314031 0.000000 38.000000 14.207550 0.000000
62.586014 -11.759099 -8.372115 0.000000 40.000000 14.278468 0.000000
62.518505 -13.441689 -7.183627 0.000000 52.000000 14.666947 19.000000
62.230873 -12.115032 -8.350377 0.000000 36.000000 14.519887 20.000000
62.178589 -13.856963 -6.491909 0.000000 63.000000 14.486607 9.000000
62.374832 -14.068844 -5.782118 0.000000 32.000000 14.147168 0.000000
62.670422 -13.134353 -7.258783 0.000000 52.000000 14.497584 19.000000
64.144623 -12.795208 -7.992050 0.000000 57.000000 14.761591 23.000000
62.206493 -13.442141 -6.482707 0.000000 31.000000 14.181300 0.000000
62.548096 -14.313869 -5.462483 0.000000 29.000000 14.102123 0.000000
61.140553 -14.223972 -5.546950 0.000000 25.000000 14.095906 0.000000
59.519188 -11.653291 -8.429220 0.000000 32.000000 14.241814 0.000000
61.673840 -12.266824 -8.313251 0.000000 44.000000 14.603530 21.000000
64.808395 -13.977682 -6.051343 0.000000 42.000000 14.268139 0.000000
61.237888 -14.500804 -5.345860 0.000000 34.000000 14.155972 0.000000
60.113094 -15.265933 -5.177031 0.000000 47.000000 14.590281 5.000000
61.073460 -12.159662 -8.522538 0.000000 73.000000 14.671413 22.000000
61.775085 -13.128839 -7.036393 0.000000 54.000000 14.339420 19.000000
64.444778 -16.427514 -4.715223 0.000000 41.000000 15.107146 13.000000
61.424416 -14.909930 -5.012024 0.000000 52.000000 14.219335 0.000000
61.713707 -12.151492 -8.548715 0.000000 62.000000 14.683675 21.000000
60.099915 -12.466119 -7.690839 0.000000 55.000000 14.315604 11.000000
62.574703 -12.463586 -7.799670 0.000000 54.000000 14.389235 24.000000
63.806576 -12.473242 -8.424206 0.000000 61.000000 14.829206 12.000000
63.389927 -12.292156 -7.856620 0.000000 45.000000 14.305186 0.000000
59.326302 -12.082291 -8.489004 0.000000 74.000000 14.592408 7.000000
63.245262 -12.210289 -8.226950 0.000000 69.000000 14.502954 12.000000
63.497562 -15.845802 -4.006648 0.000000 44.000000 14.196675 0.000000
64.248230 -13.876456 -6.753628 0.000000 84.000000 14.682113 10.000000
59.366825 -12.599748 -7.406123 0.000000 32.000000 14.214496 0.000000
61.754608 -13.109387 -7.406221 0.000000 55.000000 14.581817 19.000000
59.325256 -12.188217 -8.489147 0.000000 68.000000 14.668839 7.000000
59.090187 -12.363113 -7.528816 0.000000 39.000000 14.129040 0.000000
64.773712 -13.813376 -6.115112 0.000000 30.000000 14.193951 0.000000
61.205933 -13.419033 -7.349953 0.000000 37.000000 14.765940 30.000000
64.249481 -16.175056 -4.380575 0.000000 39.000000 14.693198 13.000000
60.078846 -11.731953 -8.274890 0.000000 41.000000 14.191496 0.000000
64.250221 -15.518774 -4.506523 0.000000 36.000000 14.307595 14.000000
60.195072 -14.872053 -5.111604 0.000000 37.000000 14.261082 5.000000
62.410843 -12.494317 -8.046742 0.000000 49.000000 14.582684 25.000000
63.424072 -13.132194 -6.848597 0.000000 42.000000 14.211632 0.000000
64.373985 -16.397722 -4.607795 0.000000 53.000000 15.011194 13.000000
63.225952 -15.643088 -4.342041 0.000000 36.000000 14.283137 0.000000
64.310143 -14.007256 -5.925953 0.000000 43.000000 14.202513 0.000000
61.811073 -12.305081 -8.499042 0.000000 42.000000 14.759914 21.000000
60.062763 -13.207262 -7.197307 0.000000 61.000000 14.507500 18.000000
64.863228 -14.345099 -5.393202 0.000000 36.000000 14.076593 0.000000
64.858154 -15.242963 -5.198192 0.000000 59.000000 14.588400 28.000000
61.299778 -12.117099 -8.543123 0.000000 60.000000 14.655014 22.000000
61.815331 -13.659001 -6.485757 0.000000 43.000000 14.339687 0.000000
60.291302 -13.247019 -7.337071 0.000000 50.000000 14.633053 18.000000
60.130939 -13.177234 -7.287657 0.000000 58.000000 14.548504 18.000000
59.905376 -14.710295 -5.195535 0.000000 42.000000 14.202709 0.000000
61.819588 -12.881401 -8.003580 0.000000 61.000000 14.831697 25.000000
63.094917 -15.610079 -4.374512 0.000000 36.000000 14.281863 0.000000
61.146729 -12.970895 -7.228182 0.000000 30.000000 14.358577 30.000000
60.480320 -14.754603 -5.502173 0.000000 52.000000 14.447241 2.000000
59.274570 -12.136640 -7.758210 0.000000 34.000000 14.124887 0.000000
63.880096 -13.684788 -6.814627 0.000000 38.000000 14.586287 10.000000
62.188492 -12.828033 -7.887842 0.000000 55.000000 14.712994 25.000000
62.769581 -13.772959 -6.678273 0.000000 47.000000 14.555285 9.000000
59.592224 -13.835598 -6.064433 0.000000 29.000000 14.174827 0.000000
60.965992 -14.888403 -5.536169 0.000000 41.000000 14.567230 2.000000
62.420082 -13.911904 -6.547862 0.000000 49.000000 14.564992 9.000000
61.026634 -13.891776 -6.004966 0.000000 38.000000 14.174079 0.000000
63.351597 -12.267169 -8.699607 0.000000 65.000000 14.871652 12.000000
60.901211 -15.169786 -4.728396 0.000000 20.000000 14.209941 0.000000
59.868687 -13.576765 -6.352646 0.000000 35.000000 14.188136 0.000000
58.846329 -13.943862 -6.321122 0.000000 50.000000 14.430815 4.000000
59.314983 -15.467729 -4.883401 0.000000 31.000000 14.532114 3.000000
59.127911 -13.045292 -7.260725 0.000000 50.000000 14.434752 17.000000
64.086906 -12.038613 -8.393462 0.000000 70.000000 14.494690 26.000000
64.430016 -12.843741 -8.206801 0.000000 82.000000 14.945459 23.000000
60.200279 -13.257232 -6.536504 0.000000 29.000000 14.085351 0.000000
61.169987 -12.741488 -7.909316 0.000000 70.000000 14.665517 11.000000
61.524178 -13.362784 -6.657952 0.000000 47.000000 14.245618 0.000000
59.254322 -14.596519 -5.410978 0.000000 41.000000 14.270095 0.000000
61.768871 -13.064650 -6.962061 0.000000 56.000000 14.241627 0.000000
63.579369 -16.017422 -4.352038 0.000000 49.000000 14.559818 14.000000
62.530582 -13.003929 -7.789413 0.000000 76.000000 14.771503 24.000000
64.378441 -13.435654 -7.381559 0.000000 62.000000 14.799831 16.000000
61.865421 -12.555222 -7.761179 0.000000 52.000000 14.428582 25.000000
60.119061 -13.014178 -7.289330 0.000000 40.000000 14.432163 18.000000
64.951927 -11.827757 -8.195834 0.000000 47.000000 14.205722 0.000000
62.210434 -15.834235 -4.018716 0.000000 39.000000 14.196707 0.000000
62.309883 -15.726045 -4.106496 0.000000 36.000000 14.179605 0.000000
63.941044 -13.935857 -6.892021 0.000000 62.000000 14.820871 10.000000
63.085781 -14.096197 -5.746295 0.000000 25.000000 14.142042 0.000000
59.875008 -14.125265 -5.783744 0.000000 22.000000 14.188954 0.000000
63.203770 -12.852645 -7.738530 0.000000 60.000000 14.627206 24.000000
59.790730 -13.672197 -6.456371 0.000000 38.000000 14.328822 0.000000
64.579521 -12.765573 -8.361753 0.000000 44.000000 14.996564 23.000000
60.860893 -15.109799 -5.054148 0.000000 40.000000 14.392569 0.000000
62.651791 -13.239404 -7.240859 0.000000 50.000000 14.560858 19.000000
62.868202 -14.858604 -5.028031 0.000000 44.000000 14.193447 0.000000
62.938126 -14.737657 -5.127735 0.000000 33.000000 14.175419 0.000000
62.112053 -12.185609 -8.050996 0.000000 41.000000 14.363174 20.000000
59.911293 -13.210654 -7.398077 0.000000 49.000000 14.649145 17.000000
63.572758 -12.484089 -8.226520 0.000000 56.000000 14.699960 12.000000
60.111881 -12.113903 -8.259272 0.000000 61.000000 14.455907 22.000000
64.731148 -14.627869 -5.243207 0.000000 44.000000 14.176365 0.000000
63.808270 -13.994528 -6.826652 0.000000 62.000000 14.817828 10.000000
60.056244 -12.997825 -7.734918 0.000000 52.000000 14.729321 11.000000
63.207779 -14.130305 -5.686614 0.000000 22.000000 14.125242 0.000000
61.277336 -12.949010 -7.160166 0.000000 50.000000 14.295649 30.000000
63.199387 -14.032323 -5.866317 0.000000 36.000000 14.179229 0.000000
64.512657 -16.170893 -4.556255 0.000000 53.000000 14.812003 13.000000
63.244488 -13.906670 -5.973469 0.000000 40.000000 14.162974 0.000000
64.546257 -14.043334 -5.873031 0.000000 28.000000 14.191819 0.000000
63.264179 -13.791628 -6.109924 0.000000 38.000000 14.174682 0.000000
61.148544 -15.115570 -4.719073 0.000000 20.000000 14.164409 0.000000
63.296547 -13.667230 -6.226750 0.000000 40.000000 14.166039 0.000000
63.272617 -12.240266 -8.463340 0.000000 58.000000 14.688453 12.000000
60.688732 -12.961979 -7.320481 0.000000 52.000000 14.416146 30.000000
64.944626 -13.746137 -6.160789 0.000000 39.000000 14.177167 0.000000
63.832039 -13.077192 -7.080955 0.000000 56.000000 14.333098 16.000000
64.936607 -13.630419 -6.318994 0.000000 42.000000 14.203468 0.000000
63.468254 -13.245855 -6.467767 0.000000 31.000000 14.029495 0.000000
63.993343 -14.958932 -5.188282 0.000000 48.000000 14.376852 8.000000
63.472893 -13.128571 -6.605819 0.000000 31.000000 14.040695 0.000000
60.639622 -11.626509 -8.483529 0.000000 55.000000 14.260168 0.000000
59.767181 -12.688616 -7.589245 0.000000 63.000000 14.405500 11.000000
59.901516 -16.245589 -4.475926 0.000000 38.000000 14.810135 6.000000
60.506557 -14.204900 -6.032165 0.000000 39.000000 14.418579 1.000000
63.268482 -12.003490 -8.070328 0.000000 51.000000 14.245340 0.000000
63.271038 -11.870275 -8.169858 0.000000 50.000000 14.218351 0.000000
64.879311 -11.945449 -8.020586 0.000000 46.000000 14.169027 0.000000
64.678093 -13.693099 -6.329818 0.000000 35.000000 14.256141 0.000000
64.800140 -11.703554 -8.304031 0.000000 43.000000 14.191236 0.000000
60.950752 -11.794522 -8.239872 0.000000 44.000000 14.212305 0.000000
59.973530 -15.532452 -4.504699 0.000000 36.000000 14.316187 5.000000
64.136169 -13.021232 -7.257688 0.000000 52.000000 14.415308 16.000000
59.627689 -12.295398 -7.610415 0.000000 45.000000 14.136819 0.000000
59.584240 -12.437193 -7.555079 0.000000 35.000000 14.200632 0.000000
64.742523 -13.254151 -7.316834 0.000000 65.000000 14.624161 16.000000
60.016953 -13.435556 -7.117953 0.000000 49.000000 14.616993 18.000000
59.574177 -12.788294 -7.221776 0.000000 35.000000 14.222550 0.000000
64.186241 -12.425601 -8.219157 0.000000 48.000000 14.652708 23.000000
62.638420 -12.921025 -7.811975 0.000000 47.000000 14.727404 24.000000
64.345055 -14.637065 -5.414977 0.000000 71.000000 14.302086 8.000000
60.938015 -15.803177 -4.249190 0.000000 47.000000 14.334122 6.000000
63.699234 -12.158940 -8.741388 0.000000 62.000000 14.822629 12.000000
59.745892 -13.830989 -6.090102 0.000000 35.000000 14.189303 0.000000
62.064182 -14.962203 -5.006499 0.000000 36.000000 14.253173 0.000000
61.657654 -13.584294 -6.512380 0.000000 52.000000 14.304311 0.000000
61.186916 -14.127114 -5.744659 0.000000 37.000000 14.163187 0.000000
60.590881 -15.648089 -4.454912 0.000000 30.000000 14.364998 6.000000
59.505417 -16.166538 -4.625566 0.000000 44.000000 14.856921 3.000000
59.922623 -14.148957 -5.590915 0.000000 24.000000 14.072331 0.000000
61.325550 -14.353022 -5.402866 0.000000 30.000000 14.089003 0.000000
60.836800 -12.332116 -8.286803 0.000000 58.000000 14.632242 22.000000
64.320030 -13.062572 -7.542901 0.000000 52.000000 14.642847 23.000000
61.711838 -13.221986 -7.147309 0.000000 70.000000 14.483445 19.000000
62.769623 -12.299219 -8.317835 0.000000 48.000000 14.630052 20.000000
64.400330 -13.525318 -7.320846 0.000000 40.000000 14.822350 16.000000
59.277798 -13.756717 -6.639092 0.000000 53.000000 14.516415 4.000000
60.007496 -14.701741 -5.229534 0.000000 36.000000 14.220118 0.000000
61.438782 -14.920000 -5.010761 0.000000 50.000000 14.225716 0.000000
60.047729 -14.834449 -5.120548 0.000000 43.000000 14.240185 0.000000
61.513443 -15.045251 -4.854328 0.000000 44.000000 14.207513 0.000000
64.051353 -13.084918 -7.699057 0.000000 67.000000 14.767218 23.000000
60.408951 -16.417778 -4.516234 0.000000 41.000000 14.962164 6.000000
60.828686 -14.735759 -5.689837 0.000000 51.000000 14.563776 2.000000
61.789833 -15.410658 -4.333592 0.000000 30.000000 14.109786 0.000000
61.810364 -15.567779 -4.277162 0.000000 35.000000 14.183885 0.000000
61.877121 -15.707412 -4.151512 0.000000 40.000000 14.197389 0.000000
61.952141 -15.845301 -4.024249 0.000000 38.000000 14.208518 0.000000
58.975700 -15.251122 -5.038765 0.000000 33.000000 14.483743 3.000000
64.505272 -13.370902 -7.529385 0.000000 36.000000 14.855663 16.000000
63.354755 -12.157389 -7.688308 0.000000 43.000000 14.091374 0.000000
61.117905 -13.256621 -7.282236 0.000000 57.000000 14.601953 30.000000
61.606163 -14.478491 -5.404537 0.000000 33.000000 14.180576 0.000000
64.387009 -14.001759 -5.914349 0.000000 44.000000 14.190506 0.000000
63.401936 -14.990906 -4.961787 0.000000 29.000000 14.242856 0.000000
64.590500 -14.093932 -5.659998 0.000000 33.000000 14.080577 0.000000
59.418839 -12.651291 -7.354673 0.000000 36.000000 14.215966 0.000000
64.738838 -14.215119 -5.475077 0.000000 33.000000 14.039694 0.000000
63.916996 -12.282044 -8.539539 0.000000 75.000000 14.771391 26.000000
63.092579 -15.498464 -4.739429 0.000000 69.000000 14.454441 15.000000
61.856567 -13.100581 -7.556594 0.000000 51.000000 14.679730 19.000000
64.450409 -16.255231 -4.358306 0.000000 46.000000 14.735533 13.000000
63.427238 -14.368983 -5.365941 0.000000 34.000000 14.074903 0.000000
64.992729 -14.668751 -5.175952 0.000000 40.000000 14.159195 0.000000
63.817402 -15.764662 -4.354424 0.000000 54.000000 14.379330 14.000000
59.375401 -11.998213 -8.329027 0.000000 52.000000 14.420902 7.000000
59.596954 -12.136021 -7.760451 0.000000 35.000000 14.125995 0.000000
63.814102 -14.936700 -4.936287 0.000000 57.000000 14.186114 0.000000
63.943535 -15.071985 -4.798882 0.000000 53.000000 14.188335 0.000000
59.141403 -11.823438 -8.215316 0.000000 27.000000 14.216117 0.000000
64.349777 -15.295452 -4.351291 0.000000 19.000000 14.039038 0.000000
64.767776 -15.906091 -4.016426 0.000000 46.000000 14.246900 0.000000
59.846985 -13.383570 -6.413554 0.000000 32.000000 14.091146 0.000000
59.884850 -13.362539 -6.616635 0.000000 37.000000 14.216794 0.000000
61.271069 -12.232084 -8.466963 0.000000 69.000000 14.685069 22.000000
62.104797 -13.698808 -6.352973 0.000000 46.000000 14.276309 9.000000
59.178734 -12.878315 -7.120216 0.000000 44.000000 14.217006 0.000000
59.289482 -12.791122 -7.188171 0.000000 30.000000 14.201289 0.000000
60.543262 -12.896598 -7.108476 0.000000 44.000000 14.222041 0.000000
58.988327 -15.336184 -5.008595 0.000000 34.000000 14.524122 3.000000
60.350506 -12.820893 -7.854345 0.000000 49.000000 14.684624 11.000000
64.738548 -13.214052 -7.403760 0.000000 45.000000 14.655534 16.000000
59.677326 -12.458116 -7.537212 0.000000 38.000000 14.203322 0.000000
59.788563 -12.356463 -7.600211 0.000000 34.000000 14.173749 0.000000
62.956257 -13.733516 -6.236469 0.000000 31.000000 14.220544 0.000000
61.225422 -12.316242 -7.527804 0.000000 40.000000 14.094563 0.000000
62.877720 -12.448978 -7.848986 0.000000 57.000000 14.412901 24.000000
61.353336 -12.199522 -7.574061 0.000000 36.000000 14.042524 0.000000
60.529842 -12.899462 -7.356122 0.000000 32.000000 14.395806 18.000000
60.037891 -15.639666 -4.817324 0.000000 41.000000 14.610201 5.000000
60.356422 -11.736834 -8.289386 0.000000 39.000000 14.205064 0.000000
61.628391 -11.831235 -8.260730 0.000000 49.000000 14.253223 0.000000
61.569569 -13.385071 -6.522716 0.000000 34.000000 14.167914 0.000000
61.750225 -11.702886 -8.306265 0.000000 46.000000 14.192303 0.000000
63.954563 -11.703004 -8.268206 0.000000 39.000000 14.166001 0.000000
60.011555 -15.699721 -4.164774 0.000000 30.000000 14.201041 0.000000
60.136822 -15.619132 -4.228413 0.000000 30.000000 14.187091 0.000000
60.338493 -15.359538 -5.224148 0.000000 49.000000 14.690402 5.000000
60.455936 -12.396414 -8.370572 0.000000 68.000000 14.736656 22.000000
61.813869 -15.696275 -4.142883 0.000000 37.000000 14.183381 0.000000
61.938370 -15.609746 -4.213310 0.000000 43.000000 14.169856 0.000000
64.657898 -11.796079 -8.215428 0.000000 31.000000 14.196479 0.000000
62.208591 -15.415417 -4.318085 0.000000 34.000000 14.102464 0.000000
64.255524 -11.835190 -8.194583 0.000000 40.000000 14.210211 0.000000
60.867783 -15.041070 -4.878098 0.000000 37.000000 14.220981 0.000000
60.179428 -15.672017 -5.174413 0.000000 8.000000 14.881096 5.000000
60.978012 -14.942721 -4.953184 0.000000 42.000000 14.202168 0.000000
62.478596 -15.156140 -4.670072 0.000000 36.000000 14.159670 0.000000
59.001183 -14.102951 -6.426752 0.000000 36.000000 14.618694 4.000000
61.216606 -13.746030 -6.278961 0.000000 45.000000 14.259023 0.000000
62.633354 -14.977443 -4.928339 0.000000 48.000000 14.209964 0.000000
61.607689 -12.587594 -7.733526 0.000000 67.000000 14.432737 25.000000
61.354198 -14.553499 -5.331353 0.000000 41.000000 14.183887 0.000000
59.224087 -13.463453 -7.147963 0.000000 59.000000 14.657903 17.000000
61.502319 -14.423242 -5.336591 0.000000 27.000000 14.093653 0.000000
60.599087 -12.477706 -7.639170 0.000000 36.000000 14.288130 11.000000
60.529469 -15.649696 -5.230809 0.000000 47.000000 14.904112 5.000000
64.730743 -14.950993 -5.079983 0.000000 36.000000 14.296043 28.000000
61.600513 -14.251460 -5.632417 0.000000 27.000000 14.174971 0.000000
63.114651 -14.446789 -5.384227 0.000000 38.000000 14.143650 0.000000
61.706081 -14.133195 -5.696744 0.000000 38.000000 14.134348 0.000000
60.051460 -15.199198 -5.056988 0.000000 51.000000 14.458961 5.000000
61.738464 -14.050558 -5.861353 0.000000 45.000000 14.188928 0.000000
63.345257 -14.196492 -5.503359 0.000000 33.000000 14.045880 0.000000
62.997852 -11.992214 -8.238733 0.000000 51.000000 14.353975 0.000000
61.039738 -13.523053 -7.270102 0.000000 47.000000 14.785535 30.000000
63.361790 -14.032691 -5.884886 0.000000 47.000000 14.192369 0.000000
63.444351 -13.912909 -5.978832 0.000000 36.000000 14.171188 0.000000
59.095325 -14.909883 -5.081834 0.000000 35.000000 14.267703 0.000000
62.853462 -13.328470 -7.254845 0.000000 66.000000 14.634737 19.000000
62.160187 -13.382132 -6.458216 0.000000 34.000000 14.121076 0.000000
59.930420 -13.066139 -7.129903 0.000000 47.000000 14.359071 17.000000
61.913883 -12.182170 -8.567665 0.000000 49.000000 14.718921 21.000000
63.875801 -13.173594 -6.561290 0.000000 37.000000 14.042265 0.000000
63.759171 -13.136023 -6.870211 0.000000 41.000000 14.229377 0.000000
64.460983 -13.554547 -7.279294 0.000000 34.000000 14.814603 16.000000
60.831615 -13.661883 -6.367426 0.000000 39.000000 14.259721 0.000000
58.784111 -14.353052 -6.135850 0.000000 66.000000 14.597228 29.000000
59.555252 -15.454921 -4.909477 0.000000 42.000000 14.540964 3.000000
60.096878 -12.146032 -8.321541 0.000000 32.000000 14.522233 22.000000
60.263683 -11.590885 -8.446529 0.000000 51.000000 14.208844 0.000000
60.536831 -12.376767 -8.362450 0.000000 52.000000 14.716867 22.000000
63.807693 -15.856500 -4.756419 0.000000 27.000000 14.724227 14.000000
60.140667 -12.069268 -7.826177 0.000000 29.000000 14.123462 0.000000
59.859291 -13.995091 -5.943393 0.000000 34.000000 14.205839 0.000000
60.125721 -12.253483 -7.540048 0.000000 39.000000 14.057827 0.000000
63.986973 -12.336832 -8.367744 0.000000 65.000000 14.691760 26.000000
60.036125 -12.410539 -7.525052 0.000000 44.000000 14.160606 0.000000
60.151764 -12.946884 -7.941035 0.000000 80.000000 14.835521 11.000000
59.917370 -12.884423 -7.145051 0.000000 39.000000 14.238626 0.000000
61.905926 -12.296565 -8.243812 0.000000 46.000000 14.576817 21.000000
59.593380 -12.511326 -7.515685 0.000000 38.000000 14.226741 0.000000
59.073307 -14.112404 -6.404720 0.000000 46.000000 14.610231 4.000000
59.928200 -13.664186 -6.267156 0.000000 33.000000 14.191860 0.000000
64.238480 -12.892366 -7.775329 0.000000 49.000000 14.681344 23.000000
62.077648 -12.208641 -8.342625 0.000000 61.000000 14.581968 20.000000
60.336803 -15.188530 -5.134189 0.000000 51.000000 14.504799 5.000000
60.094009 -13.129672 -7.269171 0.000000 68.000000 14.501413 18.000000
60.077545 -14.209850 -5.514246 0.000000 19.000000 14.063055 0.000000
60.094776 -14.331448 -5.398767 0.000000 29.000000 14.070614 0.000000
61.594345 -12.161186 -8.149287 0.000000 42.000000 14.413723 21.000000
63.273560 -15.288057 -4.788073 0.000000 28.000000 14.336545 15.000000
60.621197 -12.482334 -7.801790 0.000000 57.000000 14.404215 11.000000
61.346592 -12.350007 -8.168920 0.000000 35.000000 14.563403 22.000000
58.786888 -14.801081 -5.113889 0.000000 31.000000 14.211523 0.000000
62.382034 -11.794667 -8.234832 0.000000 46.000000 14.208915 0.000000
64.694893 -14.691284 -5.284536 0.000000 41.000000 14.250717 0.000000
62.557365 -12.209611 -7.629362 0.000000 37.000000 14.088136 0.000000
60.359787 -12.326214 -7.585760 0.000000 29.000000 14.141932 0.000000
61.128353 -14.023045 -5.935287 0.000000 37.000000 14.220363 0.000000
60.438072 -16.101262 -4.629008 0.000000 30.000000 14.812268 6.000000
61.039509 -14.034712 -5.913546 0.000000 32.000000 14.213696 0.000000
61.490513 -13.423449 -6.516407 0.000000 49.000000 14.191195 0.000000
63.011478 -13.749335 -6.170775 0.000000 40.000000 14.186395 0.000000
62.803135 -14.797548 -5.131283 0.000000 39.000000 14.221037 0.000000
58.812042 -12.173186 -8.340611 0.000000 45.000000 14.555022 7.000000
58.801075 -13.384248 -7.146478 0.000000 60.000000 14.599797 17.000000
64.606628 -15.263980 -5.028662 0.000000 28.000000 14.486004 8.000000
62.181065 -13.313276 -6.856222 0.000000 44.000000 14.347409 19.000000
58.981430 -12.315142 -8.489998 0.000000 51.000000 14.760893 7.000000
63.406342 -14.226674 -5.480773 0.000000 35.000000 14.051970 0.000000
60.327103 -13.078067 -7.362028 0.000000 61.000000 14.528607 18.000000
60.610672 -15.373096 -5.170422 0.000000 42.000000 14.662922 5.000000
62.043072 -14.250978 -5.444093 0.000000 30.000000 14.044052 0.000000
60.133064 -12.083255 -8.346596 0.000000 38.000000 14.494366 22.000000
62.087627 -14.397479 -5.356354 0.000000 31.000000 14.088791 0.000000
63.560913 -14.670938 -5.184105 0.000000 56.000000 14.166423 0.000000
60.593521 -15.369987 -5.348981 0.000000 57.000000 14.784483 5.000000
61.697964 -13.092401 -7.464480 0.000000 59.000000 14.609970 19.000000
62.178013 -14.694952 -5.194151 0.000000 37.000000 14.190693 0.000000
63.723846 -14.956920 -4.931097 0.000000 52.000000 14.197087 0.000000
64.113693 -14.967537 -5.428036 0.000000 57.000000 14.549283 8.000000
62.919521 -13.270262 -6.554776 0.000000 24.000000 14.107409 0.000000
58.917278 -15.805835 -4.598875 0.000000 53.000000 14.578486 3.000000
