-6.833674 6.300624 -17.464298 0.000000 66.000000 14.933259 4.000000
-3.450240 8.212327 -15.356580 0.000000 71.000000 15.077104 7.000000
-4.593137 3.480153 -17.622255 0.000000 59.000000 14.743321 0.000000
-3.953533 4.634974 -17.393814 0.000000 55.000000 15.226931 18.000000
-3.100367 6.513918 -15.178528 0.000000 34.000000 14.380613 0.000000
-3.655545 5.290599 -16.351151 0.000000 60.000000 14.702431 29.000000
-4.517863 3.763132 -17.517373 0.000000 52.000000 14.791728 18.000000
-4.554856 6.476408 -16.048111 0.000000 58.000000 14.596031 0.000000
-4.459686 6.873710 -16.011444 0.000000 52.000000 14.754339 15.000000
-6.987344 5.087105 -18.040712 0.000000 50.000000 14.892564 26.000000
-4.794992 5.961732 -16.375452 0.000000 51.000000 14.587981 0.000000
-4.197738 8.553254 -15.521469 0.000000 57.000000 15.089615 12.000000
-4.617949 8.526146 -15.805629 0.000000 61.000000 15.173457 12.000000
-4.040533 6.215264 -15.942838 0.000000 54.000000 14.583935 0.000000
-4.563268 5.950555 -16.277667 0.000000 71.000000 14.581571 0.000000
-7.208462 4.346398 -18.286945 0.000000 48.000000 14.733365 0.000000
-6.153099 4.892180 -17.607942 0.000000 42.000000 14.740043 0.000000
-4.476053 5.174036 -17.343416 0.000000 74.000000 15.213038 29.000000
-3.175368 6.200834 -15.376658 0.000000 20.000000 14.399753 0.000000
-3.675909 3.200416 -17.169628 0.000000 50.000000 14.569631 30.000000
-6.279223 3.883690 -18.391327 0.000000 74.000000 14.965561 22.000000
-3.371882 6.133963 -15.772660 0.000000 74.000000 14.641373 1.000000
-7.241765 5.666974 -18.201361 0.000000 69.000000 15.168014 26.000000
-4.258327 2.900813 -18.042587 0.000000 69.000000 14.990206 11.000000
-3.526974 3.786310 -17.748465 0.000000 75.000000 15.344228 30.000000
-5.777289 4.459617 -17.898219 0.000000 56.000000 14.948394 25.000000
-4.485287 3.765110 -17.615534 0.000000 60.000000 14.887372 18.000000
-6.131939 3.379399 -18.263100 0.000000 71.000000 14.709877 0.000000
-6.734280 6.041159 -17.530419 0.000000 60.000000 14.922289 4.000000
-6.471147 5.190857 -17.480526 0.000000 57.000000 14.637762 0.000000
-6.595623 3.144845 -18.669628 0.000000 83.000000 14.801001 14.000000
-8.397858 6.345707 -17.876564 0.000000 69.000000 14.753901 27.000000
-5.532531 7.164617 -16.127480 0.000000 64.000000 14.591751 0.000000
-7.818310 8.374743 -16.839108 0.000000 60.000000 14.872243 16.000000
-3.003711 7.314064 -15.392886 0.000000 41.000000 14.911221 6.000000
-5.251739 7.828012 -15.808181 0.000000 55.000000 14.679327 0.000000
-8.752141 7.793101 -17.136998 0.000000 42.000000 14.569975 0.000000
-3.409682 5.053022 -16.974290 0.000000 67.000000 15.224947 29.000000
-5.925676 4.243618 -17.949312 0.000000 65.000000 14.854985 25.000000
-3.998263 8.019205 -15.106858 0.000000 35.000000 14.597009 0.000000
-5.284861 7.802944 -15.801357 0.000000 53.000000 14.652076 0.000000
-5.363216 7.681629 -15.872414 0.000000 63.000000 14.637376 0.000000
-5.746748 6.934503 -16.325443 0.000000 53.000000 14.594624 0.000000
-6.232874 3.170648 -18.226648 0.000000 46.000000 14.561493 14.000000
-4.998303 3.665846 -18.182406 0.000000 68.000000 15.150737 22.000000
-7.835420 8.353606 -16.824312 0.000000 55.000000 14.845364 16.000000
-4.993759 5.120669 -17.441492 0.000000 79.000000 15.094206 28.000000
-6.099266 4.847729 -17.580205 0.000000 45.000000 14.717834 0.000000
-6.120696 5.640089 -17.077322 0.000000 44.000000 14.594204 0.000000
-3.586372 5.052143 -16.990193 0.000000 68.000000 15.176267 29.000000
-6.006641 6.088614 -16.923343 0.000000 57.000000 14.679512 0.000000
-3.132690 7.657864 -15.354290 0.000000 67.000000 14.968387 6.000000
-4.966128 7.855953 -15.666090 0.000000 49.000000 14.669487 0.000000
-5.719799 6.145527 -17.111046 0.000000 57.000000 14.961900 9.000000
-6.743958 5.187838 -18.015438 0.000000 59.000000 14.995877 26.000000
-4.914512 7.922179 -15.681674 0.000000 52.000000 14.726839 0.000000
-4.163829 3.207731 -17.744536 0.000000 40.000000 14.890509 11.000000
-6.000439 6.222873 -16.653879 0.000000 46.000000 14.505343 0.000000
-4.590568 6.493126 -15.761720 0.000000 21.000000 14.346593 0.000000
-3.173123 4.556695 -16.560053 0.000000 39.000000 14.760468 29.000000
-5.150247 6.326035 -16.327029 0.000000 56.000000 14.565633 0.000000
-7.397560 4.187229 -18.111589 0.000000 36.000000 14.455502 0.000000
-7.924577 5.654761 -17.916589 0.000000 72.000000 14.682038 0.000000
-4.331666 7.410238 -15.636269 0.000000 53.000000 14.691055 6.000000
-5.432602 4.728268 -17.748164 0.000000 56.000000 15.047079 25.000000
-4.761076 6.645448 -15.795137 0.000000 36.000000 14.375186 0.000000
-4.015210 3.084114 -18.187979 0.000000 42.000000 15.270988 11.000000
-5.015002 5.765297 -16.881563 0.000000 64.000000 14.864068 9.000000
-7.295595 8.493001 -16.230399 0.000000 80.000000 14.584168 0.000000
-5.949461 8.059813 -15.868570 0.000000 60.000000 14.577520 0.000000
-5.199457 6.389427 -16.369764 0.000000 56.000000 14.609658 0.000000
-7.393800 6.619068 -17.778929 0.000000 69.000000 15.129849 23.000000
-6.782514 7.104551 -16.842551 0.000000 48.000000 14.738523 24.000000
-5.841538 6.917167 -16.185007 0.000000 26.000000 14.435218 0.000000
-4.781533 5.958264 -16.365110 0.000000 51.000000 14.582536 0.000000
-8.242320 8.193118 -16.863774 0.000000 59.000000 14.673383 0.000000
-4.573747 6.123470 -16.282393 0.000000 62.000000 14.649888 0.000000
-4.311339 8.416536 -15.603714 0.000000 52.000000 15.066035 12.000000
-3.101445 4.128224 -16.804257 0.000000 64.000000 14.824780 18.000000
-3.716000 7.815174 -15.172404 0.000000 45.000000 14.671359 0.000000
-4.118599 6.049507 -15.966780 0.000000 56.000000 14.511808 0.000000
-5.936384 6.352508 -16.789268 0.000000 47.000000 14.693840 5.000000
-7.474252 8.180137 -16.596698 0.000000 57.000000 14.710092 17.000000
-5.858648 4.694441 -17.371154 0.000000 49.000000 14.564074 25.000000
-8.309887 3.491480 -19.111094 0.000000 81.000000 14.712461 0.000000
-7.247296 4.902955 -18.087992 0.000000 49.000000 14.769373 26.000000
-8.302877 7.919553 -16.952557 0.000000 65.000000 14.620140 3.000000
-7.913494 4.322259 -18.494092 0.000000 46.000000 14.653178 0.000000
-6.645363 3.364467 -18.694058 0.000000 70.000000 14.890686 14.000000
-4.966409 5.206452 -17.586622 0.000000 68.000000 15.260897 28.000000
-4.162915 8.347814 -15.346429 0.000000 37.000000 14.872226 12.000000
-3.239159 6.074816 -15.917701 0.000000 39.000000 14.787911 1.000000
-4.872763 6.898499 -16.087317 0.000000 83.000000 14.683979 15.000000
-4.340901 5.217516 -17.234767 0.000000 56.000000 15.185064 29.000000
-3.747169 7.906043 -15.090045 0.000000 49.000000 14.626138 0.000000
-7.553682 3.996877 -18.863660 0.000000 63.000000 14.965476 20.000000
-3.610603 5.212085 -17.114781 0.000000 68.000000 15.336583 29.000000
-5.714807 6.951217 -16.317872 0.000000 53.000000 14.605938 0.000000
-2.739339 3.473506 -16.834656 0.000000 57.000000 14.720049 30.000000
-5.938960 4.077802 -18.129146 0.000000 54.000000 14.938062 22.000000
-5.689132 4.464328 -17.888708 0.000000 73.000000 14.973023 25.000000
-4.913438 2.866637 -17.702171 0.000000 45.000000 14.457982 0.000000
-4.104634 5.473384 -16.541138 0.000000 45.000000 14.778592 10.000000
-6.260438 6.336151 -16.946093 0.000000 56.000000 14.707303 0.000000
-7.188175 8.353187 -16.537062 0.000000 68.000000 14.827559 17.000000
-7.982430 5.404730 -18.577713 0.000000 67.000000 15.125628 27.000000
-4.921730 7.636920 -15.644144 0.000000 50.000000 14.580276 0.000000
-6.127176 5.774926 -16.880634 0.000000 38.000000 14.477700 0.000000
-7.661526 6.698676 -17.483868 0.000000 63.000000 14.816535 23.000000
-4.464519 5.140286 -17.302293 0.000000 70.000000 15.168844 29.000000
-3.529499 4.087043 -17.496773 0.000000 17.000000 15.247550 18.000000
-5.783871 5.311924 -17.715274 0.000000 82.000000 15.125554 28.000000
-8.240071 4.870332 -18.954853 0.000000 76.000000 15.146040 27.000000
-4.829787 3.790400 -17.556982 0.000000 51.000000 14.726922 0.000000
-6.897931 6.253993 -17.244520 0.000000 57.000000 14.705566 4.000000
-7.366099 6.144738 -17.531778 0.000000 52.000000 14.742962 0.000000
-3.108796 4.895484 -16.260537 0.000000 60.000000 14.661491 29.000000
-7.176862 3.890460 -18.675526 0.000000 75.000000 14.895606 20.000000
-5.011992 3.471741 -17.701524 0.000000 63.000000 14.660776 0.000000
-3.917601 3.172247 -17.542157 0.000000 74.000000 14.790689 11.000000
-6.146635 7.649309 -16.507787 0.000000 52.000000 14.890632 2.000000
-6.883464 5.437003 -18.137049 0.000000 55.000000 15.148376 26.000000
-7.089736 7.394262 -16.951869 0.000000 55.000000 14.837792 24.000000
-6.596136 6.222246 -16.890426 0.000000 45.000000 14.497674 0.000000
-6.158353 7.626154 -16.513059 0.000000 59.000000 14.881910 2.000000
-5.364856 2.938445 -18.356703 0.000000 35.000000 14.884688 13.000000
-8.622978 6.453451 -17.850635 0.000000 62.000000 14.695394 27.000000
-8.217539 3.739443 -18.674167 0.000000 46.000000 14.470758 0.000000
-4.102346 7.520310 -15.885340 0.000000 65.000000 15.026378 6.000000
-4.559430 6.346704 -16.277107 0.000000 61.000000 14.738152 0.000000
-5.391374 6.070611 -17.012362 0.000000 75.000000 14.963526 9.000000
-5.031540 4.747438 -17.662802 0.000000 41.000000 15.122444 25.000000
-4.043914 7.478819 -15.889471 0.000000 68.000000 15.034038 6.000000
-8.142521 8.360746 -16.768463 0.000000 56.000000 14.693172 0.000000
-5.417011 3.979362 -18.349984 0.000000 70.000000 15.269867 22.000000
-5.270201 6.401952 -16.763646 0.000000 85.000000 14.924714 5.000000
-7.412715 4.671405 -18.317087 0.000000 61.000000 14.815236 21.000000
-3.748799 6.665485 -15.636995 0.000000 56.000000 14.602991 0.000000
-6.891020 8.502921 -16.226730 0.000000 65.000000 14.726586 0.000000
-6.725115 7.900561 -16.268239 0.000000 48.000000 14.583192 0.000000
-3.848493 5.244346 -17.089922 0.000000 38.000000 15.244844 29.000000
-4.446270 5.295326 -16.773894 0.000000 58.000000 14.786901 29.000000
-6.622248 6.546780 -17.094148 0.000000 80.000000 14.789311 23.000000
-5.459341 6.547965 -16.972796 0.000000 75.000000 15.093722 5.000000
-5.357454 7.193472 -16.137277 0.000000 65.000000 14.672715 0.000000
-5.029466 7.702208 -15.677349 0.000000 46.000000 14.596453 0.000000
-8.655280 8.451235 -16.615700 0.000000 38.000000 14.419339 0.000000
-6.056552 4.983841 -17.583635 0.000000 68.000000 14.789205 28.000000
-4.828082 7.313140 -15.666947 0.000000 40.000000 14.505182 0.000000
-3.880799 7.375644 -15.622498 0.000000 70.000000 14.823593 6.000000
-5.949155 7.116734 -16.184696 0.000000 35.000000 14.475721 0.000000
-7.812027 3.724424 -18.721853 0.000000 59.000000 14.647366 0.000000
-5.524602 6.725842 -16.212352 0.000000 46.000000 14.494220 0.000000
-3.918294 4.322535 -17.691979 0.000000 62.000000 15.369975 18.000000
-8.372094 3.341532 -19.191068 0.000000 67.000000 14.699741 0.000000
-3.741835 4.206269 -17.541800 0.000000 54.000000 15.258361 18.000000
-5.204560 6.352459 -16.391332 0.000000 62.000000 14.611679 0.000000
-5.927652 8.084214 -15.861936 0.000000 68.000000 14.589105 0.000000
-5.885658 4.361791 -18.167070 0.000000 74.000000 15.100594 25.000000
-7.337317 7.256156 -17.061870 0.000000 67.000000 14.790359 24.000000
-7.450804 6.325528 -17.277328 0.000000 48.000000 14.568024 23.000000
-4.757059 7.878254 -15.483391 0.000000 48.000000 14.596105 0.000000
-4.091371 4.467386 -17.417009 0.000000 73.000000 15.132524 18.000000
-7.847795 5.651882 -18.718426 0.000000 73.000000 15.389552 27.000000
-3.045365 3.889047 -17.278698 0.000000 59.000000 15.153796 30.000000
-6.906167 8.441291 -16.224713 0.000000 55.000000 14.695343 17.000000
-6.465606 6.530405 -16.981304 0.000000 74.000000 14.741767 0.000000
-4.257100 5.980260 -16.051217 0.000000 47.000000 14.507894 0.000000
-5.197898 5.394917 -17.206049 0.000000 64.000000 14.930350 28.000000
-6.807403 8.533364 -16.172527 0.000000 82.000000 14.721739 0.000000
-5.091664 3.778100 -18.452495 0.000000 42.000000 15.391820 22.000000
-6.679124 7.187647 -16.571654 0.000000 69.000000 14.577051 24.000000
-5.229534 5.120580 -17.603845 0.000000 71.000000 15.149669 28.000000
-6.820192 8.478299 -16.097829 0.000000 63.000000 14.632106 0.000000
-4.524823 3.463304 -17.497382 0.000000 54.000000 14.654440 0.000000
-3.790310 6.017440 -15.952080 0.000000 68.000000 14.601635 0.000000
-7.430136 6.004254 -17.515339 0.000000 45.000000 14.651347 0.000000
-6.826856 8.465834 -16.128760 0.000000 61.000000 14.651172 0.000000
-3.301111 5.432274 -16.175165 0.000000 60.000000 14.732570 8.000000
-7.993172 5.638340 -17.878764 0.000000 56.000000 14.619407 0.000000
-4.954129 5.556063 -16.675835 0.000000 44.000000 14.628216 9.000000
-7.719709 4.162569 -18.452410 0.000000 55.000000 14.622812 20.000000
-8.180287 6.793740 -17.532805 0.000000 36.000000 14.713896 19.000000
-6.847993 4.664998 -18.265004 0.000000 64.000000 14.966138 21.000000
-6.873468 5.847254 -17.636345 0.000000 59.000000 14.887406 4.000000
-7.266193 4.108453 -18.554318 0.000000 50.000000 14.846961 20.000000
-6.482861 3.188110 -18.884935 0.000000 66.000000 15.040551 14.000000
-6.150200 3.649523 -18.533484 0.000000 65.000000 15.039557 22.000000
-6.920942 4.583014 -18.283485 0.000000 63.000000 14.924088 21.000000
-8.123133 5.021453 -18.429514 0.000000 42.000000 14.799708 27.000000
-4.273534 5.738545 -16.569676 0.000000 55.000000 14.847952 10.000000
-6.371925 5.055757 -17.570405 0.000000 47.000000 14.695814 0.000000
-7.776189 6.163031 -17.352104 0.000000 37.000000 14.453814 0.000000
-7.381769 6.573410 -17.606809 0.000000 80.000000 14.969769 23.000000
-7.570915 8.028180 -16.656342 0.000000 58.000000 14.667234 3.000000
-3.754583 5.305586 -16.990065 0.000000 80.000000 15.216889 29.000000
-4.961080 5.099953 -17.500290 0.000000 72.000000 15.147497 28.000000
-3.566136 5.191901 -16.316447 0.000000 66.000000 14.665429 29.000000
-7.361231 3.934564 -18.519855 0.000000 40.000000 14.716036 20.000000
-7.790683 8.545908 -16.732153 0.000000 58.000000 14.858256 16.000000
-6.607074 4.685040 -17.996868 0.000000 74.000000 14.830376 21.000000
-6.474479 6.521417 -16.969000 0.000000 69.000000 14.724667 0.000000
-6.100952 6.238442 -16.833865 0.000000 51.000000 14.629309 0.000000
-6.686126 6.957108 -16.509278 0.000000 40.000000 14.430947 0.000000
-6.201282 4.324235 -17.914676 0.000000 56.000000 14.760736 25.000000
-3.103257 4.975282 -16.121401 0.000000 54.000000 14.576495 0.000000
-4.811210 7.445205 -15.772866 0.000000 52.000000 14.653057 0.000000
-7.408623 4.434513 -18.332280 0.000000 79.000000 14.736471 21.000000
-3.079566 4.939838 -16.138174 0.000000 56.000000 14.585119 0.000000
-3.575112 3.061474 -17.761557 0.000000 76.000000 15.053597 11.000000
-5.446962 7.707559 -15.913898 0.000000 62.000000 14.653522 0.000000
-8.457355 6.529088 -17.805485 0.000000 63.000000 14.744718 0.000000
-6.625554 7.157514 -16.737464 0.000000 88.000000 14.724941 24.000000
-7.292237 6.166806 -17.311524 0.000000 54.000000 14.590223 0.000000
-5.298456 3.635964 -18.175827 0.000000 66.000000 15.028316 22.000000
-6.619186 6.015775 -17.277222 0.000000 74.000000 14.737322 4.000000
-7.684523 5.086954 -18.250593 0.000000 45.000000 14.826880 26.000000
-5.239955 7.392397 -15.814139 0.000000 50.000000 14.517292 0.000000
-4.853932 4.572778 -17.261853 0.000000 42.000000 14.775061 25.000000
-4.994537 5.908055 -16.759985 0.000000 84.000000 14.823975 9.000000
-7.567503 3.178776 -18.689983 0.000000 49.000000 14.491398 0.000000
-8.289889 6.567882 -17.761348 0.000000 68.000000 14.781068 19.000000
-6.102262 5.130507 -17.632571 0.000000 62.000000 14.872460 28.000000
-5.147490 6.325909 -16.338181 0.000000 58.000000 14.576031 0.000000
-7.276673 5.550957 -17.283450 0.000000 35.000000 14.329732 0.000000
-7.580468 5.735315 -17.378600 0.000000 30.000000 14.376742 0.000000
-3.278957 2.994352 -16.992550 0.000000 45.000000 14.477043 0.000000
-5.149150 6.836683 -16.370082 0.000000 66.000000 14.803342 15.000000
-3.820009 4.158453 -17.711667 0.000000 66.000000 15.356628 18.000000
-7.253729 4.649448 -18.109376 0.000000 58.000000 14.685657 21.000000
-5.372385 4.606088 -17.914674 0.000000 73.000000 15.161712 25.000000
-6.931634 4.557253 -18.262176 0.000000 70.000000 14.892100 21.000000
-2.739719 2.524206 -16.846593 0.000000 36.000000 14.356926 0.000000
-5.422537 4.970485 -17.544384 0.000000 61.000000 14.972546 28.000000
-5.070238 4.418861 -17.680617 0.000000 65.000000 14.994890 25.000000
-5.063468 3.954017 -17.930195 0.000000 70.000000 15.026750 22.000000
-7.419219 8.534667 -16.419730 0.000000 73.000000 14.718245 0.000000
-5.778569 6.812742 -16.145451 0.000000 36.000000 14.382584 0.000000
-3.422520 5.768928 -16.235663 0.000000 75.000000 14.873832 8.000000
-5.724031 6.746664 -16.441551 0.000000 51.000000 14.627465 0.000000
-5.952875 4.056343 -18.181103 0.000000 63.000000 14.968933 22.000000
-5.881483 4.479093 -18.052514 0.000000 39.000000 15.050762 25.000000
-3.874190 3.037732 -17.944480 0.000000 76.000000 15.095091 11.000000
-8.589695 7.382452 -17.404201 0.000000 72.000000 14.692623 0.000000
-7.859841 7.450983 -16.931544 0.000000 58.000000 14.573198 0.000000
-8.195532 4.252824 -18.533710 0.000000 50.000000 14.560832 0.000000
-3.703690 4.014644 -17.442793 0.000000 74.000000 15.112212 18.000000
-7.527457 7.421877 -17.218299 0.000000 64.000000 14.921937 24.000000
-3.446643 6.424757 -15.891643 0.000000 48.000000 14.830667 1.000000
-4.741051 7.345573 -15.715360 0.000000 48.000000 14.589563 0.000000
-3.618583 3.806613 -17.779350 0.000000 66.000000 15.346397 30.000000
-3.797404 5.544618 -16.056066 0.000000 51.000000 14.501716 0.000000
-6.364727 4.988874 -17.536503 0.000000 41.000000 14.643220 0.000000
-8.055341 4.145556 -18.543084 0.000000 48.000000 14.575718 0.000000
-3.858051 3.258271 -17.550300 0.000000 53.000000 14.852274 11.000000
-5.321038 6.153330 -16.567720 0.000000 58.000000 14.642605 5.000000
-3.397342 5.497928 -16.248346 0.000000 62.000000 14.786909 8.000000
-7.041487 8.212168 -16.588645 0.000000 71.000000 14.867342 17.000000
-8.171155 5.776847 -18.574337 0.000000 64.000000 15.202954 27.000000
-4.247898 5.155173 -17.384893 0.000000 64.000000 15.320764 29.000000
-8.001308 6.517992 -17.627534 0.000000 55.000000 14.748712 0.000000
-3.813593 5.441585 -16.216182 0.000000 44.000000 14.591689 0.000000
-3.889957 3.850548 -17.756859 0.000000 70.000000 15.249537 30.000000
-7.023177 2.911537 -18.724288 0.000000 38.000000 14.606088 0.000000
-7.710764 4.802340 -18.237996 0.000000 51.000000 14.695109 21.000000
-3.093369 4.531306 -16.511591 0.000000 65.000000 14.737205 29.000000
-6.998028 5.651322 -17.543702 0.000000 44.000000 14.688014 0.000000
-7.424783 8.513227 -16.410272 0.000000 78.000000 14.699827 0.000000
-4.052940 4.641371 -17.410709 0.000000 53.000000 15.209009 18.000000
-5.270830 4.580096 -17.259333 0.000000 44.000000 14.629842 25.000000
-3.986916 5.600118 -16.185247 0.000000 51.000000 14.567021 10.000000
-5.619944 3.999678 -18.181058 0.000000 69.000000 15.063178 22.000000
-3.892815 6.132717 -16.009042 0.000000 59.000000 14.659493 0.000000
-4.399307 6.154017 -16.141931 0.000000 63.000000 14.603536 0.000000
-4.293008 3.026156 -18.149060 0.000000 74.000000 15.117861 11.000000
-7.875468 6.593713 -17.305959 0.000000 45.000000 14.549110 0.000000
-4.368089 3.881270 -17.528632 0.000000 66.000000 14.900171 18.000000
-3.271263 6.684501 -15.282306 0.000000 50.000000 14.476071 0.000000
-8.051856 5.631677 -17.915655 0.000000 69.000000 14.627609 0.000000
-7.258498 4.150807 -18.609202 0.000000 62.000000 14.912969 20.000000
-6.395573 4.329786 -17.894001 0.000000 41.000000 14.677320 0.000000
-7.409206 5.207063 -18.316195 0.000000 76.000000 15.026255 26.000000
-6.069641 6.630324 -16.861873 0.000000 56.000000 14.818120 5.000000
-7.870966 4.382002 -18.496363 0.000000 49.000000 14.693481 21.000000
-3.902494 5.557954 -16.091604 0.000000 30.000000 14.500383 0.000000
-3.392831 5.611252 -16.375951 0.000000 68.000000 14.941529 8.000000
-5.068531 5.367747 -17.241211 0.000000 77.000000 14.994857 28.000000
-7.752512 6.622650 -17.550489 0.000000 72.000000 14.811443 23.000000
-3.325284 6.175409 -16.062856 0.000000 60.000000 14.920718 1.000000
-7.311124 8.573864 -16.236435 0.000000 68.000000 14.615648 0.000000
-7.055706 8.111739 -16.559118 0.000000 49.000000 14.797784 17.000000
-5.572716 5.069739 -17.569353 0.000000 42.000000 14.980213 28.000000
-5.780050 7.259664 -16.087387 0.000000 43.000000 14.508367 0.000000
-8.476742 8.072255 -17.168148 0.000000 35.000000 14.802601 3.000000
-5.183066 6.359326 -16.371689 0.000000 55.000000 14.605202 0.000000
-6.319599 5.283828 -17.441383 0.000000 53.000000 14.694079 0.000000
-5.190419 3.711687 -18.167366 0.000000 65.000000 15.088709 22.000000
-7.957146 5.620028 -17.939680 0.000000 71.000000 14.676616 0.000000
-5.326091 7.616917 -15.947625 0.000000 66.000000 14.688885 0.000000
-4.388938 7.008355 -15.757776 0.000000 77.000000 14.616349 15.000000
-8.223105 6.002397 -18.218466 0.000000 38.000000 14.970841 27.000000
-4.348714 6.769422 -15.983715 0.000000 30.000000 14.728620 15.000000
-8.410546 8.590265 -16.491803 0.000000 32.000000 14.454323 0.000000
-3.409041 2.597827 -17.135009 0.000000 46.000000 14.396767 0.000000
-5.126345 7.623222 -15.911025 0.000000 66.000000 14.730174 0.000000
-4.048465 5.108063 -17.316208 0.000000 66.000000 15.313668 29.000000
-3.170623 4.887164 -16.386148 0.000000 78.000000 14.743377 29.000000
-7.988630 7.121913 -17.274702 0.000000 47.000000 14.690535 0.000000
-8.642874 7.329882 -17.328195 0.000000 69.000000 14.588717 0.000000
-8.357514 3.506125 -19.020436 0.000000 60.000000 14.624461 0.000000
-5.641293 8.152266 -15.860495 0.000000 65.000000 14.714881 12.000000
-7.542666 8.825285 -16.737299 0.000000 78.000000 15.059274 16.000000
-6.164441 7.568301 -16.171613 0.000000 47.000000 14.566723 0.000000
-6.957592 6.070829 -17.666733 0.000000 65.000000 14.971672 4.000000
-3.430336 3.789489 -17.636931 0.000000 70.000000 15.284477 30.000000
-7.395044 4.191475 -18.776242 0.000000 56.000000 15.023177 20.000000
-5.133065 3.750302 -17.844627 0.000000 68.000000 14.849556 22.000000
-3.495483 2.899440 -17.300418 0.000000 77.000000 14.625698 11.000000
-2.979415 3.523307 -17.260748 0.000000 74.000000 15.017862 30.000000
-4.343182 7.732945 -15.732407 0.000000 61.000000 14.895611 6.000000
-5.716950 6.788612 -16.394232 0.000000 51.000000 14.606199 0.000000
-4.085986 3.179008 -18.194469 0.000000 51.000000 15.289029 11.000000
-6.926728 4.842617 -18.128102 0.000000 73.000000 14.891989 21.000000
-3.210031 4.664501 -16.796816 0.000000 61.000000 14.991232 29.000000
-7.250164 2.985373 -18.519527 0.000000 38.000000 14.381544 0.000000
-4.511413 5.216045 -16.899809 0.000000 38.000000 14.839991 29.000000
-6.799940 6.456716 -17.129005 0.000000 51.000000 14.721339 23.000000
-7.867953 3.768721 -18.718356 0.000000 65.000000 14.642226 0.000000
-6.563399 4.165772 -17.913338 0.000000 40.000000 14.570538 0.000000
-3.886907 3.619129 -17.652823 0.000000 76.000000 15.071185 30.000000
-7.194620 5.799768 -17.550806 0.000000 49.000000 14.683578 0.000000
-3.325623 4.527006 -16.946804 0.000000 69.000000 15.024247 18.000000
-6.616362 3.460531 -18.128734 0.000000 34.000000 14.457930 0.000000
-7.063160 6.231047 -17.197669 0.000000 51.000000 14.598866 0.000000
-3.915858 3.547418 -17.628222 0.000000 71.000000 15.011944 30.000000
-5.359164 3.247323 -17.953908 0.000000 64.000000 14.665612 22.000000
-7.151778 8.458767 -16.180140 0.000000 71.000000 14.578328 0.000000
-3.125861 5.402572 -15.794160 0.000000 49.000000 14.458298 0.000000
-5.993430 5.702077 -17.100516 0.000000 48.000000 14.682845 0.000000
-7.148136 5.701903 -17.560927 0.000000 52.000000 14.669989 0.000000
-3.207445 6.526653 -15.227384 0.000000 37.000000 14.389671 0.000000
-6.691937 5.442346 -17.744414 0.000000 85.000000 14.883689 26.000000
-3.035673 4.841017 -16.595072 0.000000 76.000000 14.950122 29.000000
-3.737235 6.611829 -15.439636 0.000000 34.000000 14.418144 0.000000
-6.483260 8.303951 -15.810502 0.000000 32.000000 14.437231 0.000000
-6.701142 4.737202 -18.062311 0.000000 67.000000 14.873590 21.000000
-8.192066 8.263185 -16.698977 0.000000 54.000000 14.578397 0.000000
-4.104396 5.891776 -16.447940 0.000000 65.000000 14.863889 10.000000
-4.666590 5.197708 -17.324225 0.000000 82.000000 15.139319 28.000000
-4.859363 3.964575 -17.435617 0.000000 47.000000 14.681838 0.000000
-6.432735 6.245090 -16.803183 0.000000 38.000000 14.489679 0.000000
-4.532368 3.480426 -17.475210 0.000000 55.000000 14.639677 0.000000
-5.225849 7.200767 -15.879372 0.000000 43.000000 14.502372 0.000000
-4.567966 6.413348 -16.158393 0.000000 49.000000 14.660421 0.000000
-4.703310 6.393048 -16.237264 0.000000 48.000000 14.672119 0.000000
-7.711600 4.110592 -18.737755 0.000000 79.000000 14.847836 20.000000
-5.705339 7.215493 -16.066718 0.000000 47.000000 14.499586 0.000000
-5.042948 5.363750 -17.493774 0.000000 73.000000 15.216986 28.000000
-6.928980 6.200129 -17.146931 0.000000 48.000000 14.590548 4.000000
-7.097182 5.043925 -18.103523 0.000000 55.000000 14.890543 26.000000
-3.066502 4.987750 -16.656896 0.000000 43.000000 15.049571 29.000000
-6.485565 5.116874 -17.841405 0.000000 83.000000 14.910472 26.000000
-6.162995 5.983321 -17.003139 0.000000 48.000000 14.651234 0.000000
-4.472425 4.180802 -17.459728 0.000000 67.000000 14.922795 18.000000
-7.484915 7.506352 -17.105363 0.000000 51.000000 14.874011 24.000000
-6.247159 6.945451 -16.285190 0.000000 22.000000 14.389511 0.000000
-3.197999 5.587587 -16.183469 0.000000 44.000000 14.836778 8.000000
-4.899962 3.719013 -17.527489 0.000000 54.000000 14.649217 0.000000
-4.274465 2.863797 -18.168479 0.000000 60.000000 15.077046 11.000000
-7.985886 5.618590 -17.933072 0.000000 73.000000 14.660370 0.000000
-4.224229 3.143477 -18.228728 0.000000 81.000000 15.255793 11.000000
-5.816101 8.048375 -15.885978 0.000000 68.000000 14.634514 0.000000
-7.349040 6.753277 -17.731028 0.000000 66.000000 15.157544 23.000000
-5.561995 7.118587 -16.167069 0.000000 60.000000 14.597003 0.000000
-7.062020 6.281152 -17.052855 0.000000 44.000000 14.495831 0.000000
-5.437009 5.406409 -17.401706 0.000000 77.000000 15.017514 28.000000
-8.105951 4.956069 -18.225760 0.000000 57.000000 14.606780 0.000000
-4.186296 8.275843 -15.393482 0.000000 43.000000 14.875758 12.000000
-5.866163 8.038741 -15.888344 0.000000 65.000000 14.615212 0.000000
-3.111148 5.061032 -16.663099 0.000000 69.000000 15.068020 29.000000
-5.265636 8.236049 -15.551994 0.000000 45.000000 14.617023 12.000000
-3.551883 3.071831 -17.779552 0.000000 58.000000 15.081101 11.000000
-6.801010 8.505066 -16.086290 0.000000 70.000000 14.639530 0.000000
-5.838454 8.037124 -15.880720 0.000000 62.000000 14.617794 0.000000
-6.886516 4.221556 -17.910272 0.000000 35.000000 14.476737 0.000000
-6.999127 7.415516 -17.149168 0.000000 69.000000 15.045623 24.000000
-5.300899 4.663018 -17.510755 0.000000 58.000000 14.865682 25.000000
-4.823647 4.463382 -17.449712 0.000000 49.000000 14.902391 25.000000
-6.332362 5.370628 -16.981814 0.000000 32.000000 14.332978 0.000000
-6.049628 4.427198 -17.945727 0.000000 66.000000 14.880701 25.000000
-6.471446 6.646025 -16.434657 0.000000 27.000000 14.320380 0.000000
-7.382696 6.146907 -17.369264 0.000000 51.000000 14.599826 0.000000
-4.510320 6.156169 -16.303054 0.000000 61.000000 14.702513 0.000000
-8.312495 4.916169 -18.410463 0.000000 61.000000 14.675832 27.000000
-5.145965 6.290860 -16.365437 0.000000 54.000000 14.585962 0.000000
-5.013572 2.845109 -17.854876 0.000000 52.000000 14.544302 0.000000
-7.395142 5.502008 -18.394505 0.000000 70.000000 15.213696 26.000000
-3.594982 5.963925 -15.896487 0.000000 68.000000 14.601715 1.000000
-8.240296 5.714809 -18.851658 0.000000 74.000000 15.390156 27.000000
-3.297051 6.497425 -15.908977 0.000000 48.000000 14.926339 1.000000
-8.454314 8.055679 -16.939827 0.000000 60.000000 14.609807 3.000000
-6.701077 6.568920 -17.218727 0.000000 65.000000 14.876341 23.000000
-6.643741 6.180589 -17.737703 0.000000 59.000000 15.185035 4.000000
-4.000755 6.220008 -15.945705 0.000000 56.000000 14.602163 0.000000
-4.284014 6.228796 -16.077164 0.000000 70.000000 14.618224 0.000000
-7.656878 5.222352 -18.296683 0.000000 80.000000 14.928967 26.000000
-5.825544 5.142642 -17.728956 0.000000 59.000000 15.056059 28.000000
-3.628861 7.219122 -15.307326 0.000000 56.000000 14.582295 6.000000
-7.739370 7.998618 -17.026377 0.000000 51.000000 14.911263 3.000000
-7.990437 7.055661 -17.268779 0.000000 53.000000 14.658825 0.000000
-3.023888 4.148796 -16.925419 0.000000 70.000000 14.963036 18.000000
-6.009526 5.591449 -17.141613 0.000000 47.000000 14.668668 0.000000
-5.187294 5.881546 -17.074433 0.000000 79.000000 15.013434 9.000000
-4.964358 3.498141 -17.665689 0.000000 61.000000 14.657361 0.000000
-6.642149 6.086707 -17.682582 0.000000 64.000000 15.101823 4.000000
-6.069076 5.626194 -17.068862 0.000000 41.000000 14.599621 0.000000
-7.945534 5.172710 -18.396250 0.000000 55.000000 14.893056 27.000000
-4.809028 6.991534 -16.113924 0.000000 55.000000 14.765483 15.000000
-3.013679 3.653777 -17.344047 0.000000 75.000000 15.127975 30.000000
-4.653013 6.952410 -16.074844 0.000000 56.000000 14.771497 15.000000
-5.395835 6.134150 -17.274276 0.000000 65.000000 15.209632 9.000000
-3.234421 6.372244 -16.156198 0.000000 40.000000 15.109262 1.000000
-5.455883 6.524954 -16.968681 0.000000 73.000000 15.082389 5.000000
-3.888552 5.343924 -16.966550 0.000000 66.000000 15.165062 29.000000
-5.763147 5.295940 -17.442896 0.000000 66.000000 14.894936 28.000000
-5.485844 7.107015 -16.157463 0.000000 62.000000 14.610947 0.000000
-6.567340 6.049770 -17.559731 0.000000 59.000000 15.009040 4.000000
-6.109682 4.037290 -17.847651 0.000000 53.000000 14.623027 22.000000
-8.171672 4.741069 -18.868146 0.000000 46.000000 15.045455 27.000000
-4.304927 5.689688 -16.567811 0.000000 52.000000 14.816172 10.000000
-4.298222 4.250085 -17.515602 0.000000 80.000000 15.058522 18.000000
-3.901609 5.390061 -16.532774 0.000000 50.000000 14.809807 29.000000
-4.884475 2.761287 -17.749960 0.000000 47.000000 14.467345 0.000000
-8.513160 7.946610 -17.172153 0.000000 55.000000 14.743869 3.000000
-5.712224 8.043189 -15.894269 0.000000 70.000000 14.675891 0.000000
-3.079968 5.068674 -16.764178 0.000000 72.000000 15.167883 29.000000
-8.633708 6.639918 -17.825123 0.000000 72.000000 14.743240 0.000000
-5.677392 8.038916 -15.889459 0.000000 69.000000 14.682316 0.000000
-7.402994 6.025519 -17.313721 0.000000 43.000000 14.497781 0.000000
-6.934239 8.247954 -16.697918 0.000000 71.000000 15.011866 17.000000
-3.224447 4.129882 -17.480380 0.000000 75.000000 15.357246 30.000000
-6.050223 6.410004 -16.943925 0.000000 60.000000 14.808082 5.000000
-3.386697 4.669699 -16.937791 0.000000 70.000000 15.051290 29.000000
-7.818582 5.652151 -17.919809 0.000000 62.000000 14.720856 0.000000
-4.542568 8.597819 -15.753153 0.000000 78.000000 15.183400 12.000000
-7.020882 7.427712 -16.812341 0.000000 51.000000 14.756411 24.000000
-3.099866 7.172643 -15.173413 0.000000 67.000000 14.635362 6.000000
-7.273023 6.188481 -17.400125 0.000000 52.000000 14.680803 0.000000
-3.942628 4.545768 -17.401931 0.000000 41.000000 15.202587 18.000000
-6.602286 6.160280 -17.316379 0.000000 67.000000 14.833332 4.000000
-5.197170 6.387667 -16.360300 0.000000 51.000000 14.601720 0.000000
-2.751847 3.314478 -16.864080 0.000000 44.000000 14.678180 30.000000
-6.190168 3.827684 -18.265383 0.000000 42.000000 14.867639 22.000000
-5.703986 3.279780 -18.123533 0.000000 64.000000 14.701875 0.000000
-4.803947 8.541222 -15.869983 0.000000 85.000000 15.168983 12.000000
-3.248565 4.038457 -17.069358 0.000000 68.000000 14.963394 18.000000
-3.631682 3.880634 -17.831463 0.000000 48.000000 15.415215 30.000000
-3.643234 4.650317 -17.437910 0.000000 70.000000 15.379088 18.000000
-5.709813 4.822148 -17.599655 0.000000 57.000000 14.860660 25.000000
-5.797066 7.224966 -16.109516 0.000000 54.000000 14.507586 0.000000
-6.668612 7.107011 -16.831227 0.000000 74.000000 14.769739 24.000000
-7.917688 7.445916 -17.075848 0.000000 64.000000 14.673649 0.000000
-8.650048 6.988220 -17.597302 0.000000 53.000000 14.680719 0.000000
-7.446439 7.036644 -17.360384 0.000000 50.000000 14.919687 23.000000
-6.284275 4.700527 -17.542509 0.000000 50.000000 14.563153 0.000000
-4.541911 5.943168 -16.238241 0.000000 45.000000 14.552622 0.000000
-3.819760 8.029940 -15.191220 0.000000 43.000000 14.735449 0.000000
-6.020083 4.013392 -18.436205 0.000000 58.000000 15.145422 22.000000
-7.861008 6.034781 -17.461944 0.000000 31.000000 14.467101 0.000000
-6.583726 6.557194 -17.043196 0.000000 83.000000 14.763569 23.000000
-5.609405 4.500480 -17.927230 0.000000 73.000000 15.047898 25.000000
-8.486246 6.892000 -17.768764 0.000000 64.000000 14.846031 19.000000
-6.456030 3.677553 -18.078057 0.000000 63.000000 14.556276 22.000000
-7.118588 6.230917 -17.237620 0.000000 49.000000 14.613379 0.000000
-5.083617 4.577748 -17.755557 0.000000 68.000000 15.116377 25.000000
-7.222685 5.797706 -17.534233 0.000000 49.000000 14.658851 0.000000
-5.654228 5.448865 -16.992779 0.000000 62.000000 14.610463 0.000000
-3.167447 3.871782 -17.380878 0.000000 73.000000 15.191149 30.000000
-2.848092 3.059741 -16.778378 0.000000 44.000000 14.471487 0.000000
-7.905191 3.246241 -18.902490 0.000000 59.000000 14.580379 0.000000
-4.264931 5.467016 -16.377554 0.000000 49.000000 14.580883 10.000000
-3.585995 3.856561 -17.233896 0.000000 52.000000 14.913663 30.000000
-3.460778 6.268289 -16.168221 0.000000 81.000000 14.999378 1.000000
-6.637148 3.931937 -18.415921 0.000000 73.000000 14.880129 20.000000
-6.505910 7.820074 -16.384450 0.000000 65.000000 14.727106 0.000000
-6.592056 7.926773 -16.248334 0.000000 38.000000 14.623154 0.000000
-6.892864 5.627566 -18.223563 0.000000 76.000000 15.293548 26.000000
-4.337629 8.002934 -15.064591 0.000000 30.000000 14.435865 0.000000
-7.334984 6.036842 -17.508234 0.000000 51.000000 14.691426 0.000000
-6.275005 6.582286 -16.921349 0.000000 44.000000 14.777911 5.000000
-6.727620 6.207129 -17.359881 0.000000 55.000000 14.844856 4.000000
-3.882424 5.509671 -16.107918 0.000000 27.000000 14.502302 0.000000
-5.200595 3.951549 -17.749385 0.000000 59.000000 14.824038 22.000000
-3.651175 7.423831 -15.434724 0.000000 68.000000 14.763268 6.000000
-3.150994 4.522807 -17.012059 0.000000 56.000000 15.139216 18.000000
-8.358862 8.783270 -17.124339 0.000000 52.000000 15.086098 16.000000
-7.144681 5.572394 -17.514978 0.000000 42.000000 14.581225 26.000000
-6.063263 5.788192 -17.041425 0.000000 55.000000 14.642003 0.000000
-8.314581 3.335625 -19.076341 0.000000 68.000000 14.620007 0.000000
-8.353671 3.448895 -18.968716 0.000000 53.000000 14.559336 0.000000
-2.735056 3.755733 -17.382817 0.000000 49.000000 15.298559 30.000000
-6.956090 5.428941 -18.157718 0.000000 75.000000 15.137355 26.000000
-8.057995 6.634437 -17.420949 0.000000 45.000000 14.598986 23.000000
-6.774691 7.981189 -16.437399 0.000000 57.000000 14.741358 17.000000
-3.703309 7.973903 -15.071289 0.000000 54.000000 14.652219 7.000000
-3.791412 7.750752 -15.250400 0.000000 32.000000 14.685952 6.000000
-6.267427 4.352126 -17.913138 0.000000 47.000000 14.747234 0.000000
-7.515372 3.400231 -18.528137 0.000000 51.000000 14.459085 0.000000
-7.695849 3.886933 -18.805470 0.000000 37.000000 14.823012 20.000000
-8.444440 6.006672 -18.361475 0.000000 41.000000 15.016628 27.000000
-8.315658 4.958164 -18.860090 0.000000 58.000000 15.073529 27.000000
-2.964262 3.880094 -17.351875 0.000000 56.000000 15.240889 30.000000
-6.367892 5.207330 -17.224214 0.000000 42.000000 14.462455 0.000000
-3.775471 3.877669 -17.727043 0.000000 71.000000 15.274927 30.000000
-5.149701 4.661359 -17.303255 0.000000 40.000000 14.741535 25.000000
-6.564127 3.290215 -18.664136 0.000000 72.000000 14.864499 14.000000
-5.593013 4.059753 -18.056175 0.000000 71.000000 14.990037 22.000000
-7.416159 4.163077 -18.812586 0.000000 48.000000 15.035523 20.000000
-6.093040 3.385719 -18.202376 0.000000 71.000000 14.674349 0.000000
-3.256028 6.362334 -16.094483 0.000000 72.000000 15.045329 1.000000
-8.501682 8.982129 -17.424634 0.000000 48.000000 15.369590 16.000000
-6.314407 3.804816 -18.367076 0.000000 38.000000 14.901621 22.000000
-5.353071 7.585598 -15.989053 0.000000 59.000000 14.702354 0.000000
-6.902913 2.764551 -18.393220 0.000000 31.000000 14.308923 0.000000
-5.182107 7.722605 -15.802749 0.000000 66.000000 14.657655 0.000000
-5.719380 3.034420 -18.369236 0.000000 47.000000 14.808953 13.000000
-3.374452 4.226277 -17.156834 0.000000 62.000000 15.067524 18.000000
-6.403671 5.170300 -17.526736 0.000000 46.000000 14.692594 0.000000
-3.643898 6.260685 -15.982343 0.000000 54.000000 14.774237 1.000000
-8.253509 8.165840 -17.202716 0.000000 54.000000 14.946930 3.000000
-5.648409 4.114039 -17.645391 0.000000 55.000000 14.642710 25.000000
-3.920118 5.008459 -17.248027 0.000000 72.000000 15.261478 29.000000
-3.525804 2.659768 -17.188122 0.000000 41.000000 14.425396 0.000000
-7.066900 6.246104 -17.278432 0.000000 51.000000 14.672145 0.000000
-6.996219 7.144436 -16.975774 0.000000 73.000000 14.792658 24.000000
-4.253958 4.973709 -17.288126 0.000000 61.000000 15.165039 29.000000
-7.187417 5.153665 -18.220087 0.000000 68.000000 15.001197 26.000000
-5.235836 8.333277 -15.882053 0.000000 80.000000 14.946308 12.000000
-5.527993 7.718145 -15.899407 0.000000 54.000000 14.616993 0.000000
-6.357695 5.564883 -17.013796 0.000000 30.000000 14.427658 0.000000
-4.579356 3.288511 -17.561380 0.000000 45.000000 14.621058 0.000000
-3.191978 4.962257 -16.844461 0.000000 64.000000 15.155100 29.000000
-8.718336 6.571130 -17.562511 0.000000 37.000000 14.463287 0.000000
-8.024408 4.882249 -18.756519 0.000000 51.000000 15.057592 27.000000
-3.244610 5.753223 -16.126615 0.000000 59.000000 14.837226 8.000000
-8.069999 6.821434 -17.512400 0.000000 60.000000 14.746043 0.000000
-3.976847 4.530981 -17.399198 0.000000 75.000000 15.182470 18.000000
-5.839356 3.117595 -17.991915 0.000000 58.000000 14.478825 0.000000
-7.217127 6.417578 -17.436572 0.000000 53.000000 14.821411 23.000000
-8.216982 4.843275 -18.399397 0.000000 67.000000 14.671209 27.000000
-6.315852 7.576917 -16.400413 0.000000 49.000000 14.711640 2.000000
-3.763510 3.090588 -17.825039 0.000000 71.000000 15.053060 11.000000
-3.092018 4.362123 -16.400329 0.000000 49.000000 14.576577 0.000000
-7.280959 5.810237 -17.520660 0.000000 50.000000 14.631835 0.000000
-8.197129 6.591482 -17.745074 0.000000 51.000000 14.808982 19.000000
-5.625926 6.776779 -16.228689 0.000000 57.000000 14.492660 0.000000
-3.241156 4.041353 -17.365288 0.000000 76.000000 15.218742 30.000000
-5.490544 4.687028 -17.743641 0.000000 70.000000 15.006739 25.000000
-5.600778 4.640657 -17.876989 0.000000 61.000000 15.063299 25.000000
-4.333220 6.263553 -16.214836 0.000000 68.000000 14.731716 0.000000
-5.507926 4.045428 -17.985449 0.000000 46.000000 14.954059 22.000000
-3.412725 7.626120 -15.475234 0.000000 56.000000 14.960705 6.000000
-7.414130 8.576037 -16.309115 0.000000 67.000000 14.642237 0.000000
-8.208820 5.045716 -18.456328 0.000000 56.000000 14.802045 27.000000
-8.070201 5.559964 -18.849110 0.000000 50.000000 15.386674 27.000000
-5.151932 8.247299 -15.867077 0.000000 46.000000 14.929153 12.000000
-5.581060 3.305391 -17.996178 0.000000 57.000000 14.646694 22.000000
-8.121715 4.152446 -18.595771 0.000000 51.000000 14.599987 0.000000
-4.777878 5.949057 -16.455869 0.000000 55.000000 14.657366 0.000000
-7.380321 6.097638 -17.515616 0.000000 49.000000 14.705728 0.000000
-7.118111 6.695569 -17.522897 0.000000 80.000000 15.038743 23.000000
-7.916601 3.007312 -18.801986 0.000000 53.000000 14.397016 0.000000
-8.050246 3.328860 -18.858137 0.000000 46.000000 14.524360 0.000000
-2.959497 2.987803 -16.868675 0.000000 53.000000 14.480984 0.000000
-5.199874 3.965008 -17.666269 0.000000 55.000000 14.758911 22.000000
-5.872266 8.423143 -16.079574 0.000000 71.000000 14.926765 12.000000
-3.796498 3.428775 -17.492398 0.000000 73.000000 14.891611 30.000000
-8.267960 5.903603 -18.539326 0.000000 66.000000 15.189118 27.000000
-3.838147 6.745355 -15.599925 0.000000 55.000000 14.571587 0.000000
-7.328720 5.593232 -18.320755 0.000000 55.000000 15.210101 26.000000
-5.791450 8.506486 -16.147620 0.000000 70.000000 15.045675 12.000000
-5.685222 4.635931 -17.949679 0.000000 71.000000 15.093683 25.000000
-6.807079 4.036685 -18.507750 0.000000 75.000000 14.939889 20.000000
-6.393781 4.322396 -17.864249 0.000000 43.000000 14.649745 0.000000
-5.363164 3.916867 -18.241004 0.000000 73.000000 15.171493 22.000000
-6.064142 4.433371 -17.951914 0.000000 68.000000 14.883307 25.000000
-3.862477 3.227520 -17.393855 0.000000 74.000000 14.705620 11.000000
-5.384014 7.620998 -15.934413 0.000000 52.000000 14.658977 0.000000
-6.626660 5.824645 -17.573268 0.000000 48.000000 14.911293 4.000000
-6.683810 8.174173 -16.073790 0.000000 28.000000 14.539870 0.000000
-3.909799 7.163069 -15.407394 0.000000 49.000000 14.546992 0.000000
-8.200672 8.925545 -17.247533 0.000000 39.000000 15.302149 16.000000
-4.467112 7.560738 -15.864520 0.000000 58.000000 14.896865 6.000000
-4.607930 3.441426 -17.653762 0.000000 58.000000 14.749709 0.000000
-3.462043 4.955912 -16.845363 0.000000 66.000000 15.058826 29.000000
-6.145507 3.730426 -18.640713 0.000000 45.000000 15.164172 22.000000
-7.133210 5.647574 -17.543483 0.000000 44.000000 14.639028 0.000000
-6.408485 3.530814 -18.155453 0.000000 52.000000 14.581050 22.000000
-8.016697 5.261933 -18.480780 0.000000 73.000000 14.975084 27.000000
-6.614018 7.842306 -16.234479 0.000000 55.000000 14.570484 0.000000
-7.456569 5.663303 -17.326612 0.000000 36.000000 14.347610 0.000000
-5.261654 4.192101 -18.198098 0.000000 57.000000 15.278735 22.000000
-7.405389 8.641264 -16.263001 0.000000 72.000000 14.631728 0.000000
-3.675510 3.160225 -17.623100 0.000000 64.000000 14.939541 11.000000
-6.664218 5.557637 -18.004839 0.000000 64.000000 15.160137 26.000000
-7.943094 5.655904 -17.922656 0.000000 58.000000 14.681162 0.000000
-7.950332 5.549214 -18.031387 0.000000 50.000000 14.729141 0.000000
-4.831119 4.637147 -17.209658 0.000000 45.000000 14.763970 28.000000
-5.048245 3.845152 -18.155934 0.000000 50.000000 15.181224 22.000000
-6.145454 5.349615 -17.266616 0.000000 47.000000 14.632309 0.000000
-4.979203 5.953174 -16.888586 0.000000 40.000000 14.956421 9.000000
-8.015153 5.625484 -17.831457 0.000000 50.000000 14.566435 0.000000
-8.050909 4.980388 -18.581529 0.000000 37.000000 14.938103 27.000000
-6.899513 3.269741 -18.548815 0.000000 72.000000 14.640983 14.000000
-5.713438 3.795371 -18.252102 0.000000 61.000000 15.010545 22.000000
-7.374883 8.536998 -16.250023 0.000000 73.000000 14.590389 0.000000
-7.301784 8.451694 -16.400737 0.000000 51.000000 14.710595 17.000000
-5.982827 5.567786 -17.122781 0.000000 45.000000 14.652702 0.000000
-8.066971 4.184988 -18.246807 0.000000 33.000000 14.335235 0.000000
-5.523541 3.573978 -18.107087 0.000000 63.000000 14.866704 22.000000
-7.917467 3.217039 -18.913437 0.000000 54.000000 14.573911 0.000000
-3.579451 8.451061 -15.213003 0.000000 65.000000 15.003630 7.000000
-3.268681 5.183979 -16.736584 0.000000 74.000000 15.123676 29.000000
-5.126805 6.365788 -16.334851 0.000000 49.000000 14.596116 0.000000
-7.704497 6.318069 -17.451779 0.000000 39.000000 14.624604 23.000000
-4.726707 6.463427 -16.123742 0.000000 45.000000 14.595070 0.000000
-6.164074 3.434207 -18.182254 0.000000 69.000000 14.651430 22.000000
-3.858072 6.733175 -15.618602 0.000000 56.000000 14.575704 0.000000
-5.091253 3.228508 -17.640926 0.000000 55.000000 14.485896 0.000000
-8.172271 4.120806 -18.594252 0.000000 51.000000 14.568559 0.000000
-7.859185 3.766890 -18.717861 0.000000 66.000000 14.644155 0.000000
-2.808157 3.696334 -17.408564 0.000000 67.000000 15.271511 30.000000
-6.232427 7.850633 -16.428685 0.000000 60.000000 14.872475 2.000000
-5.722228 3.506866 -18.131442 0.000000 74.000000 14.791474 22.000000
-7.111227 7.465912 -16.616797 0.000000 49.000000 14.573535 24.000000
-4.580143 6.310894 -16.284345 0.000000 57.000000 14.722978 0.000000
-5.959340 3.284501 -18.050567 0.000000 64.000000 14.552294 0.000000
-6.586676 3.922856 -18.046708 0.000000 58.000000 14.580304 22.000000
-5.463765 7.157182 -16.189856 0.000000 57.000000 14.665937 0.000000
-5.351280 7.227276 -16.116317 0.000000 56.000000 14.670343 0.000000
-6.996550 8.292179 -16.717770 0.000000 20.000000 15.024314 17.000000
-6.029212 7.796798 -16.102264 0.000000 71.000000 14.644916 2.000000
-7.333598 6.880508 -17.503254 0.000000 43.000000 15.019296 23.000000
-5.763654 6.966477 -16.285043 0.000000 44.000000 14.566922 0.000000
-6.458751 6.724842 -16.809067 0.000000 46.000000 14.674150 0.000000
-6.300212 3.072207 -18.420455 0.000000 80.000000 14.664010 14.000000
-7.452763 7.102103 -17.335564 0.000000 73.000000 14.922099 24.000000
-6.943095 5.716079 -17.350772 0.000000 43.000000 14.568660 4.000000
-5.000470 8.448724 -15.731562 0.000000 59.000000 14.946131 12.000000
-8.607256 6.463328 -17.718511 0.000000 55.000000 14.592441 0.000000
-3.547307 8.520954 -15.280507 0.000000 60.000000 15.099751 7.000000
-6.431390 8.327177 -16.092741 0.000000 46.000000 14.704495 0.000000
-5.832245 8.017047 -15.831935 0.000000 56.000000 14.570597 0.000000
-4.898199 6.582238 -15.880355 0.000000 33.000000 14.374792 0.000000
-4.761281 3.932605 -17.480773 0.000000 52.000000 14.742004 0.000000
-6.756931 6.026050 -17.602371 0.000000 61.000000 14.969597 4.000000
-4.901588 7.004379 -16.114377 0.000000 71.000000 14.738514 15.000000
-8.571783 7.470682 -17.413404 0.000000 73.000000 14.741399 0.000000
-3.949144 4.327326 -17.737733 0.000000 61.000000 15.399960 18.000000
-7.906018 5.665886 -17.835275 0.000000 54.000000 14.623770 0.000000
-3.378035 2.480411 -17.101109 0.000000 38.000000 14.332646 0.000000
-4.339659 7.098708 -15.549611 0.000000 37.000000 14.492123 0.000000
-6.463573 5.194127 -17.456946 0.000000 53.000000 14.621648 0.000000
-8.419349 8.109715 -16.856776 0.000000 67.000000 14.572673 0.000000
-3.226518 3.792505 -17.414005 0.000000 70.000000 15.167474 30.000000
-6.110272 5.923656 -16.949582 0.000000 46.000000 14.600702 0.000000
-8.622182 8.308970 -16.551726 0.000000 22.000000 14.320613 0.000000
-4.791297 7.386425 -15.621740 0.000000 43.000000 14.508429 0.000000
-3.735863 6.667370 -15.601806 0.000000 53.000000 14.578341 0.000000
-7.888766 5.040028 -18.245161 0.000000 52.000000 14.732312 26.000000
-3.103203 4.987230 -16.117184 0.000000 54.000000 14.577625 0.000000
-6.419336 2.980950 -18.488525 0.000000 33.000000 14.644313 14.000000
-4.734860 5.761894 -16.674233 0.000000 54.000000 14.784523 10.000000
-4.226079 2.908067 -18.103001 0.000000 73.000000 15.055713 11.000000
-7.788615 3.244673 -18.832045 0.000000 61.000000 14.560680 0.000000
-5.985385 6.343508 -16.818727 0.000000 40.000000 14.698195 5.000000
-4.227365 7.730280 -15.681289 0.000000 58.000000 14.891647 6.000000
-5.427288 7.601067 -15.944150 0.000000 54.000000 14.644273 0.000000
-3.539161 8.329897 -15.456357 0.000000 66.000000 15.177022 7.000000
-6.574398 5.975031 -17.115090 0.000000 64.000000 14.599133 4.000000
-4.236374 2.833932 -17.776449 0.000000 56.000000 14.745317 11.000000
-5.299977 2.867190 -18.206602 0.000000 70.000000 14.751770 13.000000
-5.022184 6.998793 -16.293226 0.000000 68.000000 14.846166 15.000000
-7.887495 5.987540 -17.485773 0.000000 41.000000 14.459520 0.000000
-8.497634 6.429306 -17.799231 0.000000 68.000000 14.686078 0.000000
-7.207204 4.304653 -18.195949 0.000000 40.000000 14.640028 0.000000
-7.982017 5.595053 -18.013674 0.000000 52.000000 14.721006 0.000000
-6.839373 8.175022 -16.539994 0.000000 61.000000 14.882135 17.000000
-3.758646 5.382818 -16.696004 0.000000 47.000000 14.995797 29.000000
-5.788753 8.083236 -15.901861 0.000000 64.000000 14.671295 0.000000
-7.931625 5.676679 -17.974682 0.000000 56.000000 14.737579 0.000000
-4.192566 4.268821 -17.392397 0.000000 72.000000 14.998120 18.000000
-3.332420 5.871877 -15.691365 0.000000 59.000000 14.483050 0.000000
-5.225741 7.875423 -15.819335 0.000000 49.000000 14.716548 0.000000
-4.616544 2.975482 -17.848751 0.000000 85.000000 14.729336 11.000000
-5.105235 4.919560 -17.379417 0.000000 66.000000 14.923350 28.000000
-8.060451 6.364956 -17.529449 0.000000 47.000000 14.584455 0.000000
-7.643353 6.729136 -17.539209 0.000000 59.000000 14.881924 23.000000
-5.690762 8.653161 -16.087799 0.000000 71.000000 15.087714 12.000000
-5.566611 6.235614 -16.595000 0.000000 52.000000 14.612170 5.000000
-3.384917 6.965876 -15.245607 0.000000 52.000000 14.515678 0.000000
