3.557517 -19.367052 -1.565640 0.000000 34.000000 14.458762 0.000000
4.507054 -17.944956 -0.041413 0.000000 50.000000 14.497150 0.000000
0.672560 -22.576747 1.294786 0.000000 46.000000 14.463093 0.000000
0.696417 -22.582462 1.072736 0.000000 38.000000 14.461585 0.000000
2.224734 -20.845005 0.293645 0.000000 48.000000 14.515229 0.000000
0.764015 -22.678872 0.584040 0.000000 57.000000 14.521338 0.000000
5.233365 -17.286649 1.048797 0.000000 70.000000 14.780894 21.000000
1.824408 -21.558609 -1.464768 0.000000 50.000000 14.449595 0.000000
1.909594 -21.415914 -1.257959 0.000000 49.000000 14.451284 0.000000
1.512937 -21.802818 0.430635 0.000000 41.000000 14.556948 25.000000
1.306332 -21.942240 -0.250375 0.000000 27.000000 14.407395 0.000000
1.629619 -21.161407 2.148009 0.000000 37.000000 14.439859 0.000000
3.912257 -19.339403 -1.279911 0.000000 59.000000 14.750596 28.000000
4.853906 -18.580478 -0.986391 0.000000 75.000000 15.056665 28.000000
5.116749 -18.037819 -0.868164 0.000000 74.000000 14.943800 20.000000
3.148096 -19.658945 -0.211442 0.000000 42.000000 14.460644 0.000000
4.295637 -19.282383 -0.926591 0.000000 67.000000 15.054160 28.000000
2.639241 -19.926377 0.582303 0.000000 37.000000 14.309745 0.000000
1.934728 -21.173756 -0.694651 0.000000 41.000000 14.383157 0.000000
1.524978 -21.060187 2.920621 0.000000 38.000000 14.378431 0.000000
2.039857 -21.036673 -0.506204 0.000000 57.000000 14.401956 0.000000
4.165046 -19.382945 -1.273548 0.000000 74.000000 14.976146 28.000000
2.143070 -21.106366 -1.226901 0.000000 54.000000 14.448539 0.000000
2.071269 -21.012557 1.193740 0.000000 49.000000 14.593377 25.000000
3.805091 -18.220733 2.051671 0.000000 52.000000 14.338644 0.000000
3.155310 -19.440213 1.365843 0.000000 47.000000 14.501053 0.000000
2.346079 -20.483927 0.126397 0.000000 39.000000 14.371874 0.000000
1.136439 -22.508489 0.048388 0.000000 49.000000 14.652104 13.000000
2.439774 -20.225084 0.375259 0.000000 35.000000 14.313745 0.000000
3.662283 -20.008586 -2.030124 0.000000 78.000000 14.883392 7.000000
3.365474 -20.251677 -1.421304 0.000000 67.000000 14.864178 18.000000
4.176169 -18.128244 2.027317 0.000000 46.000000 14.570554 22.000000
2.748972 -20.337547 -0.963660 0.000000 43.000000 14.482005 0.000000
3.088036 -19.461323 1.332939 0.000000 47.000000 14.457678 0.000000
3.220987 -19.281437 1.533610 0.000000 40.000000 14.473444 0.000000
1.604367 -21.217832 2.056250 0.000000 34.000000 14.444739 0.000000
1.383867 -21.103311 3.043420 0.000000 26.000000 14.307226 0.000000
1.425649 -21.303802 2.687151 0.000000 30.000000 14.424479 0.000000
2.019485 -21.149053 0.249868 0.000000 51.000000 14.535392 14.000000
2.349137 -19.875282 3.996679 0.000000 52.000000 14.415586 0.000000
4.525677 -19.042474 -1.415427 0.000000 72.000000 15.035764 28.000000
1.413513 -21.482847 1.920395 0.000000 37.000000 14.442506 0.000000
5.459240 -17.308066 -0.234263 0.000000 66.000000 14.834128 20.000000
4.661735 -17.913662 0.702371 0.000000 74.000000 14.678764 21.000000
2.771850 -20.944616 -0.386957 0.000000 74.000000 14.932528 9.000000
3.749009 -18.995017 -2.103409 0.000000 36.000000 14.324162 0.000000
2.001071 -20.123209 3.990899 0.000000 20.000000 14.293499 0.000000
1.310661 -21.653374 0.778794 0.000000 47.000000 14.344151 0.000000
2.512138 -20.558672 1.390548 0.000000 64.000000 14.682781 26.000000
4.007995 -18.226893 1.942399 0.000000 52.000000 14.489877 0.000000
4.054884 -19.573932 -0.645225 0.000000 86.000000 15.073558 29.000000
1.380785 -21.956970 2.164911 0.000000 54.000000 14.732698 1.000000
4.623908 -18.274133 1.016367 0.000000 53.000000 14.902921 21.000000
1.578247 -21.537612 2.152398 0.000000 52.000000 14.629948 1.000000
4.729647 -17.530395 1.210681 0.000000 49.000000 14.552078 21.000000
1.896810 -21.188651 -0.205298 0.000000 47.000000 14.414774 0.000000
4.132866 -19.237505 -1.752143 0.000000 69.000000 14.810919 28.000000
3.902130 -19.353436 -0.503140 0.000000 57.000000 14.834175 29.000000
3.840036 -18.836419 -1.960313 0.000000 37.000000 14.313910 0.000000
3.172721 -19.984951 -2.096440 0.000000 42.000000 14.477907 0.000000
2.038478 -21.255477 -0.859173 0.000000 52.000000 14.496902 0.000000
1.367268 -22.024699 0.958311 0.000000 49.000000 14.634645 10.000000
2.590609 -20.197666 0.140916 0.000000 28.000000 14.390265 0.000000
3.604434 -19.275900 -1.116531 0.000000 40.000000 14.487810 0.000000
4.637248 -17.654768 0.439467 0.000000 47.000000 14.473267 0.000000
4.628479 -18.645368 -0.543386 0.000000 39.000000 14.966825 28.000000
4.981342 -17.138730 0.795371 0.000000 40.000000 14.465775 0.000000
3.649851 -18.239041 3.658482 0.000000 34.000000 14.399657 0.000000
4.665664 -18.903495 -1.428306 0.000000 33.000000 15.059246 28.000000
4.920561 -18.029308 -0.748186 0.000000 63.000000 14.797541 20.000000
3.381691 -19.481814 -0.350068 0.000000 62.000000 14.520798 0.000000
1.734850 -20.568311 3.647481 0.000000 27.000000 14.320047 0.000000
4.158943 -19.362823 -1.485434 0.000000 49.000000 14.936437 28.000000
3.217407 -20.069242 -1.575888 0.000000 71.000000 14.620051 18.000000
2.709605 -19.087764 4.756748 0.000000 29.000000 14.298183 0.000000
2.927156 -19.700800 0.686023 0.000000 45.000000 14.408774 0.000000
3.058147 -20.244889 -0.843431 0.000000 54.000000 14.680701 16.000000
3.854957 -18.462194 1.711381 0.000000 45.000000 14.488981 0.000000
5.064649 -17.354303 1.138969 0.000000 50.000000 14.699546 21.000000
2.577462 -20.447720 -0.531689 0.000000 38.000000 14.460947 0.000000
3.135641 -20.046173 0.408092 0.000000 45.000000 14.753677 15.000000
2.499747 -19.789006 2.581118 0.000000 44.000000 14.329826 0.000000
2.450116 -20.818119 -1.023660 0.000000 58.000000 14.534900 0.000000
2.513712 -20.327437 0.784121 0.000000 45.000000 14.477945 0.000000
4.518718 -19.080141 -1.375827 0.000000 72.000000 15.057554 28.000000
3.217102 -19.555896 -0.059060 0.000000 37.000000 14.468060 0.000000
5.476865 -16.804237 0.151056 0.000000 25.000000 14.581191 20.000000
2.861212 -20.245466 -1.005467 0.000000 48.000000 14.509296 0.000000
2.541130 -20.811162 -1.928405 0.000000 73.000000 14.505420 0.000000
5.168256 -17.288591 1.024234 0.000000 63.000000 14.728394 21.000000
2.551888 -20.204071 0.612561 0.000000 41.000000 14.414173 0.000000
2.855292 -20.405930 -3.036837 0.000000 37.000000 14.385805 0.000000
2.981276 -20.131501 -2.906197 0.000000 37.000000 14.330852 0.000000
4.328099 -18.594209 -0.020638 0.000000 40.000000 14.755794 29.000000
4.406614 -17.726318 1.829847 0.000000 44.000000 14.484576 0.000000
5.091960 -16.951901 0.850863 0.000000 33.000000 14.444280 0.000000
4.718874 -18.253264 -0.303073 0.000000 68.000000 14.823755 20.000000
5.043462 -18.253579 -0.276206 0.000000 73.000000 15.081389 20.000000
0.905021 -22.205691 0.390665 0.000000 37.000000 14.322104 0.000000
5.100125 -18.382823 -0.199544 0.000000 60.000000 15.213001 20.000000
1.077633 -22.032238 1.269844 0.000000 42.000000 14.445360 0.000000
5.659707 -16.925965 -0.104512 0.000000 64.000000 14.771694 20.000000
2.134376 -20.183387 3.640128 0.000000 24.000000 14.397369 0.000000
2.777733 -18.995373 4.903817 0.000000 33.000000 14.310857 0.000000
3.515597 -19.856702 -1.076592 0.000000 71.000000 14.777346 18.000000
3.024599 -19.466005 1.818774 0.000000 40.000000 14.462664 0.000000
1.564889 -21.978436 1.081333 0.000000 63.000000 14.774502 10.000000
0.627939 -22.230236 1.942279 0.000000 25.000000 14.285474 0.000000
3.566545 -19.691824 -2.363816 0.000000 32.000000 14.579090 7.000000
2.288679 -20.201584 2.134583 0.000000 41.000000 14.368745 0.000000
1.993456 -21.052411 2.978277 0.000000 44.000000 14.747261 3.000000
1.699702 -21.650318 -1.023955 0.000000 55.000000 14.454906 0.000000
1.950171 -20.665727 1.887120 0.000000 34.000000 14.360482 0.000000
2.147217 -21.214982 -1.965755 0.000000 52.000000 14.439275 0.000000
3.832299 -18.277632 2.275401 0.000000 48.000000 14.418646 0.000000
1.996545 -21.249618 -0.176463 0.000000 50.000000 14.533334 0.000000
4.959512 -17.626986 -0.720012 0.000000 43.000000 14.585227 20.000000
2.365766 -20.440898 1.049585 0.000000 47.000000 14.459597 0.000000
4.743608 -17.848244 0.698757 0.000000 73.000000 14.702611 21.000000
1.734463 -21.407806 0.077629 0.000000 41.000000 14.451591 0.000000
5.063683 -17.849213 -0.760372 0.000000 60.000000 14.798428 20.000000
1.810889 -21.238141 0.314110 0.000000 37.000000 14.433096 0.000000
2.643935 -19.983123 1.782943 0.000000 51.000000 14.476312 0.000000
2.751495 -19.923241 1.206642 0.000000 42.000000 14.462537 0.000000
3.315449 -19.738608 0.615718 0.000000 63.000000 14.728908 15.000000
2.085837 -20.826790 0.968474 0.000000 46.000000 14.467221 0.000000
4.788544 -17.712601 -0.817216 0.000000 39.000000 14.493081 0.000000
3.127344 -18.897785 3.202829 0.000000 34.000000 14.343781 0.000000
3.246293 -18.720786 3.464698 0.000000 45.000000 14.356865 0.000000
2.178056 -20.742887 3.066325 0.000000 68.000000 14.712284 3.000000
2.540263 -19.803774 2.248174 0.000000 40.000000 14.335075 0.000000
3.512224 -18.448513 3.937108 0.000000 34.000000 14.449484 0.000000
2.640921 -19.573823 2.522078 0.000000 39.000000 14.302739 0.000000
2.761135 -19.424071 2.744519 0.000000 47.000000 14.329256 0.000000
4.165395 -18.918222 -0.962768 0.000000 35.000000 14.725599 28.000000
3.540014 -19.046182 2.970297 0.000000 49.000000 14.733296 24.000000
2.975976 -20.515550 -2.061832 0.000000 56.000000 14.651561 17.000000
3.276562 -18.797128 3.643493 0.000000 28.000000 14.446352 0.000000
3.151655 -19.470279 1.723139 0.000000 45.000000 14.554713 27.000000
3.493750 -19.096120 0.410631 0.000000 38.000000 14.454205 0.000000
3.360705 -20.220196 -1.289928 0.000000 71.000000 14.855227 18.000000
1.828150 -20.669206 3.527068 0.000000 36.000000 14.442024 0.000000
1.676132 -21.089558 2.157970 0.000000 36.000000 14.433493 0.000000
2.719515 -20.301065 2.692700 0.000000 63.000000 14.827038 5.000000
3.682643 -19.072549 -2.119191 0.000000 35.000000 14.317809 0.000000
0.991552 -22.110829 1.365353 0.000000 32.000000 14.436075 0.000000
1.844910 -20.851042 2.707171 0.000000 42.000000 14.478745 0.000000
1.660465 -21.549169 -0.104962 0.000000 40.000000 14.460449 0.000000
0.825153 -22.773465 0.825148 0.000000 40.000000 14.652843 4.000000
1.805243 -20.994228 1.724228 0.000000 41.000000 14.430179 0.000000
2.937604 -20.456695 -2.067033 0.000000 47.000000 14.584943 17.000000
4.546089 -18.001257 0.914535 0.000000 67.000000 14.664251 21.000000
1.757654 -21.014437 1.281776 0.000000 37.000000 14.357960 0.000000
2.861044 -20.271695 -0.979543 0.000000 56.000000 14.527962 0.000000
2.964201 -20.617316 -1.918411 0.000000 70.000000 14.719833 17.000000
1.728981 -21.532867 -0.036585 0.000000 44.000000 14.511524 0.000000
3.297973 -19.276752 -0.599448 0.000000 36.000000 14.303189 0.000000
4.014270 -18.539928 2.608601 0.000000 62.000000 14.757242 19.000000
2.178745 -20.715125 2.217980 0.000000 33.000000 14.605270 5.000000
2.135604 -21.251211 -1.917955 0.000000 37.000000 14.457411 0.000000
2.874119 -19.996672 0.901404 0.000000 63.000000 14.570992 27.000000
4.627004 -17.743285 -0.929615 0.000000 27.000000 14.373135 0.000000
2.741644 -21.374767 -2.253597 0.000000 52.000000 14.972393 8.000000
3.091125 -19.764073 -0.278351 0.000000 43.000000 14.473064 0.000000
5.411191 -17.705562 0.032282 0.000000 39.000000 15.067827 20.000000
2.473577 -20.762208 -1.284965 0.000000 53.000000 14.491228 0.000000
3.340176 -19.374902 0.123447 0.000000 45.000000 14.473463 0.000000
1.965569 -21.040495 2.113787 0.000000 59.000000 14.625796 5.000000
4.308275 -18.621074 0.740278 0.000000 62.000000 14.837916 21.000000
4.951918 -18.095206 -0.021142 0.000000 66.000000 14.940041 20.000000
4.282161 -19.238467 -1.607585 0.000000 47.000000 14.944034 28.000000
4.479203 -19.207082 -0.478648 0.000000 40.000000 15.199943 29.000000
3.884841 -18.549935 0.945499 0.000000 49.000000 14.484258 0.000000
3.441622 -18.764121 1.815070 0.000000 25.000000 14.360394 0.000000
4.039979 -18.393663 1.123766 0.000000 48.000000 14.529465 0.000000
3.883759 -18.149096 2.132473 0.000000 33.000000 14.365191 0.000000
4.174427 -19.204578 -0.490674 0.000000 58.000000 14.958094 29.000000
2.406128 -20.108929 3.044392 0.000000 43.000000 14.501386 0.000000
3.498120 -20.048281 -1.238593 0.000000 51.000000 14.863420 18.000000
3.479498 -19.264561 0.142104 0.000000 51.000000 14.517292 0.000000
2.080964 -21.199060 0.253222 0.000000 34.000000 14.614528 14.000000
4.649351 -17.385875 2.020473 0.000000 55.000000 14.487253 0.000000
3.438903 -18.968314 2.244842 0.000000 29.000000 14.528942 0.000000
3.146913 -19.711499 0.300983 0.000000 47.000000 14.546551 15.000000
3.527530 -20.350992 -2.414593 0.000000 69.000000 14.945907 7.000000
2.975676 -19.178399 3.918645 0.000000 29.000000 14.472756 0.000000
2.846019 -19.409981 3.111228 0.000000 39.000000 14.426377 0.000000
2.784966 -19.423699 2.890651 0.000000 30.000000 14.363324 0.000000
3.293064 -20.457145 -2.339548 0.000000 36.000000 14.834904 7.000000
3.007648 -19.784722 0.011780 0.000000 51.000000 14.451193 0.000000
3.326197 -19.521043 -0.435718 0.000000 51.000000 14.492103 0.000000
4.288006 -17.973859 1.450538 0.000000 44.000000 14.502329 0.000000
3.697675 -19.147439 -1.131463 0.000000 55.000000 14.480837 0.000000
4.209478 -18.379884 -0.477296 0.000000 41.000000 14.483017 0.000000
2.488603 -20.325279 0.973882 0.000000 43.000000 14.477196 0.000000
3.626215 -19.557710 -1.233087 0.000000 49.000000 14.664668 29.000000
2.386224 -20.557957 0.479307 0.000000 40.000000 14.486285 0.000000
2.538923 -20.713837 -1.012728 0.000000 56.000000 14.541988 0.000000
2.320949 -20.624781 0.263053 0.000000 46.000000 14.452837 0.000000
3.235320 -19.299217 1.502425 0.000000 43.000000 14.492221 0.000000
2.229436 -20.596303 0.099044 0.000000 43.000000 14.346147 0.000000
3.146057 -19.336693 1.289910 0.000000 43.000000 14.422424 0.000000
2.686893 -20.303410 -0.587473 0.000000 48.000000 14.452625 0.000000
2.655987 -20.596289 -2.250690 0.000000 32.000000 14.429772 0.000000
2.153949 -20.977894 -0.443530 0.000000 50.000000 14.462208 0.000000
4.384359 -18.659332 -0.173728 0.000000 61.000000 14.823370 29.000000
2.095671 -21.094402 -0.670143 0.000000 45.000000 14.463505 0.000000
4.293187 -19.244806 -1.664863 0.000000 40.000000 14.950440 28.000000
1.983622 -21.343865 -1.119624 0.000000 47.000000 14.480083 0.000000
3.351390 -18.856262 1.548763 0.000000 25.000000 14.317499 0.000000
0.895061 -22.175859 1.293499 0.000000 26.000000 14.392467 0.000000
2.733796 -20.237248 -0.242243 0.000000 39.000000 14.485841 0.000000
1.856866 -21.553899 -1.536915 0.000000 45.000000 14.464469 0.000000
4.853979 -17.209936 1.598174 0.000000 46.000000 14.495125 0.000000
2.690627 -20.715419 -0.389693 0.000000 73.000000 14.728464 9.000000
5.129340 -17.325380 1.358210 0.000000 78.000000 14.756017 21.000000
2.777071 -20.464979 -2.211686 0.000000 48.000000 14.448654 0.000000
2.117759 -21.264187 -1.973805 0.000000 48.000000 14.445383 0.000000
3.308706 -19.881307 -0.976409 0.000000 51.000000 14.640817 18.000000
2.860597 -20.360064 -2.243171 0.000000 45.000000 14.446684 0.000000
3.006734 -20.227452 -2.132112 0.000000 51.000000 14.492114 0.000000
4.146890 -19.623893 -0.995807 0.000000 66.000000 15.138815 29.000000
5.025262 -18.301331 -0.735702 0.000000 74.000000 15.047232 20.000000
3.580236 -19.988030 -1.930470 0.000000 83.000000 14.817122 7.000000
1.963578 -21.190222 0.953730 0.000000 35.000000 14.591864 25.000000
4.043636 -18.596656 2.432078 0.000000 77.000000 14.796091 19.000000
3.795417 -19.099754 -1.891925 0.000000 32.000000 14.447150 0.000000
3.919274 -18.724989 -1.717490 0.000000 44.000000 14.333886 0.000000
5.266486 -17.995347 -0.187416 0.000000 54.000000 15.107973 20.000000
4.188427 -19.089203 -1.119488 0.000000 58.000000 14.831419 28.000000
2.917584 -20.316967 -2.209399 0.000000 52.000000 14.468647 0.000000
3.854488 -18.581675 0.212885 0.000000 41.000000 14.401620 0.000000
2.836339 -20.488285 -1.963208 0.000000 57.000000 14.535913 0.000000
2.737815 -20.507032 -2.253207 0.000000 29.000000 14.439133 0.000000
2.826487 -20.419640 -2.184875 0.000000 46.000000 14.462566 0.000000
3.788949 -18.876450 -2.055247 0.000000 46.000000 14.288170 0.000000
3.147308 -19.252281 2.216398 0.000000 47.000000 14.470749 0.000000
5.680455 -17.480638 0.318690 0.000000 72.000000 15.172135 20.000000
0.697641 -22.633773 0.748557 0.000000 45.000000 14.459287 0.000000
3.642716 -18.818825 1.206257 0.000000 60.000000 14.486532 0.000000
3.165661 -18.804826 3.398526 0.000000 45.000000 14.337920 0.000000
0.744839 -22.536176 1.420945 0.000000 69.000000 14.508459 0.000000
5.259939 -16.705907 0.699742 0.000000 43.000000 14.409554 0.000000
0.716926 -22.254819 2.013063 0.000000 47.000000 14.377847 0.000000
0.749655 -22.238857 2.235565 0.000000 43.000000 14.417521 0.000000
1.769958 -21.427177 -0.185040 0.000000 56.000000 14.463219 0.000000
2.835585 -20.362489 -3.209031 0.000000 37.000000 14.325413 0.000000
4.296124 -19.158215 -0.411905 0.000000 74.000000 15.033617 29.000000
3.313372 -19.691052 -2.405841 0.000000 18.000000 14.375569 0.000000
1.471070 -21.810102 -0.783171 0.000000 50.000000 14.398951 0.000000
1.662477 -21.484120 0.101778 0.000000 41.000000 14.444349 0.000000
4.856228 -17.390436 0.743017 0.000000 38.000000 14.515884 0.000000
1.757937 -21.254920 0.587219 0.000000 40.000000 14.430983 0.000000
4.217296 -19.363873 -1.290712 0.000000 76.000000 15.003637 28.000000
3.889318 -19.607837 -0.643427 0.000000 58.000000 14.964618 29.000000
1.973135 -20.730423 1.606470 0.000000 54.000000 14.388062 0.000000
4.902762 -17.367415 0.924363 0.000000 62.000000 14.557676 21.000000
3.956975 -18.104136 2.318543 0.000000 44.000000 14.415007 0.000000
3.076400 -19.747339 -0.290543 0.000000 42.000000 14.449987 0.000000
2.708307 -20.374655 0.919795 0.000000 67.000000 14.673908 27.000000
4.672659 -17.648237 -0.970904 0.000000 56.000000 14.346447 0.000000
2.452025 -20.629426 2.352238 0.000000 57.000000 14.781565 5.000000
2.498208 -19.823155 3.427691 0.000000 30.000000 14.439887 0.000000
3.633227 -19.816011 -0.797181 0.000000 33.000000 14.874571 29.000000
3.142470 -19.799941 1.392721 0.000000 46.000000 14.713693 27.000000
2.046644 -20.969464 1.029000 0.000000 50.000000 14.530137 25.000000
4.720908 -17.204863 1.748649 0.000000 29.000000 14.403727 0.000000
5.171462 -17.121602 1.323131 0.000000 62.000000 14.660772 21.000000
2.081070 -20.454601 3.065596 0.000000 43.000000 14.459959 0.000000
2.915497 -18.790198 5.007318 0.000000 29.000000 14.304567 0.000000
4.087593 -19.393078 -1.586085 0.000000 84.000000 14.888220 28.000000
2.527494 -19.523291 4.471543 0.000000 33.000000 14.391064 0.000000
3.882370 -18.100539 2.167655 0.000000 51.000000 14.338184 0.000000
2.705200 -20.166176 2.859427 0.000000 46.000000 14.751180 5.000000
1.846420 -22.018969 -0.396609 0.000000 65.000000 14.862259 11.000000
3.003304 -20.484741 -1.753059 0.000000 56.000000 14.687138 17.000000
0.593360 -22.715325 0.787160 0.000000 35.000000 14.431461 0.000000
1.990529 -21.018814 -0.424051 0.000000 38.000000 14.361126 0.000000
1.382876 -21.524690 1.824652 0.000000 38.000000 14.433825 0.000000
4.269898 -17.661289 2.324268 0.000000 33.000000 14.390404 0.000000
2.161408 -20.403787 2.785185 0.000000 34.000000 14.461971 0.000000
1.428850 -21.674499 0.653471 0.000000 37.000000 14.436374 0.000000
4.264676 -19.120637 -0.436030 0.000000 69.000000 14.983412 29.000000
1.440425 -21.763193 0.189091 0.000000 50.000000 14.450069 0.000000
1.434879 -21.783710 -0.026910 0.000000 41.000000 14.435193 0.000000
3.564771 -20.364987 -2.406301 0.000000 63.000000 14.984553 7.000000
3.484376 -19.694830 -1.140798 0.000000 34.000000 14.647079 29.000000
4.046268 -18.372087 2.665503 0.000000 29.000000 14.685841 19.000000
4.446015 -19.336586 -1.337979 0.000000 75.000000 15.161296 28.000000
4.564363 -18.326436 1.111858 0.000000 60.000000 14.898380 21.000000
5.167956 -17.295175 1.166896 0.000000 66.000000 14.747416 21.000000
4.972617 -18.009939 -0.741750 0.000000 66.000000 14.827219 20.000000
1.931945 -21.372465 -1.198910 0.000000 48.000000 14.448566 0.000000
2.901468 -20.820332 -0.112522 0.000000 49.000000 14.987537 9.000000
2.916935 -20.127049 -1.433277 0.000000 50.000000 14.434949 0.000000
2.914785 -19.644365 0.648284 0.000000 48.000000 14.360552 0.000000
5.421700 -17.744129 -0.289054 0.000000 72.000000 15.065327 20.000000
4.189547 -19.358228 -1.207505 0.000000 69.000000 14.987309 28.000000
4.110717 -19.280392 -0.741628 0.000000 59.000000 14.927662 29.000000
5.729669 -17.527570 0.072173 0.000000 74.000000 15.213091 20.000000
2.931263 -20.294003 -2.166600 0.000000 55.000000 14.469911 0.000000
4.588345 -17.897569 0.700575 0.000000 56.000000 14.611177 21.000000
3.080320 -20.078187 -2.083144 0.000000 41.000000 14.463836 0.000000
4.346394 -18.158893 -0.017910 0.000000 54.000000 14.504399 0.000000
3.891992 -19.762257 -0.750310 0.000000 58.000000 15.049673 29.000000
2.800081 -19.681658 0.740180 0.000000 40.000000 14.303194 0.000000
5.542632 -17.310480 0.183257 0.000000 63.000000 14.945590 20.000000
1.305181 -21.730182 1.047924 0.000000 31.000000 14.415532 0.000000
3.085093 -20.565155 -2.026512 0.000000 71.000000 14.771228 17.000000
3.590176 -19.542137 0.794775 0.000000 55.000000 14.843426 15.000000
3.497262 -20.143389 -1.510954 0.000000 72.000000 14.891787 18.000000
2.623739 -21.167821 -2.554815 0.000000 63.000000 14.721285 8.000000
3.071354 -20.589590 -1.929017 0.000000 60.000000 14.785796 17.000000
3.497329 -19.991195 -1.022245 0.000000 65.000000 14.851015 18.000000
3.733942 -18.541650 2.124688 0.000000 40.000000 14.486762 0.000000
3.861767 -18.259955 2.382792 0.000000 39.000000 14.442421 0.000000
5.222846 -17.255961 1.272363 0.000000 68.000000 14.777763 21.000000
2.195586 -19.868693 4.233979 0.000000 26.000000 14.316469 0.000000
2.831932 -20.757330 -3.144290 0.000000 66.000000 14.570761 6.000000
2.686573 -20.628252 -1.710961 0.000000 57.000000 14.530927 0.000000
3.167885 -18.791330 4.612376 0.000000 34.000000 14.461033 0.000000
2.678741 -20.455468 -1.210048 0.000000 50.000000 14.472679 0.000000
4.244119 -18.849293 -0.000329 0.000000 70.000000 14.847987 29.000000
3.711993 -18.478036 2.542142 0.000000 53.000000 14.475247 0.000000
3.213587 -20.312234 -2.311071 0.000000 65.000000 14.687051 7.000000
1.596210 -21.578781 -0.766027 0.000000 46.000000 14.357561 0.000000
2.980946 -19.195625 3.197797 0.000000 31.000000 14.410444 0.000000
2.030361 -20.720072 1.523159 0.000000 48.000000 14.417722 0.000000
2.979161 -19.502171 2.301528 0.000000 50.000000 14.500679 0.000000
4.763992 -17.584083 0.281922 0.000000 58.000000 14.512650 0.000000
1.466834 -21.695783 0.100821 0.000000 33.000000 14.420159 0.000000
2.728050 -20.244247 -0.392792 0.000000 43.000000 14.469536 0.000000
3.710258 -18.392466 3.156531 0.000000 48.000000 14.487197 0.000000
1.884951 -21.186252 0.285683 0.000000 43.000000 14.456435 0.000000
4.868704 -17.776838 -0.757217 0.000000 40.000000 14.601614 20.000000
1.830463 -21.427225 -0.209880 0.000000 55.000000 14.508051 0.000000
3.870084 -19.137940 -1.149682 0.000000 48.000000 14.608305 28.000000
2.593380 -20.198435 0.758518 0.000000 41.000000 14.458856 0.000000
1.706014 -21.448329 -0.585030 0.000000 55.000000 14.383283 0.000000
3.733749 -18.331797 3.269987 0.000000 48.000000 14.480660 0.000000
1.650566 -21.485895 -0.781048 0.000000 54.000000 14.341823 0.000000
3.377141 -19.583027 -1.535543 0.000000 32.000000 14.452497 0.000000
2.865329 -19.876081 2.128792 0.000000 49.000000 14.621464 26.000000
2.395994 -20.358041 0.105983 0.000000 45.000000 14.331909 0.000000
3.797827 -18.676298 0.817000 0.000000 44.000000 14.479516 0.000000
2.291152 -20.914430 -0.702804 0.000000 55.000000 14.503345 0.000000
2.211484 -20.293608 2.875454 0.000000 36.000000 14.443551 0.000000
4.657794 -17.728680 -0.850525 0.000000 31.000000 14.396803 0.000000
2.965354 -19.898421 2.157287 0.000000 55.000000 14.716609 26.000000
2.050126 -21.317025 -1.564367 0.000000 51.000000 14.468349 0.000000
2.731272 -20.539041 -1.764162 0.000000 51.000000 14.505783 0.000000
4.325491 -17.848374 1.626822 0.000000 43.000000 14.473864 0.000000
2.392260 -20.188438 0.431940 0.000000 25.000000 14.260138 0.000000
2.453765 -20.265338 1.348907 0.000000 40.000000 14.453286 0.000000
4.287383 -18.095100 0.424085 0.000000 62.000000 14.466328 0.000000
4.303517 -19.146909 -0.375284 0.000000 70.000000 15.036417 29.000000
4.865519 -17.409133 0.801668 0.000000 60.000000 14.540860 0.000000
2.551420 -20.654664 -1.207165 0.000000 42.000000 14.494864 0.000000
3.827773 -18.146842 2.232167 0.000000 29.000000 14.330550 0.000000
2.240987 -21.385715 -1.848012 0.000000 72.000000 14.629732 12.000000
2.043587 -21.099860 2.933667 0.000000 64.000000 14.810812 3.000000
3.611912 -18.793616 1.347663 0.000000 50.000000 14.462066 0.000000
4.448813 -17.616743 2.167043 0.000000 34.000000 14.486713 0.000000
4.344924 -17.801670 1.892271 0.000000 42.000000 14.488909 0.000000
4.121245 -19.394464 -0.848856 0.000000 58.000000 14.994182 29.000000
1.448396 -21.733006 2.099270 0.000000 64.000000 14.641844 1.000000
3.184745 -19.536291 0.142672 0.000000 41.000000 14.452243 0.000000
5.323140 -18.317351 -0.231266 0.000000 51.000000 15.344510 20.000000
2.302580 -20.631720 0.240426 0.000000 49.000000 14.440255 0.000000
4.360134 -18.779427 -0.445025 0.000000 75.000000 14.848794 29.000000
3.941968 -18.562285 0.835777 0.000000 67.000000 14.524894 0.000000
3.858194 -18.799220 1.429641 0.000000 49.000000 14.667402 22.000000
5.149060 -18.334340 -0.439910 0.000000 77.000000 15.196084 20.000000
2.569020 -20.556593 -1.364039 0.000000 45.000000 14.431983 0.000000
3.415592 -19.373635 -0.314965 0.000000 54.000000 14.485023 0.000000
2.479256 -20.698974 -1.563207 0.000000 44.000000 14.427327 0.000000
2.388409 -20.242873 2.623514 0.000000 33.000000 14.524404 5.000000
2.524001 -20.593658 2.351461 0.000000 54.000000 14.816073 5.000000
1.175975 -21.837212 0.881162 0.000000 37.000000 14.361798 0.000000
2.895817 -20.160175 -1.344335 0.000000 43.000000 14.448128 0.000000
1.730771 -21.196768 2.653609 0.000000 38.000000 14.594790 3.000000
2.714157 -20.591099 -1.781871 0.000000 54.000000 14.522284 0.000000
4.149245 -19.624276 -0.888159 0.000000 61.000000 15.152391 29.000000
2.780555 -20.733660 -2.783149 0.000000 48.000000 14.554564 0.000000
3.264726 -19.606382 -0.540033 0.000000 45.000000 14.484906 0.000000
2.945353 -20.175819 -3.042152 0.000000 34.000000 14.315243 0.000000
5.048335 -17.052734 0.854729 0.000000 49.000000 14.472101 0.000000
3.094707 -20.032196 -2.977872 0.000000 39.000000 14.351472 0.000000
2.389353 -20.521081 0.550383 0.000000 43.000000 14.473793 0.000000
0.417887 -22.936636 1.401153 0.000000 33.000000 14.494652 0.000000
2.584620 -21.334520 -2.339461 0.000000 30.000000 14.815476 8.000000
4.613498 -17.697513 0.407533 0.000000 56.000000 14.477353 0.000000
2.906909 -20.647071 -0.184706 0.000000 62.000000 14.878212 9.000000
2.742596 -20.487444 -3.389453 0.000000 37.000000 14.309581 0.000000
4.109478 -18.190849 0.561855 0.000000 51.000000 14.400025 0.000000
2.025669 -21.322150 0.189355 0.000000 47.000000 14.639565 14.000000
1.495829 -21.794286 0.267536 0.000000 64.000000 14.520900 0.000000
1.572603 -21.545115 0.992492 0.000000 49.000000 14.506250 0.000000
3.688148 -19.618636 -1.082218 0.000000 72.000000 14.766586 29.000000
2.166373 -20.839287 2.374904 0.000000 38.000000 14.688203 5.000000
0.924892 -22.030179 1.989772 0.000000 32.000000 14.401183 0.000000
1.963597 -20.889332 2.855054 0.000000 60.000000 14.611021 3.000000
1.043609 -22.109265 1.105515 0.000000 45.000000 14.448201 0.000000
1.769607 -20.905386 2.558007 0.000000 48.000000 14.436968 0.000000
1.894407 -20.736803 2.760929 0.000000 32.000000 14.453490 0.000000
1.104538 -21.872703 1.618008 0.000000 36.000000 14.406142 0.000000
1.156929 -21.805211 1.845363 0.000000 47.000000 14.430263 0.000000
1.357059 -21.600694 1.176414 0.000000 33.000000 14.390805 0.000000
4.140449 -18.237081 1.139525 0.000000 46.000000 14.514254 0.000000
4.913864 -17.778528 -0.744105 0.000000 34.000000 14.639465 20.000000
2.879383 -19.980790 1.135264 0.000000 60.000000 14.590387 27.000000
2.260461 -20.848520 2.121918 0.000000 56.000000 14.740623 5.000000
1.864055 -21.223694 0.210259 0.000000 40.000000 14.454875 0.000000
3.542881 -19.998286 -1.223564 0.000000 55.000000 14.869577 18.000000
1.085950 -21.934769 1.674427 0.000000 35.000000 14.435518 0.000000
4.978615 -17.339171 1.387327 0.000000 53.000000 14.649342 21.000000
3.517608 -19.194593 1.859909 0.000000 48.000000 14.687852 23.000000
1.186947 -21.810970 0.663874 0.000000 41.000000 14.331164 0.000000
1.295107 -21.982985 -0.060467 0.000000 40.000000 14.443770 0.000000
1.771515 -21.315918 1.924379 0.000000 42.000000 14.621694 10.000000
1.871674 -21.532414 -1.592165 0.000000 52.000000 14.457054 0.000000
1.925003 -21.413388 -1.371589 0.000000 45.000000 14.449692 0.000000
3.090842 -19.697346 -0.099393 0.000000 49.000000 14.451173 0.000000
4.998853 -18.288476 -0.224249 0.000000 63.000000 15.073278 20.000000
2.607957 -20.772454 -0.269597 0.000000 35.000000 14.711306 9.000000
3.872894 -19.141858 0.187878 0.000000 66.000000 14.755731 30.000000
3.815536 -19.442071 -1.527490 0.000000 72.000000 14.711045 28.000000
2.262887 -20.527621 0.036786 0.000000 51.000000 14.323761 0.000000
1.628498 -21.776704 -1.121582 0.000000 65.000000 14.465875 0.000000
2.336706 -20.399890 0.264667 0.000000 39.000000 14.327930 0.000000
1.651882 -21.510944 -0.841155 0.000000 52.000000 14.351745 0.000000
4.672064 -17.685851 0.747608 0.000000 56.000000 14.552473 21.000000
2.788091 -19.955079 1.919512 0.000000 70.000000 14.586817 26.000000
2.189231 -19.855646 4.142182 0.000000 26.000000 14.293709 0.000000
5.167407 -18.316424 -0.514696 0.000000 71.000000 15.191539 20.000000
5.273052 -18.023741 -0.629831 0.000000 78.000000 15.083233 20.000000
1.914574 -21.288224 -0.276969 0.000000 45.000000 14.481907 0.000000
3.008649 -20.599178 0.102396 0.000000 77.000000 14.959394 9.000000
4.624458 -18.944196 -1.365939 0.000000 76.000000 15.058461 28.000000
3.060719 -19.358762 2.124472 0.000000 41.000000 14.458097 0.000000
2.308629 -20.539244 0.851743 0.000000 43.000000 14.453762 0.000000
3.168489 -19.233635 2.357168 0.000000 48.000000 14.490998 0.000000
2.401921 -20.407653 1.068483 0.000000 46.000000 14.469655 0.000000
3.920950 -19.636567 -0.780511 0.000000 44.000000 14.992346 29.000000
2.329904 -21.151062 -1.773470 0.000000 33.000000 14.564024 12.000000
2.604496 -19.378441 4.318914 0.000000 31.000000 14.346636 0.000000
3.358653 -18.642483 3.785850 0.000000 28.000000 14.431428 0.000000
3.008721 -19.457483 2.452652 0.000000 42.000000 14.512690 0.000000
3.362946 -18.577539 3.738604 0.000000 46.000000 14.390061 0.000000
1.516004 -22.240009 -0.506041 0.000000 50.000000 14.726515 11.000000
5.701032 -17.159623 0.002667 0.000000 72.000000 14.958345 20.000000
3.992135 -19.542298 -1.069601 0.000000 69.000000 14.959696 29.000000
1.591464 -20.930239 3.306841 0.000000 40.000000 14.392402 0.000000
0.694339 -22.466835 1.565211 0.000000 43.000000 14.441880 0.000000
2.525451 -19.672317 4.260019 0.000000 35.000000 14.457949 0.000000
5.382546 -18.065186 -0.295550 0.000000 63.000000 15.230132 20.000000
2.223223 -20.742493 2.197426 0.000000 42.000000 14.654685 5.000000
2.188673 -21.158830 0.208794 0.000000 63.000000 14.669674 14.000000
1.625455 -21.225172 2.015529 0.000000 34.000000 14.461416 0.000000
4.463259 -19.229975 -1.367317 0.000000 79.000000 15.106535 28.000000
2.218130 -21.602892 -0.056193 0.000000 72.000000 14.935862 14.000000
2.937125 -20.078253 0.281660 0.000000 57.000000 14.604087 15.000000
3.240805 -19.454605 1.512888 0.000000 50.000000 14.592603 27.000000
2.413433 -20.010601 2.428215 0.000000 47.000000 14.381227 0.000000
4.522333 -18.886966 -1.528650 0.000000 53.000000 14.926015 28.000000
1.571748 -21.741828 -1.107595 0.000000 56.000000 14.401546 0.000000
4.697491 -17.760159 -0.942532 0.000000 27.000000 14.437351 0.000000
1.520760 -21.696543 -0.076765 0.000000 35.000000 14.443955 0.000000
2.328444 -20.497773 1.083327 0.000000 43.000000 14.468687 0.000000
3.269433 -20.161620 -2.131409 0.000000 57.000000 14.657991 7.000000
3.379955 -20.152017 -2.538465 0.000000 73.000000 14.695338 7.000000
4.988483 -17.369156 1.054482 0.000000 49.000000 14.639864 21.000000
3.022862 -20.087890 -0.810094 0.000000 66.000000 14.560641 16.000000
1.352040 -21.782354 1.056702 0.000000 47.000000 14.485103 0.000000
2.093653 -21.013485 -0.556174 0.000000 56.000000 14.424641 0.000000
2.083207 -21.188830 -0.824323 0.000000 58.000000 14.494974 0.000000
4.416016 -17.699232 1.938798 0.000000 41.000000 14.487030 0.000000
1.991796 -21.314221 -1.247326 0.000000 52.000000 14.454742 0.000000
2.160400 -21.180480 -1.890041 0.000000 46.000000 14.436613 0.000000
3.951611 -19.295504 -1.702106 0.000000 68.000000 14.709551 28.000000
0.817819 -22.438802 1.157078 0.000000 37.000000 14.478012 0.000000
5.377590 -18.285133 -0.076243 0.000000 76.000000 15.384080 20.000000
1.419840 -22.470207 0.090039 0.000000 72.000000 14.855426 13.000000
2.480871 -20.698371 -1.458268 0.000000 33.000000 14.439431 0.000000
3.951996 -19.405531 -1.297684 0.000000 67.000000 14.820278 28.000000
1.465805 -21.776860 -0.987724 0.000000 60.000000 14.352664 0.000000
2.231725 -20.604414 0.878547 0.000000 32.000000 14.436136 0.000000
4.390654 -18.044199 0.692203 0.000000 68.000000 14.544846 0.000000
3.755851 -18.690772 0.075948 0.000000 22.000000 14.376310 0.000000
5.167696 -17.299538 1.091649 0.000000 63.000000 14.741843 21.000000
2.644060 -20.436639 -0.780847 0.000000 44.000000 14.479803 0.000000
2.666426 -20.534975 -1.174804 0.000000 50.000000 14.515373 0.000000
2.864505 -20.945738 -3.081248 0.000000 66.000000 14.718182 6.000000
2.811080 -20.211840 -1.074868 0.000000 39.000000 14.442017 0.000000
4.514593 -17.573638 1.854380 0.000000 61.000000 14.478575 0.000000
5.437312 -18.554865 -0.113208 0.000000 3.000000 15.591813 20.000000
1.805762 -21.563708 -1.430688 0.000000 35.000000 14.441727 0.000000
4.206017 -18.124989 1.231316 0.000000 45.000000 14.506977 0.000000
2.185171 -20.287641 2.960460 0.000000 38.000000 14.428344 0.000000
1.358492 -21.925309 2.338558 0.000000 41.000000 14.714407 1.000000
3.518211 -19.231171 0.083922 0.000000 50.000000 14.521037 0.000000
3.354364 -18.889142 1.472476 0.000000 35.000000 14.331780 0.000000
3.344664 -19.814735 -1.595172 0.000000 53.000000 14.562263 18.000000
3.919041 -18.563676 0.659116 0.000000 51.000000 14.488898 0.000000
4.357880 -18.234908 1.651588 0.000000 60.000000 14.738134 22.000000
4.574411 -17.794008 -1.084754 0.000000 61.000000 14.346319 0.000000
1.802401 -20.937041 2.212765 0.000000 44.000000 14.445168 0.000000
3.570026 -19.434018 -0.204283 0.000000 74.000000 14.654866 30.000000
3.554348 -19.091129 1.783581 0.000000 75.000000 14.645286 23.000000
2.765617 -19.732704 3.976352 0.000000 51.000000 14.652924 2.000000
5.248824 -17.949311 -0.644504 0.000000 54.000000 15.017178 20.000000
3.869038 -18.257668 2.294944 0.000000 47.000000 14.437346 0.000000
2.817001 -19.639630 0.832333 0.000000 40.000000 14.300620 0.000000
2.938081 -20.667833 -2.713879 0.000000 54.000000 14.645278 6.000000
3.801162 -19.393625 0.007068 0.000000 79.000000 14.834027 30.000000
4.964936 -18.362029 -0.771615 0.000000 69.000000 15.033178 20.000000
3.634100 -18.741815 1.472397 0.000000 46.000000 14.461130 0.000000
1.905898 -20.771867 2.583334 0.000000 37.000000 14.464967 0.000000
2.471128 -20.621815 -0.662939 0.000000 42.000000 14.469931 0.000000
4.967354 -17.464725 1.250752 0.000000 80.000000 14.702656 21.000000
3.069299 -20.165687 -1.613163 0.000000 47.000000 14.558852 17.000000
3.256172 -19.103278 1.182384 0.000000 44.000000 14.354657 0.000000
3.140935 -19.623472 0.001016 0.000000 42.000000 14.456036 0.000000
2.652027 -20.703255 -1.770073 0.000000 62.000000 14.543358 0.000000
3.055017 -19.763596 -0.226932 0.000000 45.000000 14.449944 0.000000
2.977553 -19.929056 -0.460219 0.000000 45.000000 14.465396 0.000000
3.667996 -18.607779 1.626935 0.000000 33.000000 14.422303 0.000000
2.739730 -20.427328 -1.141320 0.000000 53.000000 14.510654 0.000000
2.811744 -20.729135 -0.213920 0.000000 56.000000 14.850607 9.000000
2.535086 -20.568824 -1.490277 0.000000 48.000000 14.399363 0.000000
2.936240 -20.326648 -2.541238 0.000000 38.000000 14.453761 0.000000
2.585007 -20.033515 1.736785 0.000000 51.000000 14.455963 0.000000
2.715451 -20.552897 -2.264113 0.000000 50.000000 14.448457 0.000000
4.075445 -19.507968 -1.418676 0.000000 61.000000 14.966781 28.000000
3.241726 -19.789430 -1.710289 0.000000 39.000000 14.453771 0.000000
2.845996 -19.739644 3.924836 0.000000 59.000000 14.714705 2.000000
3.381541 -19.595714 -1.575212 0.000000 42.000000 14.459466 0.000000
2.917502 -20.302775 -2.147248 0.000000 56.000000 14.466547 0.000000
3.522435 -19.396464 -1.439050 0.000000 44.000000 14.462740 0.000000
3.466598 -19.703214 0.668059 0.000000 75.000000 14.831411 15.000000
3.319693 -19.215955 2.810745 0.000000 51.000000 14.647215 24.000000
2.906357 -20.319133 -2.404481 0.000000 41.000000 14.440334 0.000000
4.940187 -18.592122 -0.759802 0.000000 53.000000 15.155646 28.000000
3.629947 -20.387469 -2.378569 0.000000 70.000000 15.052371 7.000000
5.208309 -18.294076 -0.118545 0.000000 65.000000 15.252262 20.000000
5.142140 -17.300614 1.418524 0.000000 75.000000 14.757361 21.000000
3.866529 -19.298612 -1.556960 0.000000 61.000000 14.660219 28.000000
3.679105 -19.199594 -1.088468 0.000000 43.000000 14.502737 0.000000
4.865120 -18.351715 -0.356299 0.000000 78.000000 14.992938 20.000000
3.543501 -19.338724 -1.249650 0.000000 40.000000 14.464199 0.000000
4.887898 -19.041461 -0.912794 0.000000 74.000000 15.372905 28.000000
3.296151 -19.712685 -1.599651 0.000000 40.000000 14.461370 0.000000
3.813105 -19.871368 -2.142860 0.000000 76.000000 14.905784 7.000000
3.242638 -19.750400 0.532942 0.000000 68.000000 14.670170 15.000000
3.665549 -19.187936 -1.165435 0.000000 53.000000 14.476762 0.000000
2.690632 -20.608301 -2.396044 0.000000 44.000000 14.448763 0.000000
4.595580 -18.409292 -1.372454 0.000000 61.000000 14.708220 28.000000
1.451462 -22.124197 1.062043 0.000000 56.000000 14.772561 10.000000
3.313334 -19.329281 -0.680407 0.000000 37.000000 14.338695 0.000000
2.628304 -19.709134 3.251486 0.000000 40.000000 14.453424 0.000000
4.634219 -17.427509 1.835788 0.000000 60.000000 14.481107 0.000000
4.524711 -19.035675 -1.139742 0.000000 44.000000 15.060289 28.000000
1.925581 -20.338643 3.653163 0.000000 26.000000 14.329887 0.000000
3.546277 -19.944709 -1.868927 0.000000 64.000000 14.770585 7.000000
4.467453 -17.913537 1.436079 0.000000 40.000000 14.604659 21.000000
5.238989 -17.857216 -0.060216 0.000000 70.000000 15.015574 20.000000
3.373392 -19.611722 -1.533347 0.000000 44.000000 14.467327 0.000000
3.507342 -18.708321 2.680313 0.000000 54.000000 14.470228 0.000000
3.276893 -20.256963 -1.565594 0.000000 44.000000 14.782527 18.000000
2.483531 -20.490838 2.389258 0.000000 41.000000 14.725532 5.000000
0.646930 -22.320302 1.771462 0.000000 32.000000 14.337171 0.000000
5.041208 -17.346411 1.330064 0.000000 64.000000 14.696743 21.000000
3.155184 -18.901514 3.552815 0.000000 45.000000 14.405267 0.000000
2.703626 -20.557142 -3.414930 0.000000 35.000000 14.318891 0.000000
3.576515 -20.108367 -1.345163 0.000000 59.000000 14.950246 18.000000
4.865386 -18.378993 -0.351282 0.000000 82.000000 15.010353 20.000000
2.251711 -20.577010 1.092898 0.000000 39.000000 14.457952 0.000000
0.616066 -22.366756 1.982426 0.000000 39.000000 14.363881 0.000000
0.674090 -22.334383 1.783907 0.000000 35.000000 14.368407 0.000000
2.216367 -21.087236 -1.453597 0.000000 54.000000 14.470128 0.000000
4.989907 -18.446393 -0.679462 0.000000 77.000000 15.114161 28.000000
0.981008 -22.184852 0.598748 0.000000 40.000000 14.391184 0.000000
0.996743 -22.085929 0.442323 0.000000 40.000000 14.326366 0.000000
2.137449 -21.414233 0.085287 0.000000 59.000000 14.772395 14.000000
3.050771 -20.164992 -2.146690 0.000000 54.000000 14.486925 0.000000
3.461463 -20.112902 -1.302805 0.000000 65.000000 14.867305 18.000000
1.634928 -21.129757 2.617912 0.000000 44.000000 14.474857 0.000000
4.384227 -18.261740 1.707569 0.000000 42.000000 14.781174 22.000000
1.354018 -21.576971 1.788979 0.000000 40.000000 14.439333 0.000000
5.510099 -17.792377 -0.164052 0.000000 78.000000 15.177491 20.000000
4.842214 -17.770444 0.807378 0.000000 71.000000 14.744000 21.000000
2.201758 -20.727968 0.627760 0.000000 44.000000 14.461361 0.000000
3.491103 -19.182087 0.198681 0.000000 48.000000 14.482033 0.000000
2.311617 -20.508435 1.112542 0.000000 41.000000 14.465126 0.000000
5.427103 -17.428162 0.091090 0.000000 77.000000 14.917059 20.000000
3.609480 -19.205622 1.859171 0.000000 67.000000 14.766568 23.000000
1.721175 -21.372267 0.454467 0.000000 42.000000 14.459690 0.000000
5.624378 -17.169273 0.369003 0.000000 80.000000 14.943242 20.000000
2.581327 -19.691024 2.492627 0.000000 41.000000 14.324479 0.000000
3.304650 -18.760617 3.735533 0.000000 36.000000 14.455896 0.000000
4.731783 -18.055514 1.416278 0.000000 69.000000 14.896624 21.000000
2.959151 -19.105578 3.028767 0.000000 33.000000 14.320271 0.000000
2.419266 -20.444183 0.634028 0.000000 46.000000 14.459191 0.000000
4.402985 -18.132503 -0.350996 0.000000 55.000000 14.497087 0.000000
3.156403 -20.076982 0.341512 0.000000 44.000000 14.781680 15.000000
3.027270 -19.191076 3.716891 0.000000 53.000000 14.499425 0.000000
5.336865 -17.727388 -0.436664 0.000000 53.000000 14.972798 20.000000
3.929945 -19.825927 -0.795244 0.000000 79.000000 15.113551 29.000000
2.505788 -19.967350 3.119485 0.000000 38.000000 14.501043 0.000000
2.574211 -19.742583 3.420794 0.000000 34.000000 14.449519 0.000000
3.847351 -19.638276 -1.180371 0.000000 67.000000 14.892970 29.000000
2.774294 -19.490243 3.906285 0.000000 45.000000 14.504072 0.000000
4.189270 -19.363571 -1.325680 0.000000 71.000000 14.977737 28.000000
2.939449 -19.022592 4.530662 0.000000 35.000000 14.414478 0.000000
1.071022 -21.674174 2.588681 0.000000 43.000000 14.362178 0.000000
1.942628 -20.424821 3.745958 0.000000 30.000000 14.405831 0.000000
1.934291 -20.364389 3.545068 0.000000 32.000000 14.340910 0.000000
5.325833 -17.658813 -0.443759 0.000000 68.000000 14.921479 20.000000
4.258425 -17.989590 1.364249 0.000000 41.000000 14.479528 0.000000
3.128785 -19.562581 1.301120 0.000000 47.000000 14.548121 27.000000
2.030007 -20.668630 2.656479 0.000000 39.000000 14.507025 0.000000
4.009421 -18.406409 1.557555 0.000000 37.000000 14.559608 22.000000
1.733578 -21.571807 1.749806 0.000000 50.000000 14.729680 10.000000
2.016073 -20.668307 1.982592 0.000000 37.000000 14.423940 0.000000
1.767930 -21.340082 1.595576 0.000000 53.000000 14.598539 10.000000
3.718348 -20.012276 -2.042629 0.000000 52.000000 14.928283 7.000000
5.099068 -16.945447 -0.363390 0.000000 34.000000 14.316251 0.000000
3.972678 -19.750934 -0.946515 0.000000 57.000000 15.085083 29.000000
4.439754 -18.409345 0.970009 0.000000 64.000000 14.836171 21.000000
4.942517 -18.582770 -0.865015 0.000000 73.000000 15.140524 28.000000
1.977517 -21.128778 -0.164008 0.000000 46.000000 14.445891 0.000000
1.924980 -21.052441 -0.326188 0.000000 55.000000 14.340718 0.000000
3.063308 -19.741307 -0.058241 0.000000 50.000000 14.460838 0.000000
4.524596 -18.901354 -0.257947 0.000000 78.000000 15.072271 29.000000
3.797684 -19.910984 -2.211294 0.000000 77.000000 14.910592 7.000000
1.908429 -21.469679 -1.290499 0.000000 51.000000 14.479753 0.000000
1.886251 -21.528070 -1.501903 0.000000 54.000000 14.475469 0.000000
2.391839 -20.824992 -1.265739 0.000000 52.000000 14.467544 0.000000
2.499306 -20.782399 -1.104446 0.000000 57.000000 14.543023 0.000000
2.561816 -20.557798 -0.859484 0.000000 60.000000 14.480946 0.000000
2.169754 -20.733788 2.368151 0.000000 57.000000 14.625660 5.000000
1.953542 -21.427100 -1.662871 0.000000 50.000000 14.449351 0.000000
2.732013 -20.235527 -0.426755 0.000000 43.000000 14.463688 0.000000
2.030277 -21.275872 -1.466688 0.000000 58.000000 14.438062 0.000000
4.876052 -18.603081 -0.808045 0.000000 59.000000 15.106892 28.000000
5.007213 -17.670466 1.158376 0.000000 51.000000 14.849788 21.000000
3.516803 -20.115913 -1.486839 0.000000 68.000000 14.892896 18.000000
2.851882 -20.681620 -2.738306 0.000000 37.000000 14.583491 6.000000
2.320111 -20.943219 -0.929189 0.000000 62.000000 14.519478 0.000000
4.468928 -18.851681 -0.718622 0.000000 41.000000 14.949063 28.000000
3.545460 -18.843479 1.365454 0.000000 47.000000 14.442321 0.000000
3.197280 -20.119093 0.277123 0.000000 74.000000 14.832599 15.000000
3.767219 -19.412997 -1.397051 0.000000 71.000000 14.669311 28.000000
4.853471 -18.307308 -0.203597 0.000000 73.000000 14.972969 20.000000
1.555764 -21.227882 2.156063 0.000000 39.000000 14.423420 0.000000
4.096451 -18.239146 1.600987 0.000000 69.000000 14.530283 0.000000
3.234325 -19.382033 0.934047 0.000000 42.000000 14.481361 0.000000
5.573750 -17.688174 0.061006 0.000000 68.000000 15.187762 20.000000
2.954367 -19.880496 2.030246 0.000000 54.000000 14.683471 26.000000
3.448648 -18.897445 1.414152 0.000000 40.000000 14.404573 0.000000
2.600198 -20.420347 -0.465913 0.000000 56.000000 14.469075 0.000000
3.694657 -18.459251 1.869904 0.000000 30.000000 14.378388 0.000000
4.410675 -17.699970 1.856337 0.000000 52.000000 14.474487 0.000000
4.035566 -18.595711 0.628780 0.000000 70.000000 14.596626 21.000000
3.545649 -19.045149 2.917986 0.000000 62.000000 14.731497 24.000000
2.832669 -18.995593 4.908106 0.000000 27.000000 14.354535 0.000000
3.091145 -20.660854 -3.019632 0.000000 61.000000 14.728412 6.000000
2.815772 -19.426214 3.929507 0.000000 43.000000 14.499953 0.000000
4.784424 -18.617684 -0.629977 0.000000 67.000000 15.062967 28.000000
2.752387 -19.536402 3.412247 0.000000 28.000000 14.462346 0.000000
3.999021 -19.428343 -0.655583 0.000000 45.000000 14.939664 29.000000
2.587568 -19.704534 2.453692 0.000000 39.000000 14.333473 0.000000
1.608957 -21.173202 2.546592 0.000000 53.000000 14.473424 0.000000
2.565781 -19.847253 2.164622 0.000000 43.000000 14.372738 0.000000
3.503222 -18.321306 3.624672 0.000000 30.000000 14.331320 0.000000
3.162890 -20.761184 -2.897775 0.000000 48.000000 14.859008 6.000000
3.443422 -19.254264 0.113648 0.000000 49.000000 14.479666 0.000000
3.348993 -19.011766 2.368372 0.000000 46.000000 14.498172 0.000000
1.508579 -20.961180 3.289649 0.000000 27.000000 14.344469 0.000000
4.707490 -19.093077 -0.895141 0.000000 30.000000 15.264841 28.000000
5.186818 -18.395861 -0.183626 0.000000 50.000000 15.290661 20.000000
2.340576 -20.710081 0.337629 0.000000 43.000000 14.528323 0.000000
5.567813 -17.576048 0.088345 0.000000 65.000000 15.117502 20.000000
4.653874 -18.796289 -1.380387 0.000000 45.000000 14.989598 28.000000
3.143107 -19.756010 -0.608397 0.000000 44.000000 14.473663 0.000000
2.137621 -20.765463 -0.230618 0.000000 55.000000 14.342314 0.000000
2.940821 -19.693816 1.095397 0.000000 46.000000 14.458937 0.000000
4.048270 -19.693401 -1.002898 0.000000 58.000000 15.103189 29.000000
2.090616 -21.140599 -0.758392 0.000000 43.000000 14.478349 0.000000
2.050116 -21.275380 -0.991388 0.000000 49.000000 14.504075 0.000000
1.614029 -21.776101 1.289063 0.000000 43.000000 14.711571 10.000000
1.933395 -21.427101 -1.391099 0.000000 40.000000 14.462570 0.000000
2.711460 -20.314198 -0.374481 0.000000 44.000000 14.501229 0.000000
1.886805 -21.548570 -1.604970 0.000000 49.000000 14.477427 0.000000
2.639229 -20.399031 -0.583751 0.000000 42.000000 14.474076 0.000000
3.437948 -19.296647 2.534099 0.000000 70.000000 14.759734 24.000000
3.414382 -20.136135 -1.428068 0.000000 68.000000 14.831203 18.000000
3.731750 -19.947325 -2.205148 0.000000 81.000000 14.881747 7.000000
2.164034 -21.187426 -2.040693 0.000000 44.000000 14.427622 0.000000
3.424996 -18.469873 3.752749 0.000000 39.000000 14.374438 0.000000
1.892122 -21.527012 -0.030809 0.000000 36.000000 14.636513 14.000000
2.840475 -20.167009 -1.562260 0.000000 43.000000 14.385630 0.000000
3.117957 -20.227203 -0.851027 0.000000 65.000000 14.715990 16.000000
4.750277 -18.948673 -1.072211 0.000000 70.000000 15.191241 28.000000
4.645472 -17.616939 0.604259 0.000000 52.000000 14.474195 0.000000
4.251233 -19.304516 -1.504882 0.000000 70.000000 14.971109 28.000000
4.550552 -17.866066 0.038670 0.000000 49.000000 14.491605 0.000000
2.550928 -19.737948 2.645501 0.000000 38.000000 14.345639 0.000000
