-20.285345 -14.043508 -20.781764 0.000000 50.000000 15.285192 11.000000
-19.242358 -14.565690 -25.031602 0.000000 50.000000 14.873574 26.000000
-19.186289 -14.761744 -21.525721 0.000000 41.000000 14.836650 13.000000
-17.926689 -15.496964 -26.508095 0.000000 35.000000 14.396154 0.000000
-17.882761 -15.615222 -26.436782 0.000000 36.000000 14.427527 0.000000
-18.028855 -16.899366 -21.384177 0.000000 52.000000 15.143877 15.000000
-17.783756 -15.846600 -26.306353 0.000000 43.000000 14.478600 0.000000
-19.442150 -14.297507 -22.306190 0.000000 62.000000 14.796262 28.000000
-19.288400 -15.729815 -20.495654 0.000000 43.000000 15.454275 14.000000
-17.566249 -16.185058 -26.148006 0.000000 49.000000 14.495367 0.000000
-18.901586 -14.478254 -26.093536 0.000000 52.000000 14.578327 21.000000
-17.376757 -16.405704 -26.064497 0.000000 30.000000 14.468228 0.000000
-17.212662 -16.501020 -26.047229 0.000000 29.000000 14.390405 0.000000
-17.115017 -16.615484 -26.011870 0.000000 28.000000 14.377099 0.000000
-17.090012 -16.742479 -25.959412 0.000000 32.000000 14.429493 0.000000
-17.099144 -16.878437 -25.897706 0.000000 42.000000 14.514521 0.000000
-19.695784 -14.007387 -22.136771 0.000000 42.000000 14.827125 10.000000
-20.479934 -13.698186 -21.032014 0.000000 69.000000 15.248614 30.000000
-19.486438 -15.422764 -20.836875 0.000000 51.000000 15.445621 13.000000
-19.624430 -13.623832 -26.224123 0.000000 39.000000 14.668717 21.000000
-16.215923 -18.095008 -25.698526 0.000000 36.000000 14.503782 0.000000
-17.954632 -15.800693 -26.004422 0.000000 39.000000 14.581150 25.000000
-19.228739 -13.901437 -21.648615 0.000000 27.000000 14.371774 0.000000
-17.869685 -17.034310 -21.982429 0.000000 35.000000 15.111844 15.000000
-18.908901 -14.707919 -23.224728 0.000000 48.000000 14.631720 28.000000
-19.136497 -14.084508 -21.883063 0.000000 31.000000 14.411128 0.000000
-19.128990 -14.149461 -21.963919 0.000000 35.000000 14.445467 0.000000
-19.225938 -14.250745 -22.038354 0.000000 38.000000 14.585533 0.000000
-19.376744 -14.671185 -22.885939 0.000000 64.000000 14.979266 28.000000
-16.612628 -18.388030 -22.434701 0.000000 44.000000 14.897941 17.000000
-19.285923 -15.077850 -21.509422 0.000000 49.000000 15.101752 13.000000
-19.151192 -15.094588 -22.019433 0.000000 59.000000 15.017747 23.000000
-19.572311 -13.832961 -25.713769 0.000000 57.000000 14.733293 21.000000
-18.364515 -16.179657 -22.738190 0.000000 56.000000 15.036168 29.000000
-18.721248 -14.768912 -23.498423 0.000000 39.000000 14.523534 0.000000
-18.672959 -14.845013 -23.855618 0.000000 40.000000 14.539692 0.000000
-19.132070 -14.404313 -22.028679 0.000000 60.000000 14.598931 28.000000
-19.626098 -13.844291 -26.102367 0.000000 70.000000 14.795283 21.000000
-18.459957 -14.923036 -25.842992 0.000000 50.000000 14.472776 0.000000
-18.465751 -14.916547 -25.979940 0.000000 43.000000 14.477823 0.000000
-18.737217 -16.555846 -21.508637 0.000000 59.000000 15.521058 14.000000
-19.173536 -14.873550 -22.908494 0.000000 60.000000 14.933529 28.000000
-19.592468 -14.699693 -20.654305 0.000000 48.000000 15.103285 11.000000
-18.461903 -14.855702 -26.544205 0.000000 44.000000 14.456204 0.000000
-18.578304 -14.782298 -25.610917 0.000000 34.000000 14.479408 0.000000
-19.609016 -13.717247 -26.263253 0.000000 66.000000 14.712023 21.000000
-18.590511 -14.760984 -25.750131 0.000000 39.000000 14.481055 0.000000
-19.744994 -13.513761 -24.176458 0.000000 37.000000 14.640131 20.000000
-18.604540 -14.738440 -25.888924 0.000000 48.000000 14.483448 0.000000
-18.618172 -14.714621 -26.029775 0.000000 42.000000 14.484835 0.000000
-18.635442 -14.688333 -26.169801 0.000000 51.000000 14.487703 0.000000
-20.259837 -14.111151 -20.686774 0.000000 42.000000 15.301188 11.000000
-18.398828 -16.236618 -22.151768 0.000000 69.000000 15.079543 29.000000
-18.646519 -14.584236 -26.601874 0.000000 39.000000 14.448895 0.000000
-18.630279 -16.525583 -21.451085 0.000000 58.000000 15.414928 14.000000
-19.768092 -13.353758 -22.204302 0.000000 35.000000 14.505622 0.000000
-19.721805 -13.432976 -22.146680 0.000000 35.000000 14.512671 0.000000
-18.623014 -15.704661 -21.923697 0.000000 53.000000 14.943360 24.000000
-19.827624 -13.599877 -23.399399 0.000000 42.000000 14.733954 12.000000
-19.574756 -13.672182 -21.996081 0.000000 37.000000 14.528762 0.000000
-18.959410 -15.228912 -23.569957 0.000000 62.000000 14.987732 27.000000
-18.412163 -16.192392 -20.667471 0.000000 50.000000 15.019576 14.000000
-19.265907 -14.470359 -25.818789 0.000000 51.000000 14.860749 21.000000
-19.196223 -13.929362 -21.847879 0.000000 29.000000 14.367771 0.000000
-19.141942 -14.010483 -21.814727 0.000000 30.000000 14.370193 0.000000
-19.115841 -14.105965 -21.782791 0.000000 31.000000 14.403893 0.000000
-19.128508 -14.214485 -21.751859 0.000000 32.000000 14.476677 0.000000
-19.320847 -15.199324 -20.616634 0.000000 73.000000 15.174070 13.000000
-19.046096 -14.389351 -21.707216 0.000000 37.000000 14.510756 0.000000
-18.983905 -14.466837 -21.691215 0.000000 35.000000 14.505159 0.000000
-18.938991 -14.555095 -21.677946 0.000000 38.000000 14.519949 0.000000
-20.207658 -13.884162 -20.854034 0.000000 43.000000 15.131232 11.000000
-18.475828 -15.947831 -22.454376 0.000000 31.000000 14.982275 24.000000
-18.282458 -16.351453 -21.945210 0.000000 56.000000 15.046093 29.000000
-17.491838 -16.534493 -22.681353 0.000000 31.000000 14.534441 0.000000
-17.333345 -16.565511 -22.779531 0.000000 28.000000 14.427058 0.000000
-19.082880 -14.830310 -23.284437 0.000000 59.000000 14.846131 28.000000
-17.449896 -16.644857 -21.747932 0.000000 27.000000 14.536718 0.000000
-18.335629 -15.611220 -24.413429 0.000000 35.000000 14.731092 27.000000
-19.323634 -13.909809 -25.936243 0.000000 40.000000 14.583357 21.000000
-17.269940 -16.784345 -23.139501 0.000000 35.000000 14.514498 0.000000
-17.228289 -16.826737 -23.238645 0.000000 31.000000 14.508519 0.000000
-17.202692 -16.871754 -23.340099 0.000000 32.000000 14.517159 0.000000
-19.571607 -14.038536 -20.663449 0.000000 47.000000 14.700081 11.000000
-17.227908 -16.892667 -22.378707 0.000000 26.000000 14.520734 0.000000
-17.134733 -16.949039 -23.553260 0.000000 38.000000 14.513703 0.000000
-18.966313 -15.813319 -21.363373 0.000000 72.000000 15.268244 14.000000
-20.028183 -13.593608 -21.178257 0.000000 59.000000 14.825661 11.000000
-20.089052 -13.489871 -23.405827 0.000000 44.000000 14.881768 12.000000
-17.082983 -17.021055 -23.773598 0.000000 35.000000 14.520525 0.000000
-17.148886 -16.989425 -22.727024 0.000000 27.000000 14.523785 0.000000
-18.348871 -16.707986 -20.827332 0.000000 59.000000 15.274563 14.000000
-18.970680 -16.045550 -20.942463 0.000000 60.000000 15.394828 14.000000
-19.009712 -15.458931 -22.155205 0.000000 59.000000 15.120185 23.000000
-19.534240 -13.982351 -26.040979 0.000000 65.000000 14.799679 21.000000
-19.463234 -15.231722 -21.753649 0.000000 53.000000 15.342855 13.000000
-17.086686 -17.064275 -23.093739 0.000000 30.000000 14.528222 0.000000
-17.068059 -17.082456 -23.218833 0.000000 32.000000 14.527537 0.000000
-17.012217 -17.134488 -23.737280 0.000000 45.000000 14.528378 0.000000
-16.919610 -17.220610 -24.866627 0.000000 44.000000 14.537834 0.000000
-18.160333 -16.740019 -20.807051 0.000000 51.000000 15.139832 15.000000
-16.866878 -17.223246 -25.006641 0.000000 34.000000 14.500863 0.000000
-18.655228 -15.795023 -22.394063 0.000000 72.000000 15.036544 24.000000
-19.556247 -14.131768 -24.958234 0.000000 72.000000 14.872114 8.000000
-19.641315 -14.471329 -20.798697 0.000000 69.000000 15.013734 11.000000
-16.840647 -17.236748 -25.533208 0.000000 47.000000 14.503428 0.000000
-16.833941 -17.234028 -25.671508 0.000000 47.000000 14.500586 0.000000
-19.058652 -14.624237 -23.263038 0.000000 61.000000 14.705354 28.000000
-16.824787 -17.219184 -25.946505 0.000000 48.000000 14.492808 0.000000
-19.221148 -15.067274 -22.239582 0.000000 63.000000 15.065153 23.000000
-19.756106 -13.648479 -26.301366 0.000000 62.000000 14.792214 21.000000
-16.960484 -17.084652 -25.105287 0.000000 31.000000 14.498701 0.000000
-16.872093 -17.203673 -26.208165 0.000000 41.000000 14.530008 0.000000
-16.958804 -17.068720 -25.247071 0.000000 29.000000 14.492314 0.000000
-16.898720 -17.193810 -26.340210 0.000000 48.000000 14.549825 0.000000
-16.969573 -17.047450 -25.384541 0.000000 35.000000 14.492768 0.000000
-19.280880 -15.113917 -24.780059 0.000000 54.000000 15.217731 26.000000
-18.390645 -15.919258 -21.499518 0.000000 59.000000 14.867614 14.000000
-17.039782 -17.009110 -25.650589 0.000000 45.000000 14.535321 0.000000
-16.462572 -18.207465 -21.624727 0.000000 54.000000 14.646206 16.000000
-17.814928 -17.132034 -21.699909 0.000000 47.000000 15.116040 15.000000
-18.976275 -15.443961 -24.896052 0.000000 45.000000 15.167272 27.000000
-19.724605 -14.638812 -20.795364 0.000000 61.000000 15.179081 11.000000
-17.058081 -16.838771 -26.362945 0.000000 34.000000 14.472119 0.000000
-17.024625 -16.789333 -26.518188 0.000000 30.000000 14.420790 0.000000
-19.536689 -13.479251 -25.456939 0.000000 43.000000 14.489833 0.000000
-19.491699 -13.550664 -25.360531 0.000000 42.000000 14.492197 0.000000
-19.435574 -13.620906 -25.267070 0.000000 49.000000 14.484938 0.000000
-19.304728 -15.248417 -23.257529 0.000000 42.000000 15.269629 23.000000
-19.255807 -14.504629 -25.976926 0.000000 69.000000 14.877384 21.000000
-19.070146 -14.504821 -24.056556 0.000000 48.000000 14.668865 26.000000
-19.358239 -13.838516 -23.737753 0.000000 36.000000 14.503194 0.000000
-18.883821 -15.648080 -24.114523 0.000000 73.000000 15.188014 27.000000
-19.238627 -15.353888 -21.401381 0.000000 55.000000 15.221535 13.000000
-18.158381 -15.733837 -25.267123 0.000000 58.000000 14.684926 25.000000
-19.303603 -15.441262 -20.888245 0.000000 67.000000 15.309768 13.000000
-18.499267 -15.428474 -21.914250 0.000000 69.000000 14.681270 24.000000
-17.347726 -17.150334 -24.460440 0.000000 55.000000 14.831524 9.000000
-19.886508 -14.068161 -21.535474 0.000000 30.000000 14.999081 11.000000
-19.006267 -14.217917 -23.332036 0.000000 24.000000 14.427404 0.000000
-18.659473 -15.472992 -21.354436 0.000000 49.000000 14.820236 14.000000
-18.101558 -15.566275 -23.655777 0.000000 37.000000 14.492124 0.000000
-18.075704 -15.671250 -23.608354 0.000000 37.000000 14.531106 0.000000
-18.000935 -15.763496 -23.570254 0.000000 40.000000 14.523273 0.000000
-18.114955 -15.824382 -24.081200 0.000000 46.000000 14.666770 22.000000
-19.233284 -14.458529 -25.451288 0.000000 71.000000 14.816263 21.000000
-18.564588 -16.296143 -20.565153 0.000000 46.000000 15.200711 14.000000
-18.434206 -16.664453 -21.762419 0.000000 59.000000 15.346590 14.000000
-17.601658 -16.233075 -23.429208 0.000000 26.000000 14.469869 0.000000
-17.467284 -16.315528 -23.417234 0.000000 31.000000 14.408779 0.000000
-17.445145 -16.425177 -23.391471 0.000000 28.000000 14.454162 0.000000
-18.651257 -16.684495 -21.559717 0.000000 54.000000 15.528136 14.000000
-17.313940 -16.624467 -23.363638 0.000000 29.000000 14.463475 0.000000
-17.296815 -16.733759 -23.348866 0.000000 29.000000 14.513045 0.000000
-17.110339 -17.508958 -24.323640 0.000000 52.000000 14.844617 9.000000
-19.058474 -15.092946 -24.748997 0.000000 51.000000 15.024227 26.000000
-17.895032 -16.875992 -22.122163 0.000000 40.000000 15.044055 15.000000
-16.712739 -17.504801 -23.412918 0.000000 33.000000 14.492294 0.000000
-16.813835 -17.491711 -22.187582 0.000000 41.000000 14.529515 0.000000
-18.083670 -16.815698 -20.721319 0.000000 53.000000 15.119336 15.000000
-16.787412 -17.593574 -22.209748 0.000000 46.000000 14.568322 0.000000
-16.501609 -17.684298 -23.472654 0.000000 29.000000 14.427888 0.000000
-18.770356 -15.559064 -25.524932 0.000000 63.000000 15.086666 25.000000
-16.479641 -17.885082 -23.521191 0.000000 34.000000 14.528944 0.000000
-16.141095 -18.332363 -23.751925 0.000000 38.000000 14.522988 0.000000
-19.266417 -14.849901 -23.160499 0.000000 70.000000 15.002627 28.000000
-19.378109 -13.877581 -25.745583 0.000000 45.000000 14.602906 21.000000
-18.917012 -14.098175 -26.689187 0.000000 34.000000 14.386632 0.000000
-19.078440 -15.240866 -21.532402 0.000000 46.000000 15.029555 13.000000
-18.757379 -14.261614 -26.517830 0.000000 33.000000 14.347593 0.000000
-18.513523 -15.260484 -25.816296 0.000000 68.000000 14.712694 25.000000
-19.044161 -14.701850 -22.119940 0.000000 57.000000 14.704391 28.000000
-19.858568 -13.869494 -25.914885 0.000000 9.000000 14.992807 21.000000
-18.586080 -14.766514 -26.050390 0.000000 40.000000 14.489784 0.000000
-18.516821 -14.858665 -25.973777 0.000000 43.000000 14.485196 0.000000
-18.461170 -14.957256 -25.894096 0.000000 46.000000 14.495313 0.000000
-19.648693 -13.667547 -22.491401 0.000000 59.000000 14.600982 10.000000
-18.305918 -16.577898 -21.649175 0.000000 42.000000 15.188553 14.000000
-19.040432 -14.437911 -24.081596 0.000000 40.000000 14.606413 26.000000
-18.953428 -15.377486 -22.860089 0.000000 27.000000 15.048269 23.000000
-17.834738 -15.860975 -25.292213 0.000000 43.000000 14.497645 0.000000
-18.513142 -15.727688 -25.695497 0.000000 46.000000 14.981897 25.000000
-16.898770 -17.954079 -21.570156 0.000000 45.000000 14.850027 18.000000
-17.571256 -16.158863 -26.386282 0.000000 46.000000 14.491321 0.000000
-19.677367 -14.605931 -20.863930 0.000000 58.000000 15.123635 11.000000
-17.647388 -16.188578 -25.122149 0.000000 39.000000 14.532159 0.000000
-17.076067 -16.675952 -26.191381 0.000000 32.000000 14.386311 0.000000
-17.097203 -16.808261 -26.125391 0.000000 45.000000 14.478808 0.000000
-17.032857 -16.923027 -26.084796 0.000000 43.000000 14.492516 0.000000
-17.178026 -16.848507 -24.862397 0.000000 40.000000 14.529640 0.000000
-19.073942 -15.012968 -24.218261 0.000000 66.000000 14.973942 27.000000
-16.912710 -17.156705 -26.011784 0.000000 47.000000 14.529532 0.000000
-19.838367 -13.862947 -21.125775 0.000000 48.000000 14.827669 11.000000
-20.173444 -13.675365 -22.921214 0.000000 25.000000 15.043974 12.000000
-19.567141 -13.933413 -26.136441 0.000000 72.000000 14.800626 21.000000
-16.354337 -18.000165 -24.646844 0.000000 32.000000 14.528713 0.000000
-18.936890 -15.504424 -24.042469 0.000000 74.000000 15.144862 27.000000
-19.463434 -14.639864 -20.931310 0.000000 57.000000 14.972080 11.000000
-16.040059 -18.313680 -25.877209 0.000000 53.000000 14.494473 0.000000
-16.180132 -18.235545 -24.640811 0.000000 36.000000 14.524927 0.000000
-16.082055 -18.351198 -24.642901 0.000000 31.000000 14.513100 0.000000
-18.979553 -14.532820 -23.246899 0.000000 58.000000 14.587290 28.000000
-19.813490 -13.366778 -21.361623 0.000000 39.000000 14.524536 0.000000
-19.131165 -14.552173 -26.090204 0.000000 53.000000 14.807564 21.000000
-18.990911 -15.491273 -23.931444 0.000000 57.000000 15.177608 27.000000
-18.675495 -15.772717 -21.430446 0.000000 51.000000 15.010770 14.000000
-19.709403 -13.507127 -21.670114 0.000000 41.000000 14.531550 0.000000
-19.629125 -13.501870 -22.823341 0.000000 36.000000 14.498294 0.000000
-19.669088 -13.544984 -21.778146 0.000000 42.000000 14.524270 0.000000
-19.595120 -13.543471 -22.926166 0.000000 46.000000 14.498163 0.000000
-19.634946 -13.587197 -21.888155 0.000000 41.000000 14.524602 0.000000
-19.265421 -14.955197 -24.257635 0.000000 52.000000 15.096587 26.000000
-19.600043 -13.624099 -21.998596 0.000000 37.000000 14.521225 0.000000
-19.414749 -15.327017 -21.194370 0.000000 62.000000 15.342340 13.000000
-16.714354 -18.053224 -22.705937 0.000000 54.000000 14.792862 17.000000
-17.173546 -17.657817 -24.496675 0.000000 33.000000 14.988132 9.000000
-17.384142 -17.153521 -24.304128 0.000000 44.000000 14.858179 9.000000
-19.438641 -13.790346 -22.582973 0.000000 26.000000 14.505264 0.000000
-19.003107 -15.318966 -23.887061 0.000000 64.000000 15.085406 27.000000
-19.382281 -13.910520 -24.036997 0.000000 39.000000 14.573840 0.000000
-19.335243 -13.925064 -24.163305 0.000000 38.000000 14.548033 0.000000
-19.196552 -13.868705 -23.220616 0.000000 28.000000 14.374116 0.000000
-19.239928 -13.919077 -24.301030 0.000000 33.000000 14.471429 0.000000
-19.161882 -15.253685 -23.896105 0.000000 47.000000 15.176230 27.000000
-18.262685 -15.825045 -24.285971 0.000000 46.000000 14.793120 22.000000
-19.630177 -14.084372 -24.797461 0.000000 70.000000 14.899471 8.000000
-19.181337 -13.939569 -23.604096 0.000000 32.000000 14.414820 0.000000
-19.207619 -13.970754 -23.729280 0.000000 35.000000 14.458148 0.000000
-19.128615 -13.958243 -23.873440 0.000000 29.000000 14.391148 0.000000
-17.201813 -17.173557 -24.607575 0.000000 27.000000 14.731264 9.000000
-18.807920 -15.458348 -24.570270 0.000000 51.000000 15.029340 27.000000
-18.988516 -15.557611 -24.633019 0.000000 46.000000 15.235685 27.000000
-19.042315 -14.000274 -25.217626 0.000000 36.000000 14.386439 0.000000
-19.065143 -13.978387 -24.281202 0.000000 28.000000 14.363810 0.000000
-19.029915 -14.010021 -25.353082 0.000000 36.000000 14.386185 0.000000
-19.048615 -13.981984 -24.419330 0.000000 25.000000 14.356693 0.000000
-19.045018 -14.026593 -25.480129 0.000000 36.000000 14.411963 0.000000
-19.388883 -14.704265 -22.833272 0.000000 52.000000 15.006856 28.000000
-19.489373 -14.704644 -23.018583 0.000000 52.000000 15.094152 28.000000
-19.048200 -13.998176 -25.106409 0.000000 30.000000 14.386618 0.000000
-18.542759 -16.566501 -20.495216 0.000000 56.000000 15.338972 14.000000
-19.124609 -14.017070 -25.366497 0.000000 35.000000 14.467480 0.000000
-19.119844 -14.008205 -25.506468 0.000000 32.000000 14.462670 0.000000
-18.559405 -15.123007 -25.794312 0.000000 44.000000 14.668845 25.000000
-19.026167 -14.027244 -26.716219 0.000000 37.000000 14.434469 0.000000
-18.536260 -15.787229 -21.785220 0.000000 35.000000 14.917115 24.000000
-19.239087 -15.450734 -22.533719 0.000000 63.000000 15.312801 23.000000
-19.206415 -13.923216 -26.476849 0.000000 51.000000 14.512527 0.000000
-19.250073 -13.887744 -26.753187 0.000000 41.000000 14.535544 0.000000
-19.203694 -14.912843 -22.703858 0.000000 40.000000 14.974760 28.000000
-18.093570 -16.969284 -20.538691 0.000000 54.000000 15.211634 15.000000
-19.403650 -13.982605 -25.730247 0.000000 44.000000 14.684554 21.000000
-19.339513 -14.659614 -25.005986 0.000000 75.000000 15.006478 26.000000
-19.742040 -13.419617 -21.557244 0.000000 45.000000 14.503426 0.000000
-20.203921 -14.143351 -20.940430 0.000000 54.000000 15.282362 11.000000
-19.643526 -13.581553 -21.528408 0.000000 40.000000 14.517371 0.000000
-19.274792 -13.832077 -21.519332 0.000000 25.000000 14.364643 0.000000
-19.219342 -13.910299 -21.525637 0.000000 26.000000 14.365616 0.000000
-19.176445 -13.992373 -21.534348 0.000000 27.000000 14.379090 0.000000
-19.305804 -14.407201 -21.020347 0.000000 41.000000 14.710950 11.000000
-19.465209 -13.897827 -26.072803 0.000000 55.000000 14.695259 21.000000
-19.125962 -14.263974 -21.578348 0.000000 34.000000 14.498297 0.000000
-19.010279 -16.034483 -20.572934 0.000000 60.000000 15.409278 14.000000
-19.025512 -14.413078 -21.629371 0.000000 35.000000 14.505585 0.000000
-18.974322 -14.486887 -21.660077 0.000000 36.000000 14.508171 0.000000
-18.963092 -14.574411 -21.691993 0.000000 37.000000 14.551207 0.000000
-18.050344 -15.703894 -22.988423 0.000000 36.000000 14.510872 0.000000
-18.007745 -15.745520 -23.087470 0.000000 31.000000 14.503673 0.000000
-18.915021 -15.003126 -24.325367 0.000000 47.000000 14.842593 27.000000
-20.346142 -14.240265 -20.673610 0.000000 63.000000 15.446248 11.000000
-17.909308 -15.867200 -23.397088 0.000000 36.000000 14.504385 0.000000
-17.860315 -15.899609 -23.507662 0.000000 36.000000 14.486963 0.000000
-17.830530 -15.932634 -23.616030 0.000000 38.000000 14.485404 0.000000
-19.405257 -13.921082 -25.612065 0.000000 40.000000 14.646309 21.000000
-17.775504 -15.995473 -23.842852 0.000000 35.000000 14.484401 0.000000
-18.776749 -15.592797 -23.365660 0.000000 51.000000 15.046225 23.000000
-17.858105 -16.024005 -22.935485 0.000000 35.000000 14.540587 0.000000
-17.718669 -16.047071 -24.078406 0.000000 33.000000 14.475622 0.000000
-17.791357 -16.034107 -23.063813 0.000000 29.000000 14.496266 0.000000
-19.355928 -14.280697 -22.450477 0.000000 40.000000 14.720900 28.000000
-17.775074 -16.055006 -23.190161 0.000000 27.000000 14.499107 0.000000
-17.677924 -16.094552 -24.321845 0.000000 38.000000 14.477719 0.000000
-19.623880 -13.786669 -26.032645 0.000000 53.000000 14.757684 21.000000
-17.718400 -16.128122 -24.434482 0.000000 41.000000 14.533570 0.000000
-17.725926 -16.085021 -23.448872 0.000000 32.000000 14.484642 0.000000
-18.512144 -16.675877 -21.530382 0.000000 29.000000 15.409431 14.000000
-19.241500 -15.436497 -21.300209 0.000000 45.000000 15.269103 13.000000
-16.836842 -17.760963 -22.255260 0.000000 59.000000 14.707643 17.000000
-17.667616 -16.129195 -24.108506 0.000000 30.000000 14.483162 0.000000
-17.623736 -16.199700 -25.202565 0.000000 37.000000 14.521921 0.000000
-17.650980 -16.130228 -24.244352 0.000000 31.000000 14.474390 0.000000
-17.576698 -16.194074 -25.343452 0.000000 39.000000 14.484761 0.000000
-17.670522 -16.135796 -24.375448 0.000000 31.000000 14.497455 0.000000
-17.566274 -16.196704 -25.477611 0.000000 40.000000 14.481909 0.000000
-17.540140 -16.191658 -25.616595 0.000000 38.000000 14.461978 0.000000
-17.542931 -16.190894 -25.748770 0.000000 37.000000 14.467794 0.000000
-17.695932 -16.129827 -24.777885 0.000000 41.000000 14.526744 0.000000
-17.539410 -16.186393 -25.886159 0.000000 37.000000 14.466466 0.000000
-17.535998 -16.180688 -26.022827 0.000000 39.000000 14.464499 0.000000
-17.660256 -16.101337 -25.062748 0.000000 34.000000 14.489785 0.000000
-19.024220 -15.352136 -23.976791 0.000000 43.000000 15.124632 27.000000
-18.188329 -16.732675 -21.879351 0.000000 44.000000 15.190686 14.000000
-17.550425 -16.162894 -26.294862 0.000000 45.000000 14.474025 0.000000
-17.668465 -16.072808 -25.341991 0.000000 39.000000 14.488210 0.000000
-17.544854 -16.147702 -26.435919 0.000000 48.000000 14.464894 0.000000
-18.927785 -14.781301 -22.604008 0.000000 40.000000 14.671149 23.000000
-17.427552 -18.374794 -22.552023 0.000000 5.000000 15.554408 17.000000
-17.671215 -16.033647 -25.624286 0.000000 35.000000 14.476086 0.000000
-17.673464 -16.009325 -25.766548 0.000000 36.000000 14.467993 0.000000
-19.336360 -14.853376 -25.157566 0.000000 62.000000 15.121799 26.000000
-17.734343 -15.904701 -26.324087 0.000000 48.000000 14.473048 0.000000
-19.225937 -14.944047 -21.385812 0.000000 63.000000 14.971148 13.000000
-17.956953 -16.935946 -21.343631 0.000000 54.000000 15.105747 15.000000
-19.112569 -15.787788 -20.806001 0.000000 50.000000 15.355018 14.000000
-19.028853 -15.201602 -24.515602 0.000000 45.000000 15.056679 27.000000
-17.893769 -16.721491 -21.396565 0.000000 64.000000 14.930738 15.000000
-19.590430 -13.572639 -22.878864 0.000000 36.000000 14.509983 0.000000
-19.394923 -14.712847 -24.396403 0.000000 66.000000 15.064075 26.000000
-17.229602 -17.235478 -24.237803 0.000000 62.000000 14.778806 9.000000
-19.223854 -13.940781 -23.761286 0.000000 36.000000 14.454753 0.000000
-19.255674 -13.843657 -22.573863 0.000000 24.000000 14.387828 0.000000
-19.175598 -14.023531 -23.691195 0.000000 38.000000 14.461894 0.000000
-19.201422 -13.925755 -22.501212 0.000000 25.000000 14.389648 0.000000
-19.084831 -14.089555 -23.630141 0.000000 38.000000 14.425065 0.000000
-19.211278 -14.033499 -22.424431 0.000000 24.000000 14.458312 0.000000
-19.070261 -14.186146 -23.557224 0.000000 30.000000 14.467522 0.000000
-19.019176 -14.270004 -23.493108 0.000000 37.000000 14.473198 0.000000
-19.209094 -14.936147 -22.278735 0.000000 46.000000 14.979897 28.000000
-17.963457 -17.003066 -20.586704 0.000000 64.000000 15.127357 15.000000
-18.955027 -15.030530 -22.974647 0.000000 42.000000 14.850172 23.000000
-19.148640 -14.628706 -25.580482 0.000000 52.000000 14.851052 21.000000
-17.963028 -15.869107 -22.828788 0.000000 29.000000 14.531852 0.000000
-17.500427 -16.286593 -22.843997 0.000000 28.000000 14.401383 0.000000
-20.113202 -14.166103 -20.838306 0.000000 60.000000 15.219028 11.000000
-17.385152 -16.469120 -22.869031 0.000000 29.000000 14.415408 0.000000
-18.010304 -15.867164 -25.800942 0.000000 49.000000 14.658990 25.000000
-18.735160 -15.652326 -24.876802 0.000000 47.000000 15.093047 27.000000
-17.308395 -16.755233 -22.923118 0.000000 34.000000 14.522104 0.000000
-19.577488 -14.543580 -20.635201 0.000000 69.000000 14.999286 11.000000
-17.190981 -16.926600 -22.984158 0.000000 29.000000 14.528961 0.000000
-19.262310 -15.148451 -21.522536 0.000000 50.000000 15.124285 13.000000
-19.068418 -15.617799 -20.834175 0.000000 61.000000 15.220687 14.000000
-17.042107 -17.179056 -23.101113 0.000000 32.000000 14.559416 0.000000
-17.931075 -15.975584 -25.673488 0.000000 41.000000 14.654294 25.000000
-19.831475 -14.146698 -21.337818 0.000000 41.000000 14.994404 11.000000
-19.357534 -14.472482 -25.842460 0.000000 73.000000 14.936988 21.000000
-19.582968 -14.365794 -20.859577 0.000000 38.000000 14.906570 11.000000
-19.259984 -14.838366 -23.037938 0.000000 70.000000 14.986959 28.000000
-19.245218 -14.651422 -23.947806 0.000000 48.000000 14.893220 26.000000
-19.592617 -13.518458 -26.335407 0.000000 60.000000 14.584683 21.000000
-16.102619 -18.345156 -24.498457 0.000000 46.000000 14.521867 0.000000
-18.867675 -14.986789 -23.756978 0.000000 51.000000 14.777457 27.000000
-16.132735 -18.368813 -23.629406 0.000000 30.000000 14.533814 0.000000
-15.931916 -18.477476 -26.278186 0.000000 34.000000 14.514705 0.000000
-19.515049 -13.485593 -26.492524 0.000000 40.000000 14.507338 0.000000
-19.104378 -15.905100 -20.817570 0.000000 53.000000 15.417318 14.000000
-18.720728 -14.316559 -26.733136 0.000000 34.000000 14.356521 0.000000
-18.265889 -15.946029 -24.437339 0.000000 39.000000 14.871035 22.000000
-18.681538 -14.511263 -26.538062 0.000000 35.000000 14.432687 0.000000
-18.649273 -14.604977 -26.446732 0.000000 37.000000 14.458559 0.000000
-18.613279 -14.699039 -26.359753 0.000000 55.000000 14.481744 0.000000
-19.326908 -14.603085 -24.955482 0.000000 52.000000 14.961679 26.000000
-19.289841 -15.203351 -25.100562 0.000000 70.000000 15.286986 26.000000
-19.111461 -15.180108 -22.160361 0.000000 61.000000 15.039805 23.000000
-18.369942 -15.058653 -26.052099 0.000000 43.000000 14.485422 0.000000
-20.047783 -14.044040 -21.168380 0.000000 64.000000 15.104614 11.000000
-17.663151 -16.127640 -25.384854 0.000000 42.000000 14.517259 0.000000
-19.448270 -15.268728 -20.615313 0.000000 53.000000 15.317911 13.000000
-17.577986 -16.224559 -25.342104 0.000000 37.000000 14.503589 0.000000
-17.669889 -16.150962 -24.134572 0.000000 29.000000 14.498520 0.000000
-18.617714 -15.810832 -22.532558 0.000000 63.000000 15.019566 24.000000
-18.421557 -16.326797 -20.385349 0.000000 56.000000 15.097238 14.000000
-16.854310 -17.845247 -22.772571 0.000000 46.000000 14.786739 17.000000
-17.284506 -16.849713 -24.561296 0.000000 31.000000 14.607556 9.000000
-17.264785 -16.511866 -25.239818 0.000000 33.000000 14.414568 0.000000
-17.403532 -16.454392 -24.012552 0.000000 26.000000 14.456303 0.000000
-17.360758 -16.565295 -23.970776 0.000000 28.000000 14.485206 0.000000
-17.178987 -16.733638 -25.157656 0.000000 39.000000 14.472192 0.000000
-17.280726 -16.672519 -23.936422 0.000000 28.000000 14.481977 0.000000
-17.136637 -16.847679 -25.120350 0.000000 39.000000 14.503407 0.000000
-17.238822 -16.786941 -23.899926 0.000000 28.000000 14.513802 0.000000
-17.070010 -16.957020 -25.089958 0.000000 33.000000 14.512404 0.000000
-18.628297 -15.126117 -25.715216 0.000000 48.000000 14.724119 25.000000
-18.534792 -15.612350 -22.722524 0.000000 48.000000 14.842040 24.000000
-17.106358 -17.007598 -23.841498 0.000000 29.000000 14.533661 0.000000
-18.512859 -15.653562 -22.078906 0.000000 50.000000 14.828878 24.000000
-16.975730 -18.348913 -22.351869 0.000000 46.000000 15.166928 17.000000
-16.929319 -18.354986 -22.850216 0.000000 55.000000 15.147935 17.000000
-16.970924 -17.229985 -23.796231 0.000000 39.000000 14.552523 0.000000
-19.017902 -15.528186 -22.281251 0.000000 43.000000 15.171132 23.000000
-16.650882 -17.492679 -25.005311 0.000000 39.000000 14.483249 0.000000
-17.231294 -17.323759 -21.723174 0.000000 51.000000 14.755694 19.000000
-16.609236 -17.606926 -24.989726 0.000000 33.000000 14.515814 0.000000
-16.528224 -17.525454 -23.786071 0.000000 23.000000 14.366076 0.000000
-19.266342 -14.810596 -22.995311 0.000000 60.000000 14.974586 28.000000
-18.463565 -16.441973 -22.110293 0.000000 57.000000 15.250838 29.000000
-20.147202 -14.076132 -20.992413 0.000000 50.000000 15.198650 11.000000
-16.351864 -17.932721 -24.984284 0.000000 38.000000 14.497487 0.000000
-18.302645 -16.796321 -20.684910 0.000000 50.000000 15.284427 15.000000
-18.720083 -16.034666 -21.364677 0.000000 53.000000 15.198084 14.000000
-19.814825 -13.322527 -21.572080 0.000000 36.000000 14.506114 0.000000
-20.423405 -13.823233 -21.067487 0.000000 11.000000 15.276972 30.000000
-19.711011 -13.465385 -21.633194 0.000000 42.000000 14.507329 0.000000
-19.586701 -13.749063 -22.900427 0.000000 47.000000 14.610765 10.000000
-19.611222 -13.604936 -21.707181 0.000000 37.000000 14.510264 0.000000
-19.307654 -14.908105 -21.990815 0.000000 60.000000 15.034690 28.000000
-19.463180 -13.722287 -21.798298 0.000000 29.000000 14.461618 0.000000
-19.378137 -13.775275 -21.848867 0.000000 25.000000 14.425186 0.000000
-18.585188 -15.946937 -22.551978 0.000000 45.000000 15.073364 24.000000
-19.227844 -13.884686 -21.960930 0.000000 27.000000 14.370706 0.000000
-19.367005 -14.927866 -24.130983 0.000000 66.000000 15.159128 26.000000
-19.148398 -14.015933 -22.083035 0.000000 29.000000 14.386733 0.000000
-19.372143 -14.919995 -24.142098 0.000000 67.000000 15.159027 26.000000
-19.305346 -15.303249 -21.675691 0.000000 47.000000 15.254318 13.000000
-19.148095 -14.276830 -21.146597 0.000000 28.000000 14.510691 0.000000
-19.097656 -14.330743 -21.229453 0.000000 25.000000 14.503830 0.000000
-19.047370 -14.382547 -21.314443 0.000000 30.000000 14.495924 0.000000
-19.156326 -14.617869 -23.911992 0.000000 47.000000 14.800453 26.000000
-18.978951 -14.493060 -21.495557 0.000000 27.000000 14.510553 0.000000
-16.735930 -18.089567 -22.787949 0.000000 47.000000 14.834085 17.000000
-18.278875 -15.219974 -26.067013 0.000000 45.000000 14.506369 0.000000
-18.236687 -15.203594 -26.214952 0.000000 45.000000 14.467066 0.000000
-18.306892 -15.211207 -26.469897 0.000000 47.000000 14.536148 0.000000
-19.341549 -14.967520 -23.981699 0.000000 65.000000 15.157159 26.000000
-19.188252 -14.716460 -23.850610 0.000000 52.000000 14.882123 26.000000
-19.309465 -14.393682 -20.781886 0.000000 42.000000 14.698797 11.000000
-18.353066 -15.060634 -26.114326 0.000000 44.000000 14.474782 0.000000
-18.366818 -15.039901 -26.254468 0.000000 39.000000 14.478050 0.000000
-19.511869 -14.675200 -22.163791 0.000000 69.000000 15.069305 28.000000
-16.973091 -17.545861 -21.971173 0.000000 38.000000 14.683735 19.000000
-19.003971 -14.353007 -25.365272 0.000000 53.000000 14.566060 21.000000
-20.124313 -13.606898 -24.280482 0.000000 65.000000 15.005248 20.000000
-16.553973 -18.392713 -21.236721 0.000000 61.000000 14.816874 16.000000
-18.413696 -15.819647 -25.334489 0.000000 52.000000 14.944119 25.000000
-19.636394 -13.480003 -23.035592 0.000000 37.000000 14.497826 0.000000
-18.154276 -15.826950 -25.549335 0.000000 38.000000 14.744580 25.000000
-17.721847 -17.293056 -21.223716 0.000000 60.000000 15.120316 15.000000
-19.691446 -13.512372 -21.760710 0.000000 42.000000 14.522800 0.000000
-19.567057 -13.648913 -22.915331 0.000000 44.000000 14.536735 0.000000
-19.386149 -14.549401 -22.049337 0.000000 47.000000 14.890368 28.000000
-19.547846 -13.660767 -21.642765 0.000000 28.000000 14.489579 0.000000
-19.361101 -13.903318 -21.486408 0.000000 22.000000 14.475271 0.000000
-19.131568 -13.984352 -22.682753 0.000000 32.000000 14.372773 0.000000
-19.094225 -14.073613 -22.640958 0.000000 34.000000 14.393424 0.000000
-19.155712 -15.169646 -21.862870 0.000000 67.000000 15.060559 13.000000
-19.087055 -14.174632 -22.599287 0.000000 30.000000 14.445415 0.000000
-16.720136 -17.848182 -22.241593 0.000000 69.000000 14.663613 17.000000
-19.147846 -14.252768 -21.320941 0.000000 28.000000 14.501696 0.000000
-19.093528 -14.339988 -21.288190 0.000000 24.000000 14.507666 0.000000
-19.377485 -15.195105 -21.833667 0.000000 48.000000 15.254351 13.000000
-18.528403 -15.687788 -22.920262 0.000000 66.000000 14.886953 23.000000
-19.245609 -15.248711 -22.622031 0.000000 53.000000 15.202641 23.000000
-19.194087 -15.390113 -22.336085 0.000000 64.000000 15.234894 23.000000
-17.058548 -18.117456 -22.591806 0.000000 49.000000 15.106001 17.000000
-17.362364 -16.472051 -23.009029 0.000000 30.000000 14.402884 0.000000
-16.690420 -18.281216 -23.062246 0.000000 50.000000 14.917546 17.000000
-18.697264 -16.463646 -21.312224 0.000000 60.000000 15.428816 14.000000
-18.753131 -15.267935 -25.388363 0.000000 43.000000 14.898349 25.000000
-18.574093 -16.420309 -20.761802 0.000000 45.000000 15.286966 14.000000
-18.878606 -15.722897 -24.584603 0.000000 44.000000 15.241757 27.000000
-17.194238 -16.865879 -23.453756 0.000000 36.000000 14.510309 0.000000
-17.142895 -16.918420 -23.541448 0.000000 37.000000 14.502060 0.000000
-18.074804 -16.069424 -21.592338 0.000000 49.000000 14.702171 14.000000
-17.163961 -16.974022 -22.518419 0.000000 26.000000 14.520688 0.000000
-17.070196 -17.024866 -23.723119 0.000000 43.000000 14.510859 0.000000
-17.123004 -17.022728 -22.619431 0.000000 32.000000 14.519019 0.000000
-17.023050 -17.072590 -23.819367 0.000000 47.000000 14.503454 0.000000
-16.984821 -17.118055 -23.917920 0.000000 45.000000 14.502028 0.000000
-19.112375 -15.835403 -20.526885 0.000000 49.000000 15.374253 14.000000
-20.194135 -13.856213 -21.046044 0.000000 48.000000 15.109738 11.000000
-16.920483 -17.205718 -24.122198 0.000000 40.000000 14.507305 0.000000
-19.337021 -15.129682 -25.044982 0.000000 56.000000 15.280480 26.000000
-19.872513 -13.713862 -24.425005 0.000000 45.000000 14.868028 20.000000
-18.618583 -16.626130 -20.850429 0.000000 45.000000 15.446057 14.000000
-19.146655 -15.662487 -20.989488 0.000000 61.000000 15.314943 14.000000
-19.091732 -14.935313 -22.728891 0.000000 78.000000 14.897888 23.000000
-16.784653 -17.399951 -24.012416 0.000000 42.000000 14.507432 0.000000
-19.342877 -14.075705 -26.020388 0.000000 50.000000 14.698501 21.000000
-19.369513 -15.109858 -24.826165 0.000000 68.000000 15.288608 26.000000
-19.075328 -14.776566 -25.302420 0.000000 56.000000 14.869655 26.000000
-16.529350 -17.507935 -25.566734 0.000000 39.000000 14.410635 0.000000
-16.716068 -17.453035 -24.802171 0.000000 45.000000 14.506769 0.000000
-19.408271 -15.277360 -20.639448 0.000000 49.000000 15.291262 13.000000
-16.681369 -17.446615 -25.076983 0.000000 31.000000 14.483201 0.000000
-16.700727 -17.411096 -25.626506 0.000000 33.000000 14.494758 0.000000
-19.271029 -15.445142 -21.135453 0.000000 53.000000 15.293110 13.000000
-18.890273 -15.501889 -25.098582 0.000000 47.000000 15.137550 27.000000
-16.790100 -17.316366 -26.315436 0.000000 47.000000 14.532673 0.000000
-16.815393 -17.289484 -26.449617 0.000000 43.000000 14.541522 0.000000
-19.124372 -15.685115 -20.771728 0.000000 44.000000 15.303518 14.000000
-19.576055 -13.437769 -25.289673 0.000000 36.000000 14.492431 0.000000
-17.911014 -17.166263 -21.433836 0.000000 41.000000 15.205898 15.000000
-19.465917 -13.579284 -25.093642 0.000000 38.000000 14.479952 0.000000
-19.419723 -13.656012 -24.995978 0.000000 39.000000 14.484409 0.000000
-19.372570 -13.732291 -24.900278 0.000000 36.000000 14.487885 0.000000
-19.156178 -14.973829 -25.318434 0.000000 67.000000 15.051022 26.000000
-18.986719 -14.085671 -24.471930 0.000000 28.000000 14.368731 0.000000
-19.702050 -14.464693 -20.927000 0.000000 60.000000 15.062974 11.000000
-19.955652 -14.284135 -21.147905 0.000000 49.000000 15.169684 11.000000
-18.116034 -15.574270 -23.360925 0.000000 29.000000 14.499610 0.000000
-19.819280 -13.619820 -26.193462 0.000000 64.000000 14.823408 21.000000
-17.991786 -15.773030 -23.268107 0.000000 31.000000 14.512287 0.000000
-19.005602 -15.221767 -22.763273 0.000000 51.000000 14.996589 23.000000
-19.321578 -15.092030 -20.605328 0.000000 60.000000 15.111588 13.000000
-17.755732 -16.014653 -24.409305 0.000000 32.000000 14.496729 0.000000
-19.962671 -13.499048 -23.371545 0.000000 47.000000 14.783639 12.000000
-18.212631 -15.931639 -24.145354 0.000000 48.000000 14.810610 22.000000
-18.856891 -15.518514 -24.082400 0.000000 42.000000 15.089455 27.000000
-19.031631 -15.257526 -23.960228 0.000000 45.000000 15.074821 27.000000
-18.041786 -16.110006 -24.638770 0.000000 57.000000 14.791327 22.000000
-18.822871 -15.683285 -22.591595 0.000000 63.000000 15.113097 23.000000
-17.552308 -16.247114 -23.099228 0.000000 21.000000 14.428083 0.000000
-17.430920 -16.337557 -23.077323 0.000000 23.000000 14.381892 0.000000
-17.386968 -16.445639 -23.051374 0.000000 24.000000 14.408669 0.000000
-18.631418 -15.524036 -22.148921 0.000000 43.000000 14.851380 24.000000
-18.918403 -15.110433 -23.740441 0.000000 75.000000 14.890374 27.000000
-17.233986 -16.810205 -24.215462 0.000000 32.000000 14.533032 0.000000
-17.286108 -16.775399 -22.990861 0.000000 26.000000 14.517877 0.000000
-17.210805 -16.874937 -22.981238 0.000000 28.000000 14.514737 0.000000
-17.143256 -16.977530 -22.974550 0.000000 28.000000 14.519757 0.000000
-18.525571 -16.006941 -22.213348 0.000000 48.000000 15.049868 24.000000
-17.110359 -17.087700 -22.968663 0.000000 36.000000 14.557325 0.000000
-19.699572 -13.938617 -22.150876 0.000000 68.000000 14.790415 10.000000
-18.711870 -15.904469 -22.293384 0.000000 58.000000 15.143408 24.000000
-16.390262 -17.785966 -24.295538 0.000000 29.000000 14.421968 0.000000
-16.390105 -17.892167 -24.309208 0.000000 33.000000 14.484347 0.000000
-16.353741 -17.993322 -24.334093 0.000000 35.000000 14.514764 0.000000
-16.155203 -18.276419 -24.442877 0.000000 41.000000 14.522625 0.000000
-16.073809 -18.366281 -24.487970 0.000000 45.000000 14.510545 0.000000
-18.293657 -15.106416 -26.739492 0.000000 42.000000 14.472307 0.000000
-19.253613 -14.894116 -22.347074 0.000000 61.000000 14.993482 28.000000
-18.198185 -15.313669 -26.585871 0.000000 41.000000 14.511438 0.000000
-18.204123 -15.677031 -24.229767 0.000000 32.000000 14.657401 22.000000
-19.871565 -13.531349 -22.461358 0.000000 68.000000 14.701121 12.000000
-17.881888 -15.588740 -26.415352 0.000000 33.000000 14.410687 0.000000
-17.884919 -15.711912 -26.332837 0.000000 35.000000 14.482664 0.000000
-16.853056 -17.603854 -21.378738 0.000000 49.000000 14.602402 18.000000
-17.751751 -15.923738 -26.212711 0.000000 48.000000 14.494921 0.000000
-17.665812 -16.027550 -26.158776 0.000000 43.000000 14.484316 0.000000
-17.587030 -16.132800 -26.107621 0.000000 36.000000 14.480438 0.000000
-18.945665 -15.397867 -24.155763 0.000000 58.000000 15.093102 27.000000
-17.444759 -16.355766 -26.003382 0.000000 43.000000 14.492309 0.000000
-17.264471 -16.443051 -25.982154 0.000000 26.000000 14.396544 0.000000
-18.902118 -14.729245 -25.899340 0.000000 47.000000 14.719632 21.000000
-17.823981 -17.098065 -24.442769 0.000000 14.000000 15.186526 9.000000
-18.873587 -14.636995 -25.980200 0.000000 36.000000 14.645012 21.000000
-19.294710 -14.523419 -21.912234 0.000000 47.000000 14.796899 28.000000
-16.998841 -17.036214 -25.755063 0.000000 43.000000 14.521139 0.000000
-16.898319 -17.148507 -25.727451 0.000000 45.000000 14.504467 0.000000
-18.527136 -16.401928 -20.647317 0.000000 67.000000 15.234687 14.000000
-16.764363 -17.383597 -25.666019 0.000000 34.000000 14.531464 0.000000
-19.182078 -14.824891 -23.815652 0.000000 42.000000 14.939458 26.000000
-19.964177 -13.426779 -23.166343 0.000000 40.000000 14.736396 12.000000
-19.509471 -13.842975 -22.630513 0.000000 35.000000 14.594896 10.000000
-18.598085 -15.849754 -22.452484 0.000000 57.000000 15.023986 24.000000
-18.238688 -16.537378 -22.001439 0.000000 59.000000 15.121019 29.000000
-19.729496 -13.444902 -21.744163 0.000000 29.000000 14.513698 0.000000
-19.680490 -13.460193 -22.927586 0.000000 36.000000 14.518723 0.000000
-17.609727 -17.116214 -22.222179 0.000000 40.000000 14.956241 15.000000
-19.616659 -13.501144 -23.019173 0.000000 37.000000 14.493690 0.000000
-18.251282 -16.089603 -22.230808 0.000000 59.000000 14.876363 29.000000
-18.510816 -16.416731 -20.872381 0.000000 47.000000 15.236922 14.000000
-19.790304 -13.905675 -22.030650 0.000000 53.000000 14.841071 10.000000
-18.836603 -15.109170 -24.885528 0.000000 52.000000 14.857975 27.000000
-19.507013 -13.645764 -23.301417 0.000000 39.000000 14.497900 0.000000
-19.424458 -14.632507 -22.897601 0.000000 48.000000 14.995687 28.000000
-19.448150 -13.738856 -23.498077 0.000000 41.000000 14.510562 0.000000
-17.673058 -16.464306 -22.396681 0.000000 35.000000 14.631703 29.000000
-20.266299 -14.053864 -20.748969 0.000000 49.000000 15.274814 11.000000
-18.842276 -14.873705 -24.136453 0.000000 42.000000 14.702231 27.000000
-19.282939 -13.928455 -24.031013 0.000000 30.000000 14.503610 0.000000
-19.404212 -14.597376 -22.554967 0.000000 52.000000 14.948364 28.000000
-19.134462 -13.928973 -23.155905 0.000000 23.000000 14.357059 0.000000
-19.116442 -13.952888 -24.276149 0.000000 30.000000 14.390335 0.000000
-19.096971 -13.954347 -23.278476 0.000000 25.000000 14.345211 0.000000
-19.336599 -14.167624 -25.585084 0.000000 53.000000 14.733981 21.000000
-19.081162 -13.985569 -23.398665 0.000000 27.000000 14.354287 0.000000
-19.083220 -14.018095 -24.506241 0.000000 33.000000 14.408491 0.000000
-16.633826 -18.382278 -21.558250 0.000000 53.000000 14.885239 16.000000
-18.308110 -15.685789 -25.180965 0.000000 52.000000 14.775610 25.000000
-19.109216 -14.065041 -23.638801 0.000000 33.000000 14.430764 0.000000
-19.266372 -14.702234 -22.664675 0.000000 58.000000 14.901247 28.000000
-16.508754 -18.422005 -23.077303 0.000000 58.000000 14.853042 17.000000
-19.854169 -13.574843 -25.507811 0.000000 42.000000 14.804644 21.000000
-16.844579 -18.559395 -22.858846 0.000000 41.000000 15.199014 17.000000
-19.769846 -13.876973 -22.144911 0.000000 56.000000 14.811163 10.000000
-18.945292 -14.089227 -24.038314 0.000000 26.000000 14.324103 0.000000
-20.119185 -13.875589 -20.776409 0.000000 36.000000 15.052146 11.000000
-19.130336 -15.402978 -23.061304 0.000000 27.000000 15.212681 23.000000
-18.620759 -16.639776 -20.562818 0.000000 52.000000 15.447095 14.000000
-19.361529 -14.195662 -22.337382 0.000000 29.000000 14.672300 28.000000
-18.883338 -14.151947 -25.389644 0.000000 36.000000 14.351444 0.000000
-18.908879 -14.140503 -24.433606 0.000000 27.000000 14.336526 0.000000
-18.905146 -14.156887 -24.566403 0.000000 28.000000 14.347098 0.000000
-18.915950 -14.174331 -24.696830 0.000000 32.000000 14.370002 0.000000
-19.686511 -14.767781 -20.731866 0.000000 29.000000 15.221683 11.000000
-18.905680 -14.193548 -24.966612 0.000000 32.000000 14.381077 0.000000
-19.066887 -15.757551 -21.203904 0.000000 57.000000 15.312346 14.000000
-18.461545 -16.310685 -21.654274 0.000000 63.000000 15.158638 14.000000
-18.779483 -14.214143 -26.327523 0.000000 32.000000 14.331998 0.000000
-18.860885 -14.194135 -25.382855 0.000000 30.000000 14.357703 0.000000
-19.750884 -14.418071 -20.892359 0.000000 60.000000 15.074256 11.000000
-19.746341 -13.626391 -26.145524 0.000000 72.000000 14.766666 21.000000
-19.431200 -14.484296 -22.223169 0.000000 46.000000 14.894085 28.000000
-18.928782 -14.274614 -26.829444 0.000000 36.000000 14.503580 0.000000
-18.864343 -14.155874 -26.361432 0.000000 30.000000 14.367751 0.000000
-18.888474 -14.150102 -26.496581 0.000000 33.000000 14.388028 0.000000
-19.776175 -13.620366 -26.157667 0.000000 57.000000 14.787698 21.000000
-19.558042 -14.140608 -25.742663 0.000000 51.000000 14.902477 21.000000
-19.123583 -14.843005 -22.721870 0.000000 35.000000 14.869526 28.000000
-19.214066 -13.947418 -22.210461 0.000000 27.000000 14.403766 0.000000
-19.139168 -14.019193 -22.210880 0.000000 28.000000 14.385025 0.000000
-17.907941 -17.045181 -21.421331 0.000000 48.000000 15.132233 15.000000
-18.361451 -15.166279 -21.450081 0.000000 22.000000 14.402194 0.000000
-18.503432 -16.792636 -21.290577 0.000000 63.000000 15.463378 14.000000
-18.283971 -15.303425 -21.581850 0.000000 20.000000 14.423557 0.000000
-19.137946 -14.898863 -23.990181 0.000000 54.000000 14.952212 26.000000
-19.024128 -15.477093 -22.026119 0.000000 52.000000 15.138584 23.000000
-18.085291 -15.661115 -23.179777 0.000000 39.000000 14.519982 0.000000
-18.031367 -15.711477 -23.262563 0.000000 36.000000 14.508218 0.000000
-17.999358 -15.767139 -23.348040 0.000000 40.000000 14.517400 0.000000
-17.933658 -15.811703 -23.440049 0.000000 39.000000 14.492977 0.000000
-19.416513 -14.338785 -26.127573 0.000000 46.000000 14.915260 21.000000
-19.197237 -14.953431 -22.288501 0.000000 48.000000 14.980686 28.000000
-17.806796 -15.948582 -23.723898 0.000000 33.000000 14.478753 0.000000
-17.787232 -15.996796 -23.820811 0.000000 37.000000 14.494015 0.000000
-17.746889 -16.036555 -23.924503 0.000000 32.000000 14.487694 0.000000
-17.708665 -16.074213 -24.029250 0.000000 33.000000 14.481894 0.000000
-19.325954 -15.179175 -21.548178 0.000000 51.000000 15.194621 13.000000
-17.675402 -16.110523 -24.135586 0.000000 34.000000 14.479376 0.000000
-19.607682 -13.814183 -22.798153 0.000000 54.000000 14.662754 10.000000
-17.634015 -16.144345 -24.247568 0.000000 34.000000 14.468988 0.000000
-17.915337 -17.186710 -21.181265 0.000000 48.000000 15.213714 15.000000
-18.788991 -16.811596 -21.117106 0.000000 19.000000 15.700716 14.000000
-19.388977 -14.058191 -25.792887 0.000000 44.000000 14.718749 21.000000
-17.649986 -16.199396 -23.436641 0.000000 28.000000 14.489581 0.000000
-17.481243 -16.267259 -23.946277 0.000000 28.000000 14.407884 0.000000
-19.912156 -14.235446 -21.306206 0.000000 58.000000 15.110745 11.000000
-17.478914 -16.303788 -24.202100 0.000000 26.000000 14.435096 0.000000
-17.478251 -16.407467 -25.560000 0.000000 45.000000 14.536273 0.000000
-17.319495 -16.384130 -25.720313 0.000000 37.000000 14.398776 0.000000
-17.301656 -16.390023 -25.854567 0.000000 28.000000 14.391823 0.000000
-18.947303 -15.146337 -23.319102 0.000000 57.000000 14.922045 23.000000
-19.018835 -15.347496 -24.483449 0.000000 46.000000 15.132887 27.000000
-17.507506 -16.337037 -25.530056 0.000000 29.000000 14.517904 0.000000
-17.462403 -16.315167 -25.678776 0.000000 31.000000 14.473052 0.000000
-18.558595 -15.181067 -25.614399 0.000000 32.000000 14.696690 25.000000
-20.083689 -13.616112 -24.189062 0.000000 70.000000 14.974934 20.000000
-17.484547 -16.270383 -26.097381 0.000000 41.000000 14.477489 0.000000
-18.633556 -15.573077 -24.017151 0.000000 54.000000 14.938325 27.000000
-18.792098 -15.364771 -25.562694 0.000000 60.000000 14.991834 25.000000
-19.070272 -15.204634 -22.189876 0.000000 62.000000 15.021647 23.000000
-17.559150 -16.185519 -26.648973 0.000000 44.000000 14.505042 0.000000
-18.304661 -15.952810 -22.371305 0.000000 55.000000 14.843907 24.000000
-19.781508 -13.339454 -24.031942 0.000000 36.000000 14.563445 0.000000
-19.561235 -13.470703 -25.113219 0.000000 43.000000 14.494333 0.000000
-18.884845 -15.617883 -24.449386 0.000000 71.000000 15.181323 27.000000
-19.498801 -14.383374 -22.358766 0.000000 57.000000 14.893985 28.000000
-18.406876 -16.262950 -22.474533 0.000000 71.000000 15.111231 29.000000
-19.454022 -13.614273 -24.944923 0.000000 38.000000 14.486266 0.000000
-19.573854 -13.536976 -23.770456 0.000000 42.000000 14.502675 0.000000
-18.696283 -15.711727 -24.950770 0.000000 46.000000 15.098499 27.000000
-16.940191 -18.305184 -22.514127 0.000000 42.000000 15.117460 17.000000
-19.173570 -14.517651 -25.489277 0.000000 49.000000 14.803571 21.000000
-19.833990 -13.857838 -21.397729 0.000000 56.000000 14.829363 11.000000
-19.430102 -13.774898 -23.520284 0.000000 41.000000 14.517675 0.000000
-19.182112 -15.034398 -23.061620 0.000000 53.000000 15.039162 28.000000
-17.758301 -17.076142 -21.394699 0.000000 39.000000 15.028217 15.000000
-19.469992 -15.041177 -25.004291 0.000000 51.000000 15.335300 26.000000
-18.947660 -15.520028 -24.015826 0.000000 62.000000 15.161911 27.000000
-18.975228 -14.117385 -24.431131 0.000000 32.000000 14.376723 0.000000
