-5.788740 -16.504477 53.998026 0.000000 71.000000 14.727441 6.000000
-7.689082 -14.733973 50.352621 0.000000 66.000000 14.476908 1.000000
-7.377501 -15.884763 50.308901 0.000000 51.000000 14.215020 0.000000
-5.090721 -19.202290 53.841289 0.000000 37.000000 14.114000 0.000000
-5.066697 -20.085332 54.053512 0.000000 49.000000 14.222823 0.000000
-7.004758 -15.627071 51.112243 0.000000 60.000000 14.293669 0.000000
-7.776986 -20.156891 50.502785 0.000000 69.000000 14.764726 13.000000
-7.462990 -18.346841 51.264705 0.000000 60.000000 14.834121 8.000000
-7.725750 -19.169920 50.491932 0.000000 45.000000 14.690299 11.000000
-4.985257 -17.084042 55.202465 0.000000 42.000000 14.658672 28.000000
-6.555891 -15.702136 51.868214 0.000000 30.000000 14.291064 0.000000
-5.172137 -19.225427 53.852475 0.000000 45.000000 14.190435 0.000000
-6.047982 -15.183499 52.679088 0.000000 59.000000 14.250441 0.000000
-5.592743 -18.643784 54.169805 0.000000 64.000000 14.699044 21.000000
-5.977086 -16.718916 53.431934 0.000000 74.000000 14.608770 6.000000
-6.803819 -15.310583 51.342686 0.000000 28.000000 14.229086 0.000000
-6.712936 -17.807780 51.291539 0.000000 26.000000 14.187498 0.000000
-6.435818 -15.174865 51.956581 0.000000 28.000000 14.219025 0.000000
-6.777242 -20.102868 51.632103 0.000000 56.000000 14.472841 15.000000
-6.982595 -14.346379 51.189655 0.000000 49.000000 14.281601 0.000000
-6.552880 -19.922817 51.655516 0.000000 45.000000 14.286732 0.000000
-6.256987 -17.072524 52.221186 0.000000 40.000000 14.246337 0.000000
-6.389324 -18.045530 53.810959 0.000000 70.000000 15.189255 22.000000
-7.030014 -20.379535 51.553301 0.000000 65.000000 14.657843 15.000000
-5.312731 -18.294170 54.258932 0.000000 53.000000 14.493952 30.000000
-5.712840 -17.411818 53.077195 0.000000 37.000000 14.218832 0.000000
-6.560489 -17.593228 51.418292 0.000000 32.000000 14.114815 0.000000
-5.636074 -14.753482 54.518917 0.000000 54.000000 14.815453 25.000000
-6.276113 -18.011071 52.923867 0.000000 67.000000 14.641923 22.000000
-5.935104 -17.625391 52.376649 0.000000 29.000000 14.061351 0.000000
-6.249591 -14.459870 52.561246 0.000000 45.000000 14.346483 0.000000
-5.872292 -17.650588 52.639040 0.000000 35.000000 14.140595 0.000000
-6.249868 -19.028896 53.205142 0.000000 71.000000 14.787152 21.000000
-6.975839 -17.125244 51.805323 0.000000 41.000000 14.657013 7.000000
-6.872031 -19.480796 51.970817 0.000000 39.000000 14.710345 16.000000
-7.804486 -15.288023 50.363552 0.000000 49.000000 14.595837 1.000000
-6.194696 -16.649744 53.459838 0.000000 74.000000 14.808771 6.000000
-4.433627 -19.181085 55.004308 0.000000 51.000000 14.135415 0.000000
-4.828184 -15.424458 54.688739 0.000000 38.000000 14.221672 0.000000
-5.971908 -16.671803 53.491581 0.000000 30.000000 14.633304 6.000000
-6.188757 -17.413282 53.550746 0.000000 55.000000 14.868804 23.000000
-6.544970 -15.803864 51.785707 0.000000 34.000000 14.242453 0.000000
-5.845475 -20.373896 53.166192 0.000000 72.000000 14.452529 14.000000
-4.886293 -16.875828 55.363880 0.000000 69.000000 14.649799 27.000000
-5.433768 -15.891364 53.763720 0.000000 43.000000 14.287454 0.000000
-6.709162 -16.054928 51.325868 0.000000 33.000000 14.157640 0.000000
-5.913815 -19.532316 52.726635 0.000000 54.000000 14.267926 0.000000
-6.981801 -16.194692 51.018147 0.000000 38.000000 14.240505 0.000000
-6.569932 -15.961413 51.789473 0.000000 50.000000 14.269833 0.000000
-4.751004 -14.959337 55.501808 0.000000 46.000000 14.554866 26.000000
-6.696366 -16.775660 52.355586 0.000000 64.000000 14.685716 2.000000
-6.958381 -14.575413 51.010429 0.000000 37.000000 14.175784 0.000000
-4.342983 -16.833417 55.449247 0.000000 33.000000 14.223502 0.000000
-6.454878 -18.469719 52.239442 0.000000 59.000000 14.461243 20.000000
-7.123723 -14.980581 50.947806 0.000000 32.000000 14.296815 0.000000
-6.463316 -17.726090 51.632846 0.000000 41.000000 14.142930 0.000000
-6.066053 -19.296818 52.359057 0.000000 46.000000 14.207282 0.000000
-6.215348 -19.912029 52.241795 0.000000 26.000000 14.292101 0.000000
-6.706628 -14.804717 51.567985 0.000000 22.000000 14.246600 0.000000
-5.983919 -17.519443 53.875646 0.000000 72.000000 14.859258 23.000000
-7.630006 -17.999336 51.367387 0.000000 49.000000 15.021356 8.000000
-6.537691 -18.937587 51.512408 0.000000 34.000000 14.176508 0.000000
-6.068660 -18.198220 52.620277 0.000000 54.000000 14.314144 0.000000
-7.565300 -16.381874 50.404768 0.000000 48.000000 14.437915 3.000000
-6.942636 -14.770349 52.291363 0.000000 63.000000 14.815239 4.000000
-5.576676 -18.346888 53.272635 0.000000 31.000000 14.223785 0.000000
-6.498557 -15.301727 51.946431 0.000000 30.000000 14.271165 0.000000
-6.638396 -18.116442 52.093854 0.000000 64.000000 14.536939 20.000000
-4.533157 -19.820702 55.040697 0.000000 38.000000 14.255686 0.000000
-6.210229 -18.574104 52.212507 0.000000 36.000000 14.239303 0.000000
-4.715815 -20.432023 54.462068 0.000000 25.000000 14.135724 0.000000
-6.938691 -18.220504 51.872910 0.000000 37.000000 14.686661 20.000000
-7.720453 -18.725718 50.525673 0.000000 52.000000 14.691661 12.000000
-4.601007 -18.617383 54.946679 0.000000 36.000000 14.236424 0.000000
-5.278353 -16.446235 54.423068 0.000000 49.000000 14.501003 27.000000
-7.283670 -20.129167 51.222539 0.000000 70.000000 14.702894 13.000000
-5.840578 -17.994314 54.389910 0.000000 72.000000 15.007799 30.000000
-5.244953 -18.299415 55.355692 0.000000 55.000000 14.990597 29.000000
-6.163541 -17.454811 53.914464 0.000000 78.000000 15.032143 23.000000
-5.933645 -16.930985 53.026668 0.000000 31.000000 14.371575 23.000000
-6.872561 -20.454858 51.957223 0.000000 68.000000 14.728361 15.000000
-6.956911 -20.497131 50.695209 0.000000 38.000000 14.163579 0.000000
-5.055826 -15.366728 54.860609 0.000000 75.000000 14.503455 26.000000
-6.974707 -14.750325 51.119771 0.000000 48.000000 14.249573 0.000000
-7.192411 -16.092701 50.537799 0.000000 28.000000 14.176477 0.000000
-5.272093 -16.549084 55.133613 0.000000 66.000000 14.857716 27.000000
-6.590972 -20.344032 52.649077 0.000000 52.000000 14.832873 15.000000
-7.041819 -14.321758 51.177300 0.000000 55.000000 14.325793 0.000000
-7.169003 -19.886618 50.563238 0.000000 35.000000 14.264347 0.000000
-4.586667 -18.911775 54.752718 0.000000 37.000000 14.133304 0.000000
-6.373481 -17.295584 53.155052 0.000000 59.000000 14.824899 23.000000
-6.431126 -16.832207 51.905561 0.000000 47.000000 14.230743 0.000000
-6.187923 -17.774286 53.431132 0.000000 68.000000 14.816619 22.000000
-5.042066 -20.129980 54.762118 0.000000 65.000000 14.561255 17.000000
-6.463319 -20.348438 52.478907 0.000000 46.000000 14.636820 15.000000
-5.181992 -15.289942 54.143929 0.000000 37.000000 14.247674 0.000000
-6.846557 -16.809332 51.214539 0.000000 40.000000 14.238693 0.000000
-6.723384 -16.774283 51.488988 0.000000 52.000000 14.270486 0.000000
-4.924928 -15.236700 54.637204 0.000000 32.000000 14.274296 0.000000
-5.774956 -18.134687 53.929991 0.000000 54.000000 14.722029 30.000000
-5.529981 -15.577363 53.576474 0.000000 27.000000 14.267784 0.000000
-6.180943 -18.968966 53.511154 0.000000 79.000000 14.881063 21.000000
-6.602438 -15.206814 51.745611 0.000000 33.000000 14.256734 0.000000
-6.737462 -15.366489 51.509267 0.000000 30.000000 14.257566 0.000000
-5.040591 -17.448289 54.730330 0.000000 55.000000 14.476622 28.000000
-5.655885 -15.424936 53.409663 0.000000 36.000000 14.288107 0.000000
-6.443005 -14.966473 53.024838 0.000000 63.000000 14.760522 24.000000
-5.944746 -19.207285 52.522150 0.000000 52.000000 14.182972 0.000000
-6.267385 -15.707632 52.250866 0.000000 30.000000 14.236078 0.000000
-7.188933 -15.200259 50.832067 0.000000 39.000000 14.299986 0.000000
-4.318346 -16.051505 55.384670 0.000000 49.000000 14.149969 0.000000
-5.554168 -19.920988 53.317173 0.000000 45.000000 14.266405 0.000000
-4.653757 -17.231566 55.601020 0.000000 43.000000 14.578228 28.000000
-6.269258 -15.248736 52.409771 0.000000 25.000000 14.306585 0.000000
-6.674461 -20.368154 52.226766 0.000000 64.000000 14.691775 15.000000
-5.484303 -19.711627 53.770676 0.000000 60.000000 14.430384 19.000000
-6.742058 -16.455421 51.533333 0.000000 52.000000 14.301024 0.000000
-6.132325 -18.833399 53.501954 0.000000 70.000000 14.831089 21.000000
-7.028728 -16.708162 51.024202 0.000000 64.000000 14.296909 0.000000
-7.115851 -16.824345 50.793055 0.000000 45.000000 14.257981 0.000000
-5.130448 -15.164286 54.582310 0.000000 48.000000 14.421898 26.000000
-6.567579 -18.384231 51.705244 0.000000 51.000000 14.285967 0.000000
-5.934588 -17.851861 53.017800 0.000000 41.000000 14.391003 22.000000
-5.320856 -17.242598 54.251852 0.000000 55.000000 14.470993 28.000000
-7.544031 -14.691377 50.593788 0.000000 62.000000 14.472809 1.000000
-7.666197 -15.034017 50.902830 0.000000 57.000000 14.743105 1.000000
-4.843778 -15.765614 55.610344 0.000000 44.000000 14.709999 5.000000
-7.396371 -19.685630 50.805981 0.000000 63.000000 14.578161 11.000000
-5.694971 -17.435414 54.070212 0.000000 56.000000 14.706475 23.000000
-5.963049 -18.841587 52.510019 0.000000 42.000000 14.183440 0.000000
-5.798347 -18.897454 52.810494 0.000000 45.000000 14.194877 0.000000
-5.132123 -20.442650 53.764732 0.000000 29.000000 14.142075 0.000000
-5.832766 -17.508006 52.754345 0.000000 31.000000 14.161283 0.000000
-6.125924 -15.670675 52.571360 0.000000 33.000000 14.275354 0.000000
-7.657834 -20.241399 50.555702 0.000000 65.000000 14.690891 13.000000
-7.224569 -16.794183 50.664705 0.000000 36.000000 14.286014 0.000000
-4.844539 -20.390459 55.337444 0.000000 46.000000 14.688596 17.000000
-7.048773 -16.432980 51.001492 0.000000 42.000000 14.295797 0.000000
-7.135672 -15.164154 50.912479 0.000000 42.000000 14.293848 0.000000
-5.438652 -18.625071 54.565629 0.000000 59.000000 14.766005 21.000000
-5.619902 -19.353608 53.159451 0.000000 37.000000 14.229039 0.000000
-6.533150 -19.830230 51.558416 0.000000 44.000000 14.218266 0.000000
-7.075541 -18.939918 50.545724 0.000000 33.000000 14.151154 0.000000
-5.730248 -17.450331 54.079477 0.000000 51.000000 14.741952 23.000000
-6.050273 -20.270756 53.218164 0.000000 44.000000 14.652810 14.000000
-7.098266 -17.300273 52.012395 0.000000 72.000000 14.871734 7.000000
-5.466327 -19.621243 53.399011 0.000000 36.000000 14.224560 0.000000
-5.698946 -19.600244 53.051758 0.000000 56.000000 14.248885 0.000000
-4.726432 -15.868480 54.823931 0.000000 41.000000 14.213490 0.000000
-6.449503 -19.159735 51.464806 0.000000 31.000000 14.081962 0.000000
-7.509634 -19.446342 50.814597 0.000000 68.000000 14.674169 11.000000
-5.573857 -16.801581 53.404383 0.000000 42.000000 14.249249 0.000000
-5.467559 -18.297815 53.990217 0.000000 56.000000 14.491565 30.000000
-7.243875 -18.366540 51.322046 0.000000 75.000000 14.674714 8.000000
-4.487999 -14.941766 55.529712 0.000000 42.000000 14.341788 0.000000
-7.441011 -16.905129 50.169460 0.000000 42.000000 14.224819 0.000000
-4.725176 -15.798883 54.856526 0.000000 39.000000 14.227154 0.000000
-7.223362 -16.715485 50.655677 0.000000 44.000000 14.278431 0.000000
-6.859484 -16.517146 51.214828 0.000000 50.000000 14.242654 0.000000
-6.737134 -16.425041 51.475852 0.000000 53.000000 14.266932 0.000000
-7.339773 -19.417155 50.878132 0.000000 62.000000 14.559136 11.000000
-6.306503 -16.226140 52.092513 0.000000 46.000000 14.202688 0.000000
-5.618609 -19.322219 53.873011 0.000000 40.000000 14.588191 19.000000
-6.072734 -14.603140 53.883914 0.000000 60.000000 14.866853 25.000000
-6.321736 -17.247528 53.384251 0.000000 48.000000 14.895052 23.000000
-6.575996 -17.963647 52.227144 0.000000 43.000000 14.546749 20.000000
-5.339936 -16.699682 53.802726 0.000000 42.000000 14.246570 0.000000
-5.534950 -15.847991 53.355153 0.000000 43.000000 14.166872 0.000000
-6.988034 -14.375757 52.029684 0.000000 63.000000 14.712074 4.000000
-6.465833 -15.651370 52.022266 0.000000 33.000000 14.290094 0.000000
-5.382314 -14.775158 55.078475 0.000000 41.000000 14.880342 26.000000
-4.958075 -15.738724 55.184297 0.000000 59.000000 14.592293 5.000000
-5.971245 -17.221191 54.066544 0.000000 68.000000 14.937441 23.000000
-5.420410 -17.424334 54.567336 0.000000 63.000000 14.721018 28.000000
-6.158462 -15.827060 52.295331 0.000000 47.000000 14.167663 0.000000
-6.995956 -19.249675 50.616408 0.000000 40.000000 14.126075 0.000000
-5.856325 -14.492139 54.536041 0.000000 62.000000 15.007456 25.000000
-6.585287 -17.971882 52.118676 0.000000 68.000000 14.500083 20.000000
-6.773896 -18.297362 51.941682 0.000000 70.000000 14.581305 20.000000
-5.611348 -18.575280 54.372152 0.000000 78.000000 14.815752 21.000000
-5.840962 -16.284073 53.392998 0.000000 32.000000 14.460797 6.000000
-5.317823 -17.118593 54.624108 0.000000 61.000000 14.653626 28.000000
-6.093613 -18.706350 52.398211 0.000000 49.000000 14.236042 0.000000
-4.919601 -15.345925 54.542499 0.000000 44.000000 14.224524 0.000000
-5.834348 -16.638971 53.809890 0.000000 69.000000 14.674941 6.000000
-4.644759 -17.807803 55.323270 0.000000 53.000000 14.444387 29.000000
-5.294418 -16.506616 54.497359 0.000000 73.000000 14.553960 27.000000
-7.690431 -19.476505 50.787064 0.000000 65.000000 14.816873 11.000000
-7.563428 -18.351364 50.641481 0.000000 65.000000 14.605485 12.000000
-5.256553 -16.428046 54.021672 0.000000 47.000000 14.278649 0.000000
-5.230847 -14.823058 55.289017 0.000000 74.000000 14.857485 26.000000
-5.893783 -20.147731 53.591488 0.000000 45.000000 14.703701 14.000000
-4.295888 -18.961960 55.201802 0.000000 42.000000 14.111092 0.000000
-5.089567 -17.456170 54.717438 0.000000 59.000000 14.512522 28.000000
-5.539265 -15.515047 53.561555 0.000000 36.000000 14.266677 0.000000
-6.759160 -15.239178 53.656306 0.000000 70.000000 15.359461 24.000000
-6.885184 -16.258977 51.123888 0.000000 32.000000 14.212320 0.000000
-5.046358 -16.693483 55.128357 0.000000 72.000000 14.664056 27.000000
-6.213592 -14.672300 53.888663 0.000000 64.000000 14.992435 25.000000
-6.824150 -15.632741 51.393474 0.000000 28.000000 14.280396 0.000000
-5.006623 -17.171500 55.570213 0.000000 74.000000 14.865364 28.000000
-5.885645 -17.766367 52.652053 0.000000 40.000000 14.161597 0.000000
-6.647988 -19.312743 51.823224 0.000000 67.000000 14.438285 16.000000
-7.334445 -18.580513 50.790516 0.000000 54.000000 14.489220 12.000000
-6.157375 -18.061167 53.633041 0.000000 58.000000 14.899642 22.000000
-6.841952 -19.478188 51.879388 0.000000 54.000000 14.638084 16.000000
-5.404691 -19.781824 53.524716 0.000000 41.000000 14.239053 0.000000
-7.094502 -17.628991 50.596741 0.000000 44.000000 14.160428 0.000000
-4.762398 -19.004950 54.420006 0.000000 29.000000 14.118802 0.000000
-5.392679 -14.928425 54.819829 0.000000 52.000000 14.762252 26.000000
-7.151568 -16.115454 50.566189 0.000000 32.000000 14.156199 0.000000
-5.245919 -18.279796 55.202675 0.000000 53.000000 14.913512 29.000000
-6.633702 -16.912048 51.645403 0.000000 42.000000 14.275765 0.000000
-6.564633 -17.544612 51.758070 0.000000 46.000000 14.289093 0.000000
-6.192095 -19.003187 53.374599 0.000000 73.000000 14.822440 21.000000
-6.758119 -19.053265 51.115305 0.000000 35.000000 14.168526 0.000000
-7.968374 -17.988867 50.718567 0.000000 48.000000 14.984529 10.000000
-6.405700 -19.171070 51.693394 0.000000 30.000000 14.160143 0.000000
-5.664344 -16.702863 53.945671 0.000000 59.000000 14.598674 6.000000
-6.762218 -19.666522 51.260046 0.000000 42.000000 14.260684 0.000000
-5.491490 -16.507336 53.880175 0.000000 56.000000 14.411598 6.000000
-6.904779 -18.517899 51.063151 0.000000 42.000000 14.255153 0.000000
-6.765187 -19.638036 51.264273 0.000000 40.000000 14.264668 0.000000
-6.448135 -17.376273 52.008949 0.000000 45.000000 14.311371 0.000000
-5.915939 -17.552262 53.843703 0.000000 65.000000 14.785308 23.000000
-5.843938 -15.320780 53.753555 0.000000 42.000000 14.621635 24.000000
-6.802685 -18.008524 52.018126 0.000000 74.000000 14.637560 20.000000
-4.598626 -19.050807 54.663177 0.000000 35.000000 14.101796 0.000000
-6.127977 -18.693010 52.404902 0.000000 38.000000 14.268721 0.000000
-5.994571 -18.414337 52.651787 0.000000 38.000000 14.271632 0.000000
-6.468205 -17.856867 52.097832 0.000000 44.000000 14.385705 20.000000
-4.642354 -15.048126 55.459037 0.000000 52.000000 14.441777 26.000000
-7.085322 -15.631954 50.937786 0.000000 36.000000 14.274978 0.000000
-6.421645 -16.723032 52.012424 0.000000 43.000000 14.273902 0.000000
-5.321183 -16.731528 53.799053 0.000000 49.000000 14.229342 0.000000
-4.713977 -18.840589 54.693030 0.000000 46.000000 14.211079 0.000000
-4.670521 -18.897248 54.716319 0.000000 36.000000 14.186819 0.000000
-6.077851 -20.217896 53.665763 0.000000 82.000000 14.901742 14.000000
-6.978160 -20.460496 50.781924 0.000000 44.000000 14.224857 0.000000
-6.425480 -15.178814 53.823794 0.000000 52.000000 15.155003 24.000000
-5.204472 -18.148486 55.171399 0.000000 50.000000 14.858659 29.000000
-6.481017 -17.880905 52.754427 0.000000 48.000000 14.729585 22.000000
-4.849232 -19.737802 54.441039 0.000000 51.000000 14.222696 0.000000
-7.054922 -15.692390 51.090396 0.000000 70.000000 14.327503 0.000000
-7.153553 -14.932396 50.843387 0.000000 22.000000 14.268490 0.000000
-7.908013 -17.989601 50.505178 0.000000 73.000000 14.824533 10.000000
-7.987521 -19.368184 50.598381 0.000000 59.000000 14.974828 11.000000
-5.339989 -16.606200 54.438827 0.000000 47.000000 14.566132 27.000000
-5.696844 -18.065074 54.073665 0.000000 59.000000 14.725633 30.000000
-6.266301 -15.090321 52.451591 0.000000 41.000000 14.321222 0.000000
-6.073797 -14.966503 52.754230 0.000000 48.000000 14.305276 0.000000
-6.939971 -15.083708 51.193915 0.000000 43.000000 14.265505 0.000000
-4.925676 -15.318848 55.068784 0.000000 65.000000 14.495377 26.000000
-5.225747 -19.027294 54.396805 0.000000 59.000000 14.507111 21.000000
-6.871644 -14.499360 51.378642 0.000000 51.000000 14.285405 0.000000
-6.898631 -17.386085 51.612051 0.000000 46.000000 14.499196 7.000000
-6.546181 -18.390987 51.842324 0.000000 52.000000 14.337049 20.000000
-5.767338 -17.765716 53.754525 0.000000 73.000000 14.617419 22.000000
-6.506121 -16.824199 52.498072 0.000000 54.000000 14.595006 2.000000
-5.011209 -19.643285 55.088660 0.000000 52.000000 14.687668 18.000000
-6.104845 -19.795809 52.403268 0.000000 51.000000 14.275616 0.000000
-5.514496 -19.581133 54.223840 0.000000 68.000000 14.682439 19.000000
-5.316359 -17.039931 54.741567 0.000000 39.000000 14.709823 28.000000
-5.709643 -19.084010 52.820315 0.000000 39.000000 14.128048 0.000000
-4.479359 -20.147314 55.367336 0.000000 44.000000 14.382773 17.000000
-5.248682 -17.704799 53.640506 0.000000 33.000000 14.111027 0.000000
-6.349412 -16.960876 52.228915 0.000000 43.000000 14.327134 0.000000
-7.652246 -20.297149 50.380098 0.000000 62.000000 14.598618 13.000000
-7.876361 -17.957707 50.731388 0.000000 79.000000 14.910903 10.000000
-5.265524 -16.430040 54.835848 0.000000 63.000000 14.698399 27.000000
-5.432522 -16.864271 53.567914 0.000000 28.000000 14.211712 0.000000
-6.722216 -19.360317 51.661692 0.000000 41.000000 14.421742 16.000000
-7.667273 -20.095742 50.721080 0.000000 72.000000 14.779055 13.000000
-6.433593 -15.208434 52.037897 0.000000 28.000000 14.259095 0.000000
-5.922870 -20.024998 53.381063 0.000000 56.000000 14.619227 14.000000
-6.760203 -19.522031 51.770712 0.000000 70.000000 14.513714 16.000000
-6.849120 -14.480204 51.644860 0.000000 62.000000 14.400209 4.000000
-5.012175 -20.158925 54.160947 0.000000 58.000000 14.232023 0.000000
-5.259535 -18.191603 55.182715 0.000000 62.000000 14.912940 29.000000
-7.009209 -15.819641 51.097410 0.000000 53.000000 14.294832 0.000000
-5.033059 -18.067284 55.039718 0.000000 72.000000 14.642204 29.000000
-4.239719 -19.055583 55.298645 0.000000 38.000000 14.114015 0.000000
-7.092593 -14.250507 51.574037 0.000000 52.000000 14.568527 4.000000
-7.110504 -16.079496 50.703016 0.000000 51.000000 14.189125 0.000000
-6.036303 -15.422732 52.739517 0.000000 33.000000 14.276951 0.000000
-5.157336 -19.621231 54.170844 0.000000 59.000000 14.348695 19.000000
-6.654141 -16.618169 52.240868 0.000000 69.000000 14.587313 2.000000
-7.237895 -18.936589 50.455158 0.000000 27.000000 14.245222 0.000000
-5.971134 -18.593024 53.450055 0.000000 47.000000 14.659824 21.000000
-6.928719 -18.012603 51.708926 0.000000 80.000000 14.589873 20.000000
-5.889921 -19.514448 52.762291 0.000000 51.000000 14.264918 0.000000
-6.090129 -17.935114 53.696262 0.000000 62.000000 14.870491 22.000000
-6.360044 -16.968744 52.106730 0.000000 34.000000 14.274673 0.000000
-6.189703 -18.704973 53.208602 0.000000 72.000000 14.728904 21.000000
-6.722580 -19.520978 51.361134 0.000000 50.000000 14.274007 0.000000
-5.808212 -14.574751 54.406120 0.000000 35.000000 14.902308 25.000000
-6.370112 -17.969986 53.030737 0.000000 73.000000 14.776011 22.000000
-6.875776 -19.193466 50.873292 0.000000 37.000000 14.151029 0.000000
-4.871491 -15.633273 54.898525 0.000000 42.000000 14.370399 5.000000
-6.014034 -16.783998 53.120783 0.000000 34.000000 14.484818 6.000000
-7.336252 -17.087183 50.914249 0.000000 47.000000 14.515922 9.000000
-5.296705 -16.646158 55.021852 0.000000 38.000000 14.824821 27.000000
-4.794961 -15.711747 55.618353 0.000000 53.000000 14.670612 5.000000
-7.341139 -18.229418 50.979127 0.000000 73.000000 14.581619 8.000000
-4.416590 -19.074447 54.921790 0.000000 39.000000 14.076297 0.000000
-5.446875 -19.048000 54.229132 0.000000 57.000000 14.613441 21.000000
-5.512063 -17.514480 54.049665 0.000000 40.000000 14.540363 23.000000
-5.859805 -17.646632 53.524218 0.000000 59.000000 14.577622 22.000000
-5.286988 -17.162660 54.651107 0.000000 60.000000 14.641807 28.000000
-5.785719 -15.093466 54.034052 0.000000 43.000000 14.707666 24.000000
-5.479131 -18.669044 54.507000 0.000000 75.000000 14.772342 21.000000
-5.596871 -17.730793 54.104231 0.000000 50.000000 14.646519 30.000000
-7.420823 -18.244662 50.613344 0.000000 41.000000 14.465620 10.000000
-4.588744 -17.493231 54.994710 0.000000 50.000000 14.221952 0.000000
-5.978441 -17.526129 52.506144 0.000000 50.000000 14.161748 0.000000
-4.586398 -18.718528 54.967326 0.000000 48.000000 14.236813 0.000000
-6.200113 -17.397027 53.901417 0.000000 63.000000 15.055624 23.000000
-5.607760 -19.196852 53.001706 0.000000 48.000000 14.134820 0.000000
-5.569070 -17.160196 53.955005 0.000000 33.000000 14.532728 23.000000
-6.283058 -14.401140 54.218000 0.000000 41.000000 15.212166 25.000000
-5.013465 -19.157983 54.192450 0.000000 24.000000 14.223964 0.000000
-5.661179 -19.819182 53.075748 0.000000 28.000000 14.233954 0.000000
-4.489936 -18.935953 54.938522 0.000000 42.000000 14.144526 0.000000
-5.269365 -17.341162 54.939309 0.000000 48.000000 14.776919 28.000000
-6.886845 -17.452145 51.019825 0.000000 26.000000 14.191031 0.000000
-6.412124 -18.810118 51.870389 0.000000 42.000000 14.246185 0.000000
-4.961276 -19.972336 54.223353 0.000000 37.000000 14.215035 0.000000
-7.029540 -20.468387 52.021415 0.000000 56.000000 14.896524 15.000000
-4.973046 -19.989111 54.217286 0.000000 36.000000 14.222534 0.000000
-6.162788 -15.651087 52.456623 0.000000 24.000000 14.248590 0.000000
-5.995159 -17.650895 52.378033 0.000000 39.000000 14.114468 0.000000
-6.631886 -16.050663 51.514063 0.000000 39.000000 14.186132 0.000000
-4.567248 -18.768875 55.029880 0.000000 23.000000 14.253218 0.000000
-5.819277 -14.907397 54.129609 0.000000 60.000000 14.780282 25.000000
-6.152657 -16.691991 53.155332 0.000000 63.000000 14.619509 6.000000
-5.550190 -20.425198 53.630570 0.000000 43.000000 14.434200 14.000000
-4.236747 -17.762018 55.372283 0.000000 43.000000 14.116261 0.000000
-6.805256 -20.267651 51.620661 0.000000 49.000000 14.495339 15.000000
-6.789971 -14.781161 52.412191 0.000000 59.000000 14.745024 4.000000
-6.495994 -16.282072 51.749023 0.000000 32.000000 14.193663 0.000000
-4.628186 -16.264969 55.086691 0.000000 32.000000 14.271685 0.000000
-5.599896 -18.026903 54.258472 0.000000 59.000000 14.734600 30.000000
-6.921694 -14.393217 52.221655 0.000000 64.000000 14.752451 4.000000
-6.983251 -18.957760 50.703242 0.000000 36.000000 14.151734 0.000000
-5.906142 -20.293895 53.629892 0.000000 73.000000 14.737455 14.000000
-6.330970 -15.099882 53.538614 0.000000 47.000000 14.927241 24.000000
-5.617513 -15.907093 53.264567 0.000000 35.000000 14.193703 0.000000
-6.136841 -18.544585 53.068809 0.000000 78.000000 14.608570 21.000000
-6.419466 -15.087684 52.257712 0.000000 32.000000 14.355109 4.000000
-6.418416 -16.081433 51.785373 0.000000 19.000000 14.140137 0.000000
-5.651603 -19.162580 52.883196 0.000000 44.000000 14.111796 0.000000
-4.383776 -14.451600 55.422253 0.000000 44.000000 14.185260 0.000000
-5.665495 -16.566280 54.021647 0.000000 70.000000 14.634684 6.000000
-6.160902 -15.949896 52.258753 0.000000 41.000000 14.154340 0.000000
-5.994319 -14.271112 54.545211 0.000000 56.000000 15.125526 25.000000
-6.223716 -20.479408 52.025247 0.000000 37.000000 14.203979 0.000000
-5.413300 -19.320257 54.301197 0.000000 42.000000 14.627788 19.000000
-6.273178 -16.924043 52.378109 0.000000 31.000000 14.335973 2.000000
-5.922548 -15.483536 52.895840 0.000000 39.000000 14.259497 0.000000
-6.496608 -18.622806 51.787508 0.000000 33.000000 14.272388 0.000000
-5.296017 -18.407455 55.153490 0.000000 52.000000 14.935021 29.000000
-6.803037 -17.909006 51.819402 0.000000 67.000000 14.534814 20.000000
-5.182493 -15.663687 54.100265 0.000000 36.000000 14.235388 0.000000
-5.100447 -17.254170 54.668419 0.000000 37.000000 14.492032 28.000000
-5.012245 -20.114795 54.712843 0.000000 41.000000 14.510230 17.000000
-6.854101 -20.436613 51.584630 0.000000 48.000000 14.523458 15.000000
-4.965475 -16.803239 54.519845 0.000000 46.000000 14.289173 0.000000
-5.521612 -19.510775 54.148553 0.000000 61.000000 14.648715 19.000000
-5.997722 -18.895082 53.681984 0.000000 50.000000 14.807679 21.000000
-6.770406 -15.363214 51.492025 0.000000 31.000000 14.277163 0.000000
-6.676322 -14.443783 52.128016 0.000000 45.000000 14.494785 4.000000
-6.783051 -19.525000 51.827418 0.000000 65.000000 14.562180 16.000000
-7.100050 -15.840349 50.861207 0.000000 49.000000 14.254156 0.000000
-5.608617 -18.044171 54.294548 0.000000 46.000000 14.760807 30.000000
-7.182485 -16.124939 50.493096 0.000000 29.000000 14.146109 0.000000
-6.146881 -18.020315 52.498272 0.000000 63.000000 14.315387 0.000000
-7.141822 -15.655818 50.825487 0.000000 31.000000 14.267467 0.000000
-7.656695 -17.967818 51.135671 0.000000 60.000000 14.926330 8.000000
-5.021994 -18.536873 54.246905 0.000000 35.000000 14.243289 0.000000
-7.082944 -17.276447 51.946307 0.000000 67.000000 14.824486 7.000000
-7.466372 -18.717113 50.784327 0.000000 63.000000 14.603260 12.000000
-5.123673 -16.994314 54.860679 0.000000 60.000000 14.602819 28.000000
-6.571477 -17.141557 52.003960 0.000000 50.000000 14.409300 7.000000
-5.548703 -14.811342 54.439070 0.000000 56.000000 14.701174 25.000000
-6.048834 -16.057373 52.601516 0.000000 34.000000 14.233849 0.000000
-5.332661 -16.546025 54.795970 0.000000 67.000000 14.739015 27.000000
-6.632360 -16.031423 51.474936 0.000000 36.000000 14.166261 0.000000
-4.866440 -16.622272 55.197181 0.000000 43.000000 14.541973 27.000000
-5.898413 -20.143017 53.245168 0.000000 65.000000 14.532340 14.000000
-6.490833 -16.437878 51.828306 0.000000 46.000000 14.233238 0.000000
-5.786543 -16.801018 53.060603 0.000000 30.000000 14.258659 0.000000
-7.685851 -18.406410 50.448052 0.000000 57.000000 14.614542 12.000000
-6.950181 -16.780938 51.070407 0.000000 46.000000 14.254393 0.000000
-5.007228 -17.658084 54.123301 0.000000 29.000000 14.145970 0.000000
-7.070585 -16.886203 50.829728 0.000000 44.000000 14.239062 0.000000
-7.370932 -19.676606 51.151439 0.000000 68.000000 14.730800 11.000000
-5.747354 -20.191652 53.339057 0.000000 20.000000 14.450828 14.000000
-6.474442 -19.775616 51.687457 0.000000 44.000000 14.231573 0.000000
-6.146233 -19.037979 53.416267 0.000000 79.000000 14.804856 21.000000
-6.037200 -18.395065 53.159579 0.000000 54.000000 14.564840 22.000000
-5.908618 -19.935853 52.736957 0.000000 34.000000 14.278791 0.000000
-5.921082 -16.322218 53.936669 0.000000 69.000000 14.805923 6.000000
-4.272035 -18.660927 55.515749 0.000000 38.000000 14.241829 0.000000
-6.219901 -15.371390 52.448332 0.000000 58.000000 14.286620 0.000000
-5.052486 -14.530161 55.737732 0.000000 50.000000 14.923405 26.000000
-5.643826 -18.777279 54.402184 0.000000 75.000000 14.864018 21.000000
-5.065645 -16.267251 54.909304 0.000000 34.000000 14.559153 27.000000
-6.721988 -20.512047 51.183694 0.000000 35.000000 14.208577 0.000000
-6.207466 -16.664843 53.360314 0.000000 83.000000 14.769802 6.000000
-7.772063 -17.514665 50.745224 0.000000 58.000000 14.816866 9.000000
-4.497146 -17.654924 55.341759 0.000000 42.000000 14.322638 0.000000
-6.125870 -18.996335 52.240091 0.000000 55.000000 14.191121 0.000000
-7.414639 -20.397747 50.288212 0.000000 44.000000 14.349790 13.000000
-6.326302 -18.164427 53.532085 0.000000 74.000000 14.996795 22.000000
-5.351034 -15.412502 53.865774 0.000000 38.000000 14.255748 0.000000
-4.459073 -19.119199 54.941750 0.000000 65.000000 14.124147 0.000000
-5.679938 -19.660228 53.120522 0.000000 50.000000 14.268795 0.000000
-7.351070 -15.660462 50.493569 0.000000 53.000000 14.280045 0.000000
-7.213513 -15.554821 50.746997 0.000000 58.000000 14.287028 0.000000
-4.275795 -19.076513 55.255767 0.000000 42.000000 14.123949 0.000000
-7.389928 -19.714228 51.122696 0.000000 46.000000 14.733578 11.000000
-6.736479 -15.237701 51.548968 0.000000 37.000000 14.273577 0.000000
-6.558615 -15.132288 51.831403 0.000000 40.000000 14.260491 0.000000
-4.292180 -19.028399 55.251109 0.000000 30.000000 14.134511 0.000000
-4.965522 -19.814362 54.685022 0.000000 42.000000 14.448333 18.000000
-6.677237 -14.830432 51.690693 0.000000 48.000000 14.283993 0.000000
-4.943486 -15.323350 54.890669 0.000000 43.000000 14.420721 26.000000
-4.841272 -18.882639 54.491587 0.000000 40.000000 14.219957 0.000000
-4.623572 -18.550070 54.907902 0.000000 50.000000 14.234570 0.000000
-5.271535 -18.284671 54.447815 0.000000 51.000000 14.553768 30.000000
-5.446332 -18.584410 54.425716 0.000000 61.000000 14.700812 21.000000
-7.714538 -16.643065 50.523337 0.000000 49.000000 14.633131 3.000000
-6.013558 -17.227919 52.573126 0.000000 36.000000 14.218436 0.000000
-6.329793 -18.074744 53.585877 0.000000 69.000000 15.024773 22.000000
-5.505343 -14.856052 54.427043 0.000000 61.000000 14.658826 25.000000
-6.953301 -18.248041 51.834752 0.000000 69.000000 14.680640 20.000000
-6.894250 -15.114075 51.262842 0.000000 41.000000 14.261724 0.000000
-4.434820 -19.788335 55.240436 0.000000 43.000000 14.271156 0.000000
-5.689498 -18.064700 54.454448 0.000000 71.000000 14.911963 30.000000
-7.531040 -19.403454 50.667662 0.000000 59.000000 14.617202 11.000000
-7.275789 -15.566798 50.620558 0.000000 59.000000 14.277045 0.000000
-6.071061 -15.483815 52.624454 0.000000 49.000000 14.250230 0.000000
-6.428439 -17.145600 51.999117 0.000000 42.000000 14.283627 0.000000
-4.346952 -15.379777 55.495304 0.000000 36.000000 14.213760 0.000000
-7.371717 -17.114659 51.252405 0.000000 71.000000 14.718292 9.000000
-6.305702 -15.778101 52.152520 0.000000 45.000000 14.221120 0.000000
-6.440179 -15.920651 51.912454 0.000000 32.000000 14.219168 0.000000
-4.604792 -18.577380 54.920725 0.000000 34.000000 14.225551 0.000000
-6.541878 -16.080731 51.683262 0.000000 40.000000 14.194897 0.000000
-5.995305 -17.841614 53.041872 0.000000 61.000000 14.455276 22.000000
-6.394137 -19.682140 51.880647 0.000000 32.000000 14.257744 0.000000
-7.428612 -16.819726 50.236877 0.000000 40.000000 14.246099 0.000000
-7.069647 -17.692030 50.584719 0.000000 32.000000 14.134497 0.000000
-6.089659 -17.093679 53.912894 0.000000 77.000000 14.958591 23.000000
-6.742534 -20.122571 52.266800 0.000000 73.000000 14.764561 15.000000
-6.534036 -20.030454 51.977647 0.000000 45.000000 14.436180 15.000000
-5.297701 -18.352452 54.725521 0.000000 46.000000 14.718546 29.000000
-4.733410 -16.750478 55.492899 0.000000 61.000000 14.580124 27.000000
-5.722335 -15.446212 53.834392 0.000000 63.000000 14.560840 24.000000
-5.729147 -19.366362 53.018990 0.000000 41.000000 14.252475 0.000000
-6.358900 -19.687172 51.864648 0.000000 33.000000 14.219394 0.000000
-7.038312 -16.553200 51.047901 0.000000 47.000000 14.313276 0.000000
-6.035109 -16.201573 52.540743 0.000000 26.000000 14.194883 0.000000
-5.893674 -19.954059 52.665711 0.000000 41.000000 14.230314 0.000000
-6.482576 -16.484148 52.127315 0.000000 46.000000 14.378576 2.000000
-5.995280 -17.245448 52.681390 0.000000 28.000000 14.257898 0.000000
-5.751433 -19.458507 53.909627 0.000000 59.000000 14.724655 19.000000
-6.675208 -17.673408 51.372887 0.000000 32.000000 14.192760 0.000000
-7.265447 -19.943729 50.687207 0.000000 53.000000 14.411658 13.000000
-4.598417 -18.349150 55.360261 0.000000 45.000000 14.436731 29.000000
-6.265703 -17.021384 53.158180 0.000000 44.000000 14.726679 23.000000
-5.916000 -19.929199 52.700992 0.000000 38.000000 14.266791 0.000000
-4.365388 -16.388652 55.494568 0.000000 26.000000 14.254593 0.000000
-7.006575 -14.755781 51.067391 0.000000 34.000000 14.250682 0.000000
-6.417241 -19.947292 51.824826 0.000000 38.000000 14.256070 0.000000
-4.246058 -19.826794 55.500807 0.000000 51.000000 14.241121 0.000000
-5.717671 -17.874901 53.830030 0.000000 27.000000 14.615542 22.000000
-6.664428 -16.026764 51.509484 0.000000 43.000000 14.211272 0.000000
-5.439598 -19.571022 54.164402 0.000000 70.000000 14.587536 19.000000
-7.430564 -14.594865 50.281397 0.000000 67.000000 14.214493 0.000000
-6.739976 -18.151101 51.670779 0.000000 63.000000 14.411316 20.000000
-4.613997 -16.038384 54.843634 0.000000 35.000000 14.130783 0.000000
-5.476317 -18.786739 54.663089 0.000000 42.000000 14.851849 21.000000
-5.959511 -18.708004 53.716282 0.000000 53.000000 14.787395 21.000000
-4.460470 -17.589176 55.410158 0.000000 50.000000 14.323978 0.000000
-6.348636 -16.172410 51.950877 0.000000 32.000000 14.165999 0.000000
-5.658478 -19.347801 53.851140 0.000000 67.000000 14.612140 19.000000
-5.742950 -18.916980 53.629971 0.000000 73.000000 14.562252 21.000000
-5.828853 -16.007515 52.847659 0.000000 34.000000 14.167482 0.000000
-5.656960 -18.642107 54.310268 0.000000 77.000000 14.825442 21.000000
-5.566732 -15.948311 53.193323 0.000000 28.000000 14.114906 0.000000
-5.430238 -19.257215 54.002632 0.000000 64.000000 14.489738 19.000000
-6.800651 -19.500458 51.838438 0.000000 72.000000 14.582314 16.000000
-6.582170 -16.166493 51.559640 0.000000 44.000000 14.169236 0.000000
-5.275438 -15.860176 53.801452 0.000000 35.000000 14.169256 0.000000
-5.698323 -18.491884 53.559514 0.000000 36.000000 14.477461 21.000000
-6.909236 -20.205240 51.798980 0.000000 59.000000 14.673649 15.000000
-6.284552 -15.262316 53.867066 0.000000 57.000000 15.057489 24.000000
-7.330655 -18.677115 50.840359 0.000000 57.000000 14.513596 12.000000
-4.634578 -18.615207 54.880321 0.000000 45.000000 14.231737 0.000000
-5.610645 -18.564674 54.123051 0.000000 42.000000 14.688838 21.000000
-4.992993 -19.862195 54.218202 0.000000 36.000000 14.237011 0.000000
-6.177692 -14.901838 53.291119 0.000000 59.000000 14.664890 24.000000
-5.365569 -16.316795 54.438752 0.000000 72.000000 14.580888 27.000000
-5.213851 -15.939925 53.705966 0.000000 25.000000 14.069843 0.000000
-5.969593 -19.053656 53.331014 0.000000 57.000000 14.609817 21.000000
-5.192335 -16.708817 54.068647 0.000000 42.000000 14.254095 0.000000
-7.752606 -20.189358 50.548059 0.000000 55.000000 14.767429 13.000000
-6.311690 -17.468677 52.130624 0.000000 37.000000 14.257616 0.000000
-6.341634 -16.185910 51.945322 0.000000 35.000000 14.157490 0.000000
-6.749725 -17.075249 51.545530 0.000000 40.000000 14.329356 0.000000
-6.268601 -19.043679 51.891370 0.000000 36.000000 14.138919 0.000000
-7.140434 -15.960277 50.757203 0.000000 26.000000 14.239358 0.000000
-4.813447 -20.409984 54.755792 0.000000 74.000000 14.367969 17.000000
-4.745175 -18.426430 55.221697 0.000000 45.000000 14.495088 29.000000
-7.400986 -20.360365 50.884284 0.000000 71.000000 14.638688 13.000000
-5.510135 -19.792611 53.887214 0.000000 54.000000 14.513655 19.000000
-6.281513 -18.718302 52.025679 0.000000 37.000000 14.209846 0.000000
-6.665187 -18.514988 51.504819 0.000000 38.000000 14.271990 0.000000
-6.263571 -17.213405 52.958755 0.000000 77.000000 14.628751 23.000000
-4.877608 -20.396818 54.749414 0.000000 39.000000 14.419729 17.000000
-4.255928 -18.798706 55.441063 0.000000 38.000000 14.193608 0.000000
-5.387645 -14.272291 55.309933 0.000000 51.000000 14.989439 25.000000
-7.389838 -17.278674 51.168642 0.000000 69.000000 14.695647 9.000000
-6.126729 -14.576662 53.798403 0.000000 64.000000 14.869474 25.000000
-5.330339 -14.743846 54.816040 0.000000 64.000000 14.701955 26.000000
-6.954075 -16.737608 51.161301 0.000000 32.000000 14.302654 0.000000
-6.170559 -19.324805 52.211324 0.000000 44.000000 14.223335 0.000000
-6.181991 -20.413175 52.834710 0.000000 63.000000 14.575923 15.000000
-7.456531 -19.149021 50.359459 0.000000 60.000000 14.390631 11.000000
-6.173835 -15.584027 52.455394 0.000000 38.000000 14.255811 0.000000
-5.624791 -18.699885 54.151870 0.000000 71.000000 14.719009 21.000000
-7.444216 -15.572208 50.323844 0.000000 31.000000 14.272260 0.000000
-6.821077 -20.482880 51.022092 0.000000 52.000000 14.211508 0.000000
-6.165694 -18.972962 53.148540 0.000000 72.000000 14.684536 21.000000
-4.954438 -15.486670 54.528019 0.000000 37.000000 14.250763 0.000000
-5.895971 -20.407925 53.247401 0.000000 50.000000 14.538010 14.000000
-5.989001 -14.593500 53.639918 0.000000 49.000000 14.670959 25.000000
-6.118242 -18.524965 53.085112 0.000000 62.000000 14.600291 21.000000
-6.928270 -14.260126 51.340013 0.000000 38.000000 14.308679 0.000000
-6.472230 -17.035908 51.850051 0.000000 39.000000 14.243205 0.000000
-6.718997 -16.821511 51.527317 0.000000 32.000000 14.287282 0.000000
-6.704707 -18.297864 51.488456 0.000000 32.000000 14.292336 0.000000
-7.433982 -20.354913 50.755908 0.000000 69.000000 14.602042 13.000000
-6.167020 -18.063929 53.356267 0.000000 40.000000 14.767982 22.000000
-5.884569 -18.650994 52.787642 0.000000 44.000000 14.251469 0.000000
-7.844859 -15.119410 50.717979 0.000000 67.000000 14.805753 1.000000
-5.306263 -14.568427 55.598670 0.000000 50.000000 15.072800 26.000000
-7.207726 -15.902416 50.721592 0.000000 41.000000 14.277905 0.000000
-6.492091 -16.461779 51.877309 0.000000 41.000000 14.259718 0.000000
-5.700397 -18.086417 54.439644 0.000000 78.000000 14.914414 30.000000
-6.806245 -18.921515 51.139937 0.000000 29.000000 14.219178 0.000000
-5.808796 -19.051096 52.992791 0.000000 54.000000 14.299981 0.000000
-5.684158 -18.692148 53.921372 0.000000 54.000000 14.653369 21.000000
-4.835067 -19.479929 54.916038 0.000000 35.000000 14.444360 18.000000
-4.934449 -16.581953 55.415170 0.000000 59.000000 14.709897 27.000000
-6.213356 -19.154073 51.919428 0.000000 37.000000 14.108254 0.000000
-7.937080 -17.548952 50.480393 0.000000 76.000000 14.825998 9.000000
-4.400172 -14.662671 55.415854 0.000000 24.000000 14.201454 0.000000
-7.396852 -15.615161 50.382346 0.000000 46.000000 14.262103 0.000000
-6.204965 -14.592721 52.350042 0.000000 34.000000 14.204473 0.000000
-7.574733 -17.223943 50.833694 0.000000 55.000000 14.684205 9.000000
-5.127806 -18.288262 55.382016 0.000000 73.000000 14.902636 29.000000
-6.795869 -15.259807 51.426061 0.000000 36.000000 14.263145 0.000000
-6.637141 -15.173118 51.700085 0.000000 41.000000 14.262773 0.000000
-6.464948 -15.088140 51.979113 0.000000 40.000000 14.253366 0.000000
-4.901697 -14.511977 54.893155 0.000000 50.000000 14.365594 25.000000
-5.849643 -18.675430 53.543575 0.000000 44.000000 14.604464 21.000000
-5.427776 -14.546859 55.540216 0.000000 44.000000 15.147448 26.000000
-5.920059 -14.781773 53.095812 0.000000 53.000000 14.340930 0.000000
-4.905904 -15.893799 55.453724 0.000000 51.000000 14.687530 5.000000
-5.893744 -18.172090 53.861449 0.000000 38.000000 14.790701 22.000000
-4.505787 -16.980933 55.281188 0.000000 44.000000 14.282532 0.000000
-6.164614 -18.361018 53.018987 0.000000 54.000000 14.602700 22.000000
-5.860388 -16.112585 53.610332 0.000000 45.000000 14.583212 6.000000
-6.286349 -14.944371 53.384205 0.000000 51.000000 14.806739 24.000000
-6.138644 -17.448114 53.779686 0.000000 73.000000 14.942314 23.000000
-6.920038 -14.941538 51.308774 0.000000 46.000000 14.302870 0.000000
-6.852893 -20.367970 51.772592 0.000000 64.000000 14.615802 15.000000
-6.245887 -17.071335 53.194222 0.000000 51.000000 14.729085 23.000000
-4.544799 -17.534183 55.135932 0.000000 38.000000 14.256548 0.000000
-7.729075 -15.182136 50.385582 0.000000 56.000000 14.539311 1.000000
-6.200926 -18.721867 53.207054 0.000000 69.000000 14.738220 21.000000
-5.285534 -18.939219 53.637935 0.000000 25.000000 14.172467 0.000000
-4.401798 -20.092152 55.341454 0.000000 49.000000 14.301422 17.000000
-7.808141 -17.692585 50.522375 0.000000 72.000000 14.739676 10.000000
-6.094432 -15.071052 52.662352 0.000000 32.000000 14.279200 0.000000
-7.722982 -18.133387 51.617427 0.000000 5.000000 15.231398 8.000000
-7.503568 -15.472057 50.264035 0.000000 35.000000 14.290656 0.000000
-5.517774 -18.835989 54.380989 0.000000 61.000000 14.746088 21.000000
-5.048037 -14.828828 55.386935 0.000000 77.000000 14.749562 26.000000
-7.720888 -17.553337 50.972122 0.000000 63.000000 14.888523 9.000000
-7.667550 -17.425323 51.247071 0.000000 46.000000 14.978446 9.000000
-6.831747 -15.965493 51.288635 0.000000 42.000000 14.242246 0.000000
-6.643047 -20.485614 52.417307 0.000000 66.000000 14.764049 15.000000
-5.946447 -16.795590 53.533030 0.000000 67.000000 14.635430 6.000000
-6.317924 -19.718340 51.989267 0.000000 43.000000 14.247904 0.000000
-5.839634 -19.978218 52.806871 0.000000 44.000000 14.255754 0.000000
-6.650809 -19.100735 51.214448 0.000000 32.000000 14.127364 0.000000
-6.391799 -19.547386 51.982748 0.000000 34.000000 14.304009 0.000000
-7.632832 -18.124304 51.359642 0.000000 62.000000 15.023009 8.000000
-4.687347 -16.682633 55.676690 0.000000 58.000000 14.631704 27.000000
-6.094639 -19.165793 52.276772 0.000000 30.000000 14.187006 0.000000
-5.218331 -17.794222 54.109965 0.000000 53.000000 14.324645 30.000000
-4.637084 -19.929380 54.924871 0.000000 36.000000 14.289409 0.000000
-4.777835 -19.969558 54.629482 0.000000 32.000000 14.262304 0.000000
-4.873047 -20.010799 54.356206 0.000000 29.000000 14.207153 0.000000
-7.010818 -19.991319 51.227066 0.000000 68.000000 14.466481 13.000000
-7.318510 -16.811433 50.509099 0.000000 36.000000 14.288705 0.000000
-4.989878 -19.613417 54.508567 0.000000 65.000000 14.375006 18.000000
-4.701121 -17.633913 54.810588 0.000000 19.000000 14.229206 0.000000
-5.911938 -16.550075 52.823473 0.000000 25.000000 14.240490 0.000000
-6.800303 -16.487319 51.320363 0.000000 59.000000 14.244282 0.000000
-6.707618 -16.455019 51.570656 0.000000 43.000000 14.290206 0.000000
-6.465827 -16.409582 51.884604 0.000000 49.000000 14.239455 0.000000
-7.666594 -17.369309 51.198952 0.000000 47.000000 14.951869 9.000000
-4.444801 -19.306474 55.007419 0.000000 43.000000 14.149769 0.000000
-6.247160 -15.729129 52.357691 0.000000 50.000000 14.273233 0.000000
-7.438853 -19.767069 50.514037 0.000000 41.000000 14.469110 11.000000
-5.168297 -14.578963 55.568585 0.000000 55.000000 14.938891 26.000000
-7.548399 -17.194806 51.123378 0.000000 43.000000 14.807347 9.000000
-6.271098 -17.897726 53.749638 0.000000 67.000000 15.052588 22.000000
-7.249150 -18.998906 50.428962 0.000000 30.000000 14.243235 0.000000
-5.886909 -14.742926 54.193342 0.000000 64.000000 14.866714 25.000000
-4.537320 -16.161462 55.054703 0.000000 32.000000 14.174561 0.000000
-7.491780 -16.188025 50.161940 0.000000 34.000000 14.246796 0.000000
-6.755835 -20.248686 52.603841 0.000000 72.000000 14.949733 15.000000
-6.761165 -17.062930 51.984601 0.000000 53.000000 14.561076 7.000000
-6.322516 -18.783789 51.971171 0.000000 30.000000 14.219261 0.000000
-6.176326 -14.290907 53.134594 0.000000 68.000000 14.569186 25.000000
-5.978443 -18.886788 52.533969 0.000000 41.000000 14.209964 0.000000
-6.032180 -17.804575 53.361793 0.000000 43.000000 14.648016 22.000000
-5.416979 -16.375533 54.375441 0.000000 55.000000 14.594650 27.000000
-5.284488 -15.620747 53.960172 0.000000 28.000000 14.251362 0.000000
-5.057516 -19.211974 54.024895 0.000000 35.000000 14.178517 0.000000
-6.366345 -16.206902 51.917336 0.000000 39.000000 14.165162 0.000000
-5.306167 -18.293403 53.881225 0.000000 50.000000 14.297158 0.000000
-6.772890 -20.054857 51.646183 0.000000 53.000000 14.475009 15.000000
-4.595243 -18.877420 54.822310 0.000000 37.000000 14.175048 0.000000
-4.614296 -20.186140 55.374677 0.000000 69.000000 14.503800 17.000000
-6.104260 -15.281393 52.636553 0.000000 44.000000 14.279897 0.000000
-5.489249 -14.965706 54.384008 0.000000 56.000000 14.625926 25.000000
-6.008726 -15.217138 52.761827 0.000000 44.000000 14.259305 0.000000
-5.308570 -17.557249 53.774181 0.000000 39.000000 14.226598 0.000000
-7.308896 -18.696191 50.795588 0.000000 49.000000 14.472661 12.000000
-7.432484 -17.448538 51.162403 0.000000 58.000000 14.733520 9.000000
-5.857908 -19.832570 52.772364 0.000000 39.000000 14.250395 0.000000
-4.657137 -17.391513 54.993868 0.000000 41.000000 14.277941 0.000000
-5.877940 -16.562514 54.097936 0.000000 56.000000 14.856355 6.000000
-5.637174 -14.303515 55.081776 0.000000 53.000000 15.089914 25.000000
-5.003036 -20.128962 55.032930 0.000000 48.000000 14.664606 17.000000
-5.153543 -18.422139 54.155644 0.000000 51.000000 14.307652 0.000000
-6.600518 -16.039260 51.469998 0.000000 29.000000 14.136505 0.000000
-5.471857 -18.324242 53.443221 0.000000 33.000000 14.219159 0.000000
-7.434212 -18.216124 51.008909 0.000000 78.000000 14.676600 8.000000
-5.454861 -14.464664 54.861036 0.000000 74.000000 14.825080 25.000000
-7.129499 -16.319148 50.922467 0.000000 43.000000 14.322555 0.000000
-6.807264 -14.411451 52.558698 0.000000 66.000000 14.824790 4.000000
-4.932420 -18.459528 55.396231 0.000000 71.000000 14.745669 29.000000
-6.249807 -16.392910 53.389346 0.000000 51.000000 14.814174 6.000000
-7.200573 -20.206183 51.493914 0.000000 86.000000 14.770496 15.000000
-7.861423 -19.599663 50.618045 0.000000 61.000000 14.881866 11.000000
-5.928796 -18.654944 52.827540 0.000000 44.000000 14.309888 0.000000
-5.120163 -15.303849 55.224502 0.000000 67.000000 14.741474 26.000000
-4.639852 -17.187711 55.659907 0.000000 53.000000 14.594935 28.000000
-6.260196 -18.830079 52.074196 0.000000 40.000000 14.218821 0.000000
-6.434733 -15.187402 53.803250 0.000000 55.000000 15.152801 24.000000
-6.648487 -19.058146 51.275834 0.000000 26.000000 14.155354 0.000000
-4.901830 -17.469649 54.824522 0.000000 39.000000 14.405181 28.000000
-6.147951 -18.229485 52.667071 0.000000 68.000000 14.406967 22.000000
-4.670003 -19.979548 55.290827 0.000000 41.000000 14.504219 17.000000
-5.163929 -15.303012 54.166160 0.000000 23.000000 14.243677 0.000000
-5.433180 -18.290653 53.567428 0.000000 48.000000 14.247817 0.000000
-7.096482 -17.149400 51.686233 0.000000 74.000000 14.701376 7.000000
-6.213989 -19.269011 52.062197 0.000000 48.000000 14.183923 0.000000
-7.430029 -19.704926 50.675014 0.000000 48.000000 14.541396 11.000000
-6.440978 -17.060726 51.977743 0.000000 23.000000 14.281493 0.000000
-6.890731 -20.485831 50.836946 0.000000 35.000000 14.177954 0.000000
-7.507132 -19.550660 50.720552 0.000000 48.000000 14.627044 11.000000
-7.300663 -15.483560 50.559265 0.000000 70.000000 14.265389 0.000000
-5.152485 -19.579126 54.893492 0.000000 58.000000 14.709110 18.000000
-6.978726 -15.339476 51.087126 0.000000 27.000000 14.251301 0.000000
-6.817707 -15.269972 51.356072 0.000000 34.000000 14.246815 0.000000
-6.096419 -15.410134 52.555185 0.000000 43.000000 14.235195 0.000000
-6.151594 -17.794815 52.233130 0.000000 19.000000 14.179634 0.000000
-7.086784 -19.814703 50.764263 0.000000 43.000000 14.293372 0.000000
-4.809963 -18.515566 55.110577 0.000000 38.000000 14.496957 29.000000
-7.344880 -15.356227 50.462171 0.000000 44.000000 14.251189 0.000000
-6.275402 -15.025830 52.432855 0.000000 40.000000 14.317970 0.000000
-6.188387 -15.297469 53.061865 0.000000 55.000000 14.568036 24.000000
-7.519037 -17.788016 51.262025 0.000000 76.000000 14.867068 8.000000
