-50.304010 -25.277658 -16.208204 0.000000 55.000000 14.242458 0.000000
-48.535312 -21.192635 -14.898195 0.000000 46.000000 14.255013 0.000000
-48.991113 -18.966786 -14.683348 0.000000 28.000000 14.397568 0.000000
-48.176830 -20.040993 -14.764332 0.000000 43.000000 14.448735 9.000000
-50.071799 -25.483275 -16.129769 0.000000 37.000000 14.181242 0.000000
-49.182055 -24.066485 -15.995725 0.000000 40.000000 14.555511 1.000000
-48.416671 -20.711142 -15.117620 0.000000 56.000000 14.590045 14.000000
-48.968550 -19.987545 -14.777083 0.000000 36.000000 14.283242 0.000000
-49.215183 -20.387278 -15.228009 0.000000 72.000000 14.570926 8.000000
-52.836878 -21.960311 -16.021530 0.000000 46.000000 14.140322 0.000000
-47.455455 -20.979491 -14.954977 0.000000 69.000000 14.609645 2.000000
-53.112152 -20.703362 -15.850028 0.000000 37.000000 14.168924 0.000000
-52.235059 -20.497755 -15.552856 0.000000 41.000000 14.137663 0.000000
-51.497184 -22.734869 -16.264813 0.000000 55.000000 14.531965 13.000000
-47.119616 -23.634918 -15.051503 0.000000 41.000000 14.238353 0.000000
-52.141795 -23.277639 -16.133570 0.000000 42.000000 14.142885 0.000000
-48.285473 -22.635366 -15.136950 0.000000 40.000000 14.246225 0.000000
-50.475226 -21.359663 -15.408686 0.000000 28.000000 14.243618 0.000000
-52.669282 -21.264437 -15.943159 0.000000 33.000000 14.248094 0.000000
-48.866825 -20.394895 -14.889361 0.000000 46.000000 14.330785 0.000000
-52.485674 -22.042005 -15.917381 0.000000 39.000000 14.108363 0.000000
-50.516083 -24.305053 -15.851133 0.000000 24.000000 14.051783 0.000000
-49.780228 -19.594700 -15.011886 0.000000 46.000000 14.393218 28.000000
-49.467080 -24.405373 -16.194894 0.000000 60.000000 14.607456 1.000000
-52.608270 -21.387356 -15.915069 0.000000 49.000000 14.210820 0.000000
-46.624779 -21.453127 -14.558510 0.000000 39.000000 14.334179 3.000000
-48.452470 -22.439296 -15.228464 0.000000 46.000000 14.333436 18.000000
-49.786959 -19.614851 -15.054409 0.000000 55.000000 14.427869 28.000000
-52.992962 -20.728634 -15.757551 0.000000 40.000000 14.104335 0.000000
-53.050209 -20.582136 -15.750214 0.000000 51.000000 14.113689 0.000000
-52.647460 -20.486962 -15.621037 0.000000 39.000000 14.106403 0.000000
-47.032752 -22.317474 -14.778247 0.000000 28.000000 14.268945 0.000000
-50.713806 -25.450225 -16.338707 0.000000 35.000000 14.233502 0.000000
-50.315937 -21.835611 -15.410937 0.000000 43.000000 14.186376 0.000000
-48.837747 -21.391739 -15.065973 0.000000 40.000000 14.301588 0.000000
-52.409301 -20.578604 -15.651885 0.000000 33.000000 14.173667 0.000000
-48.579240 -21.347811 -15.048912 0.000000 73.000000 14.355928 0.000000
-51.832542 -20.995426 -15.648929 0.000000 42.000000 14.222980 0.000000
-52.806586 -21.598505 -16.013012 0.000000 49.000000 14.213421 0.000000
-46.802990 -24.519135 -15.054069 0.000000 43.000000 14.135404 0.000000
-46.953264 -20.696948 -14.928229 0.000000 77.000000 14.761600 2.000000
-45.545405 -23.998202 -14.684683 0.000000 49.000000 14.190652 0.000000
-47.678353 -21.149134 -14.687482 0.000000 57.000000 14.267904 0.000000
-49.688945 -19.680047 -15.504212 0.000000 64.000000 14.864954 28.000000
-49.471674 -19.752631 -14.978672 0.000000 47.000000 14.402867 28.000000
-48.481084 -22.869841 -15.204529 0.000000 42.000000 14.215870 0.000000
-51.810158 -23.636957 -16.591474 0.000000 66.000000 14.583158 19.000000
-50.603301 -21.169191 -15.568050 0.000000 37.000000 14.403374 26.000000
-46.309652 -24.022613 -14.821783 0.000000 41.000000 14.133847 0.000000
-52.884670 -20.701597 -15.741855 0.000000 23.000000 14.120748 0.000000
-49.369126 -20.121460 -15.231572 0.000000 46.000000 14.591998 8.000000
-47.534952 -22.239270 -14.863265 0.000000 42.000000 14.246070 0.000000
-51.442104 -22.393067 -15.857383 0.000000 50.000000 14.228121 0.000000
-52.514683 -20.587077 -15.695521 0.000000 42.000000 14.188272 0.000000
-48.875276 -22.959676 -15.365959 0.000000 32.000000 14.256908 0.000000
-49.932925 -19.586469 -15.188246 0.000000 59.000000 14.525988 28.000000
-48.487272 -20.072636 -14.865699 0.000000 34.000000 14.464587 9.000000
-48.230698 -18.523624 -14.598021 0.000000 42.000000 14.588232 7.000000
-50.998648 -22.570942 -15.820824 0.000000 62.000000 14.262641 0.000000
-49.546241 -19.800700 -15.275991 0.000000 55.000000 14.657578 28.000000
-47.515248 -23.821772 -15.159896 0.000000 37.000000 14.208856 0.000000
-50.951062 -20.679228 -15.321387 0.000000 37.000000 14.186539 0.000000
-49.949073 -19.721740 -15.356893 0.000000 52.000000 14.654612 28.000000
-48.424085 -20.552306 -14.832745 0.000000 43.000000 14.350274 14.000000
-49.242334 -22.012409 -15.186082 0.000000 41.000000 14.192388 0.000000
-49.492088 -22.326875 -15.309654 0.000000 34.000000 14.185949 0.000000
-49.348303 -19.276611 -14.911015 0.000000 47.000000 14.465331 28.000000
-48.447946 -21.361444 -15.033669 0.000000 47.000000 14.369932 20.000000
-48.136554 -24.415423 -15.681782 0.000000 44.000000 14.435048 24.000000
-47.101471 -21.880037 -14.723929 0.000000 42.000000 14.290444 0.000000
-52.910858 -20.728897 -15.759839 0.000000 36.000000 14.126005 0.000000
-49.616323 -23.138377 -15.527246 0.000000 39.000000 14.197049 0.000000
-48.592979 -22.553066 -15.240820 0.000000 45.000000 14.288448 0.000000
-52.463317 -21.289397 -15.866577 0.000000 49.000000 14.219324 0.000000
-49.966539 -23.448956 -15.703290 0.000000 32.000000 14.217303 0.000000
-48.596182 -23.588203 -15.330555 0.000000 40.000000 14.161248 0.000000
-49.189361 -19.680806 -15.037220 0.000000 71.000000 14.540367 28.000000
-49.962965 -21.043430 -15.219620 0.000000 39.000000 14.250742 0.000000
-48.805192 -23.947812 -15.544870 0.000000 42.000000 14.241441 0.000000
-49.031828 -23.281380 -15.420207 0.000000 43.000000 14.205363 0.000000
-46.817284 -23.795560 -15.024772 0.000000 43.000000 14.252122 0.000000
-48.890647 -23.320387 -15.382669 0.000000 36.000000 14.195365 0.000000
-46.396463 -22.121137 -14.548090 0.000000 42.000000 14.242076 0.000000
-52.153200 -21.053377 -15.748911 0.000000 50.000000 14.229705 0.000000
-48.146220 -21.229961 -15.020880 0.000000 57.000000 14.456519 20.000000
-49.512323 -20.046622 -15.136053 0.000000 43.000000 14.482508 8.000000
-45.913432 -23.168982 -14.654624 0.000000 43.000000 14.244013 0.000000
-48.453916 -23.398087 -15.292940 0.000000 36.000000 14.198281 0.000000
-47.725855 -18.634466 -14.637940 0.000000 70.000000 14.723688 7.000000
-51.708500 -23.604393 -16.422697 0.000000 40.000000 14.453775 19.000000
-49.373002 -22.358116 -15.306597 0.000000 25.000000 14.205017 0.000000
-50.819804 -24.338186 -15.962039 0.000000 32.000000 14.077987 0.000000
-47.243955 -22.947098 -14.858110 0.000000 30.000000 14.165751 0.000000
-50.917919 -21.102162 -15.894704 0.000000 61.000000 14.652308 26.000000
-49.825157 -20.091380 -14.992136 0.000000 53.000000 14.262219 0.000000
-48.518670 -22.160725 -15.265706 0.000000 56.000000 14.409987 18.000000
-52.689299 -20.602088 -15.685957 0.000000 35.000000 14.134542 0.000000
-46.643087 -22.964227 -14.780545 0.000000 51.000000 14.231685 0.000000
-47.136597 -23.475119 -15.028462 0.000000 46.000000 14.245104 0.000000
-49.772882 -23.461318 -15.677276 0.000000 31.000000 14.236190 0.000000
-48.888326 -23.604029 -15.383822 0.000000 40.000000 14.139022 0.000000
-47.957681 -20.222644 -14.423541 0.000000 24.000000 14.140209 0.000000
-49.583615 -20.452224 -14.994450 0.000000 59.000000 14.248157 0.000000
-51.818922 -20.979453 -15.670033 0.000000 35.000000 14.249527 0.000000
-48.437293 -24.287020 -15.513794 0.000000 39.000000 14.230188 0.000000
-50.290906 -20.538087 -15.530904 0.000000 55.000000 14.571527 27.000000
-50.642693 -19.850736 -15.011352 0.000000 27.000000 14.134989 0.000000
-48.457035 -20.343397 -14.740712 0.000000 44.000000 14.297757 0.000000
-51.794572 -21.577876 -15.742494 0.000000 33.000000 14.201775 0.000000
-46.030503 -23.413172 -14.735568 0.000000 39.000000 14.243064 0.000000
-50.341678 -19.530008 -14.816434 0.000000 41.000000 14.087173 0.000000
-46.674388 -21.943160 -14.578984 0.000000 34.000000 14.241617 0.000000
-50.677894 -25.322999 -16.300226 0.000000 32.000000 14.231529 0.000000
-48.182116 -20.500537 -14.740642 0.000000 45.000000 14.331028 6.000000
-52.908119 -21.897074 -16.111408 0.000000 24.000000 14.221624 0.000000
-49.665701 -22.073847 -15.365559 0.000000 51.000000 14.249421 0.000000
-49.936469 -24.625305 -16.098574 0.000000 48.000000 14.359265 1.000000
-50.713064 -25.434647 -16.310469 0.000000 39.000000 14.210053 0.000000
-52.359371 -22.800562 -16.329357 0.000000 53.000000 14.374509 13.000000
-50.763023 -25.272120 -16.293398 0.000000 39.000000 14.215178 0.000000
-48.197979 -19.915321 -14.889052 0.000000 48.000000 14.587811 9.000000
-47.352353 -21.171566 -14.871818 0.000000 53.000000 14.515969 2.000000
-50.772763 -25.755710 -16.620661 0.000000 46.000000 14.424713 29.000000
-50.094707 -21.243211 -15.343778 0.000000 54.000000 14.296410 0.000000
-49.675860 -21.491785 -15.229632 0.000000 33.000000 14.236947 0.000000
-49.999044 -23.987782 -15.772285 0.000000 35.000000 14.164906 0.000000
-51.166273 -24.614541 -16.095046 0.000000 32.000000 14.065269 0.000000
-50.031688 -23.809422 -15.792495 0.000000 37.000000 14.212788 0.000000
-52.407981 -21.797708 -16.306601 0.000000 44.000000 14.546365 15.000000
-49.605147 -23.266297 -15.543049 0.000000 39.000000 14.188560 0.000000
-48.963161 -19.672144 -14.959751 0.000000 57.000000 14.522447 28.000000
-47.738069 -18.538838 -14.802940 0.000000 60.000000 14.896994 7.000000
-51.567531 -20.774539 -15.544196 0.000000 53.000000 14.231806 0.000000
-47.133920 -23.841528 -15.060771 0.000000 30.000000 14.201504 0.000000
-50.569484 -21.712832 -15.512130 0.000000 59.000000 14.247183 0.000000
-51.399698 -23.773437 -16.137410 0.000000 47.000000 14.221874 0.000000
-47.456065 -22.095674 -14.828160 0.000000 22.000000 14.260882 0.000000
-50.495064 -22.801801 -15.751499 0.000000 49.000000 14.269534 0.000000
-49.640960 -23.000295 -15.563244 0.000000 39.000000 14.253592 0.000000
-47.396035 -24.142807 -15.468626 0.000000 41.000000 14.464737 25.000000
-49.345627 -20.446458 -15.065526 0.000000 23.000000 14.373491 8.000000
-50.278021 -20.641006 -15.670787 0.000000 64.000000 14.686367 27.000000
-48.463315 -20.677149 -15.162350 0.000000 37.000000 14.628358 14.000000
-51.179517 -20.599675 -15.398480 0.000000 46.000000 14.221601 0.000000
-50.663471 -25.759165 -16.549258 0.000000 36.000000 14.382236 29.000000
-50.933018 -22.184510 -15.682151 0.000000 49.000000 14.225610 0.000000
-48.198372 -21.737036 -14.799182 0.000000 32.000000 14.129932 0.000000
-51.019136 -22.058225 -15.677773 0.000000 50.000000 14.226766 0.000000
-52.136092 -22.570426 -16.059713 0.000000 50.000000 14.218710 0.000000
-50.107937 -20.538608 -15.628472 0.000000 62.000000 14.707627 27.000000
-50.736394 -22.650643 -15.739736 0.000000 49.000000 14.231804 0.000000
-51.293773 -22.158158 -15.775519 0.000000 40.000000 14.233743 0.000000
-52.429061 -22.209158 -16.034048 0.000000 52.000000 14.198441 0.000000
-51.031185 -24.113205 -16.154443 0.000000 37.000000 14.256332 0.000000
-52.592007 -22.140150 -15.969905 0.000000 64.000000 14.112847 0.000000
-52.200408 -22.777849 -16.655221 0.000000 52.000000 14.726404 13.000000
-49.586875 -20.125389 -15.122114 0.000000 60.000000 14.435417 8.000000
-47.842733 -18.805854 -14.819800 0.000000 52.000000 14.833486 7.000000
-47.696588 -24.105370 -15.345582 0.000000 32.000000 14.283995 0.000000
-49.603215 -20.467776 -14.987614 0.000000 27.000000 14.233819 0.000000
-48.431795 -19.887894 -14.986492 0.000000 42.000000 14.630258 9.000000
-53.124692 -21.376191 -16.043367 0.000000 48.000000 14.211946 0.000000
-50.852817 -19.948554 -15.121821 0.000000 48.000000 14.169841 0.000000
-51.769000 -23.511848 -16.134466 0.000000 28.000000 14.184622 0.000000
-50.379032 -21.740782 -15.466087 0.000000 58.000000 14.243104 0.000000
-48.860408 -19.359044 -14.789555 0.000000 44.000000 14.449334 28.000000
-50.457566 -21.815103 -15.476955 0.000000 40.000000 14.219526 0.000000
-52.102721 -22.748823 -16.400641 0.000000 35.000000 14.513884 13.000000
-48.492479 -19.789342 -14.926571 0.000000 35.000000 14.579064 9.000000
-47.539357 -20.879254 -14.862773 0.000000 69.000000 14.522615 2.000000
-49.476687 -20.975881 -15.088838 0.000000 24.000000 14.256174 0.000000
-51.057972 -21.218474 -15.865475 0.000000 60.000000 14.567425 26.000000
-46.856892 -21.147892 -14.367397 0.000000 50.000000 14.159857 0.000000
-49.994554 -20.031158 -14.995498 0.000000 48.000000 14.237386 0.000000
-52.580471 -20.424420 -15.608154 0.000000 33.000000 14.122910 0.000000
-51.303285 -20.374008 -15.406837 0.000000 49.000000 14.246202 0.000000
-49.376358 -22.657698 -15.609128 0.000000 60.000000 14.430211 0.000000
-50.519215 -21.633737 -15.504833 0.000000 54.000000 14.268396 0.000000
-47.252591 -20.826692 -14.921117 0.000000 67.000000 14.657043 2.000000
-48.356663 -19.601921 -14.975347 0.000000 75.000000 14.696036 9.000000
-49.418426 -23.791449 -15.614401 0.000000 27.000000 14.193400 0.000000
-51.225880 -20.889207 -15.626691 0.000000 51.000000 14.368045 26.000000
-51.467229 -22.373541 -15.878710 0.000000 25.000000 14.246379 0.000000
-50.008624 -20.721694 -15.100445 0.000000 38.000000 14.192496 0.000000
-49.503604 -22.931290 -15.572623 0.000000 45.000000 14.309314 0.000000
-49.656910 -19.863835 -15.249936 0.000000 63.000000 14.593579 28.000000
-47.631670 -19.007570 -14.645151 0.000000 53.000000 14.676680 7.000000
-49.625578 -20.842618 -14.931747 0.000000 31.000000 14.098813 0.000000
-50.415375 -21.282372 -15.309733 0.000000 44.000000 14.179720 0.000000
-50.998360 -19.965513 -15.112482 0.000000 21.000000 14.122849 0.000000
-48.081427 -24.655410 -15.651220 0.000000 31.000000 14.370092 0.000000
-46.611959 -22.634282 -14.586918 0.000000 26.000000 14.122713 0.000000
-49.076377 -20.803859 -14.965240 0.000000 44.000000 14.269316 0.000000
-47.974190 -24.615085 -15.630590 0.000000 24.000000 14.384285 24.000000
-48.248000 -23.789419 -15.655606 0.000000 44.000000 14.511646 12.000000
-49.181456 -20.889460 -15.018221 0.000000 36.000000 14.277096 0.000000
-50.056441 -19.827113 -15.114500 0.000000 72.000000 14.377356 28.000000
-47.592072 -20.349159 -14.945639 0.000000 55.000000 14.697121 6.000000
-47.448291 -19.874796 -14.246868 0.000000 42.000000 14.164881 0.000000
-49.548593 -20.167464 -15.022728 0.000000 65.000000 14.341567 8.000000
-48.219192 -20.870430 -14.740824 0.000000 42.000000 14.246746 0.000000
-51.992308 -20.881202 -15.634844 0.000000 40.000000 14.194916 0.000000
-48.071884 -20.868021 -14.711001 0.000000 42.000000 14.254000 0.000000
-51.703164 -24.561765 -16.405443 0.000000 51.000000 14.242924 0.000000
-51.316376 -25.536828 -16.470588 0.000000 46.000000 14.197527 0.000000
-47.443077 -20.842732 -14.914027 0.000000 56.000000 14.601673 2.000000
-52.856624 -21.356120 -15.974728 0.000000 44.000000 14.214712 0.000000
-47.644823 -20.240040 -15.030862 0.000000 82.000000 14.787786 6.000000
-46.965711 -21.135644 -14.378788 0.000000 39.000000 14.147264 0.000000
-47.855582 -19.820770 -14.554966 0.000000 44.000000 14.371471 9.000000
-49.336073 -25.238584 -16.085399 0.000000 28.000000 14.364337 30.000000
-50.967539 -21.564602 -15.531598 0.000000 28.000000 14.201187 0.000000
-50.758948 -21.380557 -15.416828 0.000000 35.000000 14.179515 0.000000
-49.186463 -19.877564 -14.885588 0.000000 49.000000 14.356858 8.000000
-46.213630 -22.452515 -14.496345 0.000000 37.000000 14.168732 0.000000
-49.548039 -21.985738 -15.291310 0.000000 41.000000 14.224955 0.000000
-48.432567 -24.473576 -15.535849 0.000000 40.000000 14.214112 0.000000
-49.163355 -19.370866 -15.246638 0.000000 69.000000 14.808764 28.000000
-48.511955 -24.342918 -15.532184 0.000000 38.000000 14.218441 0.000000
-48.593223 -24.211734 -15.532269 0.000000 40.000000 14.225991 0.000000
-48.665141 -24.069372 -15.546130 0.000000 40.000000 14.251132 0.000000
-46.693741 -21.517553 -14.697370 0.000000 64.000000 14.436429 3.000000
-47.874902 -23.403680 -15.044363 0.000000 34.000000 14.098999 0.000000
-48.287636 -19.971936 -15.017415 0.000000 59.000000 14.676764 9.000000
-51.998360 -21.315911 -16.196253 0.000000 69.000000 14.637638 4.000000
-49.893337 -21.699805 -15.369592 0.000000 35.000000 14.275519 0.000000
-50.046705 -19.845827 -14.996000 0.000000 56.000000 14.263336 0.000000
-49.103550 -23.685860 -15.436425 0.000000 36.000000 14.120986 0.000000
-48.087494 -22.977945 -15.131813 0.000000 39.000000 14.218450 0.000000
-50.205824 -19.670065 -15.087620 0.000000 42.000000 14.348371 28.000000
-46.518976 -21.621436 -14.513302 0.000000 50.000000 14.282038 0.000000
-49.071735 -21.572188 -15.138237 0.000000 55.000000 14.277589 0.000000
-49.557917 -23.226925 -15.544212 0.000000 34.000000 14.208961 0.000000
-49.431289 -23.169762 -15.508927 0.000000 48.000000 14.217299 0.000000
-48.441892 -22.501928 -15.183207 0.000000 43.000000 14.280179 0.000000
-50.238725 -22.790822 -15.719801 0.000000 49.000000 14.302724 0.000000
-49.820670 -22.722695 -15.547309 0.000000 40.000000 14.252426 0.000000
-47.718685 -20.879257 -14.617119 0.000000 40.000000 14.246671 0.000000
-49.943639 -22.634730 -15.535133 0.000000 47.000000 14.229568 0.000000
-47.583177 -19.196608 -14.757466 0.000000 80.000000 14.756218 9.000000
-48.920111 -20.811407 -14.917625 0.000000 46.000000 14.259775 0.000000
-50.290470 -22.351582 -15.536236 0.000000 52.000000 14.205917 0.000000
-52.834209 -21.026457 -16.098990 0.000000 70.000000 14.405434 23.000000
-51.385980 -23.426743 -16.142610 0.000000 37.000000 14.300961 19.000000
-50.503299 -22.150802 -15.566756 0.000000 54.000000 14.225264 0.000000
-50.606424 -19.593707 -14.939843 0.000000 32.000000 14.128280 0.000000
-51.426824 -21.677692 -15.608874 0.000000 36.000000 14.142069 0.000000
-45.986510 -23.546362 -14.892429 0.000000 48.000000 14.375243 10.000000
-49.167289 -19.342196 -15.017438 0.000000 58.000000 14.596071 28.000000
-50.665238 -20.126080 -15.486685 0.000000 73.000000 14.524640 5.000000
-47.298652 -20.308827 -14.490165 0.000000 54.000000 14.342778 6.000000
-49.692402 -23.073854 -15.547967 0.000000 33.000000 14.211798 0.000000
-46.452437 -22.203498 -14.688684 0.000000 49.000000 14.345398 0.000000
-49.553928 -22.341895 -15.350373 0.000000 46.000000 14.206814 0.000000
-49.816991 -20.252987 -15.020057 0.000000 53.000000 14.257632 0.000000
-49.415567 -19.262263 -14.991795 0.000000 55.000000 14.528945 28.000000
-50.616688 -21.831283 -15.543646 0.000000 40.000000 14.241648 0.000000
-48.022939 -24.353672 -15.709645 0.000000 37.000000 14.501184 24.000000
-51.820005 -21.694567 -15.677226 0.000000 28.000000 14.109891 0.000000
-48.652969 -22.838473 -15.353603 0.000000 30.000000 14.322895 0.000000
-49.689522 -21.860426 -15.332776 0.000000 28.000000 14.256257 0.000000
-51.038002 -20.562694 -15.351606 0.000000 48.000000 14.218355 0.000000
-51.148978 -23.777881 -16.104691 0.000000 38.000000 14.249603 0.000000
-50.274325 -20.212928 -15.104776 0.000000 51.000000 14.237358 0.000000
-52.253154 -20.962864 -15.784810 0.000000 59.000000 14.258495 0.000000
-51.304874 -21.682079 -15.529609 0.000000 26.000000 14.094952 0.000000
-49.201465 -23.189134 -15.485867 0.000000 29.000000 14.246171 0.000000
-49.966252 -24.631967 -16.016368 0.000000 46.000000 14.272758 0.000000
-52.342426 -20.390985 -15.567057 0.000000 22.000000 14.147410 0.000000
-50.317702 -23.297001 -15.823160 0.000000 38.000000 14.278563 0.000000
-50.934839 -20.580876 -15.335632 0.000000 45.000000 14.224035 0.000000
-52.103952 -20.396444 -15.523744 0.000000 29.000000 14.161955 0.000000
-48.242959 -21.396683 -15.200297 0.000000 52.000000 14.569749 20.000000
-50.199844 -23.612948 -15.833852 0.000000 40.000000 14.252183 0.000000
-46.773855 -21.637826 -14.753928 0.000000 61.000000 14.446462 3.000000
-49.206458 -20.513103 -14.931215 0.000000 46.000000 14.265481 0.000000
-50.944035 -19.710739 -15.050082 0.000000 39.000000 14.128627 0.000000
-48.153054 -18.713062 -15.009716 0.000000 58.000000 14.958882 7.000000
-50.235967 -24.770017 -16.089200 0.000000 45.000000 14.249459 0.000000
-51.504388 -20.129023 -15.299295 0.000000 41.000000 14.146294 0.000000
-51.788439 -20.563645 -15.572023 0.000000 59.000000 14.248742 0.000000
-48.737790 -19.889871 -14.733675 0.000000 68.000000 14.316946 9.000000
-46.533961 -23.064394 -14.920671 0.000000 57.000000 14.370237 11.000000
-47.374112 -22.916771 -14.909995 0.000000 27.000000 14.190222 0.000000
-48.027440 -20.127797 -14.520383 0.000000 35.000000 14.234939 0.000000
-50.596847 -20.892765 -15.670841 0.000000 43.000000 14.559024 26.000000
-48.766523 -19.415456 -14.569141 0.000000 35.000000 14.250880 0.000000
-51.852915 -23.521938 -16.280302 0.000000 39.000000 14.301044 19.000000
-48.891587 -19.614813 -14.644565 0.000000 41.000000 14.251953 0.000000
-52.824312 -21.693126 -16.035899 0.000000 33.000000 14.211584 0.000000
-47.580469 -21.004491 -14.979854 0.000000 43.000000 14.598385 2.000000
-48.483981 -19.485750 -14.513086 0.000000 41.000000 14.250566 0.000000
-50.572432 -20.630629 -15.346669 0.000000 75.000000 14.310641 27.000000
-47.380877 -19.590628 -14.498090 0.000000 63.000000 14.477562 9.000000
-48.505494 -22.149283 -15.286570 0.000000 48.000000 14.435274 18.000000
-48.694596 -22.251083 -15.241623 0.000000 45.000000 14.326754 18.000000
-51.339776 -20.962255 -16.003259 0.000000 74.000000 14.683528 26.000000
-51.725265 -23.465066 -16.391411 0.000000 49.000000 14.448563 19.000000
-49.032242 -22.172623 -15.116029 0.000000 44.000000 14.143146 0.000000
-52.405581 -21.534247 -15.900363 0.000000 36.000000 14.215090 0.000000
-49.793345 -20.867114 -14.996877 0.000000 30.000000 14.115693 0.000000
-48.080866 -21.885516 -14.951421 0.000000 51.000000 14.272103 0.000000
-48.355669 -21.450380 -15.115264 0.000000 57.000000 14.451194 20.000000
-46.495517 -22.833640 -14.699981 0.000000 35.000000 14.217031 0.000000
-51.068538 -22.355000 -15.742321 0.000000 48.000000 14.215612 0.000000
-46.723149 -22.681332 -14.661708 0.000000 33.000000 14.157627 0.000000
-52.237205 -21.141966 -15.813657 0.000000 35.000000 14.253063 0.000000
-49.301746 -20.224723 -15.315808 0.000000 67.000000 14.666910 8.000000
-50.335705 -22.385360 -15.593622 0.000000 26.000000 14.242725 0.000000
-47.899638 -20.473029 -15.072262 0.000000 60.000000 14.718781 6.000000
-51.964911 -23.684474 -16.510271 0.000000 58.000000 14.459493 19.000000
-47.536852 -21.935105 -14.797800 0.000000 36.000000 14.245648 0.000000
-50.971419 -23.314417 -15.938290 0.000000 43.000000 14.228648 0.000000
-47.861764 -20.662680 -14.766855 0.000000 48.000000 14.399050 6.000000
-47.760334 -21.772813 -14.829568 0.000000 38.000000 14.255776 0.000000
-49.570546 -19.920829 -15.127369 0.000000 65.000000 14.486118 28.000000
-51.532258 -20.766661 -15.766642 0.000000 32.000000 14.453022 0.000000
-46.965637 -21.100310 -14.520060 0.000000 42.000000 14.288640 0.000000
-52.347677 -21.177416 -15.843374 0.000000 28.000000 14.247725 0.000000
-52.436783 -22.181188 -15.998896 0.000000 46.000000 14.168945 0.000000
-47.589284 -20.781118 -14.561423 0.000000 39.000000 14.244667 0.000000
-50.927649 -23.510925 -15.959634 0.000000 38.000000 14.219160 0.000000
-49.856755 -21.904360 -15.410773 0.000000 44.000000 14.281507 0.000000
-48.144163 -19.600270 -14.894656 0.000000 72.000000 14.670360 9.000000
-49.170851 -25.507376 -15.894050 0.000000 26.000000 14.167046 0.000000
-49.243493 -20.979410 -15.022256 0.000000 47.000000 14.247765 0.000000
-49.255841 -24.100286 -15.777054 0.000000 44.000000 14.323408 1.000000
-49.913013 -24.374384 -15.882083 0.000000 26.000000 14.210600 0.000000
-51.596996 -22.278451 -15.960119 0.000000 40.000000 14.312216 0.000000
-47.418771 -19.365087 -14.922232 0.000000 66.000000 14.917362 9.000000
-49.879605 -20.850217 -14.989455 0.000000 42.000000 14.091560 0.000000
-47.848322 -21.991526 -15.219132 0.000000 68.000000 14.559987 18.000000
-50.607408 -20.477949 -15.282629 0.000000 49.000000 14.272724 0.000000
-49.373652 -19.383177 -15.004335 0.000000 39.000000 14.526111 28.000000
-52.190683 -22.452827 -16.082777 0.000000 50.000000 14.251653 0.000000
-51.083951 -20.392602 -15.327275 0.000000 48.000000 14.219087 0.000000
-51.205280 -20.337002 -15.385827 0.000000 56.000000 14.257156 0.000000
-51.372527 -20.314780 -15.400985 0.000000 60.000000 14.236266 0.000000
-46.954601 -22.541146 -14.831430 0.000000 51.000000 14.292320 0.000000
-47.398121 -20.159047 -14.854851 0.000000 50.000000 14.695973 6.000000
-51.746551 -20.298900 -15.395779 0.000000 45.000000 14.145506 0.000000
-51.923389 -20.283560 -15.410267 0.000000 45.000000 14.120288 0.000000
-50.985106 -19.750224 -15.059276 0.000000 42.000000 14.119504 0.000000
-47.048045 -20.740201 -15.132752 0.000000 51.000000 14.924376 2.000000
-49.021660 -22.211102 -15.191423 0.000000 27.000000 14.209383 0.000000
-47.806624 -22.715818 -15.088131 0.000000 46.000000 14.297449 0.000000
-48.160854 -19.758063 -14.959610 0.000000 71.000000 14.695796 9.000000
-49.509770 -21.089888 -15.081206 0.000000 52.000000 14.217741 0.000000
-50.827409 -22.051247 -15.647572 0.000000 56.000000 14.245173 0.000000
-48.465639 -20.859154 -15.022023 0.000000 43.000000 14.457356 14.000000
-48.721268 -23.214748 -15.376839 0.000000 48.000000 14.251762 0.000000
-50.271661 -22.701443 -15.655237 0.000000 43.000000 14.251852 0.000000
-48.762798 -20.774963 -14.926481 0.000000 61.000000 14.313094 14.000000
-52.595037 -22.564525 -16.169510 0.000000 53.000000 14.214879 0.000000
-48.629735 -25.268862 -15.724369 0.000000 43.000000 14.183556 0.000000
-52.202481 -23.449623 -16.154846 0.000000 41.000000 14.113471 0.000000
-49.336016 -19.262419 -14.881501 0.000000 59.000000 14.443135 28.000000
-50.827925 -23.209841 -15.913173 0.000000 32.000000 14.260351 0.000000
-51.594361 -24.165099 -16.241961 0.000000 37.000000 14.194712 0.000000
-49.301935 -24.218088 -16.046203 0.000000 43.000000 14.543895 1.000000
-49.334350 -19.508638 -15.214149 0.000000 44.000000 14.709031 28.000000
-48.930021 -20.630268 -14.779911 0.000000 31.000000 14.163693 0.000000
-50.597153 -21.571510 -15.496219 0.000000 36.000000 14.254381 0.000000
-49.140652 -23.917183 -15.588601 0.000000 49.000000 14.209343 0.000000
-50.612969 -24.371287 -15.898574 0.000000 29.000000 14.060214 0.000000
-50.614256 -25.195064 -16.258504 0.000000 34.000000 14.233226 0.000000
-50.514354 -25.320121 -16.237795 0.000000 33.000000 14.211784 0.000000
-49.038397 -21.304142 -15.127704 0.000000 39.000000 14.330330 0.000000
-50.143273 -25.861353 -16.093190 0.000000 26.000000 14.052193 0.000000
-49.902567 -19.328140 -15.123786 0.000000 40.000000 14.524831 28.000000
-48.781929 -20.171097 -14.781563 0.000000 22.000000 14.294406 0.000000
-47.550167 -21.270686 -14.671176 0.000000 33.000000 14.258095 0.000000
-48.725727 -19.411954 -14.553792 0.000000 41.000000 14.246737 0.000000
-47.801669 -18.987874 -14.698673 0.000000 47.000000 14.691043 7.000000
-46.936426 -22.399434 -14.793653 0.000000 49.000000 14.289754 0.000000
-51.394919 -25.009561 -16.355375 0.000000 35.000000 14.177234 0.000000
-52.055360 -23.529847 -16.143260 0.000000 42.000000 14.121102 0.000000
-46.669641 -24.415801 -15.032491 0.000000 23.000000 14.167797 0.000000
-50.904428 -20.972705 -15.901862 0.000000 76.000000 14.688785 26.000000
-49.791571 -24.458301 -16.296218 0.000000 38.000000 14.615571 1.000000
-50.308535 -24.530476 -15.924678 0.000000 32.000000 14.124945 0.000000
-48.498617 -19.659160 -14.968551 0.000000 77.000000 14.644076 9.000000
-48.572159 -23.159223 -15.293123 0.000000 41.000000 14.219135 0.000000
-48.457945 -19.672749 -15.136556 0.000000 57.000000 14.810500 9.000000
-49.491451 -21.142759 -15.173023 0.000000 41.000000 14.298471 0.000000
-48.784661 -21.367742 -15.008075 0.000000 39.000000 14.264163 0.000000
-47.461784 -20.913309 -15.036479 0.000000 62.000000 14.699053 2.000000
-48.123787 -19.790470 -14.852164 0.000000 72.000000 14.595981 9.000000
-50.313605 -21.579605 -15.431838 0.000000 52.000000 14.259118 0.000000
-52.236064 -22.009867 -15.860995 0.000000 32.000000 14.120836 0.000000
-50.990081 -23.476347 -16.031724 0.000000 29.000000 14.279810 0.000000
-50.619145 -22.930802 -15.792609 0.000000 48.000000 14.252645 0.000000
-46.513833 -21.853753 -14.518319 0.000000 46.000000 14.240528 0.000000
-51.380213 -22.039145 -15.838373 0.000000 57.000000 14.297170 0.000000
-52.371801 -22.717770 -16.178437 0.000000 59.000000 14.245182 0.000000
-48.100827 -19.931343 -14.701445 0.000000 58.000000 14.429543 9.000000
-46.338458 -23.130397 -14.932278 0.000000 44.000000 14.414317 11.000000
-47.104750 -23.933037 -15.278065 0.000000 49.000000 14.396055 25.000000
-51.077528 -22.367767 -15.756119 0.000000 44.000000 14.223962 0.000000
-48.043038 -22.356974 -15.047419 0.000000 27.000000 14.275866 0.000000
-48.568343 -25.218147 -15.692921 0.000000 53.000000 14.178685 0.000000
-47.468593 -23.510597 -15.350436 0.000000 48.000000 14.464499 12.000000
-49.778198 -21.273210 -15.231625 0.000000 45.000000 14.259159 0.000000
-47.412790 -20.076333 -14.602562 0.000000 65.000000 14.469851 6.000000
-46.539688 -24.244033 -14.923366 0.000000 29.000000 14.130250 0.000000
-50.570590 -22.701939 -15.726392 0.000000 46.000000 14.248128 0.000000
-48.544514 -19.715635 -15.046537 0.000000 78.000000 14.695646 9.000000
-50.436230 -22.779205 -15.720332 0.000000 43.000000 14.258572 0.000000
-48.879584 -22.538452 -15.261449 0.000000 46.000000 14.242775 0.000000
-51.071115 -23.588290 -16.057384 0.000000 51.000000 14.261990 0.000000
-53.273231 -21.121279 -16.066399 0.000000 35.000000 14.250561 0.000000
-52.896660 -21.760409 -16.167830 0.000000 77.000000 14.305865 15.000000
-46.013413 -23.948822 -14.751448 0.000000 27.000000 14.152695 0.000000
-49.827148 -23.199381 -15.603500 0.000000 31.000000 14.206774 0.000000
-47.322848 -21.178360 -14.912282 0.000000 64.000000 14.560025 2.000000
-50.168175 -24.006803 -15.826720 0.000000 46.000000 14.172427 0.000000
-48.801193 -23.491294 -15.412921 0.000000 44.000000 14.210447 0.000000
-49.534073 -23.310303 -15.600755 0.000000 41.000000 14.251277 0.000000
-47.714242 -24.819794 -15.373097 0.000000 28.000000 14.159849 0.000000
-48.379770 -21.621464 -15.000124 0.000000 25.000000 14.301154 0.000000
-49.985574 -23.150819 -15.728305 0.000000 43.000000 14.297476 0.000000
-47.709073 -19.894581 -14.263038 0.000000 40.000000 14.114090 0.000000
-49.152315 -23.528820 -15.516435 0.000000 31.000000 14.217447 0.000000
-47.544537 -23.585408 -15.269576 0.000000 37.000000 14.354345 12.000000
-51.150194 -21.586447 -15.486832 0.000000 36.000000 14.110722 0.000000
-51.752444 -20.848339 -15.565718 0.000000 48.000000 14.193120 0.000000
-48.876899 -23.644603 -15.476310 0.000000 37.000000 14.221261 0.000000
-51.108135 -22.743035 -15.902520 0.000000 35.000000 14.278952 0.000000
-48.691592 -20.700063 -15.166502 0.000000 60.000000 14.573257 14.000000
-49.435364 -22.190967 -15.388780 0.000000 43.000000 14.302372 0.000000
-46.596800 -23.196514 -15.006998 0.000000 60.000000 14.410226 0.000000
-50.635248 -23.295044 -15.827698 0.000000 39.000000 14.207656 0.000000
-49.189680 -23.309309 -15.662134 0.000000 33.000000 14.391768 0.000000
-51.593253 -21.545363 -15.592787 0.000000 21.000000 14.114219 0.000000
-49.544566 -23.597722 -15.641985 0.000000 41.000000 14.229162 0.000000
-49.637884 -23.673799 -15.631606 0.000000 24.000000 14.181532 0.000000
-48.554288 -24.623722 -15.635100 0.000000 41.000000 14.248665 0.000000
-51.258090 -24.068269 -16.188551 0.000000 58.000000 14.243872 0.000000
-49.825251 -25.614139 -16.020064 0.000000 33.000000 14.109035 0.000000
-50.309348 -23.629489 -15.858046 0.000000 22.000000 14.245697 0.000000
-47.922237 -24.897111 -15.355394 0.000000 30.000000 14.077704 0.000000
-51.283395 -22.959964 -15.885589 0.000000 49.000000 14.176790 0.000000
-48.923867 -24.642055 -15.728907 0.000000 40.000000 14.245978 0.000000
-46.803942 -24.298890 -15.015689 0.000000 31.000000 14.143767 0.000000
-50.998391 -20.372429 -15.303961 0.000000 50.000000 14.221449 0.000000
-46.511862 -24.326548 -14.962283 0.000000 34.000000 14.156955 0.000000
-48.995369 -23.850335 -15.511508 0.000000 32.000000 14.184407 0.000000
-50.705338 -26.072534 -16.377558 0.000000 34.000000 14.145174 0.000000
-50.393155 -25.734349 -16.318006 0.000000 32.000000 14.232113 0.000000
-48.761575 -21.006085 -14.886955 0.000000 40.000000 14.228604 0.000000
-50.062811 -21.576024 -15.416502 0.000000 52.000000 14.305009 0.000000
-47.914681 -18.999012 -14.880118 0.000000 60.000000 14.834132 7.000000
-50.796762 -25.601644 -16.605350 0.000000 60.000000 14.435960 29.000000
-50.557553 -23.662241 -15.917271 0.000000 22.000000 14.236129 0.000000
-50.941496 -24.694937 -16.167383 0.000000 40.000000 14.171038 0.000000
-48.914414 -22.259895 -15.189500 0.000000 33.000000 14.223119 0.000000
-51.102734 -24.453422 -16.041857 0.000000 32.000000 14.062839 0.000000
-50.337326 -23.671890 -15.836921 0.000000 29.000000 14.210308 0.000000
-49.260631 -21.819378 -15.267517 0.000000 58.000000 14.304817 0.000000
-49.047170 -24.166531 -15.969482 0.000000 46.000000 14.542258 1.000000
-49.504396 -20.490115 -15.055106 0.000000 54.000000 14.316865 0.000000
-47.429481 -21.523124 -14.681328 0.000000 53.000000 14.244861 0.000000
-51.248237 -23.372974 -16.072128 0.000000 62.000000 14.277834 0.000000
-51.114268 -22.163759 -15.689575 0.000000 35.000000 14.193741 0.000000
-46.723686 -23.353972 -14.888006 0.000000 39.000000 14.234838 0.000000
-50.244305 -25.909911 -16.161555 0.000000 28.000000 14.083117 0.000000
-49.414089 -24.941012 -16.138512 0.000000 58.000000 14.457029 30.000000
-46.157381 -22.931926 -14.924029 0.000000 53.000000 14.490182 11.000000
-47.221156 -20.856947 -14.715968 0.000000 54.000000 14.463560 2.000000
-51.731103 -22.411138 -15.912749 0.000000 40.000000 14.208176 0.000000
-52.008818 -21.729325 -15.862413 0.000000 27.000000 14.233653 0.000000
-51.881295 -21.946203 -15.938141 0.000000 63.000000 14.291580 0.000000
-48.873547 -20.301880 -14.957072 0.000000 52.000000 14.412491 8.000000
-49.860687 -23.900398 -15.711003 0.000000 34.000000 14.157533 0.000000
-49.422409 -20.298018 -15.206829 0.000000 69.000000 14.519720 8.000000
-52.412234 -21.200114 -15.830214 0.000000 50.000000 14.215217 0.000000
-51.715280 -21.944868 -15.846265 0.000000 58.000000 14.244151 0.000000
-52.571355 -20.936201 -15.830097 0.000000 51.000000 14.231173 0.000000
-52.642078 -20.797935 -15.841679 0.000000 52.000000 14.253598 0.000000
-50.591286 -21.741866 -15.545484 0.000000 42.000000 14.267724 0.000000
-48.470898 -19.703392 -15.154115 0.000000 81.000000 14.817822 9.000000
-50.281688 -24.760890 -16.106055 0.000000 42.000000 14.256441 0.000000
-51.520175 -24.434380 -16.321024 0.000000 31.000000 14.232390 0.000000
-46.544036 -21.888501 -14.545098 0.000000 33.000000 14.251657 0.000000
-52.273864 -21.595410 -15.938282 0.000000 56.000000 14.269954 0.000000
-50.141612 -25.916603 -16.147831 0.000000 30.000000 14.093172 0.000000
-48.116772 -21.019963 -15.128203 0.000000 46.000000 14.608368 20.000000
-51.892554 -20.697420 -15.598404 0.000000 49.000000 14.221647 0.000000
-49.751472 -19.369618 -15.234271 0.000000 58.000000 14.657232 28.000000
-50.654008 -23.603229 -15.905183 0.000000 33.000000 14.213749 0.000000
-50.287028 -21.095504 -15.190863 0.000000 32.000000 14.135624 0.000000
-47.269687 -19.963594 -14.313906 0.000000 47.000000 14.252907 0.000000
-52.559747 -21.397142 -15.899145 0.000000 52.000000 14.205255 0.000000
-48.322490 -21.270210 -15.180832 0.000000 57.000000 14.558187 20.000000
-50.435256 -23.017147 -15.822462 0.000000 58.000000 14.307124 0.000000
-46.376174 -23.394529 -14.810734 0.000000 37.000000 14.235930 0.000000
-52.221143 -21.364106 -15.950084 0.000000 36.000000 14.341005 4.000000
-51.676031 -21.742839 -15.744534 0.000000 50.000000 14.198212 0.000000
-52.495869 -21.663510 -16.228432 0.000000 70.000000 14.478654 15.000000
-50.074028 -22.684407 -15.643444 0.000000 48.000000 14.291200 0.000000
-47.956479 -22.033096 -15.026073 0.000000 51.000000 14.342428 18.000000
-50.228122 -20.642829 -15.750490 0.000000 55.000000 14.773552 27.000000
-50.345338 -21.333316 -15.343338 0.000000 43.000000 14.217888 0.000000
-51.067126 -22.582061 -15.823411 0.000000 46.000000 14.246517 0.000000
-47.634017 -23.750075 -15.346253 0.000000 22.000000 14.372173 0.000000
-51.514566 -22.847489 -16.323734 0.000000 63.000000 14.560745 13.000000
-49.493101 -25.001545 -16.192985 0.000000 53.000000 14.477558 30.000000
-50.768471 -21.995685 -15.592237 0.000000 49.000000 14.218028 0.000000
-52.411289 -21.150251 -15.833075 0.000000 53.000000 14.228353 0.000000
-49.681660 -23.120157 -15.565175 0.000000 35.000000 14.221227 0.000000
-49.623833 -21.536743 -15.215044 0.000000 42.000000 14.226294 0.000000
-50.474225 -22.072126 -15.527248 0.000000 49.000000 14.210761 0.000000
-49.185400 -19.469293 -15.252838 0.000000 81.000000 14.789278 28.000000
-47.016319 -20.600473 -14.600064 0.000000 45.000000 14.454726 2.000000
-48.487595 -24.916025 -15.752322 0.000000 29.000000 14.316083 0.000000
-49.511059 -22.606234 -15.464983 0.000000 36.000000 14.271796 0.000000
-51.901468 -22.174876 -16.180824 0.000000 58.000000 14.470443 16.000000
-52.658448 -20.637130 -15.740284 0.000000 55.000000 14.186305 0.000000
-48.745444 -21.706378 -15.054533 0.000000 42.000000 14.248377 0.000000
-48.648503 -21.777655 -14.960144 0.000000 53.000000 14.167269 0.000000
-50.597323 -21.588503 -15.508888 0.000000 44.000000 14.262895 0.000000
-48.596525 -24.548580 -15.722561 0.000000 42.000000 14.337012 30.000000
-49.308989 -22.294229 -15.243807 0.000000 45.000000 14.173705 0.000000
-47.843589 -19.179516 -14.559508 0.000000 45.000000 14.509747 9.000000
-50.515447 -24.484921 -15.895717 0.000000 28.000000 14.057490 0.000000
-48.580607 -20.675785 -15.139495 0.000000 66.000000 14.579007 14.000000
-52.272642 -22.790442 -16.351989 0.000000 54.000000 14.418718 13.000000
-52.383671 -20.948848 -15.793901 0.000000 26.000000 14.238913 0.000000
-52.583523 -22.138877 -15.963402 0.000000 40.000000 14.108953 0.000000
-51.145774 -20.825473 -15.447843 0.000000 27.000000 14.230340 0.000000
-49.251822 -21.966971 -15.213260 0.000000 43.000000 14.225223 0.000000
-49.540629 -19.535933 -14.966678 0.000000 57.000000 14.419364 28.000000
-47.320817 -21.847892 -14.722582 0.000000 33.000000 14.243505 0.000000
-47.153139 -21.820412 -14.726613 0.000000 43.000000 14.292879 0.000000
-48.568484 -24.235774 -15.508317 0.000000 29.000000 14.204226 0.000000
-46.441016 -23.020379 -15.034496 0.000000 58.000000 14.509442 11.000000
-51.253796 -21.118224 -16.062574 0.000000 68.000000 14.728431 26.000000
-48.627301 -21.425991 -15.123436 0.000000 76.000000 14.399258 0.000000
-53.446239 -20.738647 -15.955274 0.000000 30.000000 14.182084 0.000000
-46.755723 -21.841380 -14.584218 0.000000 37.000000 14.248028 0.000000
-47.303465 -20.038422 -14.421483 0.000000 51.000000 14.331705 0.000000
-47.871134 -20.593682 -14.816543 0.000000 49.000000 14.458103 6.000000
-47.820237 -24.067438 -15.381670 0.000000 43.000000 14.296571 0.000000
-52.071140 -20.520795 -15.593431 0.000000 46.000000 14.210510 0.000000
-47.260585 -22.267874 -14.796809 0.000000 48.000000 14.242458 0.000000
-47.992146 -21.240134 -14.918624 0.000000 60.000000 14.394040 0.000000
-51.538361 -20.389444 -15.473716 0.000000 25.000000 14.250568 0.000000
-48.153086 -21.995127 -14.997034 0.000000 50.000000 14.275802 0.000000
-50.978596 -21.002926 -15.929861 0.000000 74.000000 14.691529 26.000000
-52.361407 -22.906185 -16.602266 0.000000 68.000000 14.611548 13.000000
-49.028044 -22.101396 -15.142712 0.000000 39.000000 14.184043 0.000000
-46.311844 -22.116083 -14.536442 0.000000 42.000000 14.252200 0.000000
-48.325909 -19.004047 -14.857426 0.000000 41.000000 14.713633 7.000000
-48.421204 -24.916236 -15.574236 0.000000 39.000000 14.162762 0.000000
-50.255465 -21.184254 -15.244003 0.000000 37.000000 14.175450 0.000000
-47.713841 -19.197683 -14.750535 0.000000 63.000000 14.718303 9.000000
-49.371226 -22.262240 -15.205089 0.000000 33.000000 14.128663 0.000000
-48.607225 -24.467134 -15.561063 0.000000 34.000000 14.197778 0.000000
-46.955502 -22.524168 -14.800558 0.000000 42.000000 14.266265 0.000000
-48.933966 -21.283316 -14.982094 0.000000 41.000000 14.221203 0.000000
-48.734308 -24.167221 -15.567479 0.000000 42.000000 14.234927 0.000000
-49.941309 -20.268473 -15.061729 0.000000 56.000000 14.264429 0.000000
-48.886776 -23.895894 -15.550316 0.000000 38.000000 14.237799 0.000000
-48.482048 -20.023297 -14.959267 0.000000 59.000000 14.564758 9.000000
-48.888482 -24.791249 -15.932366 0.000000 63.000000 14.417078 30.000000
-50.240856 -24.314048 -15.780471 0.000000 34.000000 14.048391 0.000000
-49.730806 -22.435612 -15.321677 0.000000 48.000000 14.118288 0.000000
-50.309417 -24.163640 -15.791466 0.000000 31.000000 14.073256 0.000000
-47.655258 -19.376053 -14.867256 0.000000 79.000000 14.806607 9.000000
-48.523414 -18.810580 -14.724937 0.000000 76.000000 14.580363 7.000000
-50.375327 -23.797408 -15.895713 0.000000 53.000000 14.231417 0.000000
-49.401986 -23.153403 -15.494928 0.000000 45.000000 14.214330 0.000000
-50.483365 -23.691112 -15.871314 0.000000 40.000000 14.204257 0.000000
-52.225036 -22.578842 -16.059454 0.000000 48.000000 14.195563 0.000000
-52.498309 -22.086965 -15.929556 0.000000 34.000000 14.107723 0.000000
-47.871979 -20.706161 -14.608549 0.000000 39.000000 14.237421 0.000000
-50.740602 -23.303091 -15.883294 0.000000 47.000000 14.233710 0.000000
-46.311753 -22.872994 -14.715436 0.000000 24.000000 14.267418 0.000000
-48.514599 -21.533617 -15.083577 0.000000 60.000000 14.366245 0.000000
-50.917855 -23.054605 -15.895654 0.000000 50.000000 14.254041 0.000000
-51.808266 -24.389227 -16.411982 0.000000 26.000000 14.259382 0.000000
-51.070250 -22.988897 -15.839597 0.000000 44.000000 14.177962 0.000000
-48.186329 -18.994932 -14.987259 0.000000 65.000000 14.872007 7.000000
-46.788456 -22.643758 -14.755957 0.000000 38.000000 14.239244 0.000000
-49.715657 -24.053804 -15.670621 0.000000 36.000000 14.122362 0.000000
-49.700227 -21.157133 -15.178017 0.000000 30.000000 14.250559 0.000000
-47.190541 -20.995787 -14.929165 0.000000 69.000000 14.644888 2.000000
-49.810656 -24.458690 -16.352443 0.000000 67.000000 14.664330 1.000000
-47.477401 -20.045754 -14.434200 0.000000 43.000000 14.300863 0.000000
-48.577904 -18.918318 -14.731893 0.000000 85.000000 14.551965 7.000000
-51.561059 -22.411824 -15.876127 0.000000 55.000000 14.213757 0.000000
-48.274950 -22.991937 -15.217839 0.000000 21.000000 14.252630 0.000000
-47.654652 -20.647355 -14.611360 0.000000 33.000000 14.303863 6.000000
-50.647323 -21.662191 -15.539144 0.000000 53.000000 14.264650 0.000000
-50.118632 -20.383871 -15.135182 0.000000 54.000000 14.268352 0.000000
-46.530747 -24.196613 -14.901001 0.000000 23.000000 14.120839 0.000000
-52.701711 -21.151789 -15.872115 0.000000 47.000000 14.195949 0.000000
-51.070684 -21.436059 -15.458957 0.000000 36.000000 14.133936 0.000000
-48.213032 -21.823176 -14.969989 0.000000 52.000000 14.271005 0.000000
-47.854623 -19.317888 -14.365331 0.000000 46.000000 14.294463 0.000000
-49.089872 -20.075032 -15.246337 0.000000 58.000000 14.682008 8.000000
-47.609953 -19.175896 -14.691121 0.000000 72.000000 14.691084 9.000000
-48.489399 -19.740037 -15.142881 0.000000 84.000000 14.795258 9.000000
-48.050753 -21.917937 -14.934910 0.000000 28.000000 14.256968 0.000000
-50.738292 -23.205014 -15.900377 0.000000 60.000000 14.270532 0.000000
-52.793139 -22.054072 -16.233964 0.000000 30.000000 14.333267 0.000000
-49.236291 -19.683850 -15.037663 0.000000 43.000000 14.528990 28.000000
-47.951649 -19.603041 -15.062020 0.000000 51.000000 14.874544 9.000000
-48.214342 -23.114603 -15.166886 0.000000 34.000000 14.193605 0.000000
-49.392169 -20.471976 -15.044372 0.000000 60.000000 14.337107 8.000000
-48.008386 -23.046638 -15.076091 0.000000 29.000000 14.170337 0.000000
-51.636203 -20.748097 -15.542647 0.000000 29.000000 14.219389 0.000000
-48.733163 -24.895309 -15.971044 0.000000 22.000000 14.469512 30.000000
-49.028204 -24.467323 -15.679775 0.000000 31.000000 14.210208 0.000000
-52.876125 -20.592973 -15.719016 0.000000 51.000000 14.123305 0.000000
-49.063325 -21.423226 -15.121262 0.000000 24.000000 14.293930 0.000000
-48.031905 -20.097391 -14.480570 0.000000 49.000000 14.202291 0.000000
-51.229165 -20.974308 -16.062719 0.000000 64.000000 14.763858 26.000000
-49.681842 -21.169108 -15.204654 0.000000 26.000000 14.277779 0.000000
-46.096840 -23.949071 -14.826851 0.000000 26.000000 14.204371 0.000000
-52.102411 -20.549172 -15.610132 0.000000 53.000000 14.213119 0.000000
-53.205941 -21.275454 -16.050114 0.000000 34.000000 14.219600 0.000000
-50.028867 -20.168561 -15.020117 0.000000 47.000000 14.224498 0.000000
-51.977485 -20.626100 -15.602114 0.000000 53.000000 14.219527 0.000000
-50.596903 -23.025176 -15.839688 0.000000 48.000000 14.283347 0.000000
-50.162706 -24.848319 -16.094187 0.000000 27.000000 14.255630 0.000000
-51.669235 -20.656899 -15.510870 0.000000 49.000000 14.199998 0.000000
-47.655497 -20.978554 -14.895058 0.000000 56.000000 14.505311 2.000000
-50.451456 -20.185471 -15.148689 0.000000 43.000000 14.242487 0.000000
-48.044032 -19.226783 -14.487460 0.000000 35.000000 14.383944 7.000000
-50.391399 -19.915306 -15.092419 0.000000 29.000000 14.258597 0.000000
-48.984624 -20.240704 -15.214903 0.000000 44.000000 14.643351 8.000000
-47.311208 -23.988371 -15.495086 0.000000 71.000000 14.541635 25.000000
-52.522153 -22.532092 -16.152739 0.000000 35.000000 14.222942 0.000000
-49.373164 -21.671896 -15.220295 0.000000 40.000000 14.263337 0.000000
-50.840562 -20.644526 -15.354621 0.000000 62.000000 14.251502 0.000000
-51.613623 -23.785008 -16.377625 0.000000 49.000000 14.396645 19.000000
-51.627401 -21.509759 -15.605058 0.000000 29.000000 14.125018 0.000000
-48.585533 -24.383465 -15.584096 0.000000 40.000000 14.241920 0.000000
-51.480260 -22.788447 -16.285905 0.000000 54.000000 14.545068 13.000000
-48.398068 -21.052286 -14.856317 0.000000 50.000000 14.276628 0.000000
-49.302315 -23.107216 -15.494538 0.000000 31.000000 14.247138 0.000000
-50.482767 -25.389541 -16.286515 0.000000 55.000000 14.251371 0.000000
-48.870261 -20.867655 -15.086418 0.000000 49.000000 14.420409 0.000000
-47.766237 -23.944930 -15.349588 0.000000 46.000000 14.304016 0.000000
-46.118886 -23.895076 -14.852427 0.000000 37.000000 14.234445 0.000000
-48.509694 -24.351310 -15.551258 0.000000 31.000000 14.235375 0.000000
-48.427104 -23.229455 -15.282377 0.000000 43.000000 14.229114 0.000000
-52.591466 -21.305244 -15.897260 0.000000 56.000000 14.214700 0.000000
-51.153727 -21.781396 -15.648428 0.000000 43.000000 14.223453 0.000000
-47.856603 -23.389387 -15.044990 0.000000 26.000000 14.106874 0.000000
-48.213601 -24.491524 -15.602636 0.000000 34.000000 14.325996 24.000000
-48.017168 -24.740049 -15.427307 0.000000 27.000000 14.155490 0.000000
-51.201103 -23.961244 -16.135676 0.000000 50.000000 14.229121 0.000000
-48.346048 -20.361151 -14.651376 0.000000 37.000000 14.235734 0.000000
-47.379360 -19.928792 -14.373768 0.000000 33.000000 14.290743 0.000000
-50.086946 -22.533971 -15.451303 0.000000 24.000000 14.136448 0.000000
-47.346727 -22.966901 -14.847735 0.000000 47.000000 14.127379 0.000000
-45.855717 -24.137536 -14.733112 0.000000 27.000000 14.134254 0.000000
-45.924656 -23.994377 -14.753105 0.000000 30.000000 14.166090 0.000000
-46.976542 -24.542911 -15.104910 0.000000 35.000000 14.137488 0.000000
-48.886591 -24.879358 -16.061651 0.000000 40.000000 14.522267 30.000000
-49.842864 -22.033247 -15.433284 0.000000 37.000000 14.279837 0.000000
-48.567802 -22.029571 -15.075212 0.000000 45.000000 14.244234 0.000000
-47.347683 -21.363494 -14.530446 0.000000 33.000000 14.153718 0.000000
-47.247373 -23.961724 -15.206069 0.000000 47.000000 14.287869 0.000000
-45.725039 -23.858266 -14.611251 0.000000 33.000000 14.106766 0.000000
-48.677289 -22.024152 -14.981929 0.000000 40.000000 14.130701 0.000000
-46.586479 -22.230278 -14.706855 0.000000 55.000000 14.325257 0.000000
-52.110185 -20.628164 -15.740958 0.000000 49.000000 14.319333 22.000000
-48.215053 -20.795662 -14.747923 0.000000 50.000000 14.269759 0.000000
-46.781419 -22.860759 -14.789989 0.000000 44.000000 14.228866 0.000000
-49.544210 -19.542446 -15.093849 0.000000 68.000000 14.537925 28.000000
-47.883447 -23.407461 -15.096721 0.000000 47.000000 14.145903 0.000000
