44.752670 4.518313 2.960985 0.000000 42.000000 14.233941 0.000000
46.542797 3.632418 3.136524 0.000000 60.000000 14.837823 5.000000
47.357517 3.818541 3.145979 0.000000 45.000000 14.750768 5.000000
45.848007 7.392934 5.076681 0.000000 61.000000 14.582038 8.000000
45.264214 6.236149 4.133659 0.000000 51.000000 14.363210 0.000000
46.080334 4.995080 3.426211 0.000000 47.000000 14.389924 0.000000
48.649067 4.207688 3.634398 0.000000 44.000000 14.971489 14.000000
45.075172 4.436050 3.040044 0.000000 44.000000 14.343949 0.000000
47.604179 6.823112 4.844247 0.000000 72.000000 14.673692 30.000000
50.499386 6.314300 4.627257 0.000000 60.000000 14.747419 29.000000
50.705887 4.831784 3.466316 0.000000 34.000000 14.507895 21.000000
49.049953 7.958636 5.094820 0.000000 24.000000 14.308335 0.000000
46.668972 4.252640 3.621785 0.000000 47.000000 14.937662 6.000000
48.744164 4.239795 3.279361 0.000000 44.000000 14.649968 14.000000
44.839672 4.594053 3.031467 0.000000 40.000000 14.255778 0.000000
48.654152 4.097265 3.146471 0.000000 69.000000 14.608656 19.000000
44.664410 5.526376 4.057935 0.000000 62.000000 14.661102 9.000000
44.644085 3.429002 2.450564 0.000000 33.000000 14.352365 0.000000
45.990505 5.021690 3.420019 0.000000 39.000000 14.370995 0.000000
45.372654 7.218838 5.414912 0.000000 55.000000 14.961727 8.000000
48.542580 4.623784 3.749583 0.000000 41.000000 14.857689 14.000000
46.921219 4.451637 2.928924 0.000000 30.000000 14.240487 0.000000
49.501694 6.579954 4.818670 0.000000 72.000000 14.776060 29.000000
45.764301 3.202196 2.245318 0.000000 28.000000 14.291971 0.000000
48.187355 4.326627 3.225835 0.000000 60.000000 14.559566 14.000000
46.768795 3.269905 2.851105 0.000000 40.000000 14.777931 2.000000
44.773846 3.193351 2.235729 0.000000 34.000000 14.288254 0.000000
49.684208 8.047743 5.902580 0.000000 70.000000 14.956918 1.000000
48.272717 4.493300 3.847677 0.000000 74.000000 15.008714 14.000000
48.487999 7.903934 5.652947 0.000000 63.000000 14.815937 1.000000
46.460693 4.309489 2.904559 0.000000 54.000000 14.292241 0.000000
47.885834 5.284764 4.242891 0.000000 76.000000 14.943601 23.000000
44.859993 4.868108 3.340275 0.000000 53.000000 14.381006 0.000000
50.604595 4.386547 3.653357 0.000000 74.000000 14.896316 20.000000
49.127457 4.229798 3.780731 0.000000 44.000000 15.085934 13.000000
48.716770 4.157331 3.308898 0.000000 51.000000 14.717522 14.000000
47.542919 5.970226 4.441883 0.000000 45.000000 14.764071 24.000000
47.882473 8.041164 5.567199 0.000000 52.000000 14.672072 1.000000
48.325569 4.301127 3.954013 0.000000 36.000000 15.198368 14.000000
45.918053 7.285222 4.770864 0.000000 47.000000 14.374315 0.000000
45.909340 7.412074 4.868854 0.000000 45.000000 14.393653 0.000000
49.865551 4.437617 3.493046 0.000000 50.000000 14.732436 20.000000
45.622658 5.155020 4.344819 0.000000 63.000000 15.097542 9.000000
48.321861 6.068093 4.501956 0.000000 70.000000 14.765648 26.000000
49.171009 4.411256 3.634596 0.000000 60.000000 14.867558 13.000000
44.731403 8.286355 5.292029 0.000000 41.000000 14.310217 0.000000
47.085995 6.226948 4.820265 0.000000 35.000000 14.957952 16.000000
49.704678 5.705668 3.877946 0.000000 47.000000 14.414741 0.000000
46.120953 4.111301 2.879860 0.000000 28.000000 14.372366 0.000000
48.160988 5.325630 3.635302 0.000000 51.000000 14.400569 0.000000
48.348656 5.091248 3.434299 0.000000 51.000000 14.347696 0.000000
47.618801 5.837328 4.634996 0.000000 58.000000 14.997985 24.000000
44.954624 6.489933 4.434296 0.000000 42.000000 14.491782 7.000000
46.526596 8.158728 5.140686 0.000000 29.000000 14.245426 0.000000
45.748386 7.354519 4.796930 0.000000 43.000000 14.361278 0.000000
49.713310 3.435753 2.670086 0.000000 56.000000 14.537560 11.000000
46.468636 4.246791 3.741401 0.000000 49.000000 15.043446 6.000000
48.125507 6.201504 4.513278 0.000000 77.000000 14.707153 26.000000
44.770660 3.833084 2.879498 0.000000 58.000000 14.514330 4.000000
47.012489 3.574221 3.220401 0.000000 62.000000 14.939664 5.000000
44.688465 6.250492 4.195739 0.000000 58.000000 14.409223 0.000000
47.059635 6.233656 4.948337 0.000000 38.000000 15.064580 16.000000
44.760067 6.003267 4.017304 0.000000 51.000000 14.382311 0.000000
49.073162 5.221630 3.860364 0.000000 59.000000 14.647161 23.000000
48.683113 5.427616 4.515359 0.000000 74.000000 15.104695 23.000000
46.203785 5.030601 3.443092 0.000000 42.000000 14.386266 0.000000
44.991150 6.465487 4.315345 0.000000 33.000000 14.402062 0.000000
45.858864 6.389698 4.225950 0.000000 25.000000 14.363998 0.000000
46.031380 5.323269 4.017192 0.000000 52.000000 14.729955 9.000000
50.699379 3.923135 3.099758 0.000000 53.000000 14.657560 20.000000
50.595745 5.421498 3.905020 0.000000 61.000000 14.583327 21.000000
44.667995 4.875646 3.555303 0.000000 43.000000 14.561936 9.000000
45.644455 5.070488 3.677618 0.000000 55.000000 14.567409 9.000000
44.817417 3.263180 2.288814 0.000000 38.000000 14.298163 0.000000
49.246105 5.750059 4.539623 0.000000 66.000000 14.960654 25.000000
48.381111 8.017238 5.693849 0.000000 58.000000 14.793144 1.000000
44.907349 4.866658 3.338209 0.000000 50.000000 14.379972 0.000000
45.086540 4.857218 3.357155 0.000000 52.000000 14.401081 0.000000
49.870380 8.024049 5.485071 0.000000 65.000000 14.610247 1.000000
49.869934 6.244287 4.947631 0.000000 69.000000 15.058537 29.000000
44.813721 3.068711 2.101422 0.000000 42.000000 14.236576 0.000000
48.379391 4.604016 3.762892 0.000000 71.000000 14.879235 14.000000
48.251583 5.961168 4.442371 0.000000 63.000000 14.769123 26.000000
47.328968 7.603272 5.602467 0.000000 39.000000 14.926310 18.000000
47.268871 4.486023 2.929634 0.000000 31.000000 14.223512 0.000000
45.319576 4.654177 3.709214 0.000000 64.000000 14.807455 6.000000
45.457680 7.444991 5.143348 0.000000 83.000000 14.612707 8.000000
47.521328 6.782230 5.064634 0.000000 62.000000 14.883989 30.000000
46.988712 4.233950 3.602892 0.000000 25.000000 14.930985 6.000000
49.623440 6.000104 4.970275 0.000000 70.000000 15.202867 29.000000
46.476467 3.317474 2.948656 0.000000 60.000000 14.837435 2.000000
47.054340 6.422264 4.566839 0.000000 46.000000 14.640288 16.000000
50.364868 6.458318 4.708442 0.000000 43.000000 14.743537 29.000000
50.722000 3.359663 2.587124 0.000000 39.000000 14.505177 10.000000
48.261875 3.781620 2.733203 0.000000 31.000000 14.414929 0.000000
44.929111 4.561230 2.990460 0.000000 40.000000 14.237324 0.000000
45.630825 5.700791 4.554317 0.000000 79.000000 14.998476 24.000000
49.320984 4.799901 3.864969 0.000000 59.000000 14.866783 22.000000
46.847893 4.773165 3.824053 0.000000 57.000000 14.845294 12.000000
46.930397 6.794929 5.192683 0.000000 70.000000 14.987534 17.000000
50.656475 4.797332 3.611367 0.000000 50.000000 14.650163 21.000000
47.945839 5.715285 4.636615 0.000000 73.000000 15.061788 24.000000
48.950165 4.372416 3.526430 0.000000 67.000000 14.794467 13.000000
50.734306 4.919314 4.019125 0.000000 65.000000 14.938192 21.000000
48.706959 4.296359 3.369749 0.000000 78.000000 14.698717 14.000000
49.562206 3.203886 2.880557 0.000000 63.000000 14.837001 11.000000
49.759850 7.563777 4.889296 0.000000 33.000000 14.333642 0.000000
50.067772 5.067613 4.040040 0.000000 68.000000 14.880327 21.000000
47.810078 8.243685 5.192587 0.000000 43.000000 14.246582 0.000000
48.689400 5.097504 4.215250 0.000000 59.000000 15.015609 23.000000
50.502888 3.465383 2.628455 0.000000 32.000000 14.486632 10.000000
50.259174 4.124354 3.176839 0.000000 55.000000 14.620900 19.000000
45.171871 4.808138 4.158907 0.000000 51.000000 15.115167 9.000000
47.203632 8.300718 5.186717 0.000000 40.000000 14.212372 0.000000
50.050438 5.714014 4.324742 0.000000 65.000000 14.794428 27.000000
48.985577 3.597799 3.046502 0.000000 85.000000 14.778166 19.000000
50.062927 5.675444 4.397672 0.000000 69.000000 14.876825 27.000000
47.037319 7.617318 4.948670 0.000000 51.000000 14.357285 0.000000
50.609127 3.053148 2.595294 0.000000 65.000000 14.668945 10.000000
45.632534 7.060955 4.505537 0.000000 34.000000 14.260992 0.000000
47.868130 7.646401 5.283972 0.000000 48.000000 14.630555 18.000000
46.838730 6.596405 4.369660 0.000000 46.000000 14.381789 0.000000
48.111107 4.547438 3.597708 0.000000 34.000000 14.766217 14.000000
48.008018 6.756601 4.654688 0.000000 47.000000 14.544807 26.000000
46.540302 6.501674 4.294637 0.000000 32.000000 14.365762 0.000000
46.947071 4.694289 3.863750 0.000000 77.000000 14.919744 12.000000
50.582104 6.520841 4.864165 0.000000 64.000000 14.845385 29.000000
47.120285 3.514619 3.344398 0.000000 70.000000 15.076701 5.000000
47.111496 5.415338 4.076811 0.000000 73.000000 14.734106 24.000000
48.826794 7.015186 4.560278 0.000000 28.000000 14.331439 0.000000
47.878357 6.351316 4.515420 0.000000 69.000000 14.632382 26.000000
48.518764 6.624061 4.889141 0.000000 54.000000 14.814064 26.000000
49.182392 8.108999 5.875718 0.000000 66.000000 14.902509 1.000000
50.944016 2.923987 2.851295 0.000000 78.000000 14.954990 10.000000
45.192463 3.194934 2.365700 0.000000 50.000000 14.399135 0.000000
48.301945 3.714624 3.029719 0.000000 56.000000 14.704001 19.000000
45.748829 4.944022 3.426232 0.000000 47.000000 14.416052 0.000000
46.148048 4.400686 3.070136 0.000000 46.000000 14.387893 0.000000
47.842545 4.451954 2.898520 0.000000 45.000000 14.214197 0.000000
44.978981 4.490014 3.664011 0.000000 77.000000 14.852560 6.000000
47.674046 7.534844 5.876805 0.000000 11.000000 15.197056 18.000000
47.595257 7.245124 5.422585 0.000000 45.000000 14.954879 18.000000
48.924801 3.553370 3.266445 0.000000 75.000000 14.989895 19.000000
47.799423 3.716979 2.638021 0.000000 45.000000 14.366190 0.000000
48.492344 4.971446 4.398967 0.000000 65.000000 15.237950 23.000000
46.990448 6.191578 4.708156 0.000000 61.000000 14.879698 16.000000
49.175739 3.565589 3.262316 0.000000 67.000000 14.980098 19.000000
48.503819 5.430271 4.276208 0.000000 30.000000 14.897822 23.000000
47.596703 7.035856 5.244019 0.000000 56.000000 14.908444 30.000000
50.189735 6.514169 4.738708 0.000000 74.000000 14.740985 29.000000
46.877270 3.286864 2.753099 0.000000 66.000000 14.685036 2.000000
45.881271 4.465726 3.723095 0.000000 77.000000 14.915755 6.000000
47.122997 4.228519 3.116694 0.000000 50.000000 14.515946 6.000000
45.755749 4.153813 2.875966 0.000000 48.000000 14.347279 0.000000
49.934803 3.031283 2.362146 0.000000 41.000000 14.479770 11.000000
50.115135 6.621515 4.732139 0.000000 51.000000 14.680445 29.000000
48.623386 6.849559 5.282239 0.000000 68.000000 15.036558 15.000000
44.723103 4.517652 2.962046 0.000000 42.000000 14.235191 0.000000
49.836365 4.505426 3.347423 0.000000 76.000000 14.572618 20.000000
50.200459 6.081632 4.333533 0.000000 56.000000 14.613989 29.000000
49.831417 2.780543 2.762192 0.000000 60.000000 14.951775 11.000000
47.027946 6.839897 5.351233 0.000000 73.000000 15.100789 30.000000
45.173431 6.372273 4.831877 0.000000 50.000000 14.893614 7.000000
45.112988 3.529409 2.826510 0.000000 40.000000 14.624089 3.000000
48.286160 3.815056 2.731050 0.000000 27.000000 14.395980 0.000000
50.194851 4.907645 3.958758 0.000000 66.000000 14.892282 21.000000
47.025856 3.127455 2.543328 0.000000 78.000000 14.586288 2.000000
46.514408 4.869484 3.633793 0.000000 35.000000 14.632538 12.000000
50.101643 6.645493 4.919778 0.000000 50.000000 14.829431 29.000000
47.099243 3.550391 3.374113 0.000000 73.000000 15.083943 5.000000
49.601795 3.420352 2.433803 0.000000 41.000000 14.342385 0.000000
48.314404 8.100353 5.842543 0.000000 51.000000 14.878421 1.000000
49.057945 3.487216 2.565451 0.000000 47.000000 14.421324 0.000000
47.115223 6.113831 4.608223 0.000000 67.000000 14.833579 16.000000
46.507477 6.577485 5.001219 0.000000 74.000000 14.934196 17.000000
46.942799 4.794609 4.163328 0.000000 38.000000 15.125885 12.000000
48.329983 6.068447 4.252867 0.000000 46.000000 14.551411 26.000000
48.110233 4.107230 2.925521 0.000000 63.000000 14.413686 0.000000
44.694252 5.078373 4.208054 0.000000 56.000000 15.019209 9.000000
46.904850 5.858728 4.418396 0.000000 70.000000 14.800906 24.000000
49.079208 5.731817 3.777503 0.000000 36.000000 14.315053 0.000000
46.343327 4.386472 2.878153 0.000000 38.000000 14.230181 0.000000
46.769264 6.793846 5.198563 0.000000 38.000000 14.993141 17.000000
46.033360 4.375934 3.056597 0.000000 41.000000 14.388916 0.000000
48.161266 3.934191 3.031233 0.000000 59.000000 14.593019 19.000000
50.734985 4.071950 3.073429 0.000000 63.000000 14.558833 20.000000
45.889019 4.957220 3.429149 0.000000 43.000000 14.411810 0.000000
50.432178 5.638741 4.371429 0.000000 65.000000 14.873042 27.000000
47.468193 8.219413 5.169540 0.000000 33.000000 14.239189 0.000000
50.641426 8.067472 5.822912 0.000000 45.000000 14.878366 1.000000
48.835232 7.982419 5.090632 0.000000 45.000000 14.292574 0.000000
46.973980 6.266881 4.634465 0.000000 42.000000 14.777863 16.000000
47.071819 7.573603 4.925711 0.000000 42.000000 14.359910 0.000000
49.044903 3.628253 3.287533 0.000000 54.000000 14.969723 19.000000
47.404400 5.695939 4.705937 0.000000 69.000000 15.131253 24.000000
47.249317 7.047480 5.304659 0.000000 64.000000 14.954611 30.000000
46.369183 6.497562 4.309788 0.000000 46.000000 14.380884 0.000000
47.719616 5.537129 3.590514 0.000000 31.000000 14.253923 0.000000
50.706863 6.068663 4.490514 0.000000 51.000000 14.755524 28.000000
49.305668 3.688560 3.133550 0.000000 39.000000 14.806557 19.000000
46.525513 4.986558 4.241652 0.000000 63.000000 15.095034 12.000000
45.014744 3.844742 3.028332 0.000000 62.000000 14.636269 4.000000
46.622108 5.419628 4.648255 0.000000 67.000000 15.222984 24.000000
45.870003 5.045879 3.435038 0.000000 41.000000 14.371532 0.000000
50.206486 4.477383 3.481163 0.000000 72.000000 14.701889 20.000000
50.371220 3.305789 2.828803 0.000000 60.000000 14.740415 10.000000
49.712700 2.695840 2.771996 0.000000 52.000000 15.003515 11.000000
45.739635 4.422811 2.872341 0.000000 45.000000 14.206603 0.000000
48.447678 4.149949 3.319353 0.000000 74.000000 14.730281 14.000000
46.814690 6.037364 4.368731 0.000000 71.000000 14.666875 24.000000
50.872978 3.220321 2.709495 0.000000 40.000000 14.681594 10.000000
50.373173 6.419553 4.811758 0.000000 64.000000 14.852146 29.000000
50.581944 4.045852 3.187852 0.000000 69.000000 14.670509 20.000000
45.963581 6.401621 4.665479 0.000000 57.000000 14.735611 7.000000
46.435802 3.725788 2.626500 0.000000 48.000000 14.351785 0.000000
50.735912 4.969526 3.975246 0.000000 66.000000 14.874807 21.000000
46.036045 4.533510 3.805323 0.000000 70.000000 14.951754 6.000000
48.665340 6.141025 5.015862 0.000000 54.000000 15.169978 26.000000
50.580013 5.656329 3.878457 0.000000 40.000000 14.440411 27.000000
50.360672 3.029276 2.597848 0.000000 54.000000 14.683347 11.000000
49.945648 6.112408 4.659122 0.000000 66.000000 14.878047 29.000000
45.802677 5.120630 3.582141 0.000000 40.000000 14.459719 9.000000
48.245022 4.449222 3.813872 0.000000 82.000000 15.002204 14.000000
47.557175 5.545509 4.789432 0.000000 68.000000 15.279932 24.000000
48.735291 4.520454 3.727852 0.000000 63.000000 14.891856 14.000000
48.176540 4.404239 3.733953 0.000000 76.000000 14.956529 14.000000
45.668819 4.449370 2.886339 0.000000 39.000000 14.205050 0.000000
50.894573 5.233351 4.027951 0.000000 68.000000 14.785183 21.000000
48.539345 6.988879 4.707664 0.000000 67.000000 14.471549 15.000000
49.444771 6.957524 4.603760 0.000000 43.000000 14.398293 0.000000
48.362339 7.991955 5.706954 0.000000 56.000000 14.817335 1.000000
45.174797 3.252210 2.527526 0.000000 45.000000 14.508911 3.000000
50.544117 6.492316 4.946807 0.000000 56.000000 14.930991 29.000000
50.661449 7.357980 4.779234 0.000000 41.000000 14.344301 0.000000
50.928265 7.442190 4.803228 0.000000 47.000000 14.321857 0.000000
46.875336 5.520919 4.658853 0.000000 72.000000 15.180293 24.000000
48.984467 3.092541 2.093292 0.000000 53.000000 14.217403 0.000000
48.264595 3.873292 3.139252 0.000000 70.000000 14.716988 19.000000
47.474979 3.612113 2.920165 0.000000 75.000000 14.662278 5.000000
50.940414 2.966811 2.745033 0.000000 68.000000 14.841775 10.000000
45.534512 5.055604 3.630074 0.000000 48.000000 14.534163 9.000000
50.008610 3.232205 2.996688 0.000000 72.000000 14.922317 11.000000
48.517937 6.789705 4.654873 0.000000 42.000000 14.528037 26.000000
47.839371 3.673604 2.578128 0.000000 46.000000 14.336902 0.000000
47.206676 4.582051 3.694665 0.000000 46.000000 14.831837 6.000000
46.548565 6.691232 5.307958 0.000000 51.000000 15.139625 17.000000
46.023342 3.951075 2.788388 0.000000 58.000000 14.375696 0.000000
47.064743 6.878735 5.092397 0.000000 56.000000 14.858496 30.000000
49.515720 6.899958 4.668334 0.000000 26.000000 14.483223 29.000000
49.019756 6.423852 4.671484 0.000000 62.000000 14.729403 29.000000
50.889427 5.499000 4.422676 0.000000 61.000000 14.988543 28.000000
47.843422 6.790112 5.087147 0.000000 66.000000 14.899305 30.000000
49.981892 6.473647 4.775955 0.000000 44.000000 14.793716 29.000000
47.332832 6.787606 4.809639 0.000000 39.000000 14.662109 30.000000
47.257915 7.391786 5.676953 0.000000 39.000000 15.098470 18.000000
45.280220 5.690135 3.844107 0.000000 45.000000 14.393605 0.000000
45.236034 5.848279 3.840410 0.000000 56.000000 14.309555 0.000000
50.037643 5.994241 4.468684 0.000000 61.000000 14.774822 29.000000
50.890545 4.056637 3.370027 0.000000 45.000000 14.821546 20.000000
46.520233 5.074428 4.293023 0.000000 72.000000 15.094244 12.000000
44.675030 4.463759 3.371202 0.000000 61.000000 14.614360 6.000000
49.881004 4.285785 3.350969 0.000000 76.000000 14.687986 20.000000
49.102165 4.822563 3.486112 0.000000 63.000000 14.529622 22.000000
49.270962 7.839339 5.090754 0.000000 43.000000 14.365847 0.000000
46.554436 4.762324 4.013556 0.000000 71.000000 15.013688 12.000000
48.289310 4.291688 3.940470 0.000000 52.000000 15.191557 14.000000
49.679085 3.827856 3.161065 0.000000 68.000000 14.758969 19.000000
46.851322 6.792874 5.089932 0.000000 59.000000 14.900286 17.000000
47.169411 7.637895 5.324790 0.000000 23.000000 14.669982 18.000000
49.677025 3.565860 3.213849 0.000000 63.000000 14.938309 19.000000
50.611240 3.029510 2.724899 0.000000 46.000000 14.792409 10.000000
49.507889 4.329747 3.440214 0.000000 46.000000 14.742198 13.000000
49.601799 6.794262 4.382133 0.000000 40.000000 14.291327 0.000000
45.771599 7.439318 5.521550 0.000000 51.000000 14.940617 8.000000
46.409294 6.766978 4.681873 0.000000 58.000000 14.562862 17.000000
45.970520 4.693359 3.643510 0.000000 62.000000 14.730955 6.000000
48.930737 5.198222 3.969547 0.000000 62.000000 14.752958 23.000000
45.231583 6.311383 4.502106 0.000000 70.000000 14.641362 7.000000
47.195503 3.868896 3.276530 0.000000 70.000000 14.837207 5.000000
45.032078 6.089443 4.052518 0.000000 54.000000 14.368504 0.000000
45.143665 7.755149 5.611722 0.000000 68.000000 14.856596 8.000000
49.124199 4.671918 3.761793 0.000000 69.000000 14.843567 22.000000
46.986298 4.245522 3.309902 0.000000 37.000000 14.673285 6.000000
47.154812 4.184017 3.724938 0.000000 62.000000 15.061400 6.000000
45.848621 4.459554 2.899985 0.000000 23.000000 14.211569 0.000000
47.563297 3.989625 3.053708 0.000000 43.000000 14.583985 5.000000
49.958950 3.317700 2.917238 0.000000 69.000000 14.810321 11.000000
46.494030 3.227151 2.839468 0.000000 70.000000 14.789794 2.000000
49.671700 6.230603 4.917319 0.000000 56.000000 15.039486 29.000000
48.334274 4.796101 3.867434 0.000000 71.000000 14.870845 23.000000
50.828091 2.848230 2.541974 0.000000 78.000000 14.727916 10.000000
45.861649 3.289601 2.428395 0.000000 52.000000 14.404601 0.000000
45.230030 6.312427 4.197580 0.000000 37.000000 14.379133 0.000000
49.833824 3.049530 3.191931 0.000000 47.000000 15.183517 11.000000
47.782616 6.532131 4.794458 0.000000 45.000000 14.779709 26.000000
46.136345 3.102344 2.100379 0.000000 55.000000 14.218480 0.000000
44.908791 4.835833 3.322384 0.000000 48.000000 14.382136 0.000000
48.057606 4.465319 3.429067 0.000000 70.000000 14.663289 14.000000
46.531914 4.832607 3.723990 0.000000 65.000000 14.728907 12.000000
44.678444 3.094344 2.116140 0.000000 35.000000 14.236115 0.000000
45.234341 5.618297 4.346441 0.000000 41.000000 14.862024 24.000000
49.508442 2.820510 2.749134 0.000000 25.000000 14.920115 11.000000
44.857094 6.414886 4.272344 0.000000 48.000000 14.390986 0.000000
49.842655 5.706877 3.697918 0.000000 58.000000 14.259415 0.000000
49.085823 4.351870 3.241948 0.000000 44.000000 14.560504 13.000000
49.951332 5.816212 3.834752 0.000000 44.000000 14.321092 0.000000
46.333298 7.358183 4.974531 0.000000 34.000000 14.512026 8.000000
46.689838 4.295368 3.836856 0.000000 54.000000 15.100634 6.000000
46.025898 3.153016 2.285231 0.000000 57.000000 14.351420 0.000000
48.281864 4.893303 3.878152 0.000000 88.000000 14.830348 23.000000
45.923012 3.274749 2.368964 0.000000 46.000000 14.361124 0.000000
50.786892 4.876120 3.712374 0.000000 41.000000 14.696673 21.000000
50.070301 6.046827 4.389994 0.000000 51.000000 14.680308 29.000000
47.814034 4.342089 2.857820 0.000000 31.000000 14.235404 0.000000
49.578754 2.851169 2.826624 0.000000 72.000000 14.971027 11.000000
45.107353 4.065772 3.240828 0.000000 35.000000 14.705847 4.000000
45.212444 3.333464 2.837201 0.000000 71.000000 14.733479 3.000000
49.775753 6.395137 4.963669 0.000000 62.000000 14.995177 29.000000
45.004620 4.374924 3.628911 0.000000 46.000000 14.881252 6.000000
48.625278 6.031419 4.852267 0.000000 62.000000 15.085443 26.000000
49.527290 6.084742 4.680919 0.000000 44.000000 14.910926 29.000000
47.509010 5.473104 4.257976 0.000000 60.000000 14.860250 24.000000
48.397449 4.886733 4.160996 0.000000 61.000000 15.076771 23.000000
48.250137 5.861101 4.391622 0.000000 53.000000 14.776684 24.000000
49.800674 3.635074 3.208882 0.000000 79.000000 14.898646 19.000000
47.583252 3.731466 2.709028 0.000000 38.000000 14.419802 0.000000
47.698074 4.887808 3.365202 0.000000 32.000000 14.392353 0.000000
47.789417 5.594313 3.735527 0.000000 59.000000 14.349298 0.000000
45.879448 4.641129 3.678601 0.000000 65.000000 14.787821 6.000000
48.186642 5.272947 3.549496 0.000000 44.000000 14.353773 0.000000
46.220230 5.131107 3.478987 0.000000 41.000000 14.365715 0.000000
46.561470 6.263879 5.301776 0.000000 8.000000 15.352854 17.000000
50.407478 7.432018 4.812670 0.000000 32.000000 14.335172 0.000000
44.702095 8.359768 5.421781 0.000000 29.000000 14.384178 0.000000
48.980225 6.222796 4.844254 0.000000 68.000000 14.980690 29.000000
44.716221 8.178517 5.152870 0.000000 42.000000 14.245777 0.000000
44.777828 8.037284 5.115818 0.000000 39.000000 14.286160 0.000000
49.287308 4.924093 3.935047 0.000000 72.000000 14.863495 22.000000
47.568390 7.130421 5.755260 0.000000 3.000000 15.299421 18.000000
46.590813 6.509574 5.001722 0.000000 42.000000 14.969357 17.000000
48.116371 4.402731 3.455171 0.000000 68.000000 14.717728 14.000000
46.149601 3.260349 2.563730 0.000000 62.000000 14.535861 2.000000
49.042751 4.750233 3.780043 0.000000 43.000000 14.819201 22.000000
50.614712 4.971214 3.680161 0.000000 72.000000 14.620362 21.000000
45.547684 7.005449 4.415393 0.000000 40.000000 14.211911 0.000000
49.403145 8.088716 5.776864 0.000000 63.000000 14.827931 1.000000
46.020721 4.221509 2.893493 0.000000 31.000000 14.327723 0.000000
44.758804 5.861115 3.744982 0.000000 33.000000 14.220985 0.000000
45.966133 5.752278 3.863220 0.000000 56.000000 14.378251 0.000000
46.192333 5.094315 3.465622 0.000000 45.000000 14.373045 0.000000
44.932037 4.884097 3.341579 0.000000 48.000000 14.373950 0.000000
46.377113 4.428047 3.042072 0.000000 58.000000 14.349784 0.000000
46.468212 4.329242 2.889205 0.000000 49.000000 14.268945 0.000000
45.476955 4.876386 3.729979 0.000000 63.000000 14.711666 9.000000
49.987118 6.004170 4.776938 0.000000 60.000000 15.034643 29.000000
47.585320 7.225567 5.824604 0.000000 4.000000 15.310356 18.000000
45.148930 3.156962 2.347127 0.000000 44.000000 14.402593 0.000000
50.262058 4.373765 3.743146 0.000000 82.000000 14.980013 20.000000
48.232143 8.064078 5.957856 0.000000 54.000000 14.996066 1.000000
44.965996 4.843931 3.311784 0.000000 45.000000 14.368886 0.000000
47.397163 3.613297 3.108115 0.000000 44.000000 14.823188 5.000000
49.310932 4.891325 3.280186 0.000000 48.000000 14.317495 0.000000
50.910992 5.836669 4.657874 0.000000 56.000000 15.017983 28.000000
50.713490 3.149167 2.754618 0.000000 73.000000 14.756758 10.000000
47.720169 8.158426 5.764135 0.000000 77.000000 14.781344 1.000000
45.453041 4.342994 3.702476 0.000000 70.000000 14.960799 6.000000
46.077698 4.360608 3.485466 0.000000 71.000000 14.765303 6.000000
49.976894 4.214363 3.502339 0.000000 78.000000 14.854590 20.000000
45.050133 3.732688 2.671914 0.000000 66.000000 14.387283 0.000000
46.391590 3.795422 2.663823 0.000000 49.000000 14.348249 0.000000
45.005524 3.850997 2.784002 0.000000 53.000000 14.423105 0.000000
49.126389 3.072461 2.176631 0.000000 35.000000 14.299289 0.000000
46.302635 5.034665 3.411932 0.000000 47.000000 14.357410 0.000000
47.426964 4.374685 2.849297 0.000000 34.000000 14.211411 0.000000
46.423012 4.219629 3.747804 0.000000 66.000000 15.062839 6.000000
49.206211 5.264090 3.890662 0.000000 78.000000 14.651484 22.000000
50.685394 3.883407 3.434529 0.000000 52.000000 14.965563 20.000000
48.272167 4.268187 3.184692 0.000000 59.000000 14.554095 14.000000
50.804058 4.966696 4.115556 0.000000 48.000000 14.996830 21.000000
46.477280 6.555508 4.313538 0.000000 55.000000 14.354474 0.000000
49.441242 4.661112 3.303359 0.000000 26.000000 14.455136 13.000000
46.178471 5.555884 4.711069 0.000000 63.000000 15.207285 24.000000
45.165237 3.449957 2.775610 0.000000 36.000000 14.620978 3.000000
48.235855 3.895843 2.938447 0.000000 64.000000 14.532894 19.000000
49.707355 7.739043 5.002563 0.000000 29.000000 14.341350 0.000000
45.834064 4.901359 3.551113 0.000000 42.000000 14.545186 6.000000
46.791626 4.966715 4.217582 0.000000 70.000000 15.084496 12.000000
47.143173 8.346385 5.205040 0.000000 39.000000 14.204765 0.000000
47.641335 5.029217 3.868448 0.000000 55.000000 14.752504 12.000000
50.486057 5.573735 3.892153 0.000000 67.000000 14.494418 21.000000
44.801826 3.742438 2.846619 0.000000 54.000000 14.532430 4.000000
49.675278 4.858257 3.341467 0.000000 43.000000 14.387068 0.000000
49.205723 4.838497 3.316248 0.000000 44.000000 14.375501 0.000000
44.929478 4.842228 3.320799 0.000000 48.000000 14.377504 0.000000
46.448807 8.323798 5.297001 0.000000 40.000000 14.295342 0.000000
45.312180 4.309432 3.511916 0.000000 35.000000 14.814204 6.000000
50.767773 5.868585 4.004052 0.000000 55.000000 14.439797 28.000000
50.552845 7.202059 4.712641 0.000000 33.000000 14.366809 0.000000
46.025238 5.446973 3.872221 0.000000 37.000000 14.542114 9.000000
46.084984 7.617661 5.329571 0.000000 58.000000 14.684438 8.000000
47.091259 6.325316 4.378174 0.000000 58.000000 14.527736 16.000000
45.157871 7.238909 4.767223 0.000000 58.000000 14.394870 0.000000
47.890533 4.878687 3.377365 0.000000 29.000000 14.407470 0.000000
46.422504 4.436100 3.791298 0.000000 71.000000 14.989516 6.000000
47.884914 8.126226 5.653707 0.000000 72.000000 14.702913 1.000000
46.488865 7.407901 5.153410 0.000000 58.000000 14.640321 8.000000
46.566910 6.479368 4.252353 0.000000 48.000000 14.340831 0.000000
45.251572 8.107186 5.564586 0.000000 47.000000 14.636064 8.000000
47.874813 6.704437 5.287504 0.000000 39.000000 15.115295 30.000000
48.905979 6.346228 4.537645 0.000000 52.000000 14.654084 29.000000
49.890060 2.859184 2.498960 0.000000 42.000000 14.685350 11.000000
49.212013 4.383811 3.194606 0.000000 55.000000 14.503486 13.000000
50.544666 5.830409 4.369701 0.000000 44.000000 14.773541 27.000000
49.476498 4.382754 3.517255 0.000000 63.000000 14.781296 13.000000
46.246326 4.433588 3.000014 0.000000 56.000000 14.310808 0.000000
46.268768 4.337679 2.847364 0.000000 52.000000 14.228674 0.000000
48.294090 3.837249 3.213538 0.000000 50.000000 14.799258 19.000000
46.064217 4.002079 2.820377 0.000000 56.000000 14.377103 0.000000
48.689014 5.254708 4.266169 0.000000 60.000000 14.978975 23.000000
49.833832 3.002321 2.872063 0.000000 47.000000 14.932779 11.000000
47.403671 3.668296 3.275103 0.000000 50.000000 14.938564 5.000000
47.918980 4.753360 3.331407 0.000000 46.000000 14.432065 14.000000
47.990677 5.335615 3.944190 0.000000 51.000000 14.660907 23.000000
45.802219 3.353005 2.431391 0.000000 56.000000 14.374752 0.000000
45.602425 5.344099 4.280455 0.000000 70.000000 14.945539 9.000000
48.123135 4.725200 3.506933 0.000000 65.000000 14.597305 14.000000
46.938076 5.383801 4.586453 0.000000 61.000000 15.188196 24.000000
44.929188 4.871432 3.315873 0.000000 45.000000 14.358336 0.000000
47.781506 8.206032 5.701852 0.000000 76.000000 14.703476 1.000000
45.631172 5.387223 4.250736 0.000000 48.000000 14.897947 9.000000
44.807175 5.247540 4.095837 0.000000 71.000000 14.836265 9.000000
49.068859 4.266339 2.929951 0.000000 44.000000 14.336127 0.000000
47.653793 4.250179 2.872684 0.000000 59.000000 14.295179 0.000000
47.857265 4.191238 2.829551 0.000000 55.000000 14.288254 0.000000
45.418140 4.880722 3.883304 0.000000 74.000000 14.841209 9.000000
46.497471 4.830497 3.891560 0.000000 58.000000 14.873988 12.000000
50.492767 4.837073 3.588270 0.000000 65.000000 14.609992 21.000000
44.857353 4.733528 3.971572 0.000000 45.000000 14.992335 9.000000
45.813324 3.248196 2.270298 0.000000 47.000000 14.289914 0.000000
45.755070 3.328954 2.464085 0.000000 56.000000 14.415147 0.000000
48.299332 5.887987 4.019281 0.000000 28.000000 14.442963 24.000000
48.788963 7.455620 4.858463 0.000000 28.000000 14.362455 0.000000
49.250710 5.020183 3.957165 0.000000 56.000000 14.833364 22.000000
50.791168 3.289037 2.625651 0.000000 43.000000 14.574402 10.000000
46.082523 4.150439 2.858273 0.000000 47.000000 14.333800 0.000000
49.063232 4.844820 3.901255 0.000000 67.000000 14.874995 22.000000
49.854259 4.149633 3.065466 0.000000 69.000000 14.512264 19.000000
50.820721 7.635661 4.924315 0.000000 28.000000 14.326975 0.000000
47.391006 4.522775 3.003029 0.000000 31.000000 14.267790 0.000000
46.693230 4.275862 3.616805 0.000000 46.000000 14.921508 6.000000
45.322075 5.863202 3.818850 0.000000 33.000000 14.283396 0.000000
50.740623 4.291525 3.665849 0.000000 54.000000 14.955644 20.000000
50.293842 3.231662 2.725892 0.000000 48.000000 14.689885 11.000000
46.710098 3.612152 3.296751 0.000000 50.000000 14.985878 5.000000
46.210499 4.426353 3.880002 0.000000 40.000000 15.070728 6.000000
49.073292 3.807408 3.354644 0.000000 67.000000 14.935778 19.000000
50.130138 3.804856 3.405385 0.000000 62.000000 14.980688 19.000000
50.871063 5.775677 4.375258 0.000000 69.000000 14.806306 28.000000
49.088970 6.173180 4.896119 0.000000 62.000000 15.050633 29.000000
50.643070 4.279504 3.629393 0.000000 63.000000 14.930463 20.000000
47.859077 5.543676 4.635924 0.000000 74.000000 15.148951 24.000000
46.689770 4.848964 4.170510 0.000000 54.000000 15.104261 12.000000
48.391972 6.721295 4.924738 0.000000 53.000000 14.794930 15.000000
50.151283 8.070401 5.832334 0.000000 66.000000 14.884965 1.000000
49.685696 4.988682 3.829837 0.000000 77.000000 14.740053 22.000000
48.198689 4.248913 3.436919 0.000000 68.000000 14.780703 14.000000
49.231590 7.190393 4.700912 0.000000 43.000000 14.362696 0.000000
48.905289 4.411139 3.521728 0.000000 53.000000 14.770625 13.000000
50.076363 3.739974 3.246784 0.000000 77.000000 14.877573 19.000000
48.449570 6.107924 5.153553 0.000000 37.000000 15.305230 26.000000
46.015411 4.953797 3.414159 0.000000 49.000000 14.400678 0.000000
45.768486 8.376539 5.330492 0.000000 35.000000 14.297152 0.000000
45.852955 5.020532 3.430967 0.000000 44.000000 14.380995 0.000000
47.297855 3.457496 2.485491 0.000000 34.000000 14.367808 0.000000
50.181282 4.710230 3.492236 0.000000 80.000000 14.592330 20.000000
45.724945 4.895751 4.231359 0.000000 64.000000 15.132625 9.000000
49.900532 6.109152 4.671527 0.000000 52.000000 14.890372 29.000000
46.453426 4.549515 3.910887 0.000000 48.000000 15.034286 6.000000
47.416134 6.335249 4.181365 0.000000 46.000000 14.353528 0.000000
48.019913 3.484141 2.481682 0.000000 35.000000 14.350909 0.000000
50.156574 4.813901 3.858863 0.000000 62.000000 14.854377 21.000000
47.478809 4.476230 3.613756 0.000000 73.000000 14.816423 6.000000
45.903358 4.246302 2.863300 0.000000 51.000000 14.289097 0.000000
50.856281 3.806845 3.059884 0.000000 71.000000 14.682763 20.000000
46.774654 7.685077 4.974393 0.000000 37.000000 14.344739 0.000000
45.529869 3.882485 2.720433 0.000000 53.000000 14.352374 0.000000
44.867809 3.273719 2.319898 0.000000 46.000000 14.319486 0.000000
44.810230 3.211883 2.181522 0.000000 48.000000 14.232194 0.000000
49.048370 3.612179 2.660568 0.000000 74.000000 14.439159 19.000000
45.946293 5.068885 3.431905 0.000000 44.000000 14.357074 0.000000
46.903652 4.092056 3.199410 0.000000 58.000000 14.656813 5.000000
45.058483 4.882622 3.321392 0.000000 40.000000 14.357357 0.000000
47.776840 5.530267 4.153783 0.000000 46.000000 14.741480 24.000000
48.137794 6.724257 4.797348 0.000000 69.000000 14.683942 15.000000
46.216064 4.360857 2.921043 0.000000 37.000000 14.280138 0.000000
46.602795 4.257692 3.076011 0.000000 47.000000 14.466066 5.000000
46.349873 4.260649 2.893734 0.000000 62.000000 14.307914 0.000000
47.884041 4.209029 2.847579 0.000000 60.000000 14.294648 0.000000
48.000713 4.082341 2.849430 0.000000 53.000000 14.361025 0.000000
48.300602 3.869290 2.775195 0.000000 63.000000 14.406182 0.000000
45.675144 7.470195 5.533435 0.000000 62.000000 14.935041 8.000000
46.316467 4.006352 3.033378 0.000000 73.000000 14.557961 5.000000
48.165977 4.300081 3.358211 0.000000 42.000000 14.686899 14.000000
46.536366 5.660586 4.094430 0.000000 54.000000 14.623831 24.000000
50.219559 5.032032 3.940218 0.000000 69.000000 14.812741 21.000000
47.567093 3.472465 2.458167 0.000000 48.000000 14.336672 0.000000
47.145290 5.669755 4.565367 0.000000 72.000000 15.023843 24.000000
45.219616 3.512318 2.943896 0.000000 77.000000 14.733705 3.000000
46.475468 6.566718 4.941986 0.000000 71.000000 14.888800 17.000000
49.243378 3.505163 2.731577 0.000000 49.000000 14.554907 19.000000
48.748878 4.566527 3.576395 0.000000 70.000000 14.738140 14.000000
44.879070 3.200899 2.244052 0.000000 49.000000 14.291546 0.000000
44.874619 3.259807 2.432080 0.000000 52.000000 14.423004 0.000000
45.498966 3.960853 2.773361 0.000000 55.000000 14.357782 0.000000
45.592308 4.064560 2.852505 0.000000 59.000000 14.372760 0.000000
46.774837 3.821844 3.431008 0.000000 72.000000 14.994020 5.000000
49.941967 3.627431 2.974977 0.000000 34.000000 14.701548 19.000000
50.916050 2.950595 2.461167 0.000000 57.000000 14.606126 10.000000
50.328045 4.329295 3.558831 0.000000 70.000000 14.844363 20.000000
48.207726 3.757551 2.862253 0.000000 32.000000 14.538137 19.000000
46.880745 6.578833 4.888490 0.000000 61.000000 14.836633 17.000000
45.109856 4.765532 3.705565 0.000000 58.000000 14.747375 9.000000
48.767563 3.266764 2.612425 0.000000 57.000000 14.574426 11.000000
45.232044 5.653214 4.251457 0.000000 76.000000 14.762543 24.000000
49.267086 3.876315 3.120924 0.000000 46.000000 14.699692 19.000000
45.783054 5.205904 4.327597 0.000000 73.000000 15.056721 9.000000
46.749405 4.838862 4.201197 0.000000 71.000000 15.135798 12.000000
48.639755 4.803053 3.763249 0.000000 38.000000 14.777758 23.000000
44.737118 3.323100 2.490785 0.000000 58.000000 14.441085 3.000000
47.070915 3.236268 2.722637 0.000000 56.000000 14.684733 2.000000
49.451656 7.604066 4.893406 0.000000 41.000000 14.316571 0.000000
49.133854 3.752780 3.369305 0.000000 48.000000 14.976313 19.000000
50.661842 3.335352 2.675393 0.000000 38.000000 14.593464 10.000000
50.317509 7.996383 5.101394 0.000000 40.000000 14.294681 0.000000
49.879002 3.481595 3.121808 0.000000 65.000000 14.902305 19.000000
46.621754 2.945803 2.648598 0.000000 49.000000 14.769646 2.000000
48.907772 3.127358 2.114927 0.000000 37.000000 14.218190 0.000000
50.464325 5.108557 4.146779 0.000000 70.000000 14.951116 21.000000
48.350723 3.217167 2.360988 0.000000 57.000000 14.383716 0.000000
48.159939 3.299298 2.402738 0.000000 49.000000 14.377594 0.000000
46.121372 7.348085 5.479857 0.000000 58.000000 14.951443 8.000000
46.263924 5.857683 4.393835 0.000000 72.000000 14.780334 24.000000
47.607555 3.549094 2.530312 0.000000 55.000000 14.359484 0.000000
49.566799 2.941603 2.879440 0.000000 57.000000 14.970169 11.000000
47.438923 3.638458 2.563924 0.000000 45.000000 14.342669 0.000000
50.699902 5.945610 4.480751 0.000000 71.000000 14.810061 28.000000
48.553341 3.677272 2.675577 0.000000 59.000000 14.418770 0.000000
46.174545 3.584722 2.698391 0.000000 42.000000 14.485703 2.000000
47.575256 4.884499 3.710937 0.000000 51.000000 14.691153 12.000000
49.620209 5.025315 3.766634 0.000000 59.000000 14.667006 22.000000
46.776855 3.074581 2.603329 0.000000 71.000000 14.664889 2.000000
48.420116 7.851351 5.676116 0.000000 43.000000 14.862737 1.000000
50.670437 4.559729 3.633772 0.000000 69.000000 14.790923 20.000000
46.287186 4.253306 2.867141 0.000000 55.000000 14.288816 0.000000
47.653099 4.308021 2.816079 0.000000 48.000000 14.216956 0.000000
46.087486 4.315081 2.965217 0.000000 39.000000 14.341508 0.000000
47.252075 4.956983 4.119641 0.000000 76.000000 15.005307 12.000000
49.139809 3.575288 3.178471 0.000000 66.000000 14.903086 19.000000
49.920662 4.955400 3.668782 0.000000 48.000000 14.618670 21.000000
46.880516 6.445216 4.873426 0.000000 44.000000 14.892017 16.000000
48.216927 6.797471 4.901517 0.000000 54.000000 14.736020 15.000000
47.719494 3.156078 2.256324 0.000000 29.000000 14.325013 0.000000
48.124634 7.854512 5.890272 0.000000 57.000000 15.045156 1.000000
47.297752 4.309871 3.375234 0.000000 61.000000 14.696521 6.000000
49.123150 3.758159 3.362703 0.000000 76.000000 14.967889 19.000000
50.406933 8.238025 5.164204 0.000000 40.000000 14.225086 0.000000
50.041241 5.170562 3.992903 0.000000 77.000000 14.787174 21.000000
45.130497 4.475321 3.791639 0.000000 73.000000 14.969752 6.000000
49.988647 7.830228 5.119656 0.000000 55.000000 14.395344 0.000000
47.139683 5.663390 3.693997 0.000000 52.000000 14.278284 0.000000
47.684311 7.109736 5.280282 0.000000 52.000000 14.901825 18.000000
46.529404 5.088592 4.198709 0.000000 61.000000 15.005952 12.000000
50.552402 4.926914 3.746335 0.000000 52.000000 14.699883 21.000000
50.556709 4.649571 3.604225 0.000000 50.000000 14.719588 20.000000
49.203068 7.005385 4.624211 0.000000 53.000000 14.391393 0.000000
50.818066 4.836520 3.824130 0.000000 55.000000 14.812962 21.000000
46.664886 3.639982 3.295589 0.000000 71.000000 14.970648 5.000000
46.325485 3.106923 2.586174 0.000000 49.000000 14.633608 2.000000
48.370865 4.284475 3.862804 0.000000 42.000000 15.128503 14.000000
45.702072 4.445370 2.880325 0.000000 44.000000 14.201928 0.000000
49.143837 4.171318 3.015987 0.000000 49.000000 14.458655 19.000000
47.838348 5.638611 4.153120 0.000000 69.000000 14.685504 24.000000
45.064461 3.379847 2.596984 0.000000 69.000000 14.503329 3.000000
48.960487 2.923554 2.452981 0.000000 62.000000 14.612920 11.000000
49.533661 3.623950 3.277580 0.000000 60.000000 14.963370 19.000000
48.725323 5.166797 3.995502 0.000000 58.000000 14.791333 23.000000
45.445404 5.823570 3.727559 0.000000 51.000000 14.225212 0.000000
46.239639 5.038516 3.437169 0.000000 42.000000 14.377128 0.000000
45.127453 4.881994 3.322897 0.000000 45.000000 14.358971 0.000000
44.961048 6.271946 4.211921 0.000000 39.000000 14.412158 0.000000
48.801861 5.218589 4.221668 0.000000 66.000000 14.959204 23.000000
45.042736 4.799130 3.828470 0.000000 61.000000 14.835812 9.000000
45.984238 3.983817 2.813033 0.000000 56.000000 14.380131 0.000000
47.514202 3.723996 2.766891 0.000000 49.000000 14.473346 5.000000
48.969433 5.557814 4.591299 0.000000 70.000000 15.103373 25.000000
47.700432 3.661021 2.572651 0.000000 52.000000 14.338630 0.000000
47.263508 5.504364 4.300250 0.000000 69.000000 14.880593 24.000000
45.030441 6.557007 4.753972 0.000000 81.000000 14.732196 7.000000
47.155964 3.691824 3.299477 0.000000 59.000000 14.947478 5.000000
48.070164 3.107197 2.330754 0.000000 57.000000 14.413972 0.000000
49.991619 4.934029 3.863333 0.000000 75.000000 14.796787 21.000000
50.770794 2.974693 2.777016 0.000000 74.000000 14.865229 10.000000
48.191742 5.634681 3.998804 0.000000 33.000000 14.554902 23.000000
47.463375 5.150408 4.058367 0.000000 65.000000 14.853737 12.000000
46.250656 4.329271 3.630972 0.000000 42.000000 14.906370 6.000000
46.323734 4.978155 4.185547 0.000000 60.000000 15.051117 12.000000
48.668461 4.788513 3.799677 0.000000 76.000000 14.816498 23.000000
45.802158 7.803498 5.505143 0.000000 54.000000 14.740282 8.000000
50.673477 4.591895 3.635597 0.000000 75.000000 14.776043 20.000000
47.512428 3.734840 2.624692 0.000000 50.000000 14.345602 0.000000
45.385906 4.876637 4.129392 0.000000 70.000000 15.054774 9.000000
48.384640 3.612181 2.819671 0.000000 37.000000 14.575884 19.000000
48.130859 3.257099 2.422021 0.000000 37.000000 14.415745 0.000000
45.765568 4.183610 2.878201 0.000000 48.000000 14.333962 0.000000
46.669621 4.792268 4.022352 0.000000 75.000000 15.005934 12.000000
46.467564 6.958407 5.097035 0.000000 37.000000 14.821739 17.000000
48.874435 5.485077 4.305276 0.000000 64.000000 14.894775 25.000000
47.868267 7.300582 5.571367 0.000000 57.000000 15.054375 18.000000
49.067738 3.763844 3.370570 0.000000 79.000000 14.971742 19.000000
46.223404 5.166654 3.524344 0.000000 44.000000 14.386515 0.000000
46.433842 4.748213 3.537163 0.000000 54.000000 14.611515 6.000000
46.621883 4.919769 4.129066 0.000000 62.000000 15.032437 12.000000
46.634178 3.350197 2.780554 0.000000 75.000000 14.676242 2.000000
47.077259 3.218687 2.213227 0.000000 27.000000 14.255960 0.000000
49.242275 7.924129 5.716603 0.000000 80.000000 14.860313 1.000000
45.037010 7.413740 4.837371 0.000000 46.000000 14.365746 0.000000
49.005127 2.927088 2.914386 0.000000 71.000000 15.007622 11.000000
49.104187 4.971989 3.988250 0.000000 56.000000 14.884722 22.000000
45.812626 5.078738 4.353094 0.000000 61.000000 15.143662 9.000000
49.870613 6.690154 4.538452 0.000000 63.000000 14.478899 29.000000
48.614864 4.688623 4.039393 0.000000 48.000000 15.073581 23.000000
48.775681 5.176713 4.162214 0.000000 68.000000 14.929526 23.000000
45.762531 5.210709 4.098311 0.000000 60.000000 14.857226 9.000000
46.772541 5.352636 4.410461 0.000000 52.000000 15.052894 24.000000
50.632107 7.495346 4.835793 0.000000 35.000000 14.322658 0.000000
47.654766 7.800574 5.377240 0.000000 41.000000 14.631864 18.000000
44.731991 3.651788 2.632856 0.000000 44.000000 14.395089 0.000000
50.281860 4.370109 3.715742 0.000000 58.000000 14.958333 20.000000
47.482777 5.442461 4.402549 0.000000 57.000000 15.000160 24.000000
46.454399 5.558803 4.400453 0.000000 62.000000 14.938863 24.000000
47.554413 4.927604 3.694265 0.000000 47.000000 14.654783 12.000000
48.198460 5.437101 3.658732 0.000000 45.000000 14.363699 0.000000
50.271015 5.716751 4.461814 0.000000 50.000000 14.910822 27.000000
48.514217 4.148572 3.430133 0.000000 35.000000 14.826184 14.000000
50.892570 4.864131 3.551799 0.000000 65.000000 14.564813 21.000000
47.456612 7.301351 5.569840 0.000000 65.000000 15.052669 18.000000
44.644520 3.734562 2.646729 0.000000 40.000000 14.364682 0.000000
49.928917 3.393784 2.787684 0.000000 51.000000 14.660080 11.000000
48.261047 7.180042 5.139140 0.000000 66.000000 14.744582 15.000000
50.350677 6.559460 4.894261 0.000000 45.000000 14.851499 29.000000
46.519054 6.319666 5.086164 0.000000 72.000000 15.139038 17.000000
49.605362 6.632522 4.850964 0.000000 80.000000 14.776929 29.000000
49.096611 8.061179 5.498226 0.000000 40.000000 14.602565 1.000000
48.387661 5.456911 4.288176 0.000000 57.000000 14.894483 23.000000
46.742950 4.676949 3.658125 0.000000 59.000000 14.751907 6.000000
45.431072 4.231286 2.942710 0.000000 42.000000 14.365018 0.000000
48.436867 5.129902 4.036433 0.000000 88.000000 14.845374 23.000000
45.525032 3.972329 2.788064 0.000000 53.000000 14.364548 0.000000
46.284851 3.028703 2.622393 0.000000 63.000000 14.704733 2.000000
46.604366 3.864308 3.390976 0.000000 67.000000 14.937903 5.000000
47.096046 3.166401 2.330527 0.000000 46.000000 14.383501 0.000000
45.846588 3.226310 2.198987 0.000000 44.000000 14.239825 0.000000
47.222912 3.069825 2.144685 0.000000 49.000000 14.273184 0.000000
45.900806 3.105473 2.089265 0.000000 37.000000 14.207329 0.000000
49.374943 3.534376 2.935733 0.000000 78.000000 14.715410 19.000000
45.648811 7.209001 5.396026 0.000000 50.000000 14.950528 8.000000
49.925297 3.036854 3.047736 0.000000 65.000000 15.066084 11.000000
45.216900 4.851592 3.354060 0.000000 52.000000 14.401298 0.000000
45.737526 5.799720 3.768233 0.000000 38.000000 14.272362 0.000000
46.199699 5.000601 3.396616 0.000000 44.000000 14.361668 0.000000
46.397209 5.021898 3.409744 0.000000 41.000000 14.362059 0.000000
45.934280 7.603870 5.474449 0.000000 68.000000 14.815992 8.000000
46.529049 6.828121 5.275636 0.000000 60.000000 15.041846 17.000000
48.305153 5.160282 3.471871 0.000000 60.000000 14.344681 0.000000
47.913860 5.396513 4.197839 0.000000 44.000000 14.847739 24.000000
50.284142 4.909259 3.924057 0.000000 81.000000 14.861637 21.000000
45.850082 3.203358 2.194884 0.000000 50.000000 14.248036 0.000000
49.287067 4.815109 3.731227 0.000000 55.000000 14.744075 22.000000
45.721004 5.779773 4.544506 0.000000 73.000000 14.949655 24.000000
48.211170 4.375630 3.453253 0.000000 79.000000 14.729939 14.000000
45.432259 4.419922 2.868467 0.000000 41.000000 14.204751 0.000000
46.588367 4.383698 3.071798 0.000000 57.000000 14.398009 0.000000
48.264862 6.122519 4.720773 0.000000 71.000000 14.925856 26.000000
47.143143 6.368243 4.954891 0.000000 49.000000 15.001387 16.000000
48.889507 4.263535 3.086713 0.000000 32.000000 14.472275 19.000000
44.990498 6.050300 4.047576 0.000000 50.000000 14.384274 0.000000
44.759590 4.873270 4.144310 0.000000 56.000000 15.069316 9.000000
47.711376 3.907846 2.956271 0.000000 37.000000 14.542073 5.000000
48.316910 6.584602 5.132051 0.000000 16.000000 15.042987 15.000000
46.821266 6.510251 4.519532 0.000000 56.000000 14.554640 16.000000
46.299843 6.582760 4.329160 0.000000 46.000000 14.353963 0.000000
49.996059 5.184936 3.986900 0.000000 70.000000 14.774664 21.000000
45.002422 7.006440 4.578276 0.000000 39.000000 14.351379 0.000000
47.043758 6.296725 4.593260 0.000000 34.000000 14.727192 16.000000
50.752613 6.134598 4.600567 0.000000 80.000000 14.816380 28.000000
49.779781 3.249856 3.058224 0.000000 75.000000 14.966172 11.000000
50.554077 6.168272 4.555839 0.000000 66.000000 14.760722 28.000000
45.546009 3.330152 2.725196 0.000000 54.000000 14.638921 3.000000
44.798096 4.440225 3.606947 0.000000 76.000000 14.828984 6.000000
48.265900 7.859439 5.551749 0.000000 62.000000 14.751726 1.000000
50.071674 5.664655 3.734795 0.000000 54.000000 14.312697 0.000000
49.884132 5.200047 3.910969 0.000000 73.000000 14.701685 21.000000
47.463421 5.148280 4.082785 0.000000 49.000000 14.875809 12.000000
47.603897 4.415067 2.871560 0.000000 28.000000 14.209892 0.000000
45.125172 4.797253 3.801660 0.000000 72.000000 14.813733 9.000000
47.308632 7.229606 5.372867 0.000000 44.000000 14.920089 18.000000
50.836861 4.047911 3.102309 0.000000 49.000000 14.595944 20.000000
47.552322 5.445043 4.415530 0.000000 73.000000 15.009994 24.000000
46.520500 3.255559 2.923627 0.000000 71.000000 14.847589 2.000000
44.683964 7.696061 5.027641 0.000000 48.000000 14.384881 0.000000
49.516949 3.428433 3.305169 0.000000 71.000000 15.087063 19.000000
46.147804 7.381381 4.802875 0.000000 52.000000 14.352650 0.000000
50.898819 4.233401 3.370696 0.000000 73.000000 14.731727 20.000000
45.022526 6.860993 4.426638 0.000000 40.000000 14.295447 0.000000
48.600567 4.453377 3.875544 0.000000 39.000000 15.053077 14.000000
45.401028 4.844351 3.778297 0.000000 66.000000 14.769571 9.000000
50.930202 5.258482 3.903882 0.000000 59.000000 14.665713 21.000000
44.799202 3.744095 2.937550 0.000000 57.000000 14.609725 4.000000
49.035984 4.466949 3.542505 0.000000 61.000000 14.759939 13.000000
48.277958 4.162083 3.408703 0.000000 68.000000 14.800859 14.000000
46.608997 4.765758 4.023939 0.000000 77.000000 15.020855 12.000000
