-29.387442 -5.978767 -11.825263 0.000000 65.000000 14.803397 22.000000
-33.404608 -4.781757 -11.009764 0.000000 62.000000 14.737454 26.000000
-29.723572 -6.006623 -11.812728 0.000000 66.000000 14.926152 22.000000
-29.325166 -3.070412 -16.381068 0.000000 37.000000 15.204593 3.000000
-31.370187 -2.598100 -14.652098 0.000000 38.000000 14.521349 0.000000
-28.636466 -4.680178 -14.111224 0.000000 25.000000 14.892358 5.000000
-30.568030 -2.933352 -14.599123 0.000000 31.000000 14.483286 0.000000
-29.493256 -5.919427 -11.218699 0.000000 26.000000 14.445470 0.000000
-29.550712 -6.059476 -11.718448 0.000000 62.000000 14.855872 22.000000
-30.955904 -2.893977 -14.442558 0.000000 48.000000 14.489682 0.000000
-33.427589 -2.922227 -13.434837 0.000000 47.000000 14.734816 16.000000
-29.140804 -6.321994 -11.789701 0.000000 47.000000 14.961409 22.000000
-29.366462 -5.628939 -12.370626 0.000000 50.000000 14.845776 7.000000
-32.599453 -1.695019 -15.221904 0.000000 39.000000 14.566621 2.000000
-31.344111 -2.838339 -14.257910 0.000000 31.000000 14.467852 0.000000
-28.383428 -4.505057 -13.944408 0.000000 50.000000 14.582924 5.000000
-31.473953 -2.803851 -14.186369 0.000000 31.000000 14.442993 0.000000
-32.540010 -2.410416 -14.171824 0.000000 45.000000 14.484127 0.000000
-32.742611 -5.362380 -10.694900 0.000000 48.000000 14.779456 24.000000
-32.671336 -2.373981 -14.100254 0.000000 42.000000 14.458267 0.000000
-31.462139 -5.503652 -11.727554 0.000000 51.000000 15.062390 25.000000
-31.852334 -2.849718 -13.991780 0.000000 41.000000 14.488684 0.000000
-28.751101 -6.296841 -11.811600 0.000000 51.000000 14.828686 28.000000
-32.065335 -5.056353 -11.755411 0.000000 48.000000 14.937222 27.000000
-33.056483 -2.351866 -13.887604 0.000000 38.000000 14.444633 0.000000
-33.075416 -5.400332 -10.952456 0.000000 61.000000 15.063498 24.000000
-28.981634 -6.126089 -11.597925 0.000000 38.000000 14.652460 22.000000
-31.088616 -5.504918 -11.479183 0.000000 47.000000 14.799932 25.000000
-29.286218 -4.384675 -13.939202 0.000000 44.000000 14.782007 13.000000
-29.142638 -5.808176 -11.915837 0.000000 41.000000 14.647528 22.000000
-33.702933 -3.879921 -12.374451 0.000000 56.000000 14.937330 19.000000
-31.655584 -3.910458 -13.277187 0.000000 58.000000 14.813854 17.000000
-29.439768 -5.559795 -12.348122 0.000000 49.000000 14.804602 7.000000
-33.944567 -4.652588 -10.511881 0.000000 53.000000 14.529988 0.000000
-33.601068 -4.486744 -11.470796 0.000000 51.000000 14.843262 26.000000
-31.400996 -5.938979 -12.031623 0.000000 11.000000 15.544474 25.000000
-30.003766 -5.138793 -11.778180 0.000000 35.000000 14.343975 0.000000
-29.939380 -5.084065 -11.879410 0.000000 33.000000 14.339914 0.000000
-28.845137 -5.635335 -12.073268 0.000000 33.000000 14.511192 0.000000
-32.705354 -2.275068 -14.406514 0.000000 51.000000 14.570333 0.000000
-31.913230 -5.258917 -11.360797 0.000000 54.000000 14.814264 27.000000
-29.826935 -5.105966 -12.128854 0.000000 49.000000 14.462878 0.000000
-32.874055 -3.317112 -13.273414 0.000000 52.000000 14.760099 30.000000
-30.670515 -5.255561 -11.904413 0.000000 53.000000 14.720354 25.000000
-29.279916 -5.561304 -12.445916 0.000000 50.000000 14.809951 7.000000
-29.718606 -5.001800 -12.333594 0.000000 40.000000 14.466670 0.000000
-28.603740 -5.378540 -12.472004 0.000000 35.000000 14.468121 0.000000
-32.893978 -5.249435 -11.321132 0.000000 72.000000 15.102349 27.000000
-29.733384 -6.036943 -11.851932 0.000000 46.000000 14.974619 22.000000
-29.615957 -4.875326 -12.535019 0.000000 35.000000 14.453613 0.000000
-29.567975 -4.797210 -12.633260 0.000000 35.000000 14.435552 0.000000
-30.816307 -4.138338 -13.221970 0.000000 57.000000 14.681652 8.000000
-32.843639 -1.599016 -15.145069 0.000000 57.000000 14.529495 2.000000
-33.211620 -4.289505 -11.644714 0.000000 26.000000 14.668200 26.000000
-29.430032 -4.488199 -12.906229 0.000000 26.000000 14.314652 0.000000
-30.007219 -3.804614 -14.803609 0.000000 28.000000 15.074448 14.000000
-29.227810 -3.851707 -14.905905 0.000000 44.000000 14.915833 9.000000
-28.262126 -4.836404 -13.173706 0.000000 29.000000 14.351386 0.000000
-33.990800 -3.552336 -12.491634 0.000000 51.000000 14.851227 19.000000
-33.665868 -1.982756 -14.605635 0.000000 49.000000 14.775798 10.000000
-29.332056 -4.396456 -13.250557 0.000000 32.000000 14.411136 0.000000
-32.612005 -1.593637 -15.298066 0.000000 37.000000 14.538021 2.000000
-29.039160 -4.332089 -13.786169 0.000000 57.000000 14.574642 13.000000
-28.177300 -4.757130 -13.526063 0.000000 28.000000 14.466120 0.000000
-33.448486 -3.875410 -12.418125 0.000000 68.000000 14.876470 19.000000
-28.147776 -4.682711 -13.631429 0.000000 31.000000 14.460909 0.000000
-28.272894 -6.252853 -11.977349 0.000000 46.000000 14.735520 28.000000
-31.550190 -5.643033 -11.805234 0.000000 39.000000 15.240359 25.000000
-29.176478 -3.896560 -13.981503 0.000000 26.000000 14.403263 0.000000
-32.421482 -4.113331 -12.519774 0.000000 80.000000 14.780852 20.000000
-29.161285 -3.769121 -14.071895 0.000000 29.000000 14.354209 0.000000
-29.153814 -3.704309 -14.177901 0.000000 25.000000 14.363745 0.000000
-33.757042 -2.869607 -13.478596 0.000000 61.000000 14.827089 16.000000
-28.988858 -5.176087 -13.024187 0.000000 47.000000 14.756993 6.000000
-29.009587 -4.248610 -13.694724 0.000000 33.000000 14.449821 0.000000
-30.563075 -3.651929 -14.073520 0.000000 57.000000 14.721380 14.000000
-30.600024 -2.603656 -16.185092 0.000000 39.000000 15.154268 29.000000
-28.039344 -3.796547 -14.879280 0.000000 26.000000 14.473766 0.000000
-28.648046 -5.495973 -12.079351 0.000000 22.000000 14.345884 0.000000
-28.065590 -3.633357 -15.074723 0.000000 26.000000 14.471431 0.000000
-29.247856 -4.254041 -13.970396 0.000000 49.000000 14.689116 13.000000
-28.085734 -3.327338 -15.241972 0.000000 24.000000 14.343455 0.000000
-31.706773 -2.798608 -14.649499 0.000000 30.000000 14.779902 11.000000
-28.144565 -3.180320 -15.432771 0.000000 23.000000 14.361197 0.000000
-28.187467 -3.174987 -15.535387 0.000000 23.000000 14.429891 0.000000
-28.229492 -3.130616 -15.629198 0.000000 29.000000 14.463872 0.000000
-32.356790 -3.668268 -13.526041 0.000000 52.000000 15.001479 18.000000
-29.435428 -2.661087 -15.655021 0.000000 43.000000 14.516208 0.000000
-33.994662 -3.711896 -12.444679 0.000000 48.000000 14.945675 19.000000
-31.361312 -5.367642 -11.766155 0.000000 25.000000 14.949447 25.000000
-32.261968 -1.829835 -15.196973 0.000000 34.000000 14.544401 0.000000
-33.578598 -2.283643 -14.616404 0.000000 42.000000 14.980155 10.000000
-32.053024 -5.102665 -10.969075 0.000000 38.000000 14.517513 0.000000
-30.362587 -4.305038 -13.288915 0.000000 53.000000 14.698395 8.000000
-31.585373 -4.551210 -11.672011 0.000000 35.000000 14.353610 0.000000
-32.645955 -4.190094 -11.700901 0.000000 48.000000 14.442184 0.000000
-31.522705 -4.553715 -11.807933 0.000000 34.000000 14.413063 0.000000
-33.379592 -4.883160 -11.371492 0.000000 61.000000 15.012943 26.000000
-31.462946 -4.554881 -11.941933 0.000000 43.000000 14.471351 0.000000
-29.723659 -4.028010 -13.973551 0.000000 39.000000 14.675041 14.000000
-31.406951 -4.465861 -12.047528 0.000000 44.000000 14.446698 0.000000
-32.392824 -1.940693 -15.041916 0.000000 55.000000 14.581418 0.000000
-31.351688 -4.409605 -12.163535 0.000000 38.000000 14.452912 0.000000
-32.989464 -3.043403 -13.354482 0.000000 56.000000 14.637945 30.000000
-31.298729 -4.358664 -12.282435 0.000000 42.000000 14.465530 0.000000
-31.247938 -4.299116 -12.400227 0.000000 51.000000 14.471737 0.000000
-31.199200 -4.212524 -12.508359 0.000000 44.000000 14.452719 0.000000
-32.279340 -3.752744 -12.508022 0.000000 40.000000 14.456622 0.000000
-31.152814 -4.037698 -12.591856 0.000000 31.000000 14.353934 0.000000
-32.829461 -3.402044 -13.470003 0.000000 67.000000 14.922217 30.000000
-32.557226 -5.265248 -11.298298 0.000000 67.000000 14.991995 27.000000
-29.629268 -6.081862 -11.903742 0.000000 65.000000 15.004364 22.000000
-33.447664 -2.792760 -13.660691 0.000000 45.000000 14.773290 16.000000
-29.745966 -6.067550 -11.851236 0.000000 50.000000 15.001337 22.000000
-29.344606 -6.201810 -11.597173 0.000000 64.000000 14.826698 22.000000
-30.436573 -4.201873 -13.284458 0.000000 52.000000 14.642175 8.000000
-29.831220 -2.432503 -15.990247 0.000000 38.000000 14.664552 29.000000
-28.112403 -3.481184 -15.709953 0.000000 37.000000 14.736058 4.000000
-31.566541 -5.180606 -11.279254 0.000000 31.000000 14.596200 27.000000
-33.136551 -2.199292 -14.339089 0.000000 53.000000 14.614452 10.000000
-32.019063 -2.768553 -14.782343 0.000000 54.000000 14.934643 11.000000
-31.927652 -2.789788 -13.780021 0.000000 31.000000 14.346653 0.000000
-32.327414 -5.198265 -11.573454 0.000000 77.000000 15.024740 27.000000
-31.905686 -2.788364 -13.921048 0.000000 36.000000 14.419270 0.000000
-33.950101 -3.987320 -11.897419 0.000000 57.000000 14.824957 21.000000
-31.864422 -2.606842 -14.300101 0.000000 34.000000 14.486460 0.000000
-30.714959 -2.900374 -14.528421 0.000000 30.000000 14.465585 0.000000
-30.710410 -2.842636 -14.653613 0.000000 46.000000 14.492386 0.000000
-31.820062 -5.291817 -11.639582 0.000000 78.000000 14.968569 27.000000
-29.217732 -5.293416 -12.509097 0.000000 50.000000 14.624355 0.000000
-31.858638 -2.030791 -14.881398 0.000000 39.000000 14.384077 0.000000
-32.168053 -5.288514 -11.345041 0.000000 81.000000 14.910125 27.000000
-31.861628 -1.995672 -15.011524 0.000000 44.000000 14.433176 0.000000
-30.711483 -2.327681 -15.106189 0.000000 27.000000 14.364455 0.000000
-31.870054 -1.947277 -15.139947 0.000000 38.000000 14.473068 0.000000
-30.722211 -2.390705 -15.250596 0.000000 49.000000 14.498117 0.000000
-32.830255 -4.805066 -10.978277 0.000000 28.000000 14.550755 27.000000
-33.899081 -3.739797 -12.307102 0.000000 42.000000 14.856856 19.000000
-28.833754 -4.565506 -13.259221 0.000000 26.000000 14.381799 0.000000
-30.747961 -2.179848 -15.483218 0.000000 46.000000 14.481047 0.000000
-29.792097 -5.940320 -11.864121 0.000000 52.000000 14.927910 22.000000
-31.345495 -5.714034 -11.779015 0.000000 57.000000 15.212418 25.000000
-30.787798 -1.993052 -15.718776 0.000000 35.000000 14.488337 0.000000
-33.697475 -3.023828 -12.543685 0.000000 46.000000 14.388149 0.000000
-33.639340 -2.701718 -13.062904 0.000000 42.000000 14.424366 0.000000
-33.622484 -2.189443 -13.851387 0.000000 51.000000 14.485118 0.000000
-28.226349 -4.582532 -14.005596 0.000000 36.000000 14.625377 5.000000
-33.638334 -2.000007 -14.112312 0.000000 46.000000 14.497179 0.000000
-31.741466 -3.513302 -13.960008 0.000000 38.000000 14.934018 18.000000
-28.565662 -6.308717 -11.236003 0.000000 31.000000 14.447685 0.000000
-34.099061 -4.521690 -11.575001 0.000000 43.000000 15.090722 26.000000
-30.517647 -5.870973 -11.541340 0.000000 74.000000 14.925974 25.000000
-29.056154 -5.568879 -12.115516 0.000000 38.000000 14.553789 7.000000
-32.240212 -4.850377 -11.049321 0.000000 37.000000 14.434282 0.000000
-31.369677 -5.202960 -11.125678 0.000000 36.000000 14.461203 0.000000
-28.659394 -5.595333 -12.254704 0.000000 44.000000 14.524830 0.000000
-31.632337 -5.158500 -11.004879 0.000000 32.000000 14.443672 0.000000
-30.544770 -4.245484 -13.006227 0.000000 53.000000 14.550649 0.000000
-31.892374 -5.141275 -10.887592 0.000000 41.000000 14.447803 0.000000
-29.513990 -2.793143 -15.932797 0.000000 50.000000 14.800244 3.000000
-28.029915 -4.696781 -13.662314 0.000000 34.000000 14.450987 0.000000
-28.114196 -4.630203 -13.694557 0.000000 39.000000 14.446672 0.000000
-28.202007 -4.576611 -13.726731 0.000000 37.000000 14.453237 0.000000
-29.583288 -4.930429 -12.479610 0.000000 37.000000 14.452748 0.000000
-31.892691 -3.838636 -13.329193 0.000000 54.000000 14.866461 17.000000
-28.673507 -4.290337 -13.843998 0.000000 39.000000 14.457809 0.000000
-29.011382 -5.217198 -12.667646 0.000000 48.000000 14.590938 0.000000
-28.878305 -4.177161 -13.870941 0.000000 34.000000 14.454454 0.000000
-33.393388 -3.996825 -12.130120 0.000000 36.000000 14.784969 21.000000
-28.829544 -4.042349 -13.972460 0.000000 30.000000 14.395344 0.000000
-28.953006 -4.011471 -13.959078 0.000000 27.000000 14.404459 0.000000
-29.073575 -3.943083 -13.931606 0.000000 25.000000 14.376330 0.000000
-29.200956 -3.922440 -13.914937 0.000000 23.000000 14.392536 0.000000
-30.505312 -3.572380 -13.785478 0.000000 35.000000 14.477728 0.000000
-29.671145 -5.833595 -11.617702 0.000000 67.000000 14.667166 22.000000
-28.553877 -4.510284 -13.590400 0.000000 24.000000 14.439267 0.000000
-30.882187 -3.371497 -13.674197 0.000000 29.000000 14.384937 0.000000
-31.012901 -3.363822 -13.646230 0.000000 30.000000 14.405511 0.000000
-28.947585 -3.830276 -14.788279 0.000000 37.000000 14.741455 9.000000
-31.901903 -5.162764 -11.559559 0.000000 57.000000 14.852109 27.000000
-30.494995 -3.710426 -13.584571 0.000000 38.000000 14.463169 0.000000
-34.169378 -4.690936 -11.433999 0.000000 55.000000 15.160115 26.000000
-31.621449 -3.781956 -13.504181 0.000000 43.000000 14.836134 18.000000
-31.786584 -4.750741 -11.773743 0.000000 38.000000 14.627322 0.000000
-31.013736 -3.627470 -13.375528 0.000000 31.000000 14.449116 0.000000
-29.423616 -3.271899 -15.004394 0.000000 36.000000 14.599324 12.000000
-31.272958 -3.602452 -13.260034 0.000000 33.000000 14.448144 0.000000
-31.400283 -3.610028 -13.204320 0.000000 31.000000 14.463199 0.000000
-32.987876 -5.510913 -10.837729 0.000000 47.000000 15.052612 24.000000
-31.643353 -5.379093 -11.505786 0.000000 50.000000 14.900308 27.000000
-31.433832 -3.726073 -13.951450 0.000000 44.000000 14.989535 18.000000
-29.287581 -6.282385 -11.767216 0.000000 63.000000 14.966295 22.000000
-32.956932 -3.124387 -12.868955 0.000000 39.000000 14.410144 0.000000
-30.056083 -5.968028 -11.339863 0.000000 59.000000 14.733945 23.000000
-29.219411 -2.912324 -15.476840 0.000000 45.000000 14.533185 0.000000
-32.294770 -3.440966 -12.681832 0.000000 29.000000 14.326543 0.000000
-33.448300 -3.180772 -12.924057 0.000000 56.000000 14.643458 15.000000
-32.420334 -3.442813 -12.605567 0.000000 28.000000 14.324939 0.000000
-33.469721 -3.083269 -12.568023 0.000000 55.000000 14.373000 0.000000
-33.091441 -3.946637 -12.283281 0.000000 62.000000 14.737065 20.000000
-32.662746 -3.514684 -12.469707 0.000000 27.000000 14.379776 0.000000
-31.772865 -3.854655 -13.873625 0.000000 56.000000 15.151636 18.000000
-29.710012 -5.685471 -11.530812 0.000000 34.000000 14.518485 0.000000
-29.224413 -4.289021 -14.768891 0.000000 50.000000 15.165389 9.000000
-29.733623 -6.003092 -11.015563 0.000000 39.000000 14.469971 0.000000
-28.633231 -6.360715 -11.131963 0.000000 32.000000 14.449114 0.000000
-29.658335 -5.947442 -11.102464 0.000000 38.000000 14.453471 0.000000
-28.557070 -6.328405 -11.230881 0.000000 31.000000 14.456784 0.000000
-31.737447 -3.649324 -13.462319 0.000000 50.000000 14.749919 18.000000
-29.186327 -2.986458 -15.468591 0.000000 56.000000 14.573533 0.000000
-30.586252 -5.611884 -11.843989 0.000000 46.000000 14.926619 25.000000
-33.067534 -1.593225 -15.259046 0.000000 58.000000 14.663031 2.000000
-28.228068 -6.294019 -11.810603 0.000000 42.000000 14.656427 28.000000
-28.610624 -4.747666 -13.102365 0.000000 29.000000 14.356695 0.000000
-28.682728 -4.121079 -14.104447 0.000000 31.000000 14.482636 0.000000
-29.586133 -4.508506 -14.943132 0.000000 3.000000 15.547705 9.000000
-30.643775 -3.425882 -14.338512 0.000000 52.000000 14.729239 14.000000
-28.560953 -4.595230 -13.520277 0.000000 32.000000 14.465319 0.000000
-28.551455 -4.528117 -13.615642 0.000000 35.000000 14.466369 0.000000
-31.124217 -5.750130 -11.557298 0.000000 53.000000 15.040805 25.000000
-33.471532 -4.978144 -10.461611 0.000000 31.000000 14.592875 0.000000
-31.560978 -3.661887 -13.550161 0.000000 42.000000 14.752500 18.000000
-28.637756 -3.809624 -14.522584 0.000000 42.000000 14.473220 0.000000
-28.666130 -3.744859 -14.608723 0.000000 32.000000 14.483028 0.000000
-29.817942 -3.889365 -14.218033 0.000000 44.000000 14.741339 14.000000
-29.142337 -6.123543 -11.585226 0.000000 58.000000 14.695366 22.000000
-29.090207 -4.397808 -13.467891 0.000000 30.000000 14.458282 0.000000
-28.542965 -6.574077 -11.724419 0.000000 53.000000 14.919931 28.000000
-33.038633 -3.853588 -12.573233 0.000000 60.000000 14.816051 20.000000
-31.793370 -2.869129 -14.145478 0.000000 49.000000 14.572250 0.000000
-27.832404 -3.451183 -15.305941 0.000000 25.000000 14.391201 0.000000
-31.338999 -5.352730 -11.280542 0.000000 48.000000 14.652729 25.000000
-29.052901 -2.962249 -15.267735 0.000000 39.000000 14.396963 0.000000
-27.950855 -3.291281 -15.433859 0.000000 27.000000 14.382541 0.000000
-30.942924 -3.852755 -13.188919 0.000000 35.000000 14.488803 0.000000
-28.025495 -3.263666 -15.502303 0.000000 24.000000 14.425172 0.000000
-33.635136 -3.962781 -12.743365 0.000000 19.000000 15.189110 19.000000
-28.096895 -3.212085 -15.562815 0.000000 29.000000 14.444168 0.000000
-28.176273 -3.180979 -15.624231 0.000000 30.000000 14.481681 0.000000
-28.250814 -3.105689 -15.676421 0.000000 27.000000 14.479080 0.000000
-28.330909 -3.036733 -15.726370 0.000000 32.000000 14.481764 0.000000
-29.482411 -2.645303 -15.636668 0.000000 43.000000 14.509043 0.000000
-32.212677 -5.184687 -11.222990 0.000000 48.000000 14.776505 27.000000
-29.021948 -5.157910 -12.632152 0.000000 33.000000 14.529399 0.000000
-28.497435 -2.897109 -15.815730 0.000000 27.000000 14.481859 0.000000
-29.643101 -2.473456 -15.726702 0.000000 37.000000 14.483377 0.000000
-28.584537 -2.819783 -15.854071 0.000000 25.000000 14.473863 0.000000
-29.731693 -2.415175 -15.771680 0.000000 36.000000 14.494003 0.000000
-32.524624 -4.611221 -11.843598 0.000000 48.000000 14.801600 27.000000
-28.936753 -5.968734 -11.928106 0.000000 49.000000 14.708665 22.000000
-29.478308 -2.818548 -15.223926 0.000000 26.000000 14.401610 0.000000
-32.273986 -1.535795 -15.446271 0.000000 38.000000 14.469823 0.000000
-33.572109 -3.784525 -12.602801 0.000000 76.000000 14.953959 19.000000
-32.659180 -1.555497 -15.253716 0.000000 43.000000 14.499194 0.000000
-32.786183 -1.562435 -15.183853 0.000000 37.000000 14.505558 0.000000
-32.917392 -1.519787 -15.103005 0.000000 37.000000 14.469666 0.000000
-33.171226 -1.518353 -14.944590 0.000000 32.000000 14.460105 0.000000
-30.274721 -6.131030 -11.293085 0.000000 76.000000 14.900713 23.000000
-29.206563 -3.872302 -14.779584 0.000000 52.000000 14.852064 9.000000
-33.549664 -1.475160 -14.681650 0.000000 46.000000 14.399614 0.000000
-31.705074 -3.448813 -13.879644 0.000000 55.000000 14.827630 18.000000
-31.929113 -2.646895 -14.607410 0.000000 44.000000 14.713672 11.000000
-31.252566 -5.356834 -11.002660 0.000000 37.000000 14.468568 0.000000
-31.173966 -5.297890 -11.100329 0.000000 35.000000 14.454685 0.000000
-28.118269 -3.609374 -16.065196 0.000000 50.000000 15.038007 4.000000
-32.578155 -4.154913 -12.490110 0.000000 56.000000 14.845946 20.000000
-31.718332 -4.479574 -11.814612 0.000000 38.000000 14.424505 0.000000
-30.603277 -4.877780 -11.935380 0.000000 36.000000 14.431943 0.000000
-32.558014 -1.548754 -15.394690 0.000000 34.000000 14.542100 2.000000
-33.703260 -4.771596 -11.062524 0.000000 75.000000 14.856858 26.000000
-28.700099 -5.261005 -12.862346 0.000000 54.000000 14.634561 6.000000
-28.521677 -6.102384 -11.895303 0.000000 62.000000 14.655902 28.000000
-28.981207 -4.181475 -13.949169 0.000000 42.000000 14.535886 13.000000
-30.425930 -4.780830 -12.285475 0.000000 38.000000 14.502081 0.000000
-31.483797 -4.294835 -12.261002 0.000000 38.000000 14.465202 0.000000
-31.862188 -3.991892 -13.177022 0.000000 63.000000 14.884734 17.000000
-30.976113 -5.668870 -11.247016 0.000000 50.000000 14.753832 23.000000
-30.313130 -4.610989 -12.487395 0.000000 33.000000 14.453375 0.000000
-28.294942 -4.623334 -14.254836 0.000000 51.000000 14.821143 5.000000
-30.330196 -5.806487 -11.284945 0.000000 50.000000 14.669749 23.000000
-33.726061 -3.741543 -12.146536 0.000000 51.000000 14.710074 19.000000
-30.208246 -4.452218 -12.698241 0.000000 28.000000 14.420681 0.000000
-28.821306 -5.286824 -12.623677 0.000000 34.000000 14.556530 6.000000
-29.013049 -6.345962 -11.904660 0.000000 59.000000 15.003905 22.000000
-33.109674 -1.639372 -14.947530 0.000000 51.000000 14.532926 0.000000
-30.716907 -3.385276 -13.751176 0.000000 23.000000 14.385835 0.000000
-33.362785 -4.282526 -11.496266 0.000000 25.000000 14.626892 26.000000
-30.069199 -4.245543 -13.029495 0.000000 30.000000 14.409850 0.000000
-31.155646 -3.861068 -13.037430 0.000000 43.000000 14.477219 0.000000
-31.117264 -3.804868 -13.152580 0.000000 43.000000 14.488456 0.000000
-28.411587 -4.575619 -13.606295 0.000000 34.000000 14.451424 0.000000
-33.806173 -3.795221 -11.983951 0.000000 59.000000 14.683286 21.000000
-31.048275 -3.643096 -13.370033 0.000000 39.000000 14.468926 0.000000
-29.922651 -4.060283 -13.507264 0.000000 40.000000 14.496660 0.000000
-29.446498 -5.981625 -11.645466 0.000000 49.000000 14.721669 22.000000
-30.251191 -4.333482 -13.294717 0.000000 35.000000 14.687017 8.000000
-30.988670 -3.485340 -13.592660 0.000000 44.000000 14.458426 0.000000
-29.424243 -3.315459 -14.886431 0.000000 40.000000 14.564722 0.000000
-30.961946 -3.372933 -13.697846 0.000000 29.000000 14.425426 0.000000
-30.938258 -3.283329 -13.808817 0.000000 32.000000 14.413889 0.000000
-30.916736 -3.156450 -13.910207 0.000000 31.000000 14.369506 0.000000
-30.898646 -3.080819 -14.024519 0.000000 28.000000 14.372217 0.000000
-30.885623 -3.107860 -14.163364 0.000000 42.000000 14.467907 0.000000
-29.747983 -3.465704 -14.290796 0.000000 28.000000 14.441462 0.000000
-31.731923 -3.844954 -13.278525 0.000000 46.000000 14.790064 17.000000
-28.064452 -4.658916 -13.712496 0.000000 30.000000 14.462437 0.000000
-30.863249 -2.947111 -14.391504 0.000000 35.000000 14.470383 0.000000
-29.727984 -3.345194 -14.524953 0.000000 27.000000 14.478444 0.000000
-30.856643 -2.880215 -14.507201 0.000000 41.000000 14.484184 0.000000
-33.453742 -2.142035 -14.283523 0.000000 49.000000 14.642346 10.000000
-30.853346 -2.840421 -14.628125 0.000000 47.000000 14.522453 0.000000
-28.740409 -6.269801 -11.353394 0.000000 49.000000 14.542312 0.000000
-29.714480 -3.107288 -14.866683 0.000000 35.000000 14.490808 0.000000
-29.709224 -2.948193 -14.964934 0.000000 29.000000 14.425651 0.000000
-30.854984 -2.429601 -14.938451 0.000000 33.000000 14.391577 0.000000
-33.057363 -5.508632 -10.991118 0.000000 46.000000 15.161315 24.000000
-29.321988 -5.534173 -12.514482 0.000000 59.000000 14.842458 7.000000
-28.620677 -6.199367 -11.963221 0.000000 63.000000 14.799914 28.000000
-32.056206 -5.119888 -11.144608 0.000000 51.000000 14.632090 27.000000
-29.736784 -2.746733 -15.305335 0.000000 34.000000 14.477999 0.000000
-30.888960 -2.249386 -15.285103 0.000000 32.000000 14.465579 0.000000
-33.842271 -4.940531 -11.134535 0.000000 70.000000 15.070345 26.000000
-30.906545 -2.180930 -15.398514 0.000000 36.000000 14.484738 0.000000
-29.770370 -2.606084 -15.529262 0.000000 29.000000 14.511332 0.000000
-33.546398 -2.939538 -13.516906 0.000000 56.000000 14.833390 16.000000
-32.714492 -5.490007 -11.058492 0.000000 71.000000 15.074746 24.000000
-28.458056 -4.650957 -14.080051 0.000000 62.000000 14.794661 5.000000
-29.293741 -5.421427 -12.391259 0.000000 41.000000 14.677828 7.000000
-30.194714 -3.723226 -14.492046 0.000000 66.000000 14.895445 14.000000
-32.074750 -2.861904 -14.099012 0.000000 49.000000 14.631407 0.000000
-33.588887 -4.537271 -10.722759 0.000000 40.000000 14.448715 0.000000
-33.039877 -3.940254 -11.914719 0.000000 37.000000 14.504355 0.000000
-32.533966 -2.395083 -14.860346 0.000000 60.000000 14.865155 11.000000
-32.820420 -3.286496 -12.581159 0.000000 34.000000 14.322998 0.000000
-32.782374 -3.287705 -12.728314 0.000000 33.000000 14.395896 0.000000
-28.378083 -5.164414 -13.053454 0.000000 45.000000 14.566967 6.000000
-31.605204 -2.643294 -14.509130 0.000000 51.000000 14.549636 11.000000
-33.416739 -4.892132 -11.397990 0.000000 64.000000 15.046923 26.000000
-32.591205 -2.527183 -13.999539 0.000000 38.000000 14.489894 0.000000
-30.894324 -5.760269 -11.654384 0.000000 64.000000 15.029538 25.000000
-32.608499 -2.340262 -14.338004 0.000000 41.000000 14.548748 0.000000
-32.610274 -1.823790 -14.883877 0.000000 49.000000 14.473363 0.000000
-32.619794 -1.782814 -15.021502 0.000000 55.000000 14.524467 0.000000
-31.494468 -5.389566 -11.544409 0.000000 59.000000 14.882055 25.000000
-29.821594 -5.089738 -12.084435 0.000000 32.000000 14.423478 0.000000
-29.468449 -3.271276 -14.967653 0.000000 48.000000 14.592336 12.000000
-33.956055 -4.643976 -11.474696 0.000000 56.000000 15.078930 26.000000
-33.872530 -4.822118 -10.888628 0.000000 46.000000 14.850118 26.000000
-27.968994 -5.101074 -13.017438 0.000000 39.000000 14.366030 0.000000
-28.085206 -5.057542 -13.021667 0.000000 40.000000 14.373361 0.000000
-28.199713 -5.002017 -13.018201 0.000000 31.000000 14.366704 0.000000
-32.310666 -4.718187 -11.631103 0.000000 57.000000 14.690988 27.000000
-30.895092 -5.323466 -11.897498 0.000000 45.000000 14.840311 25.000000
-28.412433 -5.314027 -13.131456 0.000000 63.000000 14.735413 6.000000
-30.296100 -6.313830 -11.230398 0.000000 61.000000 15.009318 23.000000
-29.721762 -4.472094 -12.846681 0.000000 30.000000 14.362985 0.000000
-29.839769 -4.414226 -12.831936 0.000000 30.000000 14.349236 0.000000
-30.010604 -5.786956 -11.769177 0.000000 59.000000 14.828907 25.000000
-29.063796 -4.799767 -12.972670 0.000000 25.000000 14.468510 0.000000
-30.698225 -4.108244 -13.343145 0.000000 42.000000 14.690154 8.000000
-32.402337 -2.904102 -13.778671 0.000000 45.000000 14.585814 0.000000
-33.817214 -3.996158 -11.858381 0.000000 54.000000 14.766159 21.000000
-29.297926 -4.594859 -12.891557 0.000000 26.000000 14.343700 0.000000
-30.325185 -4.241296 -12.762421 0.000000 28.000000 14.336606 0.000000
-29.423483 -4.548011 -12.863294 0.000000 24.000000 14.332947 0.000000
-30.451682 -4.209971 -12.741856 0.000000 29.000000 14.342253 0.000000
-29.550058 -4.499403 -12.832611 0.000000 25.000000 14.319813 0.000000
-32.914090 -5.602918 -11.049093 0.000000 73.000000 15.219057 24.000000
-31.954063 -5.202174 -10.999369 0.000000 57.000000 14.577690 0.000000
-30.709966 -4.243513 -12.721795 0.000000 42.000000 14.439739 0.000000
-32.252360 -2.643329 -14.745933 0.000000 50.000000 14.895156 11.000000
-30.016937 -5.765914 -11.773880 0.000000 66.000000 14.817817 25.000000
-29.940678 -4.425460 -12.744486 0.000000 26.000000 14.340295 0.000000
-31.750350 -5.338640 -10.785292 0.000000 41.000000 14.491698 0.000000
-29.321783 -5.924108 -11.988732 0.000000 66.000000 14.834638 22.000000
-32.363598 -2.479606 -14.496713 0.000000 46.000000 14.665179 11.000000
-30.203685 -4.394807 -12.679322 0.000000 26.000000 14.365149 0.000000
-31.221615 -4.108161 -12.590545 0.000000 39.000000 14.428525 0.000000
-33.944892 -4.878043 -11.449232 0.000000 73.000000 15.236903 26.000000
-34.011351 -3.855206 -12.511967 0.000000 44.000000 15.097512 19.000000
-32.038042 -5.099291 -11.637605 0.000000 49.000000 14.893189 27.000000
-31.580949 -4.027655 -13.044992 0.000000 73.000000 14.744823 17.000000
-30.600975 -4.430178 -12.588431 0.000000 40.000000 14.468490 0.000000
-31.608863 -4.056524 -12.481037 0.000000 44.000000 14.452452 0.000000
-30.731652 -4.446317 -12.553249 0.000000 43.000000 14.502843 0.000000
-31.737413 -4.034196 -12.437428 0.000000 45.000000 14.452332 0.000000
-31.805273 -3.817748 -13.639105 0.000000 68.000000 14.999981 18.000000
-31.867836 -4.007167 -12.390592 0.000000 41.000000 14.447432 0.000000
-30.988511 -4.349428 -12.437827 0.000000 38.000000 14.447048 0.000000
-31.998596 -3.979941 -12.338671 0.000000 48.000000 14.439580 0.000000
-33.264880 -2.227939 -14.487862 0.000000 40.000000 14.762866 10.000000
-30.980546 -5.481495 -11.176241 0.000000 39.000000 14.573677 25.000000
-32.357875 -2.106836 -14.980108 0.000000 44.000000 14.659727 11.000000
-27.842528 -3.177736 -16.284030 0.000000 55.000000 14.749111 4.000000
-31.377578 -4.300253 -12.275627 0.000000 33.000000 14.443225 0.000000
-32.386762 -3.987311 -12.201484 0.000000 43.000000 14.492359 0.000000
-32.891295 -1.750064 -15.407997 0.000000 51.000000 14.809299 2.000000
-32.518467 -3.953207 -12.139672 0.000000 43.000000 14.473967 0.000000
-31.635975 -4.289686 -12.163721 0.000000 31.000000 14.454918 0.000000
-32.650520 -3.921456 -12.074642 0.000000 41.000000 14.455616 0.000000
-31.765911 -4.272233 -12.098961 0.000000 37.000000 14.446798 0.000000
-32.780679 -3.917948 -12.017597 0.000000 43.000000 14.462485 0.000000
-31.893910 -4.303434 -12.049626 0.000000 41.000000 14.483509 0.000000
-32.909722 -3.923846 -11.961084 0.000000 45.000000 14.476377 0.000000
-30.342652 -3.616328 -14.375413 0.000000 35.000000 14.796111 14.000000
-33.038545 -3.918358 -11.898722 0.000000 39.000000 14.478276 0.000000
-32.149424 -4.314406 -11.927027 0.000000 41.000000 14.504354 0.000000
-29.029773 -4.066181 -14.570380 0.000000 51.000000 14.820808 9.000000
-32.278182 -4.259832 -11.841255 0.000000 41.000000 14.455871 0.000000
-28.146781 -5.649231 -12.275087 0.000000 25.000000 14.410893 0.000000
-32.534745 -4.218580 -11.685611 0.000000 36.000000 14.418811 0.000000
-29.411859 -4.822044 -12.752406 0.000000 28.000000 14.471904 0.000000
-33.127949 -1.416219 -15.472783 0.000000 51.000000 14.671857 2.000000
-28.615035 -6.278013 -11.259976 0.000000 37.000000 14.454318 0.000000
-28.218446 -5.777208 -11.948084 0.000000 26.000000 14.343081 0.000000
-32.830085 -1.788720 -15.491724 0.000000 45.000000 14.866528 2.000000
-34.037077 -4.823541 -11.474548 0.000000 21.000000 15.240271 26.000000
-32.272586 -5.455163 -11.095939 0.000000 54.000000 14.926713 24.000000
-28.091404 -5.603573 -12.442914 0.000000 35.000000 14.454739 0.000000
-32.181894 -5.082456 -11.681399 0.000000 72.000000 14.952247 27.000000
-30.521926 -5.456067 -11.968679 0.000000 60.000000 14.859929 25.000000
-28.038746 -5.426367 -12.711765 0.000000 34.000000 14.458338 0.000000
-33.180825 -4.720646 -11.119384 0.000000 42.000000 14.681719 26.000000
-28.024226 -5.328710 -12.894905 0.000000 41.000000 14.485066 0.000000
-28.011464 -5.222928 -12.970334 0.000000 28.000000 14.444527 0.000000
-27.993252 -5.075106 -13.033075 0.000000 45.000000 14.363308 0.000000
-33.523987 -2.245229 -14.712029 0.000000 52.000000 14.988331 10.000000
-28.000318 -4.950393 -13.204930 0.000000 39.000000 14.370202 0.000000
-28.011873 -4.896459 -13.293520 0.000000 33.000000 14.384114 0.000000
-28.034358 -4.890305 -13.393360 0.000000 32.000000 14.443980 0.000000
-29.288819 -2.902026 -15.468326 0.000000 48.000000 14.543056 0.000000
-28.078278 -4.809120 -13.569889 0.000000 30.000000 14.498264 0.000000
-28.093639 -4.712055 -13.639761 0.000000 34.000000 14.470219 0.000000
-28.133429 -3.728006 -15.878275 0.000000 49.000000 15.025108 4.000000
-29.367199 -6.078731 -11.534085 0.000000 64.000000 14.705230 22.000000
-28.484006 -3.925199 -14.311534 0.000000 29.000000 14.389436 0.000000
-28.550512 -3.900635 -14.380192 0.000000 31.000000 14.431848 0.000000
-28.620599 -3.881401 -14.446909 0.000000 35.000000 14.478322 0.000000
-28.809600 -4.038375 -13.986422 0.000000 25.000000 14.393888 0.000000
-32.937147 -3.995638 -12.222444 0.000000 52.000000 14.689067 20.000000
-30.487560 -2.379895 -15.925836 0.000000 51.000000 14.800827 29.000000
-27.927696 -3.856771 -14.860086 0.000000 32.000000 14.471903 0.000000
-28.014765 -3.787662 -14.895842 0.000000 33.000000 14.468600 0.000000
-28.104641 -3.727404 -14.929668 0.000000 30.000000 14.471763 0.000000
-32.089844 -5.343725 -11.548682 0.000000 48.000000 15.043016 27.000000
-28.296490 -3.622902 -14.990421 0.000000 28.000000 14.490112 0.000000
-28.389625 -3.540112 -15.010590 0.000000 44.000000 14.469546 0.000000
-29.510023 -3.192184 -14.899822 0.000000 40.000000 14.507414 0.000000
-28.484050 -3.443993 -15.024875 0.000000 30.000000 14.435995 0.000000
-29.598623 -3.029514 -14.907069 0.000000 38.000000 14.417848 0.000000
-29.006018 -5.185478 -12.617456 0.000000 43.000000 14.536564 0.000000
-31.971891 -3.827551 -12.773444 0.000000 38.000000 14.565346 17.000000
-28.680747 -3.250649 -15.044756 0.000000 32.000000 14.365624 0.000000
-28.793316 -3.219247 -15.061064 0.000000 32.000000 14.387826 0.000000
-29.473440 -5.330378 -12.231476 0.000000 52.000000 14.575996 7.000000
-30.460516 -2.509934 -14.981287 0.000000 29.000000 14.348706 0.000000
-29.078116 -6.362291 -11.977125 0.000000 70.000000 15.078813 22.000000
-31.838020 -2.932733 -14.726864 0.000000 59.000000 14.967738 11.000000
-29.607918 -2.903873 -15.065817 0.000000 31.000000 14.417255 0.000000
-33.968352 -4.888164 -11.093537 0.000000 76.000000 15.048311 26.000000
-31.999848 -5.252800 -11.558399 0.000000 46.000000 14.950968 27.000000
-33.486968 -4.806750 -11.323481 0.000000 58.000000 14.962729 26.000000
-30.936059 -2.311731 -14.951283 0.000000 29.000000 14.336493 0.000000
-29.713519 -4.448388 -13.701009 0.000000 34.000000 14.832005 13.000000
-33.416474 -1.245100 -15.404374 0.000000 38.000000 14.597395 0.000000
-32.907488 -5.199912 -11.314013 0.000000 54.000000 15.065374 27.000000
-32.966584 -5.213297 -11.327501 0.000000 61.000000 15.102336 27.000000
-33.412286 -2.194646 -14.175039 0.000000 44.000000 14.606344 0.000000
-30.221424 -5.873489 -11.814894 0.000000 63.000000 14.988583 25.000000
-31.562902 -2.100478 -14.844422 0.000000 29.000000 14.319468 0.000000
-30.607917 -2.539202 -14.871299 0.000000 26.000000 14.355498 0.000000
-31.690962 -2.068607 -14.814761 0.000000 28.000000 14.319999 0.000000
-28.326858 -4.573548 -14.327912 0.000000 28.000000 14.835888 5.000000
-31.260034 -2.479337 -14.676431 0.000000 28.000000 14.410189 0.000000
-32.597675 -5.049174 -11.553213 0.000000 46.000000 14.988538 27.000000
-31.521977 -2.547229 -14.594661 0.000000 41.000000 14.499357 0.000000
-33.180670 -4.742604 -10.891747 0.000000 51.000000 14.567759 24.000000
-29.162882 -5.557659 -12.031907 0.000000 39.000000 14.532036 0.000000
-32.166948 -2.463075 -14.295423 0.000000 35.000000 14.473643 0.000000
-32.297581 -2.455706 -14.227998 0.000000 42.000000 14.471811 0.000000
-32.424972 -2.442814 -14.157427 0.000000 38.000000 14.462969 0.000000
-32.553348 -2.419922 -14.083378 0.000000 37.000000 14.444926 0.000000
-32.501287 -1.728305 -15.196765 0.000000 47.000000 14.545446 2.000000
-31.191087 -5.411405 -11.200204 0.000000 55.000000 14.602907 25.000000
-32.804638 -2.430574 -13.937437 0.000000 33.000000 14.450785 0.000000
-32.931156 -2.424331 -13.856717 0.000000 37.000000 14.440849 0.000000
-30.263058 -5.816908 -11.506062 0.000000 75.000000 14.782529 25.000000
-33.185883 -2.337311 -13.674485 0.000000 26.000000 14.353509 0.000000
-33.310350 -2.322410 -13.584720 0.000000 25.000000 14.331208 0.000000
-29.033187 -4.337744 -13.577898 0.000000 30.000000 14.457620 0.000000
-33.381427 -3.035855 -13.588630 0.000000 69.000000 14.893503 16.000000
-32.596757 -3.436043 -13.720991 0.000000 43.000000 15.016185 30.000000
-28.483984 -6.502023 -11.609302 0.000000 52.000000 14.780611 28.000000
-31.400283 -5.227087 -11.027583 0.000000 41.000000 14.433078 0.000000
-28.702692 -6.122637 -11.470251 0.000000 47.000000 14.486273 0.000000
-29.782867 -5.180472 -11.812575 0.000000 27.000000 14.323442 0.000000
-30.655885 -5.764746 -11.475165 0.000000 41.000000 14.852914 25.000000
-29.721999 -5.169268 -11.930850 0.000000 36.000000 14.363048 0.000000
-30.781798 -4.810069 -11.935766 0.000000 41.000000 14.439074 0.000000
-29.665250 -5.168914 -12.052510 0.000000 34.000000 14.414096 0.000000
-29.361626 -2.942803 -15.958539 0.000000 47.000000 14.878248 3.000000
-29.609329 -5.157381 -12.172318 0.000000 35.000000 14.455937 0.000000
-29.637590 -5.092791 -12.211217 0.000000 30.000000 14.438771 0.000000
-29.551290 -5.096547 -12.273322 0.000000 39.000000 14.449207 0.000000
-29.644885 -5.808631 -11.293294 0.000000 28.000000 14.453974 0.000000
-33.046931 -3.318802 -13.470057 0.000000 73.000000 14.930094 30.000000
-32.376424 -5.221289 -11.484288 0.000000 58.000000 15.006866 27.000000
-33.083089 -3.076765 -13.459350 0.000000 61.000000 14.753499 30.000000
-30.509063 -4.543807 -12.459151 0.000000 42.000000 14.450143 0.000000
-29.770624 -6.001751 -11.213631 0.000000 39.000000 14.594452 0.000000
-30.461390 -4.474465 -12.560037 0.000000 43.000000 14.440302 0.000000
-31.021538 -3.715570 -13.249146 0.000000 26.000000 14.445540 0.000000
-30.021300 -5.953694 -11.332602 0.000000 62.000000 14.707718 23.000000
-29.289755 -4.780204 -12.799888 0.000000 31.000000 14.428034 0.000000
-28.732384 -5.992318 -11.933095 0.000000 56.000000 14.663020 22.000000
-32.959508 -1.700848 -15.509140 0.000000 35.000000 14.852324 2.000000
-30.323421 -4.165032 -12.840199 0.000000 32.000000 14.323197 0.000000
-28.992620 -6.430264 -11.900431 0.000000 50.000000 15.058313 22.000000
-30.288069 -4.154329 -12.961583 0.000000 30.000000 14.373235 0.000000
-32.088498 -3.721910 -13.540166 0.000000 65.000000 14.962970 18.000000
-33.551139 -3.897693 -12.393279 0.000000 72.000000 14.912285 19.000000
-30.008682 -4.236641 -12.959108 0.000000 30.000000 14.343198 0.000000
-30.201144 -4.090662 -13.319686 0.000000 38.000000 14.502328 0.000000
-28.922611 -3.965224 -14.429124 0.000000 46.000000 14.629135 9.000000
-30.169532 -3.987370 -13.416169 0.000000 35.000000 14.469617 0.000000
-29.036644 -4.351962 -13.561425 0.000000 31.000000 14.460005 0.000000
-30.143091 -3.909059 -13.520252 0.000000 37.000000 14.461740 0.000000
-29.015017 -4.317874 -13.678407 0.000000 33.000000 14.494366 0.000000
-28.097268 -5.435392 -12.631424 0.000000 34.000000 14.438068 0.000000
-31.659504 -3.918009 -12.834241 0.000000 51.000000 14.566997 17.000000
-30.347729 -3.937113 -14.199724 0.000000 56.000000 14.938541 14.000000
-28.914922 -3.871862 -14.071794 0.000000 27.000000 14.351616 0.000000
-28.906079 -3.811623 -14.182257 0.000000 27.000000 14.366703 0.000000
-30.191007 -3.023519 -14.719632 0.000000 45.000000 14.497980 0.000000
-32.917774 -3.422243 -13.846911 0.000000 55.000000 15.182022 30.000000
-28.994706 -2.986609 -15.318598 0.000000 39.000000 14.425577 0.000000
-30.158659 -2.554968 -15.266959 0.000000 42.000000 14.448436 0.000000
-29.151149 -5.319254 -12.955890 0.000000 65.000000 14.878233 6.000000
-30.189014 -2.480652 -15.365088 0.000000 32.000000 14.458567 0.000000
-30.223862 -2.425210 -15.462555 0.000000 39.000000 14.483982 0.000000
-30.260895 -2.337026 -15.555008 0.000000 38.000000 14.482589 0.000000
-32.762389 -4.005791 -12.650667 0.000000 51.000000 14.885429 20.000000
-33.062071 -4.146717 -12.595524 0.000000 43.000000 15.057062 20.000000
-28.461589 -6.661359 -11.541154 0.000000 43.000000 14.854234 28.000000
-32.313120 -4.189509 -11.922261 0.000000 40.000000 14.460682 0.000000
-31.051939 -5.644689 -11.517650 0.000000 63.000000 14.915289 25.000000
-33.339221 -3.649426 -12.039103 0.000000 40.000000 14.453766 0.000000
-32.398424 -2.460613 -14.746676 0.000000 54.000000 14.805404 11.000000
-33.284486 -3.639285 -12.172456 0.000000 44.000000 14.504800 0.000000
-32.500165 -1.735906 -15.217610 0.000000 50.000000 14.562748 2.000000
-33.236871 -3.569367 -12.289056 0.000000 45.000000 14.503549 0.000000
-31.181297 -5.937251 -11.122301 0.000000 53.000000 14.950900 23.000000
-30.926884 -3.946248 -12.843096 0.000000 29.000000 14.355816 0.000000
-28.241574 -6.238115 -11.919309 0.000000 60.000000 14.681016 28.000000
-33.569711 -4.256189 -11.829685 0.000000 56.000000 14.865204 21.000000
-32.019020 -3.626965 -12.573733 0.000000 30.000000 14.315207 0.000000
-33.118914 -3.176788 -12.590151 0.000000 39.000000 14.342344 0.000000
-33.067957 -4.136399 -12.633435 0.000000 43.000000 15.072927 20.000000
-29.683735 -4.569126 -13.724059 0.000000 56.000000 14.926437 13.000000
-33.003174 -3.051412 -12.974618 0.000000 47.000000 14.430753 0.000000
-32.969698 -2.978940 -13.095850 0.000000 40.000000 14.434817 0.000000
-32.826710 -2.472229 -13.816803 0.000000 36.000000 14.420170 0.000000
-29.517590 -3.074763 -16.112858 0.000000 51.000000 15.116563 3.000000
-31.662571 -2.909558 -14.069927 0.000000 46.000000 14.516985 0.000000
-29.112996 -4.243367 -14.056281 0.000000 29.000000 14.686574 13.000000
-34.017753 -4.899200 -10.978886 0.000000 72.000000 15.006936 26.000000
-32.786023 -2.266584 -14.196776 0.000000 42.000000 14.469918 0.000000
-31.637722 -2.690976 -14.302965 0.000000 31.000000 14.477934 0.000000
-31.893440 -4.041987 -12.344736 0.000000 32.000000 14.455666 0.000000
-31.628791 -2.599781 -14.423125 0.000000 33.000000 14.475250 0.000000
-31.114757 -5.423237 -11.310257 0.000000 59.000000 14.650129 25.000000
-32.776998 -1.901211 -14.546879 0.000000 29.000000 14.392587 0.000000
-33.349874 -2.193478 -14.708812 0.000000 50.000000 14.891087 10.000000
-31.246311 -3.794740 -12.983486 0.000000 25.000000 14.425776 0.000000
-31.620419 -2.189670 -14.764261 0.000000 25.000000 14.359317 0.000000
-28.354829 -6.282133 -12.030928 0.000000 53.000000 14.814823 28.000000
-31.624506 -2.067834 -14.880867 0.000000 29.000000 14.335752 0.000000
-29.409332 -6.111697 -11.787844 0.000000 53.000000 14.889110 22.000000
-31.630020 -2.043740 -15.014268 0.000000 36.000000 14.395844 0.000000
-30.918698 -6.281076 -11.273575 0.000000 6.000000 15.211246 23.000000
-31.638154 -2.029884 -15.149205 0.000000 36.000000 14.465372 0.000000
-32.806112 -1.540227 -15.185189 0.000000 42.000000 14.496068 0.000000
-28.981974 -3.480908 -15.109563 0.000000 54.000000 14.673731 12.000000
-30.453446 -5.798164 -11.348227 0.000000 58.000000 14.739702 23.000000
-31.679831 -1.758937 -15.512787 0.000000 40.000000 14.483276 0.000000
-28.074912 -5.816145 -11.959765 0.000000 24.000000 14.332548 0.000000
-30.624395 -4.321068 -13.292286 0.000000 43.000000 14.797269 8.000000
-28.315330 -5.762130 -11.984937 0.000000 26.000000 14.384256 0.000000
-28.984383 -6.240872 -12.062219 0.000000 63.000000 15.005792 22.000000
-28.427110 -5.679136 -11.972574 0.000000 25.000000 14.350942 0.000000
-32.435916 -2.548798 -14.885367 0.000000 68.000000 14.963407 11.000000
-29.585070 -5.270251 -11.796107 0.000000 34.000000 14.317458 0.000000
-28.659780 -5.559190 -11.958789 0.000000 26.000000 14.328189 0.000000
-29.699382 -5.221061 -11.793750 0.000000 34.000000 14.316141 0.000000
-29.113072 -5.148024 -12.936448 0.000000 46.000000 14.725864 6.000000
-29.818766 -5.177808 -11.791299 0.000000 32.000000 14.320883 0.000000
-29.938407 -5.125524 -11.783534 0.000000 33.000000 14.315866 0.000000
-31.485023 -3.804278 -13.098892 0.000000 61.000000 14.576473 17.000000
-33.867486 -4.891849 -11.493104 0.000000 75.000000 15.247339 26.000000
-29.588492 -4.340117 -14.108539 0.000000 46.000000 14.943494 13.000000
-33.789607 -2.409577 -13.649579 0.000000 56.000000 14.589355 0.000000
-30.569781 -4.765535 -12.169510 0.000000 32.000000 14.470756 0.000000
-32.834830 -4.646330 -11.684545 0.000000 51.000000 14.837454 27.000000
-29.402479 -5.296145 -11.892199 0.000000 27.000000 14.332816 0.000000
-29.528713 -5.257241 -11.872543 0.000000 28.000000 14.333193 0.000000
-28.722606 -4.436138 -14.383920 0.000000 10.000000 14.892851 5.000000
-31.331330 -5.222131 -11.096881 0.000000 23.000000 14.446701 0.000000
-29.911039 -5.130529 -11.800462 0.000000 28.000000 14.320462 0.000000
-29.716858 -6.052826 -12.000196 0.000000 49.000000 15.066174 22.000000
-30.170604 -5.077296 -11.750011 0.000000 30.000000 14.335633 0.000000
-30.995705 -5.728371 -11.258985 0.000000 51.000000 14.811829 23.000000
-31.566540 -4.608986 -11.510015 0.000000 35.000000 14.298167 0.000000
-32.933363 -3.325644 -13.614560 0.000000 52.000000 14.981227 30.000000
-32.942613 -3.423725 -13.480623 0.000000 46.000000 14.981305 30.000000
-28.026636 -4.920186 -13.190748 0.000000 39.000000 14.347871 0.000000
-28.080180 -4.868710 -13.254699 0.000000 38.000000 14.363127 0.000000
-30.302281 -6.386363 -11.188041 0.000000 58.000000 15.041647 23.000000
-30.586432 -5.799688 -11.762826 0.000000 64.000000 15.021531 25.000000
-30.191519 -3.558681 -14.391641 0.000000 38.000000 14.713022 14.000000
-31.002495 -4.703609 -11.905824 0.000000 31.000000 14.413332 0.000000
-29.243498 -3.044913 -16.027276 0.000000 52.000000 14.956197 3.000000
-32.471284 -5.526814 -10.932790 0.000000 61.000000 14.951576 24.000000
-28.542777 -4.503578 -13.636334 0.000000 34.000000 14.456942 0.000000
-28.217662 -3.479278 -16.072237 0.000000 53.000000 14.976339 4.000000
-28.699805 -4.390320 -13.721155 0.000000 38.000000 14.471203 0.000000
-28.780279 -4.320061 -13.755713 0.000000 37.000000 14.464209 0.000000
-33.775267 -4.139065 -11.623634 0.000000 57.000000 14.725615 21.000000
-30.186455 -2.702869 -16.217798 0.000000 45.000000 15.113610 29.000000
-28.028458 -4.466883 -14.032098 0.000000 38.000000 14.489359 0.000000
-28.737840 -3.917406 -14.090103 0.000000 23.000000 14.338979 0.000000
-29.980006 -3.935372 -14.068933 0.000000 45.000000 14.743073 14.000000
-28.969064 -3.817355 -14.093232 0.000000 24.000000 14.340425 0.000000
-29.089414 -3.785138 -14.094001 0.000000 24.000000 14.355632 0.000000
-33.284622 -4.715673 -11.069053 0.000000 52.000000 14.682786 26.000000
-34.017645 -4.397064 -11.585376 0.000000 66.000000 14.976466 26.000000
-28.465066 -6.400885 -11.765989 0.000000 45.000000 14.788134 28.000000
-34.045216 -3.600303 -12.593139 0.000000 35.000000 14.963137 19.000000
-28.769245 -5.279220 -12.609441 0.000000 49.000000 14.525771 6.000000
-30.410647 -3.801282 -14.029050 0.000000 54.000000 14.758901 14.000000
-28.680460 -4.392181 -14.243504 0.000000 55.000000 14.765642 5.000000
-31.009918 -3.117904 -13.905639 0.000000 30.000000 14.368084 0.000000
-31.134600 -3.056224 -13.879206 0.000000 30.000000 14.346932 0.000000
-31.263400 -3.094899 -13.872914 0.000000 37.000000 14.414194 0.000000
-31.388358 -2.997470 -13.831647 0.000000 34.000000 14.357723 0.000000
-33.334625 -4.682371 -11.106401 0.000000 47.000000 14.695331 26.000000
-34.021212 -4.819081 -10.967794 0.000000 65.000000 14.941397 26.000000
-30.855866 -3.299263 -13.780214 0.000000 27.000000 14.382782 0.000000
-30.990487 -3.306528 -13.746707 0.000000 27.000000 14.412694 0.000000
-31.121126 -3.309211 -13.708188 0.000000 28.000000 14.434994 0.000000
-29.419095 -4.495073 -13.857639 0.000000 65.000000 14.861445 13.000000
-31.669916 -3.733854 -13.650171 0.000000 46.000000 14.899293 18.000000
-33.460509 -2.815081 -13.113855 0.000000 45.000000 14.480914 0.000000
-32.541453 -3.189135 -13.084301 0.000000 43.000000 14.447580 0.000000
-32.706457 -3.523955 -13.811036 0.000000 51.000000 15.169517 30.000000
-32.668881 -3.180279 -13.012192 0.000000 35.000000 14.440905 0.000000
-32.797100 -3.176145 -12.941124 0.000000 39.000000 14.438640 0.000000
-28.250882 -6.430046 -11.284791 0.000000 47.000000 14.464917 0.000000
-33.051108 -3.165054 -12.786734 0.000000 39.000000 14.424172 0.000000
-33.177506 -3.142608 -12.702130 0.000000 37.000000 14.399775 0.000000
-33.820811 -5.051641 -11.286479 0.000000 42.000000 15.234085 26.000000
-33.427360 -3.099611 -12.526534 0.000000 35.000000 14.347795 0.000000
-31.339509 -5.516578 -11.379813 0.000000 55.000000 14.833106 25.000000
-29.186438 -4.432607 -13.181683 0.000000 25.000000 14.351674 0.000000
-29.423552 -6.050262 -11.113808 0.000000 30.000000 14.461248 0.000000
-29.486751 -2.638978 -15.904863 0.000000 49.000000 14.659366 3.000000
-29.282028 -6.022299 -11.327844 0.000000 45.000000 14.516964 0.000000
-29.369209 -3.371591 -14.889988 0.000000 51.000000 14.591169 12.000000
-29.922521 -5.139730 -11.808424 0.000000 31.000000 14.335671 0.000000
-28.806564 -5.595292 -11.977513 0.000000 28.000000 14.413678 0.000000
-29.870755 -5.117179 -11.916842 0.000000 30.000000 14.364039 0.000000
-28.750945 -5.549722 -12.079900 0.000000 25.000000 14.420015 0.000000
-29.826818 -5.148925 -12.045844 0.000000 46.000000 14.447610 0.000000
-28.701440 -5.524265 -12.190167 0.000000 29.000000 14.447988 0.000000
-30.626214 -4.173371 -13.075176 0.000000 47.000000 14.562282 8.000000
-32.699062 -5.253160 -11.240051 0.000000 59.000000 14.995503 27.000000
-29.735351 -5.083763 -12.258050 0.000000 40.000000 14.490505 0.000000
-28.600879 -5.418165 -12.395125 0.000000 29.000000 14.452968 0.000000
-29.687063 -5.006295 -12.351627 0.000000 41.000000 14.470160 0.000000
-28.556650 -5.380806 -12.503493 0.000000 30.000000 14.472604 0.000000
-30.325930 -6.301697 -11.106526 0.000000 55.000000 14.938877 23.000000
-31.866836 -2.609834 -14.439640 0.000000 53.000000 14.569452 11.000000
-28.870215 -4.052649 -14.192592 0.000000 53.000000 14.542419 0.000000
