39.058092 24.334026 -29.095727 0.000000 24.000000 14.130425 0.000000
38.559376 21.429219 -23.281766 0.000000 31.000000 14.127397 0.000000
36.109578 24.742473 -24.305203 0.000000 76.000000 14.643798 28.000000
36.952924 24.303624 -25.517157 0.000000 74.000000 14.332585 7.000000
39.993029 21.380032 -25.021303 0.000000 44.000000 14.221428 0.000000
37.492404 24.228075 -25.794567 0.000000 62.000000 14.479619 9.000000
37.912980 26.050440 -28.276980 0.000000 49.000000 15.013611 24.000000
37.994882 25.522906 -28.523065 0.000000 56.000000 14.588024 26.000000
36.844198 24.209714 -24.957235 0.000000 68.000000 14.428828 7.000000
38.833682 23.888908 -27.882964 0.000000 45.000000 14.174029 0.000000
39.633315 23.606653 -28.386458 0.000000 58.000000 14.234099 0.000000
39.460391 21.788077 -24.626187 0.000000 65.000000 14.361412 21.000000
37.302186 22.731984 -23.672374 0.000000 23.000000 14.164986 0.000000
41.096970 22.298050 -28.430086 0.000000 42.000000 14.136860 0.000000
40.983178 22.381575 -28.492588 0.000000 38.000000 14.104948 0.000000
39.765847 20.755191 -23.913705 0.000000 27.000000 14.093676 0.000000
37.198222 24.434215 -25.781460 0.000000 80.000000 14.460610 9.000000
40.673657 22.825274 -28.481820 0.000000 53.000000 14.244443 0.000000
40.561300 22.881790 -28.583530 0.000000 36.000000 14.178415 0.000000
40.107031 23.399435 -28.768871 0.000000 29.000000 14.207415 0.000000
40.357987 23.105229 -28.668040 0.000000 41.000000 14.184928 0.000000
40.168700 23.371785 -28.704285 0.000000 55.000000 14.249576 0.000000
37.783931 24.780696 -27.352347 0.000000 62.000000 14.411956 5.000000
39.963196 23.505465 -28.905189 0.000000 39.000000 14.144290 0.000000
38.430083 25.096179 -29.019285 0.000000 44.000000 14.337613 26.000000
38.625552 24.966871 -28.314925 0.000000 84.000000 14.643168 5.000000
39.368589 24.137934 -28.967953 0.000000 54.000000 14.222804 0.000000
39.602226 23.983672 -29.088532 0.000000 47.000000 14.200181 0.000000
40.005597 23.210864 -28.354401 0.000000 46.000000 14.182163 0.000000
37.078997 23.213621 -23.660979 0.000000 48.000000 14.381611 6.000000
39.570543 22.025117 -25.939415 0.000000 27.000000 14.063696 0.000000
38.575367 22.663406 -24.764949 0.000000 49.000000 14.413191 11.000000
38.898823 24.225116 -28.570427 0.000000 35.000000 14.172812 0.000000
36.166856 24.521431 -24.651603 0.000000 62.000000 14.380680 28.000000
37.086982 24.297463 -25.082357 0.000000 55.000000 14.581155 7.000000
37.415883 25.507395 -26.961682 0.000000 71.000000 14.871251 27.000000
38.165177 24.153631 -27.509599 0.000000 35.000000 14.125007 0.000000
39.396196 24.141080 -29.133227 0.000000 32.000000 14.174385 0.000000
38.893944 21.255928 -23.239143 0.000000 37.000000 14.215539 0.000000
38.091373 24.007229 -27.260474 0.000000 37.000000 14.078972 0.000000
38.764838 23.803626 -27.551457 0.000000 43.000000 14.207389 0.000000
37.961011 22.614526 -23.916111 0.000000 48.000000 14.365014 11.000000
37.297891 25.454672 -26.849881 0.000000 73.000000 14.810640 27.000000
37.754353 23.263481 -24.548011 0.000000 51.000000 14.450407 6.000000
37.984434 23.510520 -25.880088 0.000000 27.000000 14.221628 0.000000
38.024137 23.473180 -25.942223 0.000000 53.000000 14.193110 0.000000
37.522027 23.758903 -25.589899 0.000000 39.000000 14.246846 0.000000
37.405812 25.175838 -26.469383 0.000000 55.000000 14.828969 27.000000
37.389508 25.570003 -27.799290 0.000000 68.000000 14.562635 27.000000
37.660999 24.764764 -26.294594 0.000000 77.000000 14.755940 9.000000
39.573772 24.110376 -29.263544 0.000000 43.000000 14.202922 0.000000
40.883748 22.542489 -28.768722 0.000000 24.000000 14.050057 0.000000
37.496698 24.781138 -26.584157 0.000000 33.000000 14.555650 27.000000
37.591652 23.540301 -25.381735 0.000000 42.000000 14.216196 0.000000
39.057541 21.156192 -23.370663 0.000000 35.000000 14.186581 0.000000
37.038796 24.358338 -25.117085 0.000000 68.000000 14.582384 7.000000
38.673133 25.607411 -29.121390 0.000000 64.000000 14.799446 26.000000
40.767532 22.970236 -28.889391 0.000000 43.000000 14.237199 0.000000
36.989525 23.271055 -24.030878 0.000000 37.000000 14.221358 0.000000
38.656259 22.906169 -25.902524 0.000000 42.000000 14.173406 0.000000
38.092696 23.576772 -26.290780 0.000000 49.000000 14.165685 0.000000
41.942425 21.329479 -28.221603 0.000000 24.000000 14.024209 0.000000
40.858916 22.174729 -28.008652 0.000000 40.000000 14.081534 0.000000
37.727719 25.757569 -28.028204 0.000000 59.000000 14.799105 24.000000
37.800348 23.988941 -26.752045 0.000000 27.000000 14.102468 0.000000
37.038280 23.282991 -24.127506 0.000000 49.000000 14.219092 0.000000
37.529655 23.943030 -24.743260 0.000000 50.000000 14.723080 4.000000
36.913832 23.252184 -23.888803 0.000000 40.000000 14.221434 0.000000
37.525405 25.456638 -28.282495 0.000000 57.000000 14.366186 24.000000
37.735639 23.380220 -25.337969 0.000000 53.000000 14.203794 0.000000
38.232505 25.467010 -28.620489 0.000000 44.000000 14.646745 26.000000
40.614934 21.066226 -25.765415 0.000000 27.000000 14.059206 0.000000
38.292738 26.054007 -29.397151 0.000000 74.000000 14.784427 24.000000
40.444495 21.423309 -25.742429 0.000000 38.000000 14.222794 0.000000
39.132969 23.106679 -27.083715 0.000000 24.000000 14.115314 0.000000
38.154789 24.688915 -27.416411 0.000000 69.000000 14.535856 5.000000
37.470681 24.207175 -25.990613 0.000000 39.000000 14.373188 9.000000
39.355434 24.062993 -28.828999 0.000000 52.000000 14.218107 0.000000
38.253097 24.546382 -27.702944 0.000000 58.000000 14.376266 5.000000
39.537480 23.644527 -27.925569 0.000000 38.000000 14.391258 3.000000
39.808872 22.009686 -26.281111 0.000000 30.000000 14.053015 0.000000
41.104788 21.647924 -26.435828 0.000000 49.000000 14.484764 13.000000
39.729213 22.119714 -26.341420 0.000000 32.000000 14.060533 0.000000
37.134923 23.582695 -24.622545 0.000000 54.000000 14.287833 4.000000
41.588531 22.494955 -28.558607 0.000000 38.000000 14.509229 19.000000
37.618069 23.273954 -24.715133 0.000000 65.000000 14.311525 6.000000
39.596294 22.448461 -26.364968 0.000000 45.000000 14.207009 0.000000
38.097589 24.696670 -27.258743 0.000000 73.000000 14.571795 5.000000
37.778722 23.878184 -26.343467 0.000000 49.000000 14.176195 0.000000
36.631177 24.072424 -24.433880 0.000000 34.000000 14.419192 7.000000
40.017024 22.777785 -27.644587 0.000000 38.000000 14.168091 0.000000
38.124815 23.107570 -25.358363 0.000000 20.000000 14.227749 0.000000
36.819611 23.671407 -24.927916 0.000000 37.000000 14.044975 0.000000
39.788513 23.418153 -28.714377 0.000000 22.000000 14.058195 0.000000
39.522517 23.801290 -28.662699 0.000000 38.000000 14.196476 0.000000
39.162770 23.054108 -26.823312 0.000000 37.000000 14.200310 0.000000
37.976800 25.572323 -27.913423 0.000000 65.000000 14.858364 26.000000
38.522667 24.284528 -28.472273 0.000000 40.000000 14.036651 0.000000
39.661814 23.278710 -28.054104 0.000000 43.000000 14.152225 0.000000
38.998557 23.127550 -27.121373 0.000000 34.000000 14.037081 0.000000
39.605551 23.422326 -28.090787 0.000000 44.000000 14.206617 0.000000
40.668864 22.846875 -28.626766 0.000000 46.000000 14.198533 0.000000
38.138326 25.679498 -29.221450 0.000000 52.000000 14.500476 26.000000
35.815404 25.057512 -24.516074 0.000000 58.000000 14.611654 28.000000
38.791612 23.671276 -27.317127 0.000000 47.000000 14.223590 0.000000
38.994079 22.231453 -25.168812 0.000000 47.000000 14.186764 0.000000
36.526163 24.835694 -25.147218 0.000000 78.000000 14.611614 28.000000
36.290781 24.774571 -24.642695 0.000000 81.000000 14.635406 28.000000
40.058967 21.462198 -25.386560 0.000000 29.000000 14.170570 0.000000
39.356078 22.699113 -26.554707 0.000000 25.000000 14.169008 0.000000
37.320656 25.577956 -27.733852 0.000000 32.000000 14.554781 27.000000
40.458973 22.597625 -28.002773 0.000000 32.000000 14.151951 0.000000
39.147475 24.270522 -28.771137 0.000000 62.000000 14.268057 0.000000
37.364729 23.697955 -24.636461 0.000000 66.000000 14.496975 4.000000
36.979910 25.694738 -26.485449 0.000000 65.000000 14.943535 27.000000
36.684656 24.931593 -25.510418 0.000000 84.000000 14.624915 28.000000
39.249041 23.201265 -27.504169 0.000000 39.000000 14.080034 0.000000
41.244734 21.640737 -26.742165 0.000000 45.000000 14.437206 13.000000
38.949536 24.409816 -29.288491 0.000000 44.000000 14.043546 0.000000
38.118862 24.063798 -26.364023 0.000000 61.000000 14.496406 15.000000
37.962041 23.231862 -24.829913 0.000000 46.000000 14.434617 6.000000
37.375486 22.560651 -23.571009 0.000000 34.000000 14.126900 0.000000
36.241966 24.885196 -26.086354 0.000000 37.000000 14.103471 0.000000
36.128514 24.281820 -24.550019 0.000000 38.000000 14.229648 0.000000
37.715226 24.700975 -27.212187 0.000000 82.000000 14.372189 5.000000
37.968828 22.899454 -24.882332 0.000000 48.000000 14.181876 0.000000
35.815497 24.710958 -25.150351 0.000000 37.000000 14.110418 0.000000
38.994079 24.151046 -28.474904 0.000000 40.000000 14.214003 0.000000
38.016011 25.563715 -27.952281 0.000000 74.000000 14.859304 26.000000
38.055345 22.751315 -23.933442 0.000000 70.000000 14.509582 11.000000
39.888806 21.430965 -24.979490 0.000000 22.000000 14.214021 0.000000
37.718926 23.420429 -25.291095 0.000000 53.000000 14.241506 0.000000
38.661751 23.591971 -27.074185 0.000000 46.000000 14.190143 0.000000
39.175059 22.613352 -25.968962 0.000000 50.000000 14.239571 0.000000
38.766340 22.842722 -25.805095 0.000000 31.000000 14.231477 0.000000
38.665175 25.595487 -28.975365 0.000000 66.000000 14.845263 26.000000
40.340225 21.548322 -25.930061 0.000000 23.000000 14.175344 0.000000
38.564523 24.964187 -29.360673 0.000000 35.000000 14.184299 0.000000
38.474102 24.340909 -28.423780 0.000000 48.000000 14.068029 0.000000
37.191098 25.750591 -27.055414 0.000000 59.000000 14.875612 27.000000
39.796640 22.883795 -27.493513 0.000000 42.000000 14.176493 0.000000
38.509542 25.376427 -28.789224 0.000000 66.000000 14.674962 26.000000
39.068553 21.129517 -23.266995 0.000000 34.000000 14.215853 0.000000
41.507722 22.335703 -28.415051 0.000000 45.000000 14.407469 19.000000
38.992554 21.227397 -23.327776 0.000000 34.000000 14.216693 0.000000
39.539491 21.369266 -24.413886 0.000000 39.000000 14.196053 0.000000
38.923041 21.341724 -23.377702 0.000000 36.000000 14.237319 0.000000
39.032474 21.195355 -23.409476 0.000000 37.000000 14.184167 0.000000
38.847626 21.426139 -23.447812 0.000000 28.000000 14.225194 0.000000
37.744885 24.218679 -26.523117 0.000000 48.000000 14.325438 9.000000
40.347287 23.492509 -28.787307 0.000000 71.000000 14.405065 29.000000
37.557918 23.628339 -25.431540 0.000000 52.000000 14.238962 0.000000
39.272681 21.645904 -23.760695 0.000000 60.000000 14.500917 21.000000
38.934444 22.548968 -25.608281 0.000000 50.000000 14.200029 0.000000
38.258973 22.733869 -25.267132 0.000000 40.000000 14.077425 0.000000
37.919926 25.858004 -28.701675 0.000000 70.000000 14.710050 24.000000
40.813672 21.513640 -25.816912 0.000000 52.000000 14.470562 17.000000
38.675573 23.156627 -26.411922 0.000000 29.000000 14.156681 0.000000
38.989329 22.107457 -24.978178 0.000000 34.000000 14.173011 0.000000
38.714992 25.036093 -28.372688 0.000000 80.000000 14.720722 5.000000
38.070589 23.460735 -25.697476 0.000000 50.000000 14.309870 2.000000
38.337164 22.212091 -24.008322 0.000000 38.000000 14.260509 0.000000
36.605055 24.275924 -25.260803 0.000000 41.000000 14.214863 0.000000
38.817550 22.409273 -25.191850 0.000000 43.000000 14.201247 0.000000
38.529949 22.138575 -24.236703 0.000000 30.000000 14.227981 0.000000
40.294027 21.652576 -26.026762 0.000000 24.000000 14.183476 0.000000
38.527924 22.731978 -24.844391 0.000000 48.000000 14.402275 11.000000
37.480559 22.680650 -23.864453 0.000000 36.000000 14.154467 0.000000
39.303773 23.297122 -27.751573 0.000000 36.000000 14.079905 0.000000
39.277060 22.374620 -25.348205 0.000000 36.000000 14.379756 14.000000
38.424783 23.539363 -25.556492 0.000000 51.000000 14.627540 2.000000
37.888186 22.851929 -24.784020 0.000000 33.000000 14.141138 0.000000
38.670540 22.360519 -24.855944 0.000000 25.000000 14.216997 0.000000
41.147825 21.867702 -27.633554 0.000000 38.000000 14.182519 0.000000
38.454412 24.485088 -28.555754 0.000000 21.000000 14.105580 0.000000
40.222574 23.056203 -28.375547 0.000000 40.000000 14.189698 0.000000
36.691053 23.744395 -24.513258 0.000000 32.000000 14.189427 0.000000
38.559192 25.602429 -28.981164 0.000000 39.000000 14.786469 26.000000
37.596674 24.836247 -26.700324 0.000000 36.000000 14.605759 27.000000
37.415939 23.202200 -24.536987 0.000000 39.000000 14.215454 0.000000
38.077234 26.033061 -28.899426 0.000000 75.000000 14.845460 24.000000
38.956238 25.159627 -28.927663 0.000000 65.000000 14.724208 1.000000
38.720350 25.504486 -29.350582 0.000000 58.000000 14.661453 26.000000
38.140501 23.764628 -26.601944 0.000000 44.000000 14.201025 0.000000
39.951688 21.926948 -25.063481 0.000000 58.000000 14.568017 10.000000
38.143370 22.697089 -24.948457 0.000000 27.000000 14.112900 0.000000
38.052102 24.028949 -27.057074 0.000000 41.000000 14.153626 0.000000
39.547799 23.646809 -28.442498 0.000000 39.000000 14.190435 0.000000
37.931707 24.183424 -27.381520 0.000000 34.000000 14.062554 0.000000
39.841232 21.912481 -25.299724 0.000000 52.000000 14.398552 10.000000
38.828924 22.775043 -25.306956 0.000000 55.000000 14.420602 12.000000
37.766875 25.326610 -28.959414 0.000000 53.000000 14.140966 0.000000
38.125137 23.320098 -25.509273 0.000000 63.000000 14.317685 2.000000
36.792804 23.340060 -23.843016 0.000000 39.000000 14.232075 0.000000
36.757206 23.405938 -23.948001 0.000000 40.000000 14.215813 0.000000
37.292386 23.919033 -24.951478 0.000000 52.000000 14.484724 4.000000
38.382716 25.764070 -28.874569 0.000000 64.000000 14.841784 26.000000
40.842936 22.347598 -27.037597 0.000000 73.000000 14.586280 16.000000
36.633179 23.681266 -24.373347 0.000000 32.000000 14.167589 0.000000
36.584261 23.700473 -24.527243 0.000000 39.000000 14.090823 0.000000
36.204908 24.587349 -24.369307 0.000000 35.000000 14.563240 28.000000
38.014823 24.845743 -27.500362 0.000000 43.000000 14.532080 5.000000
37.896979 22.382102 -23.755760 0.000000 43.000000 14.227893 0.000000
35.974021 24.184487 -24.172421 0.000000 36.000000 14.223453 0.000000
37.844637 24.453376 -26.664957 0.000000 57.000000 14.492318 9.000000
38.485457 22.185763 -24.184594 0.000000 39.000000 14.256661 0.000000
36.618014 24.737848 -25.036527 0.000000 78.000000 14.640102 28.000000
36.476452 24.819629 -26.019349 0.000000 42.000000 14.219817 0.000000
35.889116 24.659541 -25.209667 0.000000 41.000000 14.092703 0.000000
36.405440 24.202000 -23.986586 0.000000 63.000000 14.560622 7.000000
35.838691 24.728033 -24.313122 0.000000 80.000000 14.473502 28.000000
36.208450 25.113093 -25.575249 0.000000 53.000000 14.451612 23.000000
39.540806 23.967058 -29.032951 0.000000 37.000000 14.175250 0.000000
38.583205 24.678631 -28.477266 0.000000 66.000000 14.348950 5.000000
38.513482 24.183072 -27.927915 0.000000 26.000000 14.178916 0.000000
39.666950 23.709845 -28.656319 0.000000 38.000000 14.217893 0.000000
38.756908 23.796378 -27.555491 0.000000 40.000000 14.196034 0.000000
41.116657 22.388857 -28.618858 0.000000 41.000000 14.136495 0.000000
41.301922 21.937696 -27.957175 0.000000 39.000000 14.190876 0.000000
36.338818 24.684787 -24.688302 0.000000 55.000000 14.581218 28.000000
38.543274 23.271863 -26.375368 0.000000 25.000000 14.176459 0.000000
36.820771 23.588904 -24.322853 0.000000 19.000000 14.231136 0.000000
38.828320 23.631565 -27.378266 0.000000 34.000000 14.192059 0.000000
38.380527 24.985810 -28.145560 0.000000 85.000000 14.582978 5.000000
37.057599 24.986426 -26.580363 0.000000 41.000000 14.448360 27.000000
39.921367 22.850146 -27.626869 0.000000 36.000000 14.171113 0.000000
37.273226 25.708919 -26.697284 0.000000 67.000000 15.038035 27.000000
36.113752 24.735193 -25.154623 0.000000 45.000000 14.298588 28.000000
39.105814 21.239290 -23.524183 0.000000 49.000000 14.211521 0.000000
39.960009 22.683459 -27.371817 0.000000 34.000000 14.178212 0.000000
40.564648 22.717393 -28.261991 0.000000 49.000000 14.193503 0.000000
38.104958 24.974711 -28.285521 0.000000 47.000000 14.359101 26.000000
40.572583 22.597547 -28.169533 0.000000 40.000000 14.150455 0.000000
37.742277 24.675545 -26.280632 0.000000 73.000000 14.745418 9.000000
39.733559 23.228446 -27.435290 0.000000 42.000000 14.407650 22.000000
41.111469 22.237082 -27.524636 0.000000 56.000000 14.467116 16.000000
39.396269 24.068426 -27.990049 0.000000 70.000000 14.583852 3.000000
41.028118 22.207880 -28.106854 0.000000 45.000000 14.163415 0.000000
40.592579 22.216845 -27.707330 0.000000 35.000000 14.078627 0.000000
40.005869 22.099133 -26.706209 0.000000 28.000000 14.059086 0.000000
38.149620 24.859564 -28.625381 0.000000 40.000000 14.166349 0.000000
37.484419 24.330412 -26.029633 0.000000 55.000000 14.452736 9.000000
40.023577 22.016878 -26.382718 0.000000 29.000000 14.141481 0.000000
41.436919 21.634789 -26.967378 0.000000 45.000000 14.453484 13.000000
38.811896 22.947227 -26.184615 0.000000 43.000000 14.178894 0.000000
40.578300 21.812617 -26.677130 0.000000 35.000000 14.199285 0.000000
37.385264 24.530305 -26.714565 0.000000 57.000000 14.260805 0.000000
40.549317 21.662941 -26.428042 0.000000 37.000000 14.176870 0.000000
40.533450 21.604060 -26.290087 0.000000 35.000000 14.181581 0.000000
37.603811 23.222747 -24.003677 0.000000 60.000000 14.553829 6.000000
38.693674 25.107866 -28.334944 0.000000 54.000000 14.774452 5.000000
36.808019 23.726489 -24.942053 0.000000 37.000000 14.071593 0.000000
37.085187 23.160442 -23.962766 0.000000 32.000000 14.225840 0.000000
36.165042 24.780365 -24.227219 0.000000 48.000000 14.734209 28.000000
38.038599 23.696991 -26.368012 0.000000 48.000000 14.188405 0.000000
37.630960 25.559669 -28.218300 0.000000 59.000000 14.526200 24.000000
39.597909 21.705388 -24.405424 0.000000 52.000000 14.471464 21.000000
39.045725 25.009336 -29.179539 0.000000 57.000000 14.567985 1.000000
39.881823 21.252632 -24.617969 0.000000 40.000000 14.229372 0.000000
40.399502 21.300991 -25.468569 0.000000 40.000000 14.220481 0.000000
39.010856 22.952026 -25.917728 0.000000 41.000000 14.405116 8.000000
41.858665 21.832686 -28.533847 0.000000 54.000000 14.206376 0.000000
39.795367 21.075964 -24.242161 0.000000 35.000000 14.205639 0.000000
38.138251 25.211736 -28.283444 0.000000 60.000000 14.547170 26.000000
38.983872 24.315025 -28.996234 0.000000 40.000000 14.114095 0.000000
37.065136 24.895443 -26.727830 0.000000 74.000000 14.328801 27.000000
39.356590 23.998038 -28.094833 0.000000 43.000000 14.468751 3.000000
37.328241 24.515572 -26.488908 0.000000 43.000000 14.308323 9.000000
37.016018 25.803747 -26.402386 0.000000 56.000000 15.075175 27.000000
39.519587 20.704978 -23.386855 0.000000 28.000000 14.127903 0.000000
39.993876 20.758695 -24.276060 0.000000 29.000000 14.082117 0.000000
41.474006 21.804229 -27.440485 0.000000 57.000000 14.404276 13.000000
40.420938 21.516504 -25.983741 0.000000 41.000000 14.177896 0.000000
38.108690 24.116436 -27.515705 0.000000 33.000000 14.063478 0.000000
38.607928 23.638464 -27.108372 0.000000 35.000000 14.178134 0.000000
39.629373 22.917002 -27.016241 0.000000 44.000000 14.295584 22.000000
38.289146 24.941538 -27.696349 0.000000 44.000000 14.679801 5.000000
38.692298 25.025836 -29.220060 0.000000 45.000000 14.358669 1.000000
39.737071 20.657747 -23.650357 0.000000 41.000000 14.114142 0.000000
40.432856 22.092686 -27.248069 0.000000 33.000000 14.083319 0.000000
40.574135 22.218066 -27.087037 0.000000 59.000000 14.318901 16.000000
38.335798 24.919476 -27.839433 0.000000 64.000000 14.633496 5.000000
37.301452 24.627059 -26.452046 0.000000 52.000000 14.386670 9.000000
39.390502 20.663493 -23.015512 0.000000 37.000000 14.173471 0.000000
39.369424 20.576114 -22.967386 0.000000 27.000000 14.118754 0.000000
38.328887 24.888412 -28.916352 0.000000 37.000000 14.173290 0.000000
38.796939 23.213499 -26.760438 0.000000 33.000000 14.126748 0.000000
39.495468 21.019996 -23.358812 0.000000 65.000000 14.348457 20.000000
40.128782 22.027411 -26.798433 0.000000 24.000000 14.042260 0.000000
38.583506 24.465068 -28.756632 0.000000 40.000000 14.085163 0.000000
38.395810 24.353853 -27.938368 0.000000 42.000000 14.227570 0.000000
38.268076 23.467388 -25.947178 0.000000 48.000000 14.328273 2.000000
38.376810 24.214926 -27.877123 0.000000 42.000000 14.142819 0.000000
37.215989 23.113484 -24.029440 0.000000 44.000000 14.241433 0.000000
37.030512 24.173496 -25.583815 0.000000 30.000000 14.258435 0.000000
36.209109 24.988294 -25.201784 0.000000 64.000000 14.514138 23.000000
39.550898 20.519216 -23.088121 0.000000 32.000000 14.134851 0.000000
37.975538 25.939000 -28.460570 0.000000 73.000000 14.896856 24.000000
38.497697 25.372683 -28.703614 0.000000 51.000000 14.699965 26.000000
38.580524 24.204778 -28.129988 0.000000 36.000000 14.151649 0.000000
39.723612 21.161054 -23.873745 0.000000 60.000000 14.372917 20.000000
36.659117 24.480650 -25.682619 0.000000 29.000000 14.221168 0.000000
40.722318 22.886820 -28.727620 0.000000 57.000000 14.217131 0.000000
38.689332 25.018470 -28.184082 0.000000 72.000000 14.769418 5.000000
37.115957 24.469907 -26.242662 0.000000 45.000000 14.252314 0.000000
38.857876 23.884575 -27.906985 0.000000 48.000000 14.175285 0.000000
38.346366 23.736302 -26.901992 0.000000 44.000000 14.179197 0.000000
40.889693 21.251302 -26.252776 0.000000 23.000000 14.152966 0.000000
38.333020 23.664340 -26.774041 0.000000 39.000000 14.172065 0.000000
38.381970 25.235472 -28.718125 0.000000 51.000000 14.529872 26.000000
39.905466 21.922325 -25.058510 0.000000 49.000000 14.539978 10.000000
37.034385 25.595262 -26.441127 0.000000 42.000000 14.922464 27.000000
39.858658 21.968911 -25.239689 0.000000 64.000000 14.472833 10.000000
37.213222 24.497701 -26.021524 0.000000 55.000000 14.417493 9.000000
38.164809 24.823371 -27.380737 0.000000 77.000000 14.651315 5.000000
36.761368 24.852573 -25.743229 0.000000 73.000000 14.519482 28.000000
37.727093 23.320365 -24.980646 0.000000 50.000000 14.300498 6.000000
38.154890 26.089718 -29.214622 0.000000 45.000000 14.803495 24.000000
38.191733 24.987030 -28.644396 0.000000 38.000000 14.273390 0.000000
38.419346 25.544637 -28.766762 0.000000 70.000000 14.750976 26.000000
37.527026 24.708775 -26.911560 0.000000 35.000000 14.389936 27.000000
39.189658 23.013103 -26.188192 0.000000 45.000000 14.442893 8.000000
39.580627 22.596233 -26.569064 0.000000 47.000000 14.220358 0.000000
38.135058 23.110239 -25.382761 0.000000 42.000000 14.225735 0.000000
36.107520 24.783323 -24.996546 0.000000 66.000000 14.392817 28.000000
41.181670 22.175306 -27.637826 0.000000 38.000000 14.418359 16.000000
38.542403 23.113418 -26.124235 0.000000 40.000000 14.164935 0.000000
37.812278 23.901375 -26.498767 0.000000 31.000000 14.149446 0.000000
37.661481 25.481218 -28.300352 0.000000 58.000000 14.455205 26.000000
39.020652 25.017612 -29.078062 0.000000 61.000000 14.600243 1.000000
36.885979 25.345434 -26.462143 0.000000 60.000000 14.651025 27.000000
37.984966 22.842859 -24.910918 0.000000 30.000000 14.139594 0.000000
38.637723 24.130871 -27.999963 0.000000 39.000000 14.184827 0.000000
37.945829 22.783672 -24.790444 0.000000 35.000000 14.123564 0.000000
38.880488 25.125381 -29.315416 0.000000 77.000000 14.499741 1.000000
37.909711 22.748447 -24.650709 0.000000 34.000000 14.134026 0.000000
40.133842 21.553057 -25.604229 0.000000 31.000000 14.190551 0.000000
39.974358 23.263947 -28.494435 0.000000 26.000000 14.145227 0.000000
37.583761 24.127361 -25.985552 0.000000 44.000000 14.384159 9.000000
38.243431 22.738184 -25.258403 0.000000 34.000000 14.075001 0.000000
38.208420 22.737314 -25.096207 0.000000 35.000000 14.119504 0.000000
35.863917 25.061653 -24.509863 0.000000 61.000000 14.645185 28.000000
38.534981 24.957655 -28.159506 0.000000 70.000000 14.646849 5.000000
37.092335 25.403579 -27.128717 0.000000 75.000000 14.542978 27.000000
35.413775 24.674923 -24.175371 0.000000 48.000000 14.245338 0.000000
39.380461 24.072270 -27.865532 0.000000 71.000000 14.627624 3.000000
38.516985 25.100268 -28.163591 0.000000 76.000000 14.735833 5.000000
39.408571 22.442272 -26.057310 0.000000 46.000000 14.217954 0.000000
37.424067 23.368132 -23.930190 0.000000 54.000000 14.582386 6.000000
36.758081 24.657056 -25.578748 0.000000 70.000000 14.445354 28.000000
37.920456 25.455307 -28.326753 0.000000 51.000000 14.576173 26.000000
40.866743 21.545661 -26.658082 0.000000 42.000000 14.184842 0.000000
37.661478 25.178175 -26.883202 0.000000 46.000000 14.811839 27.000000
37.318695 23.199921 -24.186627 0.000000 62.000000 14.298782 6.000000
37.642802 22.510249 -23.689746 0.000000 32.000000 14.198117 0.000000
38.215765 24.857570 -28.050971 0.000000 77.000000 14.434832 5.000000
38.040292 23.178667 -25.206625 0.000000 58.000000 14.290357 6.000000
39.562221 22.231210 -26.183541 0.000000 25.000000 14.106485 0.000000
40.180014 21.907458 -26.223947 0.000000 27.000000 14.218554 0.000000
38.338029 24.620434 -27.557614 0.000000 8.000000 14.536516 5.000000
37.875602 24.700206 -26.383156 0.000000 74.000000 14.798766 9.000000
40.094285 23.072359 -28.171861 0.000000 45.000000 14.208976 0.000000
38.393156 21.666765 -23.567833 0.000000 23.000000 14.084123 0.000000
41.648857 21.738147 -27.774953 0.000000 32.000000 14.323857 13.000000
37.591084 22.511264 -23.674320 0.000000 36.000000 14.175105 0.000000
40.540700 22.916858 -28.638684 0.000000 45.000000 14.169097 0.000000
41.193066 21.702498 -26.675854 0.000000 46.000000 14.477783 13.000000
38.627251 24.429812 -28.848196 0.000000 37.000000 14.048597 0.000000
36.614095 25.156792 -26.351227 0.000000 54.000000 14.404628 27.000000
36.496696 24.945997 -25.381492 0.000000 36.000000 14.578254 28.000000
40.330990 22.273462 -27.399338 0.000000 34.000000 14.091434 0.000000
37.948185 24.794156 -27.170513 0.000000 76.000000 14.589924 5.000000
40.238867 22.381689 -27.453647 0.000000 34.000000 14.092877 0.000000
36.868464 24.399132 -25.198874 0.000000 63.000000 14.479675 7.000000
38.995413 24.284669 -28.799474 0.000000 37.000000 14.178598 0.000000
36.461478 24.854709 -24.759439 0.000000 75.000000 14.743973 28.000000
40.072929 22.677794 -27.488815 0.000000 48.000000 14.192417 0.000000
41.028478 22.478902 -28.738345 0.000000 28.000000 14.101061 0.000000
39.983855 22.771903 -27.562965 0.000000 41.000000 14.177624 0.000000
37.564767 25.385856 -27.498626 0.000000 65.000000 14.654866 27.000000
39.596085 21.706153 -24.440823 0.000000 40.000000 14.456678 21.000000
40.483542 23.021581 -28.765886 0.000000 38.000000 14.158916 0.000000
36.683624 24.380583 -24.836251 0.000000 47.000000 14.505692 7.000000
38.230157 24.050659 -26.649681 0.000000 63.000000 14.436375 15.000000
37.863209 25.558498 -28.978193 0.000000 46.000000 14.353493 24.000000
39.493323 23.403171 -27.971220 0.000000 41.000000 14.176260 0.000000
35.980714 25.122566 -24.653732 0.000000 57.000000 14.697979 28.000000
38.284805 21.850901 -23.477861 0.000000 30.000000 14.188127 0.000000
39.124944 23.925961 -28.356830 0.000000 46.000000 14.177901 0.000000
38.325970 26.076637 -29.356851 0.000000 82.000000 14.835955 24.000000
38.334739 25.953050 -29.187485 0.000000 47.000000 14.821746 24.000000
38.922354 24.241762 -28.603634 0.000000 43.000000 14.184844 0.000000
38.567315 24.925335 -29.047389 0.000000 58.000000 14.284696 1.000000
35.838471 24.634859 -25.057611 0.000000 40.000000 14.107191 0.000000
37.517239 25.238654 -27.322005 0.000000 74.000000 14.594247 27.000000
38.398074 24.950856 -27.784041 0.000000 72.000000 14.714129 5.000000
38.628946 24.823948 -28.977576 0.000000 48.000000 14.276693 0.000000
38.566631 25.726627 -29.059980 0.000000 56.000000 14.847004 26.000000
36.517899 24.288283 -24.483792 0.000000 73.000000 14.486423 7.000000
40.727173 22.141078 -27.644483 0.000000 43.000000 14.128222 0.000000
36.925276 24.575737 -26.316069 0.000000 35.000000 14.187283 0.000000
37.935946 26.014667 -28.468351 0.000000 73.000000 14.924406 24.000000
36.837139 24.499393 -26.035692 0.000000 33.000000 14.195189 0.000000
37.492874 23.982973 -24.896609 0.000000 70.000000 14.668255 4.000000
36.639444 24.182760 -25.108540 0.000000 28.000000 14.230152 0.000000
39.974468 21.918192 -26.224607 0.000000 36.000000 14.106862 0.000000
37.222589 25.634729 -26.834486 0.000000 64.000000 14.900825 27.000000
36.700040 24.402598 -25.610947 0.000000 35.000000 14.218456 0.000000
38.340950 24.286697 -28.079486 0.000000 37.000000 14.091319 0.000000
36.646237 24.360743 -25.485569 0.000000 34.000000 14.208191 0.000000
36.610786 25.448244 -26.139338 0.000000 77.000000 14.694659 27.000000
40.533419 20.931397 -25.335068 0.000000 35.000000 14.089970 0.000000
36.999612 25.178212 -26.491837 0.000000 83.000000 14.586367 27.000000
36.894520 24.292394 -25.685504 0.000000 37.000000 14.222932 0.000000
36.488570 24.265516 -25.090106 0.000000 35.000000 14.208853 0.000000
35.882531 25.043929 -24.732634 0.000000 48.000000 14.553589 28.000000
36.436112 24.241649 -24.955796 0.000000 35.000000 14.215714 0.000000
36.816831 24.389854 -25.811006 0.000000 37.000000 14.196400 0.000000
37.633370 25.560142 -27.767346 0.000000 59.000000 14.709747 27.000000
38.504736 23.902715 -27.409329 0.000000 40.000000 14.184279 0.000000
36.707237 24.970834 -25.406367 0.000000 72.000000 14.707748 28.000000
38.203427 24.978521 -27.782732 0.000000 79.000000 14.621539 5.000000
36.902384 24.514878 -26.099166 0.000000 21.000000 14.218354 0.000000
38.767655 22.950210 -26.284200 0.000000 49.000000 14.115237 0.000000
39.488727 23.838691 -28.700857 0.000000 44.000000 14.188025 0.000000
38.211529 22.156146 -23.765145 0.000000 36.000000 14.246156 0.000000
39.317341 22.402401 -25.682540 0.000000 41.000000 14.287971 14.000000
38.731562 23.669673 -27.305256 0.000000 49.000000 14.192466 0.000000
38.813994 23.794087 -27.620651 0.000000 42.000000 14.201198 0.000000
38.258571 24.778036 -27.515644 0.000000 71.000000 14.619097 5.000000
36.881029 24.306712 -25.186138 0.000000 66.000000 14.426599 7.000000
41.337059 21.298510 -26.855154 0.000000 23.000000 14.202620 0.000000
37.373322 25.408308 -26.963778 0.000000 53.000000 14.775549 27.000000
36.120687 24.205200 -24.447682 0.000000 38.000000 14.212085 0.000000
36.051966 24.195207 -24.333820 0.000000 39.000000 14.211114 0.000000
35.979295 24.182881 -24.224757 0.000000 37.000000 14.204269 0.000000
38.890784 23.457159 -27.045529 0.000000 37.000000 14.238803 0.000000
38.365181 24.600293 -27.904244 0.000000 72.000000 14.398214 5.000000
40.657265 20.898052 -25.402471 0.000000 33.000000 14.110886 0.000000
37.870739 23.987232 -26.112830 0.000000 65.000000 14.399740 15.000000
41.264111 22.351360 -28.252151 0.000000 50.000000 14.343166 19.000000
36.856901 24.962760 -26.064458 0.000000 54.000000 14.523369 28.000000
41.091811 22.466390 -28.688563 0.000000 31.000000 14.148942 0.000000
39.843022 21.181358 -24.380689 0.000000 56.000000 14.252065 0.000000
36.652146 24.518526 -25.239968 0.000000 43.000000 14.422437 28.000000
38.211561 26.118729 -28.993490 0.000000 72.000000 14.946026 24.000000
37.264440 25.620101 -26.878296 0.000000 69.000000 14.897032 27.000000
39.837101 21.199775 -23.910906 0.000000 51.000000 14.451093 20.000000
40.234001 21.469036 -25.620966 0.000000 36.000000 14.182270 0.000000
36.087124 24.437252 -24.415009 0.000000 53.000000 14.370249 28.000000
39.352741 21.713182 -24.801918 0.000000 38.000000 14.175152 0.000000
36.622197 23.539427 -24.035932 0.000000 41.000000 14.196764 0.000000
38.446284 22.743904 -24.779057 0.000000 42.000000 14.389790 11.000000
39.832902 21.900067 -26.001207 0.000000 35.000000 14.102107 0.000000
39.184854 21.815470 -25.017785 0.000000 28.000000 14.063374 0.000000
36.836434 24.374684 -24.775113 0.000000 71.000000 14.614655 7.000000
39.122947 21.955707 -25.056126 0.000000 30.000000 14.111435 0.000000
39.678632 22.044363 -26.189861 0.000000 31.000000 14.038955 0.000000
37.483725 23.300073 -24.368248 0.000000 29.000000 14.392091 6.000000
37.079969 24.187718 -25.213402 0.000000 59.000000 14.446496 7.000000
39.996153 23.350175 -28.637908 0.000000 38.000000 14.161102 0.000000
38.316532 22.631873 -24.954173 0.000000 50.000000 14.164664 0.000000
38.705189 25.007116 -29.322474 0.000000 36.000000 14.311579 1.000000
40.460575 23.327549 -28.776361 0.000000 60.000000 14.358196 29.000000
36.201488 24.251537 -24.608764 0.000000 38.000000 14.226765 0.000000
37.822515 25.372104 -29.216962 0.000000 43.000000 14.101585 0.000000
40.381101 21.173452 -25.301895 0.000000 44.000000 14.186653 0.000000
39.371236 22.647038 -26.470631 0.000000 40.000000 14.174784 0.000000
39.309506 22.745116 -26.552876 0.000000 38.000000 14.175373 0.000000
39.530431 24.155563 -29.275003 0.000000 26.000000 14.205222 0.000000
38.078793 24.798868 -28.478746 0.000000 34.000000 14.141446 0.000000
38.563330 22.858731 -25.756606 0.000000 36.000000 14.144807 0.000000
39.165965 21.797506 -24.909265 0.000000 20.000000 14.083460 0.000000
38.499307 22.917871 -25.878130 0.000000 37.000000 14.100641 0.000000
39.474257 23.979659 -27.946235 0.000000 52.000000 14.583781 3.000000
38.290344 24.933852 -27.974566 0.000000 42.000000 14.562877 5.000000
38.998788 23.115701 -27.103193 0.000000 36.000000 14.036149 0.000000
38.963759 23.280204 -27.126620 0.000000 36.000000 14.122982 0.000000
38.927582 23.434281 -27.162813 0.000000 47.000000 14.196616 0.000000
38.326345 23.409364 -26.146763 0.000000 54.000000 14.240434 0.000000
37.906132 22.243631 -23.455828 0.000000 32.000000 14.256001 0.000000
38.212025 24.773525 -27.479614 0.000000 65.000000 14.603473 5.000000
41.579116 21.943397 -28.390211 0.000000 38.000000 14.180847 0.000000
41.055167 21.620386 -27.072039 0.000000 44.000000 14.180009 0.000000
38.484339 25.623636 -29.016037 0.000000 52.000000 14.744088 26.000000
40.387287 21.431035 -25.777454 0.000000 51.000000 14.181019 0.000000
36.458720 24.595112 -24.832123 0.000000 70.000000 14.529126 28.000000
38.136811 23.748361 -26.575885 0.000000 44.000000 14.197868 0.000000
38.993852 23.411715 -27.264942 0.000000 24.000000 14.177827 0.000000
38.879802 24.127248 -28.310676 0.000000 53.000000 14.197175 0.000000
38.619999 24.096367 -27.862435 0.000000 48.000000 14.205563 0.000000
37.999223 23.972397 -26.944053 0.000000 34.000000 14.128501 0.000000
38.024291 24.002579 -27.128777 0.000000 30.000000 14.089927 0.000000
40.551921 22.277935 -27.610627 0.000000 35.000000 14.137358 0.000000
39.915978 23.212629 -28.224606 0.000000 62.000000 14.183845 0.000000
39.711909 23.029447 -27.242443 0.000000 31.000000 14.331857 22.000000
36.196192 24.763138 -24.385960 0.000000 84.000000 14.676040 28.000000
37.922451 24.329213 -27.180218 0.000000 38.000000 14.241659 0.000000
37.808640 24.705499 -27.617571 0.000000 45.000000 14.266048 0.000000
39.437690 22.275320 -25.903784 0.000000 42.000000 14.178417 0.000000
37.348855 25.324238 -27.143538 0.000000 63.000000 14.629333 27.000000
38.318290 24.891074 -28.938000 0.000000 45.000000 14.160312 0.000000
38.622873 23.450521 -26.586274 0.000000 53.000000 14.264116 0.000000
40.309471 21.354047 -25.460260 0.000000 44.000000 14.209288 0.000000
38.964305 24.332614 -28.857326 0.000000 52.000000 14.171232 0.000000
36.602676 24.024102 -24.316560 0.000000 44.000000 14.415748 7.000000
38.387589 21.623828 -23.547002 0.000000 26.000000 14.058873 0.000000
39.976814 20.657795 -24.103142 0.000000 35.000000 14.070457 0.000000
36.872829 24.338942 -25.097205 0.000000 55.000000 14.480543 7.000000
38.082922 23.593465 -26.251273 0.000000 44.000000 14.187783 0.000000
38.181978 22.112113 -23.728522 0.000000 42.000000 14.212608 0.000000
40.814686 21.629384 -26.764119 0.000000 39.000000 14.171269 0.000000
38.387613 22.683893 -25.084325 0.000000 27.000000 14.190212 0.000000
38.698942 25.094521 -28.308021 0.000000 49.000000 14.778901 5.000000
39.024943 21.679155 -23.778627 0.000000 52.000000 14.373783 21.000000
36.746762 25.521477 -26.159397 0.000000 70.000000 14.817207 27.000000
40.302181 22.590762 -27.640383 0.000000 47.000000 14.202400 0.000000
39.412679 23.887687 -28.652349 0.000000 32.000000 14.198261 0.000000
38.710471 25.502544 -29.118115 0.000000 69.000000 14.748083 26.000000
37.353655 23.456500 -24.684706 0.000000 40.000000 14.300019 4.000000
37.452025 23.568336 -25.216108 0.000000 42.000000 14.221980 0.000000
39.043875 22.871854 -25.958487 0.000000 58.000000 14.350996 8.000000
37.419723 23.645895 -25.324411 0.000000 48.000000 14.214565 0.000000
38.786439 24.007696 -28.010542 0.000000 41.000000 14.179404 0.000000
37.592374 24.753150 -25.994065 0.000000 81.000000 14.829138 9.000000
39.402204 21.822526 -25.121885 0.000000 23.000000 14.152271 0.000000
37.339398 23.735367 -25.603769 0.000000 39.000000 14.118815 0.000000
36.765671 23.671841 -24.673171 0.000000 33.000000 14.116754 0.000000
37.291783 23.753960 -25.772595 0.000000 28.000000 14.036349 0.000000
37.477768 25.421694 -26.486234 0.000000 44.000000 15.038054 27.000000
37.284538 23.873852 -25.841581 0.000000 38.000000 14.089293 0.000000
37.134388 24.581130 -26.119354 0.000000 53.000000 14.391513 9.000000
38.915355 21.893566 -24.574594 0.000000 37.000000 14.141330 0.000000
37.934179 23.356772 -25.508190 0.000000 35.000000 14.233524 0.000000
38.244378 22.665149 -24.256910 0.000000 41.000000 14.427580 11.000000
37.194361 24.577753 -26.685922 0.000000 41.000000 14.195421 0.000000
37.930489 23.594259 -25.997715 0.000000 37.000000 14.202299 0.000000
39.642200 24.061034 -27.989508 0.000000 35.000000 14.721252 3.000000
38.453836 24.503959 -28.564130 0.000000 48.000000 14.115241 0.000000
40.532445 23.052238 -28.869393 0.000000 32.000000 14.167228 0.000000
38.905675 24.236863 -28.655606 0.000000 42.000000 14.150760 0.000000
40.626373 22.877505 -28.622995 0.000000 37.000000 14.197151 0.000000
38.753888 24.414668 -28.993649 0.000000 44.000000 14.052558 0.000000
40.706572 22.666653 -28.416984 0.000000 36.000000 14.177248 0.000000
39.731376 21.904180 -25.034245 0.000000 66.000000 14.436088 10.000000
40.647012 22.201756 -27.136834 0.000000 61.000000 14.329469 16.000000
36.873382 25.597014 -26.195784 0.000000 73.000000 14.929386 27.000000
40.835629 22.202659 -28.042844 0.000000 29.000000 14.074053 0.000000
37.468506 24.605718 -26.734953 0.000000 63.000000 14.354227 9.000000
41.571784 22.091080 -28.652989 0.000000 38.000000 14.175300 0.000000
37.131516 23.700407 -25.427502 0.000000 24.000000 14.044727 0.000000
38.334472 24.981218 -28.449197 0.000000 80.000000 14.430633 5.000000
40.974818 21.843768 -27.350489 0.000000 33.000000 14.179498 0.000000
39.139726 24.402026 -29.185134 0.000000 44.000000 14.189836 0.000000
36.911510 25.409351 -26.545859 0.000000 41.000000 14.677349 27.000000
37.056718 23.451192 -24.350699 0.000000 58.000000 14.258966 0.000000
37.958041 25.724378 -28.394929 0.000000 70.000000 14.761110 26.000000
36.253615 24.105421 -24.114911 0.000000 36.000000 14.352528 7.000000
41.692326 21.382468 -27.646436 0.000000 37.000000 14.148819 0.000000
41.694246 21.273348 -27.542714 0.000000 35.000000 14.114429 0.000000
38.892807 24.462114 -29.308349 0.000000 36.000000 14.039745 0.000000
41.064656 21.106537 -26.404835 0.000000 28.000000 14.090402 0.000000
39.587968 23.057698 -27.014497 0.000000 28.000000 14.372005 22.000000
35.586519 24.464384 -24.183836 0.000000 37.000000 14.192777 0.000000
39.812873 23.676202 -28.912296 0.000000 40.000000 14.175354 0.000000
35.534978 24.530940 -24.465226 0.000000 39.000000 14.096640 0.000000
38.819032 24.722592 -29.073678 0.000000 51.000000 14.276207 0.000000
38.797863 24.463607 -29.167713 0.000000 34.000000 14.042523 0.000000
38.826274 24.374162 -29.039735 0.000000 36.000000 14.047194 0.000000
36.937113 23.678096 -24.681149 0.000000 39.000000 14.217253 0.000000
36.173390 25.259315 -25.060923 0.000000 53.000000 14.742285 23.000000
38.925792 24.197413 -28.547638 0.000000 39.000000 14.177988 0.000000
37.456483 23.975368 -26.163872 0.000000 33.000000 14.130858 0.000000
39.758379 23.300698 -28.374993 0.000000 34.000000 14.094351 0.000000
39.541031 24.103380 -29.185705 0.000000 51.000000 14.210388 0.000000
36.628244 24.746086 -25.101621 0.000000 71.000000 14.625618 28.000000
38.081038 25.138046 -27.982077 0.000000 63.000000 14.583328 26.000000
38.998545 23.861227 -28.036298 0.000000 46.000000 14.188065 0.000000
37.667791 25.480277 -28.117092 0.000000 46.000000 14.532079 26.000000
36.176163 24.819170 -24.959622 0.000000 34.000000 14.472854 28.000000
39.422833 21.208449 -23.860996 0.000000 33.000000 14.237458 0.000000
37.837684 24.193874 -26.963150 0.000000 49.000000 14.184188 0.000000
38.445508 24.810201 -28.038052 0.000000 53.000000 14.539520 5.000000
39.032251 23.613362 -27.651104 0.000000 33.000000 14.187254 0.000000
39.041680 23.537404 -27.516526 0.000000 33.000000 14.193151 0.000000
38.667556 25.338821 -29.362777 0.000000 41.000000 14.508576 26.000000
40.775830 21.442936 -25.811716 0.000000 51.000000 14.400642 17.000000
39.958499 23.130164 -27.824092 0.000000 55.000000 14.311515 22.000000
36.356166 23.927936 -23.979245 0.000000 51.000000 14.340851 7.000000
39.636930 21.836553 -25.205559 0.000000 50.000000 14.264405 0.000000
38.553768 25.030386 -28.082034 0.000000 46.000000 14.740500 5.000000
38.100532 25.457714 -27.931024 0.000000 75.000000 14.841711 26.000000
39.033824 23.076407 -26.947856 0.000000 34.000000 14.091225 0.000000
39.329043 21.755512 -24.122619 0.000000 49.000000 14.465302 21.000000
38.146993 24.828891 -28.535525 0.000000 40.000000 14.179321 0.000000
38.819862 22.689449 -25.604365 0.000000 39.000000 14.234796 0.000000
36.782528 24.894543 -25.658566 0.000000 71.000000 14.595610 28.000000
39.049754 22.980536 -26.437729 0.000000 38.000000 14.238190 0.000000
36.548680 24.886621 -25.802631 0.000000 65.000000 14.396490 28.000000
39.543718 22.905755 -27.020414 0.000000 46.000000 14.236330 0.000000
39.516155 22.786207 -26.938862 0.000000 41.000000 14.168539 0.000000
38.999751 22.683936 -25.941494 0.000000 45.000000 14.199139 0.000000
37.064464 25.652369 -26.599798 0.000000 74.000000 14.916375 27.000000
39.431170 24.226497 -29.214197 0.000000 35.000000 14.222519 0.000000
37.656307 25.567900 -28.121950 0.000000 64.000000 14.585559 26.000000
41.162676 22.065938 -27.727477 0.000000 42.000000 14.293718 16.000000
39.460125 22.608801 -26.526679 0.000000 39.000000 14.176569 0.000000
39.120743 24.413919 -29.397570 0.000000 22.000000 14.101621 0.000000
39.438509 22.555791 -26.390956 0.000000 42.000000 14.181209 0.000000
38.686072 22.825899 -25.655589 0.000000 46.000000 14.233351 0.000000
38.276345 24.923146 -27.453217 0.000000 40.000000 14.757381 5.000000
37.983646 25.521450 -28.718202 0.000000 72.000000 14.501810 26.000000
40.274429 23.343170 -28.945885 0.000000 45.000000 14.193119 0.000000
37.833381 22.665784 -24.303217 0.000000 42.000000 14.171350 0.000000
37.570861 23.284620 -24.800382 0.000000 33.000000 14.257375 0.000000
38.326468 22.755562 -24.629177 0.000000 59.000000 14.389093 11.000000
39.336423 22.361499 -25.832910 0.000000 45.000000 14.209413 0.000000
36.634375 24.859539 -25.452504 0.000000 62.000000 14.568090 28.000000
39.066604 22.921833 -26.263859 0.000000 49.000000 14.276452 8.000000
38.750338 22.126072 -24.444909 0.000000 41.000000 14.262805 0.000000
36.715662 23.684835 -24.614634 0.000000 29.000000 14.120603 0.000000
38.089900 26.078026 -29.007969 0.000000 65.000000 14.840893 24.000000
37.805586 24.550697 -27.183324 0.000000 42.000000 14.329669 5.000000
37.568276 24.728457 -26.040319 0.000000 61.000000 14.779037 9.000000
39.105652 22.000315 -25.122483 0.000000 35.000000 14.106274 0.000000
37.293000 24.473658 -25.834423 0.000000 65.000000 14.522091 9.000000
39.734791 20.738091 -23.934878 0.000000 35.000000 14.055039 0.000000
37.027232 24.492998 -26.285530 0.000000 38.000000 14.200011 0.000000
40.114454 23.338993 -28.697110 0.000000 39.000000 14.197818 0.000000
39.020908 21.663104 -23.707312 0.000000 49.000000 14.388826 21.000000
38.983087 21.915012 -24.714380 0.000000 32.000000 14.139392 0.000000
38.938190 21.885194 -24.582833 0.000000 34.000000 14.145300 0.000000
38.889726 22.231021 -24.845771 0.000000 43.000000 14.256270 0.000000
38.194151 25.610685 -28.203687 0.000000 70.000000 14.894386 26.000000
35.932837 24.262279 -24.270504 0.000000 27.000000 14.215180 0.000000
37.335596 25.455796 -26.688178 0.000000 66.000000 14.898467 27.000000
38.333515 21.583974 -23.428262 0.000000 26.000000 14.047193 0.000000
39.743693 23.404180 -28.495170 0.000000 49.000000 14.110719 0.000000
36.016744 24.196239 -24.251929 0.000000 35.000000 14.224466 0.000000
38.167800 25.577260 -28.266176 0.000000 74.000000 14.830248 26.000000
38.615006 21.653056 -23.892752 0.000000 32.000000 14.071882 0.000000
36.645997 24.295440 -25.505593 0.000000 33.000000 14.153707 0.000000
36.880772 24.861836 -25.785670 0.000000 60.000000 14.578082 28.000000
37.461026 25.558123 -26.988213 0.000000 80.000000 14.922642 27.000000
38.374657 21.563244 -23.435144 0.000000 29.000000 14.053555 0.000000
39.503857 24.058908 -27.966592 0.000000 60.000000 14.648870 3.000000
39.491484 23.186849 -27.765699 0.000000 21.000000 14.104776 0.000000
36.703784 24.290280 -25.332326 0.000000 42.000000 14.253373 0.000000
41.618864 21.765946 -28.092737 0.000000 51.000000 14.198063 0.000000
38.536577 24.241519 -28.213244 0.000000 44.000000 14.118666 0.000000
38.239401 25.713706 -28.871992 0.000000 72.000000 14.724142 26.000000
36.567286 24.315877 -24.445307 0.000000 62.000000 14.550092 7.000000
39.687907 23.412648 -28.339365 0.000000 47.000000 14.147231 0.000000
37.768348 25.211217 -27.472037 0.000000 61.000000 14.659734 27.000000
38.741565 22.329750 -24.904817 0.000000 37.000000 14.216621 0.000000
40.833188 22.456464 -28.400743 0.000000 34.000000 14.108183 0.000000
40.735091 22.616905 -28.386629 0.000000 39.000000 14.170751 0.000000
38.963286 24.235157 -28.684682 0.000000 38.000000 14.171192 0.000000
41.843390 21.377740 -27.708550 0.000000 33.000000 14.207907 0.000000
36.808432 23.669540 -24.887245 0.000000 40.000000 14.053576 0.000000
37.298936 25.485645 -27.073387 0.000000 77.000000 14.743078 27.000000
40.242671 23.228339 -28.548317 0.000000 50.000000 14.253651 0.000000
37.625172 23.300730 -24.554355 0.000000 70.000000 14.399435 6.000000
38.136975 24.905702 -28.260641 0.000000 40.000000 14.338775 5.000000
36.191675 25.023422 -25.818343 0.000000 44.000000 14.280348 0.000000
40.359741 21.779610 -26.244012 0.000000 24.000000 14.223953 0.000000
36.071710 24.210020 -24.367477 0.000000 38.000000 14.219475 0.000000
39.690945 23.861421 -28.902006 0.000000 53.000000 14.240136 0.000000
39.740215 23.210005 -27.155438 0.000000 77.000000 14.511268 22.000000
40.489446 22.503409 -27.864906 0.000000 52.000000 14.158425 0.000000
39.429590 23.096596 -27.126597 0.000000 46.000000 14.262654 0.000000
36.163385 25.093387 -25.029205 0.000000 72.000000 14.631706 23.000000
37.035176 24.364583 -25.075358 0.000000 55.000000 14.601536 7.000000
37.691875 25.566008 -27.913777 0.000000 74.000000 14.688745 26.000000
38.080281 24.886039 -27.600689 0.000000 70.000000 14.558090 5.000000
37.974092 23.352000 -24.966809 0.000000 49.000000 14.471531 6.000000
36.807796 24.915374 -26.113354 0.000000 69.000000 14.441641 28.000000
37.268276 23.702373 -25.351704 0.000000 26.000000 14.155877 0.000000
37.242446 25.244464 -26.528495 0.000000 72.000000 14.759158 27.000000
36.592464 24.961526 -25.467663 0.000000 75.000000 14.609974 28.000000
37.868147 24.079281 -27.097091 0.000000 35.000000 14.066629 0.000000
38.514854 23.068349 -26.035628 0.000000 48.000000 14.152770 0.000000
37.182022 25.735754 -26.636853 0.000000 58.000000 15.028598 27.000000
38.590251 23.068250 -26.072267 0.000000 32.000000 14.181591 0.000000
37.306188 23.790042 -25.869071 0.000000 27.000000 14.031361 0.000000
38.443294 25.787791 -28.773523 0.000000 65.000000 14.934412 26.000000
38.127439 24.376575 -27.499514 0.000000 36.000000 14.265193 0.000000
38.897686 22.138529 -24.612666 0.000000 36.000000 14.289325 25.000000
37.236191 23.722946 -25.576760 0.000000 27.000000 14.061137 0.000000
39.767958 24.081510 -27.935996 0.000000 59.000000 14.830161 3.000000
37.208557 23.722659 -25.405660 0.000000 27.000000 14.113914 0.000000
39.123985 21.626385 -23.836635 0.000000 65.000000 14.370359 21.000000
37.184925 23.730516 -25.229300 0.000000 29.000000 14.176901 0.000000
