34.086617 3.811429 23.667924 0.000000 60.000000 14.543279 22.000000
34.183243 3.291080 23.880107 0.000000 64.000000 14.476248 22.000000
30.950874 2.923041 23.760588 0.000000 37.000000 14.193125 0.000000
33.041912 -0.262690 25.615771 0.000000 41.000000 14.268982 0.000000
28.046772 0.901002 25.057783 0.000000 49.000000 14.345910 0.000000
31.957817 2.378065 24.537298 0.000000 46.000000 14.607720 26.000000
33.421989 1.014781 24.936356 0.000000 26.000000 14.294966 0.000000
30.988106 2.890994 23.829079 0.000000 44.000000 14.237454 0.000000
29.379265 2.990608 23.927425 0.000000 51.000000 14.371787 9.000000
32.790997 3.595653 24.139945 0.000000 72.000000 14.851253 23.000000
30.088131 3.669881 23.860653 0.000000 61.000000 14.643087 21.000000
29.671623 4.292994 22.993130 0.000000 38.000000 14.187015 0.000000
29.551609 0.335074 25.129477 0.000000 21.000000 14.133925 0.000000
30.009575 0.485647 25.044289 0.000000 29.000000 14.132523 0.000000
33.381798 -0.471022 25.785387 0.000000 31.000000 14.316169 0.000000
32.943901 2.826331 23.882605 0.000000 38.000000 14.252869 0.000000
33.990582 0.179966 25.454025 0.000000 50.000000 14.342404 0.000000
28.132626 2.899695 24.169357 0.000000 69.000000 14.539190 6.000000
28.129410 2.999887 23.689557 0.000000 35.000000 14.168317 0.000000
28.527176 0.439705 25.133242 0.000000 29.000000 14.187999 0.000000
34.073040 -0.015764 25.607091 0.000000 38.000000 14.381237 0.000000
31.458080 2.139165 24.373375 0.000000 50.000000 14.348450 0.000000
33.564228 1.401157 24.724384 0.000000 52.000000 14.297159 0.000000
29.577465 2.345772 24.372743 0.000000 43.000000 14.448173 8.000000
32.435719 4.233806 23.799911 0.000000 74.000000 14.863677 29.000000
30.964886 4.316908 23.007202 0.000000 29.000000 14.210925 0.000000
28.581409 4.219184 23.220508 0.000000 56.000000 14.349994 0.000000
29.571541 3.877841 23.468016 0.000000 52.000000 14.400728 28.000000
32.744358 1.756165 24.635476 0.000000 35.000000 14.391725 0.000000
32.119923 2.393386 24.623130 0.000000 69.000000 14.690201 26.000000
32.383442 3.657345 23.880767 0.000000 63.000000 14.654589 23.000000
31.281811 3.671559 23.572705 0.000000 50.000000 14.392142 10.000000
30.170227 4.321427 23.610107 0.000000 66.000000 14.740253 27.000000
32.879623 0.347901 25.179901 0.000000 25.000000 14.184237 0.000000
29.827705 2.239929 24.353386 0.000000 60.000000 14.379878 8.000000
32.805355 2.240361 24.481136 0.000000 73.000000 14.491783 26.000000
29.408234 2.446813 24.137927 0.000000 38.000000 14.291907 0.000000
30.564014 -0.969954 25.850289 0.000000 24.000000 14.130761 0.000000
32.682304 -0.907403 25.843919 0.000000 27.000000 14.155551 0.000000
30.074936 3.788646 23.401427 0.000000 48.000000 14.299217 0.000000
32.891907 2.217571 24.426489 0.000000 68.000000 14.432943 26.000000
31.501713 0.836528 25.167919 0.000000 34.000000 14.410913 0.000000
31.756104 4.416597 23.331769 0.000000 50.000000 14.543085 30.000000
28.231640 2.865494 24.009109 0.000000 58.000000 14.382482 6.000000
33.793842 2.840096 24.018522 0.000000 46.000000 14.378386 0.000000
31.067524 2.484202 24.091088 0.000000 45.000000 14.269101 0.000000
29.570660 3.325715 23.825837 0.000000 30.000000 14.445608 21.000000
28.456036 2.954447 23.970995 0.000000 54.000000 14.392331 0.000000
34.026089 1.667107 24.442388 0.000000 26.000000 14.179679 0.000000
29.921093 4.221829 23.562923 0.000000 56.000000 14.650659 28.000000
31.284653 2.116398 24.377424 0.000000 51.000000 14.340940 0.000000
31.375057 2.942285 24.214511 0.000000 47.000000 14.599340 24.000000
31.260006 3.539901 24.132485 0.000000 67.000000 14.817672 10.000000
29.983131 2.709544 23.992732 0.000000 56.000000 14.292474 0.000000
32.594963 0.452116 25.133486 0.000000 40.000000 14.194236 0.000000
33.585934 3.688065 23.592016 0.000000 42.000000 14.417037 23.000000
27.999409 0.053781 25.574312 0.000000 46.000000 14.386331 13.000000
27.991879 2.579448 24.056760 0.000000 44.000000 14.285314 0.000000
29.619270 -0.282671 25.828643 0.000000 66.000000 14.445404 5.000000
33.575058 0.330680 25.566563 0.000000 64.000000 14.513947 3.000000
28.261120 1.687983 24.624184 0.000000 47.000000 14.348760 0.000000
28.453499 1.354548 24.813141 0.000000 36.000000 14.352139 0.000000
34.231468 3.756113 24.161766 0.000000 69.000000 14.948210 22.000000
32.587784 2.694067 23.990270 0.000000 54.000000 14.282810 0.000000
28.408195 3.305429 23.825884 0.000000 36.000000 14.435804 0.000000
29.859161 -0.700935 25.960015 0.000000 30.000000 14.357264 0.000000
30.338360 3.936785 23.441302 0.000000 50.000000 14.405979 27.000000
29.980625 -0.010031 25.572839 0.000000 38.000000 14.354073 0.000000
28.692074 0.858520 25.081075 0.000000 50.000000 14.345657 0.000000
32.184303 4.383261 23.559144 0.000000 67.000000 14.725705 29.000000
33.982903 2.002311 24.447705 0.000000 34.000000 14.347017 0.000000
29.425930 -0.257533 25.664686 0.000000 29.000000 14.314253 0.000000
29.931725 3.786419 23.430421 0.000000 41.000000 14.323486 0.000000
32.880280 4.260062 23.833088 0.000000 55.000000 14.905427 29.000000
32.249058 2.864343 23.967287 0.000000 51.000000 14.345358 0.000000
30.055393 1.396765 24.793984 0.000000 40.000000 14.355880 0.000000
33.829388 -0.349496 25.653159 0.000000 47.000000 14.259541 0.000000
33.539352 3.140905 23.678600 0.000000 53.000000 14.227179 0.000000
32.411713 0.849691 25.007425 0.000000 58.000000 14.276978 0.000000
30.517349 -0.942949 25.830171 0.000000 36.000000 14.126278 0.000000
31.710709 3.820190 23.388447 0.000000 36.000000 14.303178 0.000000
33.001369 2.921444 23.804994 0.000000 56.000000 14.231175 0.000000
32.515041 3.098965 23.627025 0.000000 22.000000 14.161731 0.000000
33.770023 2.812648 23.984642 0.000000 45.000000 14.335442 0.000000
32.345989 1.697314 24.711409 0.000000 48.000000 14.429552 0.000000
30.889660 3.726429 23.454992 0.000000 31.000000 14.315853 0.000000
30.306190 0.017939 25.586252 0.000000 48.000000 14.379375 0.000000
31.270897 2.946956 23.848698 0.000000 52.000000 14.281768 0.000000
28.032612 2.490501 24.151796 0.000000 51.000000 14.325237 0.000000
31.094952 0.985011 24.943077 0.000000 39.000000 14.286393 0.000000
29.226738 3.696033 23.868726 0.000000 47.000000 14.662839 21.000000
33.841442 2.369275 24.271077 0.000000 51.000000 14.370691 0.000000
33.961449 2.307419 24.294239 0.000000 57.000000 14.360920 15.000000
33.593678 2.505509 24.109788 0.000000 37.000000 14.295792 0.000000
33.174057 2.252249 24.218981 0.000000 61.000000 14.268344 0.000000
34.053341 2.915832 23.953501 0.000000 46.000000 14.358294 0.000000
30.591297 -0.256536 25.800256 0.000000 38.000000 14.433269 4.000000
31.328453 1.266666 24.870059 0.000000 38.000000 14.359251 0.000000
30.526718 4.105522 23.411032 0.000000 35.000000 14.461409 27.000000
32.322151 3.649506 23.864481 0.000000 68.000000 14.636546 23.000000
28.492935 3.373892 23.793160 0.000000 48.000000 14.440421 0.000000
32.438934 1.679637 24.477247 0.000000 55.000000 14.216239 0.000000
30.261204 0.152179 25.470346 0.000000 52.000000 14.343188 0.000000
30.600636 3.950441 23.313454 0.000000 31.000000 14.300826 0.000000
34.144550 4.370977 23.616752 0.000000 45.000000 14.770111 17.000000
28.648117 2.078589 24.436053 0.000000 57.000000 14.373851 0.000000
33.229637 1.049899 24.962113 0.000000 35.000000 14.334530 0.000000
34.123081 3.342925 23.869963 0.000000 39.000000 14.492542 22.000000
28.044228 2.693309 24.141831 0.000000 52.000000 14.414956 0.000000
29.927658 4.402472 23.177984 0.000000 43.000000 14.401772 0.000000
32.786232 -0.161034 25.576046 0.000000 35.000000 14.283588 0.000000
29.232517 1.198959 24.837285 0.000000 35.000000 14.297735 0.000000
29.575848 0.822344 25.194366 0.000000 27.000000 14.427152 0.000000
30.756508 4.126084 23.543729 0.000000 43.000000 14.587408 30.000000
28.255707 0.269513 25.271687 0.000000 28.000000 14.226443 0.000000
28.887592 1.698323 24.538534 0.000000 47.000000 14.278893 0.000000
29.424747 0.963057 24.930380 0.000000 44.000000 14.264637 0.000000
28.844090 2.893148 24.174685 0.000000 34.000000 14.540671 9.000000
33.030525 2.893587 23.789495 0.000000 38.000000 14.204103 0.000000
29.697132 3.559157 23.570276 0.000000 54.000000 14.335465 0.000000
33.602959 4.208884 23.238721 0.000000 48.000000 14.360919 0.000000
33.179485 4.304364 22.935056 0.000000 46.000000 14.141758 0.000000
31.035580 2.905365 23.992365 0.000000 47.000000 14.387194 25.000000
29.425476 2.845345 24.279559 0.000000 48.000000 14.609164 9.000000
27.959351 1.898886 24.372873 0.000000 50.000000 14.231393 0.000000
30.691658 4.375380 22.981522 0.000000 36.000000 14.216852 0.000000
30.126472 2.695769 24.006214 0.000000 50.000000 14.297576 0.000000
27.971420 3.616492 23.522484 0.000000 57.000000 14.321506 0.000000
31.558643 3.329218 23.855103 0.000000 61.000000 14.472896 10.000000
30.565998 3.104856 23.836799 0.000000 43.000000 14.348000 0.000000
33.901531 1.482051 24.928542 0.000000 36.000000 14.514920 19.000000
32.159718 2.515970 24.061950 0.000000 43.000000 14.259043 0.000000
29.226761 2.983510 24.271354 0.000000 66.000000 14.669048 9.000000
29.616089 1.737340 24.600547 0.000000 52.000000 14.352049 0.000000
33.825500 1.235008 24.804541 0.000000 29.000000 14.286602 0.000000
29.024696 3.717453 23.587362 0.000000 68.000000 14.427231 0.000000
29.877872 -0.893674 25.834996 0.000000 33.000000 14.154412 0.000000
28.292969 0.659233 25.110374 0.000000 46.000000 14.274551 0.000000
31.674313 4.227817 23.602459 0.000000 63.000000 14.688133 30.000000
32.296833 1.083572 24.854594 0.000000 56.000000 14.256866 0.000000
28.381710 3.987284 23.296636 0.000000 50.000000 14.304004 0.000000
32.991566 -0.902082 26.032624 0.000000 45.000000 14.323122 0.000000
31.875618 -0.582117 25.912406 0.000000 19.000000 14.373306 4.000000
33.788651 0.962648 25.015139 0.000000 63.000000 14.338545 0.000000
28.247963 0.201628 25.345899 0.000000 21.000000 14.258380 0.000000
29.189896 3.248171 23.685942 0.000000 41.000000 14.285659 0.000000
32.393723 3.676076 24.028677 0.000000 71.000000 14.793001 23.000000
28.460888 2.917777 23.948629 0.000000 53.000000 14.354978 0.000000
33.127148 3.642451 23.901272 0.000000 67.000000 14.665289 23.000000
30.348709 1.393741 24.698714 0.000000 48.000000 14.271115 0.000000
29.123280 3.042173 23.688351 0.000000 50.000000 14.187786 0.000000
29.559704 3.010141 23.677378 0.000000 39.000000 14.162646 0.000000
29.762383 1.668537 24.649819 0.000000 49.000000 14.361735 0.000000
29.008572 2.406066 24.225564 0.000000 47.000000 14.348754 0.000000
33.095985 3.577840 23.493851 0.000000 37.000000 14.277712 0.000000
34.146599 3.748810 23.581907 0.000000 44.000000 14.437681 22.000000
30.927425 0.323261 25.202995 0.000000 25.000000 14.192470 0.000000
30.404175 3.861450 23.373190 0.000000 46.000000 14.309864 0.000000
28.672321 2.979132 23.867873 0.000000 22.000000 14.314150 0.000000
34.246319 0.959081 24.905265 0.000000 36.000000 14.240748 0.000000
33.956776 3.617138 24.004299 0.000000 69.000000 14.743082 22.000000
32.223927 0.387321 25.106151 0.000000 35.000000 14.138888 0.000000
31.591278 0.803592 25.184318 0.000000 35.000000 14.409266 0.000000
29.566914 -0.279103 25.702976 0.000000 54.000000 14.337262 0.000000
29.715778 4.134205 23.591016 0.000000 73.000000 14.632694 28.000000
31.443581 -0.295586 25.899683 0.000000 42.000000 14.501248 4.000000
29.318909 -0.138555 25.577673 0.000000 32.000000 14.295920 0.000000
31.564598 1.611691 24.584909 0.000000 47.000000 14.277393 0.000000
30.444942 2.808100 24.005584 0.000000 51.000000 14.351545 0.000000
32.061916 2.885171 23.956515 0.000000 64.000000 14.346048 0.000000
29.848785 3.236654 23.618562 0.000000 41.000000 14.221158 0.000000
32.906219 3.696827 23.885491 0.000000 70.000000 14.677882 23.000000
28.681450 2.053198 24.419008 0.000000 50.000000 14.346624 0.000000
32.930912 4.360479 23.470672 0.000000 57.000000 14.637295 29.000000
32.475147 2.628313 24.035048 0.000000 52.000000 14.290047 0.000000
30.561958 1.298246 24.818373 0.000000 47.000000 14.329388 0.000000
33.288879 2.713689 24.004797 0.000000 53.000000 14.305035 0.000000
31.698658 2.912662 24.329405 0.000000 71.000000 14.685418 24.000000
32.595234 0.368096 25.146147 0.000000 26.000000 14.164527 0.000000
33.658997 4.201929 23.228814 0.000000 51.000000 14.348882 0.000000
33.587231 0.851090 25.001648 0.000000 24.000000 14.272606 0.000000
28.981575 4.272823 23.295231 0.000000 61.000000 14.441359 28.000000
29.186569 3.024498 24.157123 0.000000 46.000000 14.589066 9.000000
32.488041 1.469221 24.731963 0.000000 50.000000 14.336819 0.000000
33.689678 1.037576 24.865069 0.000000 46.000000 14.243701 0.000000
34.066868 4.364609 23.461945 0.000000 72.000000 14.631669 17.000000
30.922749 4.401649 23.215889 0.000000 47.000000 14.434513 30.000000
34.176819 0.844983 25.037778 0.000000 34.000000 14.301231 0.000000
30.549984 1.053124 24.986099 0.000000 55.000000 14.357067 0.000000
30.429871 -0.154040 25.550761 0.000000 46.000000 14.264875 0.000000
33.517056 2.913608 23.789779 0.000000 35.000000 14.214069 0.000000
31.552750 0.284652 25.199451 0.000000 32.000000 14.170633 0.000000
29.482277 2.617257 24.112296 0.000000 48.000000 14.352221 9.000000
32.303936 3.777804 23.541102 0.000000 38.000000 14.416076 29.000000
29.261719 0.678364 25.188724 0.000000 29.000000 14.352339 0.000000
31.204853 1.562235 24.654836 0.000000 35.000000 14.314529 0.000000
28.617271 -0.426835 25.826106 0.000000 69.000000 14.373217 0.000000
31.494862 0.839710 25.104685 0.000000 49.000000 14.357170 0.000000
30.784702 2.006128 24.437815 0.000000 52.000000 14.340223 0.000000
34.042553 4.316717 23.559775 0.000000 43.000000 14.693960 17.000000
28.656490 0.876643 25.073121 0.000000 52.000000 14.347498 0.000000
31.732307 2.180753 24.653603 0.000000 41.000000 14.613644 26.000000
28.529697 2.284184 24.288481 0.000000 65.000000 14.344609 0.000000
30.675491 2.903497 23.856956 0.000000 39.000000 14.267896 0.000000
31.857159 3.500444 23.671280 0.000000 54.000000 14.395279 0.000000
29.957928 3.475583 23.950521 0.000000 33.000000 14.627360 21.000000
30.954628 1.591019 24.956905 0.000000 69.000000 14.592605 16.000000
33.944954 2.386341 24.284004 0.000000 52.000000 14.390276 0.000000
33.688667 1.807172 24.387861 0.000000 53.000000 14.199985 0.000000
29.318104 1.674442 24.569177 0.000000 40.000000 14.294094 0.000000
28.518059 3.017499 23.919408 0.000000 53.000000 14.377829 0.000000
28.556763 2.253837 24.332824 0.000000 60.000000 14.368650 0.000000
28.579315 2.081692 24.395993 0.000000 47.000000 14.340331 0.000000
31.287815 3.760671 23.621135 0.000000 38.000000 14.477735 30.000000
29.583851 -0.946275 25.872090 0.000000 30.000000 14.161315 0.000000
33.114403 1.964827 24.350092 0.000000 34.000000 14.243479 0.000000
30.483601 3.058246 23.899032 0.000000 46.000000 14.379790 0.000000
33.646431 -0.954124 25.888471 0.000000 21.000000 14.171828 0.000000
28.727711 2.989332 23.907234 0.000000 51.000000 14.353515 0.000000
34.035557 1.247733 24.775284 0.000000 38.000000 14.267198 0.000000
28.484684 2.110622 24.375421 0.000000 59.000000 14.336386 0.000000
31.621490 2.316707 24.272672 0.000000 60.000000 14.346572 0.000000
28.028378 2.449454 24.167936 0.000000 53.000000 14.319426 0.000000
28.356880 2.265857 24.342207 0.000000 61.000000 14.382688 0.000000
31.827042 3.825305 23.363502 0.000000 29.000000 14.283851 0.000000
29.761486 -0.694046 25.981564 0.000000 43.000000 14.379448 0.000000
30.913250 1.710256 24.548202 0.000000 23.000000 14.293137 0.000000
29.005592 3.217472 23.652166 0.000000 44.000000 14.241229 0.000000
34.226559 2.260879 24.600790 0.000000 55.000000 14.606357 15.000000
31.561687 -0.168583 25.563688 0.000000 29.000000 14.269119 0.000000
31.118931 1.521876 24.960000 0.000000 60.000000 14.561753 16.000000
29.348408 3.039760 24.189018 0.000000 68.000000 14.624360 9.000000
31.611202 -0.336592 26.118566 0.000000 53.000000 14.672720 4.000000
33.744160 3.299735 23.774205 0.000000 54.000000 14.387856 23.000000
32.043705 2.445633 24.602285 0.000000 73.000000 14.697334 26.000000
28.650269 0.364097 25.344948 0.000000 49.000000 14.336402 0.000000
33.031178 3.681210 23.732898 0.000000 54.000000 14.536887 23.000000
29.050140 2.975698 23.726294 0.000000 28.000000 14.188697 0.000000
29.007576 3.714216 23.964896 0.000000 50.000000 14.755747 21.000000
29.662247 1.114172 24.838164 0.000000 43.000000 14.257353 0.000000
31.400070 4.383059 23.543945 0.000000 63.000000 14.712318 30.000000
29.833580 2.731018 24.144376 0.000000 48.000000 14.435483 0.000000
30.210472 2.216461 24.330635 0.000000 49.000000 14.348597 0.000000
29.724083 2.820351 23.949167 0.000000 42.000000 14.308164 0.000000
27.956245 3.431532 23.947729 0.000000 40.000000 14.603539 1.000000
29.545830 -0.269217 25.703532 0.000000 61.000000 14.342546 0.000000
32.921364 -0.619405 25.960725 0.000000 29.000000 14.397455 0.000000
28.846279 1.630930 24.742606 0.000000 54.000000 14.424609 7.000000
28.140121 3.166196 23.623771 0.000000 45.000000 14.191516 0.000000
28.899902 4.287414 23.500383 0.000000 63.000000 14.627810 28.000000
33.358971 3.648893 23.473527 0.000000 36.000000 14.294428 0.000000
30.796398 0.998084 24.967872 0.000000 37.000000 14.314417 0.000000
32.735603 0.419820 25.159379 0.000000 38.000000 14.201200 0.000000
34.167789 1.506234 24.935044 0.000000 36.000000 14.532342 19.000000
33.411205 4.187755 23.221515 0.000000 51.000000 14.335621 0.000000
29.332676 0.341603 25.443339 0.000000 48.000000 14.411511 12.000000
32.074406 2.775911 24.017719 0.000000 56.000000 14.346532 0.000000
31.018055 2.465385 24.134630 0.000000 46.000000 14.298038 0.000000
32.623539 1.053145 24.894299 0.000000 34.000000 14.276814 0.000000
31.051437 2.969791 23.699489 0.000000 38.000000 14.162394 0.000000
34.021149 2.716272 24.075432 0.000000 46.000000 14.368046 0.000000
33.069469 3.763334 23.385073 0.000000 41.000000 14.272633 0.000000
32.845928 0.322353 25.778404 0.000000 59.000000 14.695123 3.000000
32.568134 3.689505 24.088295 0.000000 41.000000 14.851645 23.000000
30.149109 3.797060 23.401501 0.000000 28.000000 14.303365 0.000000
30.595291 2.911214 23.811562 0.000000 47.000000 14.231952 0.000000
33.063698 0.356138 25.719985 0.000000 54.000000 14.660443 3.000000
33.035301 0.714786 25.021346 0.000000 33.000000 14.223674 0.000000
28.573112 3.024300 23.905560 0.000000 50.000000 14.369022 0.000000
28.335514 3.654913 23.451817 0.000000 44.000000 14.278368 0.000000
32.687675 3.386718 24.033021 0.000000 61.000000 14.656362 23.000000
28.366524 2.201776 24.376099 0.000000 64.000000 14.381220 0.000000
28.298679 -0.395950 25.770613 0.000000 65.000000 14.339688 0.000000
28.881599 3.419606 23.617722 0.000000 30.000000 14.309218 0.000000
33.781197 -0.443746 25.765277 0.000000 32.000000 14.311825 0.000000
28.144089 2.276854 24.308247 0.000000 67.000000 14.358334 0.000000
31.537987 2.978064 23.654342 0.000000 40.000000 14.126936 0.000000
28.774181 3.010743 23.894633 0.000000 48.000000 14.352889 0.000000
33.330814 2.608035 24.058848 0.000000 54.000000 14.301014 0.000000
34.096317 4.306465 23.200419 0.000000 61.000000 14.374791 17.000000
32.667755 4.374478 23.645437 0.000000 75.000000 14.796890 29.000000
30.955044 1.690781 24.935776 0.000000 59.000000 14.622550 16.000000
34.029026 3.711910 23.797621 0.000000 44.000000 14.608375 22.000000
29.954041 0.099375 25.451588 0.000000 59.000000 14.301159 0.000000
30.671921 3.709855 23.647274 0.000000 60.000000 14.475926 10.000000
30.578423 4.056092 23.219525 0.000000 31.000000 14.269979 0.000000
31.504105 0.830950 25.090814 0.000000 44.000000 14.340791 0.000000
28.128658 2.915560 24.202458 0.000000 71.000000 14.575831 6.000000
31.575085 1.525362 24.761385 0.000000 55.000000 14.389791 0.000000
28.023579 4.446295 23.188549 0.000000 41.000000 14.432278 0.000000
33.582359 2.338179 24.169741 0.000000 39.000000 14.266998 0.000000
28.240192 3.480432 23.753780 0.000000 65.000000 14.457698 1.000000
28.945404 1.122684 24.887313 0.000000 28.000000 14.304456 0.000000
32.825222 0.172038 25.691553 0.000000 65.000000 14.546233 3.000000
34.061035 0.900787 25.080014 0.000000 53.000000 14.365243 0.000000
31.528900 4.326368 23.664346 0.000000 68.000000 14.790073 30.000000
32.325550 -0.909953 25.807959 0.000000 33.000000 14.122872 0.000000
33.418285 3.430727 23.871831 0.000000 51.000000 14.536789 23.000000
28.604610 2.118303 24.393436 0.000000 51.000000 14.355865 0.000000
31.425896 -0.118775 25.486875 0.000000 39.000000 14.226134 0.000000
31.003265 1.627443 24.597693 0.000000 30.000000 14.296216 0.000000
31.800632 4.533344 23.238774 0.000000 47.000000 14.518440 30.000000
34.089752 2.470219 24.067194 0.000000 42.000000 14.241424 0.000000
30.215160 0.100114 25.512915 0.000000 56.000000 14.355138 0.000000
28.389145 1.669585 24.629639 0.000000 45.000000 14.344600 0.000000
32.953121 2.799570 23.920882 0.000000 39.000000 14.273348 0.000000
29.056843 3.647095 23.946223 0.000000 69.000000 14.706844 21.000000
28.243427 0.071825 25.525544 0.000000 47.000000 14.352450 13.000000
30.477379 2.946918 23.848318 0.000000 45.000000 14.281417 0.000000
31.695770 0.176188 25.329049 0.000000 29.000000 14.231301 0.000000
32.208649 0.932472 25.090996 0.000000 58.000000 14.390223 0.000000
33.801224 2.349628 24.358326 0.000000 53.000000 14.437439 0.000000
30.537651 4.037575 23.338634 0.000000 36.000000 14.365132 27.000000
33.916595 0.377228 25.066814 0.000000 28.000000 14.099596 0.000000
32.642780 2.090141 24.584883 0.000000 57.000000 14.509583 26.000000
31.411758 0.527821 25.004775 0.000000 34.000000 14.118443 0.000000
34.068581 4.318787 23.713725 0.000000 76.000000 14.829567 17.000000
32.344284 2.778148 24.022379 0.000000 54.000000 14.351692 0.000000
31.130955 0.885893 25.007603 0.000000 40.000000 14.294704 0.000000
28.884476 0.036392 25.598561 0.000000 31.000000 14.399093 12.000000
31.564114 1.880266 24.508097 0.000000 53.000000 14.340586 0.000000
33.054157 0.144963 25.662523 0.000000 49.000000 14.507710 3.000000
31.648655 3.314041 23.729068 0.000000 47.000000 14.355335 10.000000
28.912167 4.348421 23.144310 0.000000 54.000000 14.346097 0.000000
30.285683 2.613122 24.027881 0.000000 50.000000 14.276408 0.000000
32.996727 0.073761 25.594586 0.000000 43.000000 14.413754 3.000000
30.086533 2.551352 24.019229 0.000000 46.000000 14.238864 0.000000
31.074646 2.474569 24.122139 0.000000 46.000000 14.291575 0.000000
32.138779 -0.662554 25.772641 0.000000 18.000000 14.212066 0.000000
33.452999 2.829677 23.873719 0.000000 38.000000 14.246724 0.000000
30.192081 4.272741 23.420195 0.000000 34.000000 14.550579 27.000000
28.125576 2.334746 24.261976 0.000000 69.000000 14.345975 0.000000
31.999523 2.452181 24.705954 0.000000 69.000000 14.791152 26.000000
29.817181 -0.201905 25.641545 0.000000 33.000000 14.321019 0.000000
30.070744 1.033427 24.880922 0.000000 44.000000 14.255548 0.000000
31.393036 3.247353 23.738406 0.000000 34.000000 14.331133 0.000000
29.523750 2.964660 24.241581 0.000000 62.000000 14.633868 9.000000
31.240162 0.263336 25.337250 0.000000 39.000000 14.280768 0.000000
33.788212 3.193396 23.762151 0.000000 49.000000 14.325706 0.000000
30.404312 2.829182 23.973200 0.000000 39.000000 14.333462 0.000000
28.843651 1.627801 24.650404 0.000000 45.000000 14.342476 7.000000
31.902771 3.813296 23.365775 0.000000 28.000000 14.280009 0.000000
28.908344 1.731254 24.954809 0.000000 66.000000 14.658835 7.000000
34.225063 1.408906 24.849553 0.000000 45.000000 14.410357 0.000000
28.078716 3.119027 23.637144 0.000000 47.000000 14.180315 0.000000
29.481453 1.917928 24.543275 0.000000 35.000000 14.389622 0.000000
30.058403 -0.411958 25.790752 0.000000 45.000000 14.349526 0.000000
29.660057 1.662458 24.448439 0.000000 41.000000 14.182714 0.000000
32.561058 -0.352957 25.667313 0.000000 47.000000 14.270236 0.000000
33.355247 -0.926308 26.016660 0.000000 45.000000 14.297407 0.000000
29.170593 1.673278 24.718715 0.000000 49.000000 14.424274 7.000000
28.685925 2.225674 24.344639 0.000000 58.000000 14.365312 0.000000
28.026253 -0.469208 25.832613 0.000000 44.000000 14.358341 0.000000
29.572914 2.542867 24.091118 0.000000 44.000000 14.297600 0.000000
31.155888 0.363986 25.131506 0.000000 21.000000 14.149731 0.000000
28.337692 1.498880 24.727132 0.000000 46.000000 14.346990 0.000000
28.278889 1.650966 24.654767 0.000000 51.000000 14.357534 0.000000
32.501774 4.398077 23.692467 0.000000 80.000000 14.849463 29.000000
29.802597 2.078819 24.509589 0.000000 48.000000 14.438256 8.000000
33.330406 3.718144 23.526031 0.000000 49.000000 14.373944 0.000000
30.512081 4.239599 23.323118 0.000000 52.000000 14.449617 0.000000
33.157997 0.292710 25.243997 0.000000 30.000000 14.213491 0.000000
28.589756 0.875905 25.037248 0.000000 58.000000 14.315775 0.000000
30.986233 3.648336 23.504615 0.000000 50.000000 14.321338 0.000000
31.500576 0.865057 25.130068 0.000000 41.000000 14.391665 0.000000
29.220947 0.789593 25.092979 0.000000 58.000000 14.322612 0.000000
33.474689 3.638729 23.899442 0.000000 63.000000 14.661882 23.000000
32.700909 2.823585 23.919531 0.000000 36.000000 14.283822 0.000000
30.417809 0.131739 25.476322 0.000000 52.000000 14.338492 0.000000
33.672821 2.936192 23.856189 0.000000 43.000000 14.283094 0.000000
33.971619 2.296775 24.370814 0.000000 79.000000 14.422706 15.000000
34.235912 3.712565 23.828627 0.000000 68.000000 14.635803 22.000000
30.022308 2.968168 23.693725 0.000000 35.000000 14.156567 0.000000
33.263859 3.499736 23.986016 0.000000 66.000000 14.670117 23.000000
34.086403 2.326086 24.157641 0.000000 35.000000 14.250549 0.000000
29.660789 -0.302626 25.843681 0.000000 71.000000 14.448867 5.000000
30.414291 3.101359 23.826382 0.000000 45.000000 14.337195 0.000000
29.708652 4.367390 23.369215 0.000000 63.000000 14.551943 28.000000
29.974586 2.221948 24.341625 0.000000 51.000000 14.360868 0.000000
29.899849 0.823420 25.061430 0.000000 47.000000 14.311445 0.000000
32.442600 2.795673 23.994232 0.000000 37.000000 14.335588 0.000000
31.174671 -0.899122 25.851619 0.000000 40.000000 14.166302 0.000000
28.186996 2.234483 24.350652 0.000000 63.000000 14.374845 0.000000
28.212692 3.578204 23.538704 0.000000 39.000000 14.317105 0.000000
28.241638 0.591670 25.116517 0.000000 52.000000 14.247131 0.000000
27.967606 4.428200 23.178937 0.000000 44.000000 14.415092 0.000000
31.407314 -0.311337 25.883937 0.000000 40.000000 14.479836 4.000000
33.753319 2.414908 24.161710 0.000000 44.000000 14.297216 0.000000
33.914604 3.927332 23.401066 0.000000 50.000000 14.366212 17.000000
33.839310 1.674427 24.417804 0.000000 48.000000 14.161738 0.000000
30.137001 3.620761 23.901285 0.000000 66.000000 14.654773 21.000000
29.266212 4.150276 23.618519 0.000000 72.000000 14.664540 28.000000
32.703598 4.264635 23.791260 0.000000 71.000000 14.871075 29.000000
28.793198 3.285176 23.678157 0.000000 48.000000 14.296813 0.000000
32.934685 3.084086 23.563327 0.000000 27.000000 14.098817 0.000000
30.092628 -0.201833 25.622951 0.000000 35.000000 14.304797 0.000000
31.159714 3.074213 23.633659 0.000000 42.000000 14.155518 0.000000
30.158733 2.782332 23.977597 0.000000 57.000000 14.314569 0.000000
33.764530 -0.007920 25.649248 0.000000 34.000000 14.421903 0.000000
29.199085 1.179897 24.822656 0.000000 41.000000 14.275693 0.000000
30.634315 3.779117 23.475343 0.000000 34.000000 14.359219 10.000000
33.771473 1.547624 24.708594 0.000000 48.000000 14.354440 19.000000
28.437580 0.881652 25.062556 0.000000 55.000000 14.340692 0.000000
33.492985 2.837814 23.940028 0.000000 53.000000 14.308649 0.000000
30.205311 -0.663198 25.801826 0.000000 29.000000 14.237271 0.000000
33.945435 3.505625 23.717292 0.000000 59.000000 14.438023 22.000000
31.943302 2.945194 23.818547 0.000000 36.000000 14.254551 0.000000
31.569019 2.275183 24.280099 0.000000 34.000000 14.332912 0.000000
30.692757 2.278823 24.288869 0.000000 62.000000 14.342346 0.000000
33.760487 2.255774 24.376238 0.000000 58.000000 14.407548 0.000000
31.350674 4.091928 23.685821 0.000000 75.000000 14.695065 30.000000
28.379379 0.011738 25.553471 0.000000 35.000000 14.347704 0.000000
32.207813 -0.581719 25.744638 0.000000 20.000000 14.226815 0.000000
33.576195 2.965019 23.761618 0.000000 37.000000 14.214399 0.000000
32.719601 2.706030 23.999485 0.000000 45.000000 14.296673 0.000000
33.021603 4.145941 23.643690 0.000000 75.000000 14.684444 29.000000
29.514084 -0.071742 25.532953 0.000000 40.000000 14.289248 0.000000
28.429108 2.283358 24.305689 0.000000 59.000000 14.359254 0.000000
32.469296 -0.199808 25.554666 0.000000 42.000000 14.246076 0.000000
30.748859 2.035435 24.420022 0.000000 30.000000 14.338890 0.000000
32.320976 3.469203 23.690621 0.000000 54.000000 14.397027 23.000000
29.599541 1.623921 24.706893 0.000000 58.000000 14.389983 0.000000
28.930580 1.588035 25.175599 0.000000 25.000000 14.782366 7.000000
33.655727 2.906151 23.846379 0.000000 44.000000 14.259936 0.000000
34.088787 2.267367 24.518755 0.000000 74.000000 14.537781 15.000000
32.811001 4.203908 23.964900 0.000000 72.000000 14.993420 29.000000
29.329941 3.034233 23.936694 0.000000 38.000000 14.401064 9.000000
32.746098 3.222219 23.803979 0.000000 56.000000 14.376266 23.000000
30.057423 -0.615504 25.912955 0.000000 33.000000 14.357582 0.000000
32.443787 3.811976 23.696825 0.000000 61.000000 14.568814 23.000000
29.812809 2.701167 24.172189 0.000000 55.000000 14.445312 0.000000
33.278606 0.621013 25.038969 0.000000 45.000000 14.193570 0.000000
32.952927 4.270359 23.709568 0.000000 78.000000 14.802428 29.000000
28.820862 1.658811 24.757865 0.000000 52.000000 14.451482 7.000000
30.614483 0.037540 25.625972 0.000000 44.000000 14.423616 0.000000
28.482212 3.246379 23.604550 0.000000 40.000000 14.213627 0.000000
28.410713 3.986007 23.333185 0.000000 46.000000 14.335339 0.000000
28.312412 3.751922 23.416373 0.000000 51.000000 14.294461 0.000000
32.361950 1.102494 24.851821 0.000000 44.000000 14.263625 0.000000
31.989052 1.002713 24.912144 0.000000 48.000000 14.267939 0.000000
28.001350 -0.405969 25.815299 0.000000 51.000000 14.373895 0.000000
28.966152 2.395676 24.236976 0.000000 47.000000 14.353689 0.000000
29.544720 1.606607 24.714586 0.000000 55.000000 14.388306 7.000000
31.360928 2.151785 24.401546 0.000000 47.000000 14.379206 0.000000
31.429714 1.984739 24.469190 0.000000 48.000000 14.357274 0.000000
29.004269 0.604661 25.095926 0.000000 29.000000 14.235433 0.000000
34.075226 3.186321 23.643378 0.000000 42.000000 14.218426 0.000000
30.021847 3.031647 23.724846 0.000000 42.000000 14.214586 0.000000
29.514183 1.935775 24.501056 0.000000 40.000000 14.361371 0.000000
28.971115 0.047059 25.558993 0.000000 42.000000 14.369675 0.000000
30.631573 2.240488 24.320665 0.000000 65.000000 14.351541 0.000000
32.745628 1.297893 24.768200 0.000000 29.000000 14.285349 0.000000
32.441380 4.163341 23.745103 0.000000 73.000000 14.781557 29.000000
30.058701 4.327269 23.421517 0.000000 54.000000 14.578199 27.000000
32.534740 1.617603 24.552012 0.000000 32.000000 14.251500 0.000000
31.418240 3.625878 23.445747 0.000000 45.000000 14.258969 0.000000
28.343678 2.215072 24.397688 0.000000 61.000000 14.406548 0.000000
28.455303 2.433403 24.203594 0.000000 60.000000 14.342813 0.000000
32.169430 3.247341 23.649387 0.000000 32.000000 14.253296 0.000000
32.495930 2.236379 24.379345 0.000000 61.000000 14.400852 26.000000
29.155415 4.359087 23.277847 0.000000 56.000000 14.468028 28.000000
32.839638 3.801830 23.534138 0.000000 31.000000 14.421648 29.000000
31.033962 0.174272 25.534661 0.000000 39.000000 14.410143 18.000000
33.124294 0.448858 25.588862 0.000000 42.000000 14.590800 3.000000
31.799015 -0.343690 25.737388 0.000000 35.000000 14.336002 4.000000
31.690857 4.474666 23.374838 0.000000 47.000000 14.608925 30.000000
34.085819 3.709828 24.167598 0.000000 65.000000 14.930845 22.000000
31.595421 1.471652 24.740190 0.000000 55.000000 14.345192 0.000000
28.507881 4.187245 23.256803 0.000000 52.000000 14.366226 0.000000
32.565384 4.060067 23.854342 0.000000 38.000000 14.826944 29.000000
30.186592 1.232377 24.779511 0.000000 37.000000 14.263441 0.000000
28.484241 -0.442705 25.791442 0.000000 54.000000 14.335207 0.000000
28.200096 2.138406 24.385514 0.000000 58.000000 14.358695 0.000000
28.106720 3.596548 23.997443 0.000000 72.000000 14.727094 1.000000
28.802666 2.126731 24.404223 0.000000 41.000000 14.369386 8.000000
29.857166 3.015757 23.667691 0.000000 30.000000 14.156902 0.000000
32.049721 4.358054 23.263147 0.000000 44.000000 14.454674 0.000000
28.893620 2.650567 24.023794 0.000000 52.000000 14.291008 0.000000
31.163040 1.381025 24.803000 0.000000 52.000000 14.356123 16.000000
30.867756 2.034015 24.376730 0.000000 30.000000 14.300349 0.000000
30.746281 1.380050 24.823617 0.000000 38.000000 14.373676 16.000000
31.399220 2.011121 24.461999 0.000000 54.000000 14.363791 0.000000
32.255535 0.922221 24.984681 0.000000 57.000000 14.292294 0.000000
31.878605 2.416555 24.195447 0.000000 53.000000 14.327513 0.000000
31.212921 1.346566 24.907918 0.000000 48.000000 14.431131 0.000000
27.995098 0.991652 24.947611 0.000000 47.000000 14.293581 0.000000
31.045002 0.609539 25.268376 0.000000 37.000000 14.388577 0.000000
31.246178 0.839005 25.040871 0.000000 35.000000 14.301034 0.000000
29.344925 2.853082 24.306444 0.000000 68.000000 14.636425 9.000000
33.139027 2.147438 24.300100 0.000000 60.000000 14.288399 0.000000
30.910934 1.644626 24.527663 0.000000 40.000000 14.243327 0.000000
31.102726 2.137419 24.373473 0.000000 58.000000 14.347688 0.000000
33.514816 2.626591 24.031941 0.000000 30.000000 14.286495 0.000000
28.104027 1.572111 25.033013 0.000000 44.000000 14.649971 2.000000
28.043556 3.003219 23.786470 0.000000 40.000000 14.254668 0.000000
31.733765 3.719024 23.441739 0.000000 25.000000 14.300672 0.000000
32.422165 -0.488012 25.830988 0.000000 35.000000 14.347794 20.000000
33.360893 -0.501673 25.753820 0.000000 35.000000 14.273693 0.000000
29.736904 0.427161 25.074679 0.000000 36.000000 14.130707 0.000000
33.267475 1.461452 24.688967 0.000000 31.000000 14.295456 0.000000
28.908920 3.874955 23.331462 0.000000 40.000000 14.279934 0.000000
27.982330 2.987528 23.707072 0.000000 44.000000 14.177633 0.000000
28.440689 0.863200 25.065211 0.000000 58.000000 14.334058 0.000000
29.894596 1.868524 24.420307 0.000000 53.000000 14.258130 0.000000
29.756454 1.059108 24.892277 0.000000 34.000000 14.277940 0.000000
31.789032 4.330454 23.254907 0.000000 47.000000 14.434074 30.000000
31.711712 2.372276 24.260177 0.000000 67.000000 14.362617 0.000000
33.330631 3.547369 23.921051 0.000000 52.000000 14.636434 23.000000
31.469238 -0.450647 26.126132 0.000000 65.000000 14.623980 4.000000
30.362839 3.507398 23.905003 0.000000 75.000000 14.603004 10.000000
30.073574 0.061705 25.525933 0.000000 52.000000 14.347878 0.000000
33.752007 -0.583300 25.750568 0.000000 23.000000 14.231233 0.000000
31.335346 0.269948 25.671889 0.000000 55.000000 14.576560 18.000000
28.668621 2.253091 24.321855 0.000000 59.000000 14.358698 0.000000
33.094189 -0.528505 25.763003 0.000000 34.000000 14.268699 0.000000
33.966919 2.911659 23.978667 0.000000 53.000000 14.378272 0.000000
30.810257 0.931823 24.999545 0.000000 35.000000 14.309950 0.000000
33.328770 3.002575 23.618190 0.000000 40.000000 14.107224 0.000000
28.798958 2.838711 24.157003 0.000000 41.000000 14.498791 9.000000
32.922733 2.166573 24.455919 0.000000 66.000000 14.433923 26.000000
33.948517 4.067280 23.542236 0.000000 59.000000 14.557563 17.000000
32.145187 3.496787 23.674496 0.000000 51.000000 14.396316 23.000000
29.074242 0.417679 25.125990 0.000000 31.000000 14.170968 0.000000
32.984074 3.619905 23.832723 0.000000 70.000000 14.594412 23.000000
32.948315 3.725247 23.834096 0.000000 71.000000 14.646740 23.000000
30.971992 2.940180 23.706925 0.000000 34.000000 14.154524 0.000000
29.247341 3.657454 23.579085 0.000000 43.000000 14.390875 21.000000
32.544567 4.369554 23.781186 0.000000 51.000000 14.913189 29.000000
30.030441 2.962740 23.769457 0.000000 47.000000 14.220146 0.000000
28.671791 3.100905 23.806617 0.000000 43.000000 14.319694 0.000000
30.261250 0.072788 25.520540 0.000000 49.000000 14.348542 0.000000
29.040962 4.385579 22.999389 0.000000 44.000000 14.237423 0.000000
29.749645 0.304350 25.110277 0.000000 32.000000 14.102226 0.000000
28.726337 3.043052 23.868132 0.000000 48.000000 14.345399 0.000000
32.774090 0.309933 25.780360 0.000000 47.000000 14.690805 3.000000
30.637180 3.399795 23.921011 0.000000 46.000000 14.564775 10.000000
34.060913 1.310279 24.733297 0.000000 42.000000 14.260844 0.000000
33.448418 0.623763 25.088492 0.000000 45.000000 14.238204 0.000000
34.209888 0.804249 25.109856 0.000000 32.000000 14.344481 0.000000
28.984901 3.004051 23.753714 0.000000 41.000000 14.226432 0.000000
33.956337 3.595697 23.834035 0.000000 42.000000 14.583810 22.000000
29.766029 2.277617 24.454781 0.000000 75.000000 14.486822 8.000000
29.777031 3.767495 23.413470 0.000000 33.000000 14.299481 0.000000
30.717766 1.705941 24.561254 0.000000 44.000000 14.302455 0.000000
32.071423 3.544866 23.533477 0.000000 44.000000 14.296355 0.000000
33.407654 3.461013 23.876222 0.000000 44.000000 14.555327 23.000000
31.843887 3.402054 23.786597 0.000000 46.000000 14.448350 0.000000
29.766190 -0.427805 26.028802 0.000000 48.000000 14.549968 5.000000
28.646389 3.007274 23.919100 0.000000 45.000000 14.372597 0.000000
31.848232 2.489737 24.147938 0.000000 40.000000 14.321493 0.000000
32.667919 4.419451 23.517177 0.000000 63.000000 14.706577 29.000000
33.509254 -0.901306 25.851661 0.000000 25.000000 14.165279 0.000000
28.595749 4.254152 23.214339 0.000000 47.000000 14.361572 0.000000
28.579586 2.135268 24.387722 0.000000 58.000000 14.359103 0.000000
30.394024 1.232840 24.839916 0.000000 38.000000 14.316479 0.000000
28.551552 2.031234 24.387917 0.000000 70.000000 14.308781 0.000000
28.523876 4.230099 23.212273 0.000000 52.000000 14.348091 0.000000
32.212208 3.484685 23.848642 0.000000 66.000000 14.542702 23.000000
30.918472 1.741021 24.569608 0.000000 58.000000 14.326785 0.000000
31.112503 1.970948 24.491064 0.000000 48.000000 14.369705 0.000000
32.469425 1.735802 24.655953 0.000000 53.000000 14.399745 0.000000
32.725918 2.130536 24.570889 0.000000 64.000000 14.516953 26.000000
29.015171 0.272643 25.472271 0.000000 47.000000 14.403337 12.000000
32.360012 2.582961 24.038382 0.000000 47.000000 14.270951 0.000000
29.760971 2.280381 24.479291 0.000000 71.000000 14.509593 8.000000
28.743347 0.425030 25.333910 0.000000 45.000000 14.356325 0.000000
30.524704 3.017928 23.804580 0.000000 47.000000 14.277641 0.000000
31.011368 -0.716758 25.950249 0.000000 31.000000 14.341046 0.000000
30.138187 -0.498845 25.763589 0.000000 41.000000 14.283607 0.000000
28.456600 2.555973 24.138111 0.000000 48.000000 14.345048 0.000000
33.389378 -0.886245 25.825197 0.000000 28.000000 14.149451 0.000000
31.072350 4.005787 23.598910 0.000000 53.000000 14.577269 30.000000
28.336975 1.430113 24.802476 0.000000 44.000000 14.379490 0.000000
28.850815 2.440482 24.191619 0.000000 52.000000 14.335778 0.000000
32.413437 4.310358 23.901008 0.000000 34.000000 14.989222 29.000000
30.026447 2.082590 24.332767 0.000000 22.000000 14.285487 0.000000
31.667919 2.221148 24.377125 0.000000 33.000000 14.391518 26.000000
33.839298 -0.307764 25.598022 0.000000 44.000000 14.231588 0.000000
29.949963 4.433552 23.108633 0.000000 51.000000 14.356221 0.000000
29.028599 1.185347 24.804575 0.000000 45.000000 14.262529 0.000000
30.617001 2.908115 23.897107 0.000000 48.000000 14.305242 0.000000
32.935482 3.625360 23.657629 0.000000 73.000000 14.443971 23.000000
33.901211 3.694740 23.410383 0.000000 39.000000 14.261471 0.000000
31.911182 0.153840 25.392449 0.000000 34.000000 14.275887 0.000000
33.449345 2.023812 24.333438 0.000000 31.000000 14.257546 0.000000
32.102570 1.463758 24.689150 0.000000 55.000000 14.296736 0.000000
28.431934 -0.564538 25.875142 0.000000 48.000000 14.349257 0.000000
30.144890 4.327156 23.468504 0.000000 48.000000 14.619226 27.000000
29.387344 0.297741 25.458920 0.000000 44.000000 14.403845 12.000000
28.497128 4.267247 23.076910 0.000000 37.000000 14.247770 0.000000
28.203651 1.230223 24.872231 0.000000 45.000000 14.343463 0.000000
32.066711 2.483637 24.132836 0.000000 55.000000 14.305328 0.000000
30.282345 2.970268 23.817508 0.000000 40.000000 14.265812 0.000000
28.176834 -0.865199 25.881798 0.000000 27.000000 14.209153 0.000000
28.130966 3.744836 23.418091 0.000000 31.000000 14.292524 0.000000
29.215931 1.669336 24.850161 0.000000 68.000000 14.537287 7.000000
32.702831 -0.554753 25.954063 0.000000 38.000000 14.423008 20.000000
31.771774 2.487075 24.176664 0.000000 56.000000 14.345317 0.000000
30.814331 0.307539 25.252260 0.000000 38.000000 14.227913 0.000000
33.624149 -0.403683 25.700709 0.000000 44.000000 14.274816 0.000000
33.742149 3.655479 23.843718 0.000000 59.000000 14.621291 23.000000
30.230370 4.322880 23.583143 0.000000 45.000000 14.717382 27.000000
28.804111 1.250272 24.880855 0.000000 40.000000 14.360734 0.000000
31.524708 3.649545 23.902847 0.000000 65.000000 14.670109 10.000000
31.191368 3.621488 23.478983 0.000000 37.000000 14.285897 0.000000
29.403427 3.102108 23.696330 0.000000 43.000000 14.223851 0.000000
31.788712 2.704606 24.001925 0.000000 36.000000 14.298115 0.000000
32.272003 2.866754 23.980284 0.000000 59.000000 14.357892 0.000000
29.043262 1.576692 25.067235 0.000000 61.000000 14.682116 7.000000
28.523640 4.267086 23.118383 0.000000 42.000000 14.283952 0.000000
28.615173 -0.483941 25.821088 0.000000 66.000000 14.341113 0.000000
29.813820 3.665631 23.441170 0.000000 45.000000 14.274261 0.000000
32.635544 -0.354665 25.774282 0.000000 50.000000 14.362933 20.000000
32.996960 0.277093 25.753105 0.000000 58.000000 14.651037 3.000000
33.981293 0.134432 25.514650 0.000000 46.000000 14.373311 0.000000
34.016857 3.722256 23.690777 0.000000 73.000000 14.519981 22.000000
30.211369 3.580594 23.876784 0.000000 71.000000 14.613856 21.000000
33.458817 1.654036 24.585467 0.000000 62.000000 14.298433 0.000000
32.782852 2.807027 23.940382 0.000000 56.000000 14.294016 0.000000
30.426762 1.516597 24.719922 0.000000 53.000000 14.349285 0.000000
29.988190 -0.394443 25.810963 0.000000 45.000000 14.375698 0.000000
30.494255 3.969507 23.323887 0.000000 29.000000 14.319202 0.000000
28.415184 -0.524606 25.839595 0.000000 50.000000 14.337558 0.000000
31.524513 -0.203301 25.933533 0.000000 40.000000 14.575634 4.000000
28.864788 2.954340 23.829640 0.000000 43.000000 14.268689 0.000000
28.937675 3.681427 23.461919 0.000000 49.000000 14.300069 0.000000
31.792877 2.478933 24.179029 0.000000 60.000000 14.343433 0.000000
29.880985 4.158601 23.662392 0.000000 53.000000 14.706940 28.000000
33.012939 3.211706 23.829327 0.000000 45.000000 14.393326 0.000000
31.544594 2.047774 24.431279 0.000000 47.000000 14.354721 26.000000
33.007507 0.374775 25.530652 0.000000 48.000000 14.503950 3.000000
29.977074 -0.541578 25.934899 0.000000 48.000000 14.412647 0.000000
28.269672 2.647157 24.034942 0.000000 28.000000 14.299100 0.000000
28.640095 1.533322 24.966735 0.000000 47.000000 14.573197 7.000000
31.858921 -0.344927 25.902833 0.000000 49.000000 14.480055 4.000000
28.461716 -0.353761 25.752338 0.000000 52.000000 14.344186 0.000000
33.876541 2.900027 23.873934 0.000000 45.000000 14.281056 0.000000
32.638607 -0.868379 25.818953 0.000000 29.000000 14.152662 0.000000
30.496834 0.572495 25.188043 0.000000 32.000000 14.300361 0.000000
30.155239 1.210455 24.825650 0.000000 38.000000 14.293142 0.000000
33.904022 0.961930 25.070557 0.000000 57.000000 14.386650 0.000000
32.353443 1.572666 24.597836 0.000000 45.000000 14.269755 0.000000
31.806164 2.896528 23.792976 0.000000 36.000000 14.208574 0.000000
28.488846 1.023452 24.918583 0.000000 43.000000 14.283634 0.000000
31.650082 0.014812 25.502426 0.000000 47.000000 14.304566 0.000000
33.869434 3.572772 23.592035 0.000000 51.000000 14.361097 22.000000
29.455101 3.760117 23.404422 0.000000 40.000000 14.287989 0.000000
30.721207 2.847884 24.182023 0.000000 59.000000 14.525118 25.000000
29.757183 -0.297002 25.697475 0.000000 40.000000 14.323765 0.000000
31.426422 3.948758 23.588805 0.000000 57.000000 14.540755 30.000000
29.348282 2.945761 24.023726 0.000000 66.000000 14.434219 9.000000
30.396374 1.442247 24.750631 0.000000 52.000000 14.340049 0.000000
31.076607 1.972320 24.487853 0.000000 52.000000 14.367564 0.000000
31.314968 3.601084 24.058337 0.000000 81.000000 14.782537 10.000000
32.233658 2.897698 23.914263 0.000000 40.000000 14.315186 0.000000
31.899731 1.130510 24.859301 0.000000 25.000000 14.283763 0.000000
30.806019 3.959570 23.285797 0.000000 29.000000 14.281076 0.000000
28.948082 3.224903 23.652119 0.000000 44.000000 14.244794 0.000000
28.702484 0.448805 25.319507 0.000000 44.000000 14.355271 0.000000
32.394424 1.465848 24.690699 0.000000 51.000000 14.299104 0.000000
30.365429 2.158187 24.328832 0.000000 46.000000 14.318737 0.000000
28.320778 2.466813 24.138790 0.000000 40.000000 14.302368 0.000000
33.110229 4.248271 23.544653 0.000000 74.000000 14.647519 29.000000
28.402943 2.427749 24.214563 0.000000 60.000000 14.349659 0.000000
29.305161 1.721976 24.766809 0.000000 46.000000 14.489959 7.000000
28.516071 1.765934 24.414197 0.000000 57.000000 14.202997 0.000000
33.492886 3.045777 23.794466 0.000000 42.000000 14.282314 0.000000
33.321335 2.066540 24.329318 0.000000 43.000000 14.274682 0.000000
34.149410 4.336140 23.722967 0.000000 56.000000 14.846070 17.000000
28.074100 2.563048 24.105116 0.000000 50.000000 14.319633 0.000000
29.387001 3.457093 23.909401 0.000000 41.000000 14.582434 21.000000
33.432693 4.215161 23.306403 0.000000 71.000000 14.423141 29.000000
33.739838 0.663419 25.008836 0.000000 32.000000 14.187805 0.000000
30.234707 1.026748 24.971583 0.000000 38.000000 14.331574 0.000000
29.072422 3.611802 23.980058 0.000000 56.000000 14.719298 21.000000
32.116535 1.292303 24.759119 0.000000 50.000000 14.274697 0.000000
31.909283 0.154263 25.540630 0.000000 55.000000 14.405650 0.000000
32.765881 2.849996 23.880311 0.000000 50.000000 14.262349 0.000000
29.422016 3.021727 23.895799 0.000000 37.000000 14.359239 9.000000
31.731506 2.859432 23.899384 0.000000 34.000000 14.283605 0.000000
30.711296 1.720300 24.596270 0.000000 49.000000 14.340039 0.000000
30.756176 2.000896 24.454812 0.000000 51.000000 14.352545 0.000000
30.798115 2.287344 24.328228 0.000000 62.000000 14.380895 0.000000
33.720650 3.642015 23.771455 0.000000 69.000000 14.551575 23.000000
30.208488 1.316602 24.745269 0.000000 27.000000 14.274381 0.000000
31.251247 3.177481 23.709057 0.000000 43.000000 14.271560 0.000000
28.773098 2.322427 24.275909 0.000000 47.000000 14.352178 0.000000
30.875412 3.728170 23.878324 0.000000 70.000000 14.686828 10.000000
33.605774 3.056301 23.624152 0.000000 35.000000 14.138512 0.000000
31.108311 4.456725 23.555730 0.000000 57.000000 14.758375 30.000000
32.199947 2.462398 24.327689 0.000000 55.000000 14.465384 26.000000
31.868248 -0.830681 25.773137 0.000000 37.000000 14.130901 0.000000
32.328846 4.305961 23.886874 0.000000 65.000000 14.974730 29.000000
29.382160 3.407473 23.807253 0.000000 46.000000 14.469041 21.000000
34.168522 3.744650 23.748694 0.000000 48.000000 14.581488 22.000000
29.325008 1.665799 24.869511 0.000000 36.000000 14.552488 7.000000
33.877689 -0.816721 25.811691 0.000000 25.000000 14.171385 0.000000
31.558266 0.894028 25.099764 0.000000 47.000000 14.379230 0.000000
34.047775 1.612828 24.752517 0.000000 64.000000 14.424489 19.000000
31.886547 4.334738 23.389853 0.000000 58.000000 14.554140 30.000000
32.017719 4.320988 23.241555 0.000000 49.000000 14.417806 0.000000
31.961426 2.362550 24.522736 0.000000 68.000000 14.587458 26.000000
29.692616 -0.325520 25.753518 0.000000 53.000000 14.358924 5.000000
31.319454 1.602898 24.853785 0.000000 67.000000 14.508210 16.000000
27.991589 2.352676 24.257683 0.000000 61.000000 14.350924 0.000000
30.290672 0.119325 25.532366 0.000000 53.000000 14.381468 0.000000
32.312531 2.429491 24.219464 0.000000 44.000000 14.354790 26.000000
32.321011 0.291961 25.262532 0.000000 48.000000 14.229333 0.000000
30.934807 2.313772 24.293776 0.000000 62.000000 14.363599 0.000000
28.648651 2.648605 24.031071 0.000000 50.000000 14.296419 0.000000
30.185055 2.901604 23.911979 0.000000 34.000000 14.315085 0.000000
34.083839 -0.186976 25.535633 0.000000 42.000000 14.235663 0.000000
