-31.506204 -13.140569 21.563216 0.000000 69.000000 14.866761 23.000000
-31.851322 -13.328071 22.680202 0.000000 39.000000 14.723772 22.000000
-32.233329 -12.400766 21.033462 0.000000 75.000000 14.805473 9.000000
-33.508096 -10.313872 19.867628 0.000000 33.000000 14.158255 0.000000
-35.642130 -9.693453 19.682027 0.000000 63.000000 14.677193 30.000000
-31.727558 -11.784578 20.447271 0.000000 30.000000 14.321134 0.000000
-30.898113 -13.133223 20.985950 0.000000 41.000000 14.822670 25.000000
-34.291528 -10.002335 19.627012 0.000000 31.000000 14.350363 0.000000
-34.788132 -9.481417 19.298204 0.000000 40.000000 14.282752 0.000000
-34.397089 -11.303482 22.267656 0.000000 59.000000 14.387462 3.000000
-30.850748 -11.397112 19.051106 0.000000 28.000000 14.180027 0.000000
-34.580609 -9.795350 18.896348 0.000000 30.000000 14.603693 18.000000
-34.819244 -9.601002 19.560135 0.000000 43.000000 14.287941 0.000000
-30.760046 -12.172134 18.387640 0.000000 48.000000 15.027439 8.000000
-34.836778 -9.668761 20.113118 0.000000 30.000000 14.129256 0.000000
-34.911935 -9.946235 20.561139 0.000000 28.000000 14.206407 0.000000
-34.981062 -10.225413 21.005882 0.000000 37.000000 14.283571 0.000000
-35.027795 -10.438277 21.396306 0.000000 41.000000 14.319268 0.000000
-33.739216 -11.165337 21.223129 0.000000 45.000000 14.402931 19.000000
-34.735866 -9.400078 18.958418 0.000000 46.000000 14.330029 0.000000
-30.720628 -12.128900 20.087372 0.000000 29.000000 14.296427 0.000000
-30.998614 -12.624842 20.659420 0.000000 77.000000 14.589159 23.000000
-35.087904 -10.913708 22.426190 0.000000 39.000000 14.316377 0.000000
-32.426528 -11.298590 20.418918 0.000000 26.000000 14.251015 0.000000
-34.721385 -9.799015 20.054447 0.000000 42.000000 14.206313 0.000000
-34.764655 -10.110573 20.539501 0.000000 42.000000 14.281958 0.000000
-34.765774 -10.295346 20.919861 0.000000 41.000000 14.278951 0.000000
-34.781784 -10.548214 21.346097 0.000000 41.000000 14.318900 0.000000
-31.903711 -13.900421 23.259464 0.000000 41.000000 14.975294 21.000000
-30.241263 -11.753010 18.904875 0.000000 33.000000 14.254932 0.000000
-34.579230 -9.414793 18.446682 0.000000 37.000000 14.477008 17.000000
-34.659641 -10.413049 19.413131 0.000000 2.000000 14.928368 18.000000
-32.304139 -12.236886 22.056558 0.000000 45.000000 14.296517 0.000000
-32.410101 -11.970515 21.796063 0.000000 38.000000 14.233432 0.000000
-31.392243 -10.929893 18.196891 0.000000 45.000000 14.385233 5.000000
-33.089906 -11.471900 21.204576 0.000000 40.000000 14.369615 0.000000
-33.191237 -11.155099 20.925779 0.000000 41.000000 14.271287 0.000000
-33.858179 -10.468880 20.290004 0.000000 42.000000 14.268785 0.000000
-34.411740 -11.605486 23.268093 0.000000 35.000000 14.236942 0.000000
-34.019291 -10.266070 20.121332 0.000000 34.000000 14.244456 0.000000
-34.207118 -10.124127 20.000793 0.000000 38.000000 14.261597 0.000000
-32.176722 -11.685485 19.432864 0.000000 39.000000 14.845200 6.000000
-31.240617 -13.144338 20.921416 0.000000 69.000000 15.008743 23.000000
-34.750754 -9.618303 19.615799 0.000000 40.000000 14.249336 0.000000
-36.106139 -10.236785 22.399412 0.000000 31.000000 14.233367 0.000000
-31.738421 -13.115706 20.961600 0.000000 60.000000 15.189702 23.000000
-36.461279 -10.003283 22.309707 0.000000 29.000000 14.238596 0.000000
-31.990658 -12.104477 20.710444 0.000000 66.000000 14.589251 9.000000
-32.795302 -10.314560 18.740053 0.000000 38.000000 14.294135 0.000000
-32.847955 -10.418947 19.088414 0.000000 31.000000 14.262116 0.000000
-31.770691 -13.224840 22.280081 0.000000 71.000000 14.765026 22.000000
-32.980806 -10.739978 19.866202 0.000000 36.000000 14.268044 0.000000
-31.320803 -13.004365 20.156323 0.000000 6.000000 15.237327 24.000000
-30.284824 -12.885509 19.520711 0.000000 65.000000 14.937867 13.000000
-33.191322 -11.348859 21.087879 0.000000 41.000000 14.362215 0.000000
-31.537272 -11.218631 19.110134 0.000000 32.000000 14.316504 0.000000
-32.760447 -10.288154 18.598026 0.000000 40.000000 14.314246 0.000000
-31.256954 -13.279428 21.281794 0.000000 64.000000 14.980537 25.000000
-32.784983 -10.433686 18.996578 0.000000 40.000000 14.282804 0.000000
-32.823122 -10.627405 19.423861 0.000000 44.000000 14.284603 0.000000
-34.750063 -9.702074 18.597767 0.000000 38.000000 14.722914 17.000000
-33.373750 -12.135692 22.849138 0.000000 36.000000 14.371401 0.000000
-32.271654 -12.518251 21.486521 0.000000 43.000000 14.735827 10.000000
-35.854726 -9.850630 19.711916 0.000000 39.000000 14.885461 30.000000
-30.863804 -12.473264 20.161551 0.000000 84.000000 14.606677 24.000000
-33.004379 -11.847204 21.873825 0.000000 39.000000 14.365972 0.000000
-32.968598 -11.908165 22.160685 0.000000 37.000000 14.284553 0.000000
-32.968073 -12.064479 22.505183 0.000000 36.000000 14.272285 0.000000
-32.958833 -12.208210 22.836298 0.000000 34.000000 14.251403 0.000000
-31.512378 -13.127527 21.440576 0.000000 68.000000 14.907995 23.000000
-32.959457 -12.557955 23.526509 0.000000 34.000000 14.256934 0.000000
-36.720249 -10.067374 22.662571 0.000000 38.000000 14.263596 0.000000
-30.882011 -11.380954 18.902897 0.000000 44.000000 14.240060 0.000000
-31.180827 -11.060625 18.459660 0.000000 36.000000 14.291855 0.000000
-31.626986 -11.798979 20.486782 0.000000 31.000000 14.272473 0.000000
-31.328014 -10.881670 18.233196 0.000000 46.000000 14.303613 0.000000
-33.045069 -11.156460 20.546941 0.000000 41.000000 14.359088 0.000000
-33.743294 -9.717170 17.506173 0.000000 50.000000 14.726074 15.000000
-33.299460 -10.680453 20.124284 0.000000 32.000000 14.257986 0.000000
-33.443010 -10.474050 19.942586 0.000000 35.000000 14.228210 0.000000
-33.587951 -10.268206 19.768410 0.000000 34.000000 14.196494 0.000000
-34.316529 -11.285922 22.070379 0.000000 51.000000 14.416545 28.000000
-34.149282 -9.963850 19.511853 0.000000 38.000000 14.302580 0.000000
-31.897369 -12.076099 20.839605 0.000000 30.000000 14.473640 9.000000
-36.160288 -10.330106 22.835963 0.000000 32.000000 14.157899 0.000000
-30.797072 -11.343175 18.675498 0.000000 33.000000 14.262998 0.000000
-32.437897 -13.288532 23.290841 0.000000 57.000000 14.707366 20.000000
-30.876735 -11.419982 18.688072 0.000000 45.000000 14.354876 0.000000
-34.181225 -11.276329 21.228912 0.000000 34.000000 14.685120 19.000000
-34.940153 -9.017633 18.458802 0.000000 44.000000 14.312671 0.000000
-34.999309 -9.196612 18.849607 0.000000 46.000000 14.326489 0.000000
-31.548892 -12.889934 22.012511 0.000000 55.000000 14.504866 23.000000
-31.181183 -12.464618 20.076260 0.000000 74.000000 14.774063 24.000000
-32.080133 -13.199695 23.225899 0.000000 49.000000 14.503833 20.000000
-34.587146 -9.877558 19.248520 0.000000 42.000000 14.531957 18.000000
-34.879077 -8.848138 18.117798 0.000000 41.000000 14.285733 0.000000
-35.233210 -10.315162 21.374812 0.000000 40.000000 14.319748 0.000000
-33.805776 -9.813178 17.380408 0.000000 58.000000 14.881032 15.000000
-31.390508 -12.850653 20.497060 0.000000 66.000000 15.008580 23.000000
-35.247490 -10.592050 22.027578 0.000000 38.000000 14.287748 0.000000
-35.262308 -10.776798 22.382040 0.000000 38.000000 14.301120 0.000000
-34.867630 -9.461332 19.646930 0.000000 29.000000 14.162474 0.000000
-34.856676 -9.621586 20.018963 0.000000 27.000000 14.137764 0.000000
-34.360125 -9.757326 18.803130 0.000000 23.000000 14.512940 18.000000
-34.913225 -10.241265 20.954800 0.000000 41.000000 14.286725 0.000000
-34.254713 -11.596560 22.265349 0.000000 70.000000 14.560866 3.000000
-35.140147 -9.803829 19.533325 0.000000 42.000000 14.603387 14.000000
-33.936874 -10.316763 19.324005 0.000000 50.000000 14.567197 18.000000
-30.732091 -12.155455 18.120622 0.000000 69.000000 15.108332 8.000000
-30.801243 -12.789594 21.262097 0.000000 61.000000 14.393557 25.000000
-30.297539 -11.734384 18.784032 0.000000 35.000000 14.313107 0.000000
-33.525139 -9.785921 17.460520 0.000000 52.000000 14.703115 15.000000
-31.575587 -13.159162 20.969753 0.000000 59.000000 15.149386 23.000000
-31.256688 -12.412400 20.260604 0.000000 42.000000 14.691864 24.000000
-33.305468 -10.932116 20.653116 0.000000 40.000000 14.251568 0.000000
-30.229079 -12.682258 19.575179 0.000000 77.000000 14.728220 13.000000
-33.641864 -10.597418 20.336345 0.000000 41.000000 14.257921 0.000000
-32.051742 -11.684869 19.808716 0.000000 65.000000 14.639356 6.000000
-34.409986 -11.648031 23.182248 0.000000 36.000000 14.304626 0.000000
-33.493411 -10.679334 19.361166 0.000000 55.000000 14.647590 0.000000
-34.541989 -11.424064 23.013823 0.000000 31.000000 14.250339 0.000000
-34.163270 -10.108486 19.906101 0.000000 42.000000 14.267476 0.000000
-34.353640 -9.985895 19.802398 0.000000 39.000000 14.294560 0.000000
-33.172155 -12.140919 22.415415 0.000000 49.000000 14.459729 26.000000
-32.560026 -12.208836 22.303886 0.000000 30.000000 14.288294 0.000000
-30.629702 -12.860562 20.650562 0.000000 67.000000 14.618991 13.000000
-35.240828 -10.976432 22.678109 0.000000 37.000000 14.333729 0.000000
-30.859415 -12.756027 21.238532 0.000000 54.000000 14.401716 25.000000
-32.016528 -12.100454 20.944184 0.000000 41.000000 14.504098 9.000000
-32.178215 -13.499167 23.467003 0.000000 59.000000 14.691427 20.000000
-31.741379 -13.074478 21.861863 0.000000 69.000000 14.798333 23.000000
-33.199794 -10.922628 20.531917 0.000000 40.000000 14.245651 0.000000
-33.244974 -11.086383 20.902542 0.000000 34.000000 14.249123 0.000000
-31.699104 -13.803399 22.870439 0.000000 46.000000 14.962313 29.000000
-32.877572 -10.248351 18.610084 0.000000 46.000000 14.329222 0.000000
-33.979471 -9.757291 18.655139 0.000000 69.000000 14.403787 18.000000
-33.693612 -10.295380 18.905515 0.000000 66.000000 14.609655 18.000000
-30.992000 -11.709660 18.341276 0.000000 49.000000 14.777001 7.000000
-31.958098 -13.380029 22.618126 0.000000 45.000000 14.837489 22.000000
-34.568327 -10.109513 19.656442 0.000000 39.000000 14.547029 18.000000
-32.251939 -13.203806 22.605992 0.000000 47.000000 14.830653 22.000000
-33.515364 -9.876698 18.203366 0.000000 50.000000 14.475019 15.000000
-31.665506 -13.077590 21.714278 0.000000 46.000000 14.826245 23.000000
-33.441208 -12.083698 23.019974 0.000000 36.000000 14.291219 0.000000
-33.002909 -11.147798 20.626768 0.000000 41.000000 14.301614 0.000000
-34.425945 -11.770064 22.560479 0.000000 40.000000 14.658030 3.000000
-33.135772 -12.287699 21.415800 0.000000 42.000000 14.960789 12.000000
-33.076278 -11.791280 21.829088 0.000000 38.000000 14.370697 0.000000
-33.055442 -11.897606 22.140545 0.000000 38.000000 14.322496 0.000000
-33.024226 -11.988379 22.435555 0.000000 37.000000 14.263785 0.000000
-33.021817 -12.155550 22.776823 0.000000 36.000000 14.260695 0.000000
-31.227589 -12.753857 20.736471 0.000000 64.000000 14.763210 23.000000
-31.441054 -13.043889 20.824272 0.000000 45.000000 15.055443 23.000000
-30.737912 -11.284916 18.788979 0.000000 32.000000 14.144734 0.000000
-32.172263 -11.760785 19.619570 0.000000 63.000000 14.829142 6.000000
-32.533233 -11.756465 21.239656 0.000000 34.000000 14.338148 0.000000
-31.958943 -12.280985 21.682802 0.000000 39.000000 14.328653 0.000000
-30.934430 -12.722663 20.910873 0.000000 39.000000 14.538936 23.000000
-32.918509 -11.074065 20.377820 0.000000 41.000000 14.304519 0.000000
-31.104638 -12.968451 20.828010 0.000000 70.000000 14.844676 23.000000
-32.161357 -13.086928 22.216364 0.000000 52.000000 14.852358 22.000000
-34.514071 -11.660408 22.818203 0.000000 57.000000 14.505967 3.000000
-33.477871 -10.227901 19.614200 0.000000 32.000000 14.177061 0.000000
-33.671051 -10.152726 19.539119 0.000000 35.000000 14.232043 0.000000
-33.155797 -12.153920 21.307540 0.000000 52.000000 14.905423 12.000000
-33.956861 -9.620564 17.615455 0.000000 42.000000 14.699218 15.000000
-30.562644 -12.736754 19.993821 0.000000 70.000000 14.752209 13.000000
-36.448676 -10.191975 22.604864 0.000000 37.000000 14.266702 0.000000
-36.628927 -10.044381 22.546284 0.000000 37.000000 14.251211 0.000000
-31.996768 -14.086267 23.566205 0.000000 39.000000 15.043185 21.000000
-31.153044 -11.474305 19.249671 0.000000 43.000000 14.296325 0.000000
-31.234521 -11.612690 19.628540 0.000000 37.000000 14.292169 0.000000
-32.190501 -11.697656 19.315434 0.000000 46.000000 14.907966 6.000000
-32.327623 -13.360081 22.960962 0.000000 63.000000 14.847852 20.000000
-33.995974 -9.600928 17.170651 0.000000 37.000000 14.878384 15.000000
-31.111755 -11.606960 19.603362 0.000000 42.000000 14.243366 0.000000
-35.245708 -9.442761 19.752416 0.000000 35.000000 14.272520 0.000000
-31.582334 -13.238630 21.373159 0.000000 57.000000 15.055079 23.000000
-31.757243 -13.619749 22.915405 0.000000 41.000000 14.822536 29.000000
-34.213873 -11.142538 21.487566 0.000000 25.000000 14.488780 19.000000
-34.990796 -9.579612 19.942785 0.000000 31.000000 14.193749 0.000000
-32.725191 -12.137457 21.213476 0.000000 57.000000 14.739461 12.000000
-29.944469 -12.050671 19.073404 0.000000 37.000000 14.295540 0.000000
-31.665761 -12.676761 21.001132 0.000000 62.000000 14.789232 23.000000
-33.113873 -10.415500 18.533247 0.000000 47.000000 14.598602 4.000000
-31.030837 -13.184911 21.174749 0.000000 42.000000 14.847440 25.000000
-32.874353 -10.235777 17.623546 0.000000 54.000000 14.711720 16.000000
-33.743722 -10.297638 19.475889 0.000000 50.000000 14.405810 18.000000
-34.865103 -10.938967 22.502325 0.000000 36.000000 14.207790 0.000000
-31.983708 -10.504642 18.218270 0.000000 29.000000 14.296524 0.000000
-31.988441 -13.310047 22.653786 0.000000 68.000000 14.780446 22.000000
-34.598636 -11.319490 22.302855 0.000000 42.000000 14.475336 3.000000
-32.109009 -12.162304 21.957438 0.000000 34.000000 14.189960 0.000000
-33.201614 -11.114219 20.806702 0.000000 39.000000 14.290597 0.000000
-32.299603 -11.386622 19.805551 0.000000 44.000000 14.510605 6.000000
-33.532234 -10.773789 20.487077 0.000000 40.000000 14.290933 0.000000
-32.324123 -12.334783 22.336591 0.000000 26.000000 14.272137 0.000000
-34.259343 -11.663123 23.162625 0.000000 33.000000 14.258009 0.000000
-34.417967 -11.519656 23.045932 0.000000 34.000000 14.259484 0.000000
-34.042361 -10.264225 20.041067 0.000000 35.000000 14.285227 0.000000
-30.695623 -13.077733 19.660729 0.000000 17.000000 15.217896 13.000000
-32.987765 -10.638363 19.467983 0.000000 27.000000 14.348547 0.000000
-34.408990 -9.965370 19.800798 0.000000 40.000000 14.303177 0.000000
-30.307148 -12.640327 19.629145 0.000000 61.000000 14.707489 13.000000
-33.789632 -9.679026 17.246670 0.000000 39.000000 14.819559 15.000000
-32.747420 -12.371229 21.276027 0.000000 47.000000 14.912073 12.000000
-30.983787 -13.194110 21.066635 0.000000 54.000000 14.877214 25.000000
-31.898257 -11.044676 18.307275 0.000000 61.000000 14.656976 5.000000
-34.743648 -9.430075 18.502755 0.000000 27.000000 14.539552 17.000000
-30.759915 -12.726558 20.172527 0.000000 66.000000 14.759829 13.000000
-32.929810 -9.673391 17.584778 0.000000 36.000000 14.299993 0.000000
-33.761012 -9.871217 17.657732 0.000000 52.000000 14.797105 15.000000
-33.226587 -9.885318 17.418101 0.000000 58.000000 14.667948 15.000000
-33.249296 -10.552067 19.835777 0.000000 38.000000 14.247922 0.000000
-33.281773 -10.684739 20.182809 0.000000 32.000000 14.230236 0.000000
-33.335616 -10.892136 20.582949 0.000000 39.000000 14.260803 0.000000
-32.783063 -12.192004 21.524519 0.000000 57.000000 14.684622 12.000000
-32.152423 -12.274556 21.185815 0.000000 62.000000 14.607493 9.000000
-30.389119 -12.743764 19.801061 0.000000 29.000000 14.758137 13.000000
-33.452996 -11.555228 22.003793 0.000000 30.000000 14.277809 0.000000
-31.712374 -13.034010 21.183635 0.000000 43.000000 15.023891 23.000000
-33.034967 -10.753891 19.903697 0.000000 41.000000 14.288180 0.000000
-33.463466 -11.807636 22.630050 0.000000 36.000000 14.235052 0.000000
-33.025926 -10.882044 20.254282 0.000000 34.000000 14.247097 0.000000
-30.069200 -11.863980 18.762042 0.000000 35.000000 14.325068 0.000000
-33.082677 -11.188849 20.723119 0.000000 39.000000 14.331360 0.000000
-32.706255 -12.192494 21.523409 0.000000 67.000000 14.651514 12.000000
-33.110361 -11.432417 21.141440 0.000000 39.000000 14.372157 0.000000
-33.096191 -11.568367 21.474962 0.000000 38.000000 14.341885 0.000000
-30.893960 -11.661315 18.335684 0.000000 49.000000 14.697074 7.000000
-31.534318 -13.523864 22.159203 0.000000 55.000000 14.949022 25.000000
-33.064075 -12.233358 22.841402 0.000000 36.000000 14.316075 0.000000
-33.003888 -12.281595 23.090164 0.000000 30.000000 14.228865 0.000000
-32.135763 -12.236677 21.411339 0.000000 53.000000 14.479632 10.000000
-30.769831 -11.291704 18.712489 0.000000 34.000000 14.194842 0.000000
-31.137473 -11.127975 18.399609 0.000000 38.000000 14.350775 0.000000
-31.224445 -10.822713 18.071162 0.000000 36.000000 14.275201 0.000000
-31.613794 -13.373726 22.325664 0.000000 51.000000 14.797069 25.000000
-30.672383 -12.098384 18.622520 0.000000 45.000000 14.835649 8.000000
-33.197092 -10.613360 19.880049 0.000000 32.000000 14.256400 0.000000
-33.357640 -10.455076 19.737729 0.000000 38.000000 14.257060 0.000000
-32.261841 -11.644156 19.960138 0.000000 43.000000 14.639031 6.000000
-33.705999 -10.195987 19.505893 0.000000 38.000000 14.295506 0.000000
-34.062660 -9.949070 19.306621 0.000000 36.000000 14.334394 0.000000
-32.218820 -13.239207 22.696039 0.000000 53.000000 14.808487 22.000000
-34.795706 -9.801280 19.479389 0.000000 52.000000 14.470655 18.000000
-36.134677 -10.276915 22.619556 0.000000 29.000000 14.190288 0.000000
-36.335063 -10.220988 22.617844 0.000000 36.000000 14.234611 0.000000
-35.591855 -10.879630 22.530770 0.000000 60.000000 14.469960 2.000000
-32.494183 -11.830803 21.115239 0.000000 39.000000 14.430292 11.000000
-31.246875 -11.298317 19.035008 0.000000 32.000000 14.282172 0.000000
-31.329406 -11.467721 19.434029 0.000000 41.000000 14.295347 0.000000
-31.367079 -11.542742 19.758623 0.000000 41.000000 14.242615 0.000000
-31.572276 -11.164751 17.939888 0.000000 65.000000 14.756088 5.000000
-31.633741 -12.172732 21.000288 0.000000 39.000000 14.370572 0.000000
-31.952688 -12.968822 22.288249 0.000000 58.000000 14.636561 22.000000
-31.137164 -11.350755 19.041955 0.000000 42.000000 14.273030 0.000000
-31.206874 -11.572854 19.490680 0.000000 42.000000 14.303014 0.000000
-35.328486 -9.514411 19.992860 0.000000 38.000000 14.270622 0.000000
-36.249187 -10.696953 22.033201 0.000000 46.000000 14.812466 1.000000
-35.373420 -9.912817 20.735284 0.000000 40.000000 14.313968 0.000000
-35.388630 -10.406992 21.744423 0.000000 39.000000 14.314575 0.000000
-35.390760 -10.770895 22.418812 0.000000 37.000000 14.338461 0.000000
-35.006161 -9.547202 19.853112 0.000000 33.000000 14.210323 0.000000
-36.036521 -10.995923 22.687681 0.000000 54.000000 14.697220 2.000000
-32.391334 -13.168705 23.274401 0.000000 39.000000 14.597106 20.000000
-31.841699 -13.009353 21.684953 0.000000 42.000000 14.861017 23.000000
-34.979890 -10.230993 21.033758 0.000000 39.000000 14.276402 0.000000
-32.016737 -12.353156 21.611700 0.000000 48.000000 14.440563 10.000000
-34.937433 -10.644807 21.761277 0.000000 37.000000 14.299454 0.000000
-31.663227 -11.304908 18.377521 0.000000 56.000000 14.734072 5.000000
-34.869358 -10.999268 22.425492 0.000000 36.000000 14.288793 0.000000
-34.755489 -10.926466 22.590418 0.000000 26.000000 14.114122 0.000000
-34.421557 -9.837978 19.019250 0.000000 41.000000 14.518553 18.000000
-31.863387 -11.223205 18.304265 0.000000 49.000000 14.786165 5.000000
-33.051465 -11.293837 20.847449 0.000000 38.000000 14.352237 0.000000
-32.942386 -12.591670 23.529356 0.000000 27.000000 14.275332 0.000000
-33.779982 -12.089862 23.371677 0.000000 34.000000 14.305424 0.000000
-33.323557 -10.816485 20.437688 0.000000 39.000000 14.252727 0.000000
-33.484315 -10.624571 20.271993 0.000000 40.000000 14.235803 0.000000
-33.360389 -12.033844 22.246434 0.000000 35.000000 14.524405 26.000000
-31.093142 -12.523376 20.130936 0.000000 76.000000 14.760511 24.000000
-34.227876 -11.599884 22.983594 0.000000 29.000000 14.264811 0.000000
-33.854708 -10.372962 20.050029 0.000000 41.000000 14.286053 0.000000
-34.390089 -11.466211 22.881470 0.000000 31.000000 14.269920 0.000000
-30.815299 -11.728701 18.231777 0.000000 49.000000 14.757935 7.000000
-31.017588 -12.902291 21.216977 0.000000 56.000000 14.597712 25.000000
-36.031446 -11.291358 22.459584 0.000000 33.000000 15.023377 2.000000
-34.732048 -11.228149 22.706836 0.000000 36.000000 14.299582 0.000000
-33.242514 -12.146908 21.581390 0.000000 43.000000 14.828742 12.000000
-35.058794 -10.917241 22.503729 0.000000 35.000000 14.275380 0.000000
-34.787507 -9.649001 19.515194 0.000000 42.000000 14.330418 0.000000
-35.243890 -10.837727 22.459028 0.000000 42.000000 14.311172 0.000000
-36.447174 -9.869476 22.009021 0.000000 27.000000 14.244979 0.000000
-33.062458 -9.673725 17.603251 0.000000 44.000000 14.351507 0.000000
-33.097282 -9.759518 17.936374 0.000000 37.000000 14.302761 0.000000
-33.106999 -9.787263 18.221524 0.000000 36.000000 14.215453 0.000000
-33.321782 -10.523135 19.795692 0.000000 33.000000 14.272728 0.000000
-33.341305 -10.644892 20.130020 0.000000 32.000000 14.245625 0.000000
-33.384875 -10.848442 20.517715 0.000000 39.000000 14.273533 0.000000
-30.569249 -12.752753 20.504205 0.000000 46.000000 14.564134 13.000000
-33.028653 -10.161595 18.658625 0.000000 44.000000 14.306922 0.000000
-33.494898 -11.448050 21.637771 0.000000 37.000000 14.356429 0.000000
-33.476951 -11.516580 21.913919 0.000000 42.000000 14.293249 0.000000
-35.724974 -9.911028 19.617405 0.000000 62.000000 14.914377 30.000000
-35.342332 -10.330449 21.357509 0.000000 56.000000 14.387164 27.000000
-33.265850 -12.005789 21.455502 0.000000 47.000000 14.775985 12.000000
-33.044255 -10.838805 20.185782 0.000000 36.000000 14.247826 0.000000
-33.518230 -12.037422 22.921888 0.000000 35.000000 14.327265 0.000000
-34.588439 -11.535724 22.312509 0.000000 57.000000 14.640657 3.000000
-33.534650 -12.238337 23.263607 0.000000 38.000000 14.359419 0.000000
-30.504203 -13.066428 19.465298 0.000000 0.000000 15.202271 13.000000
-33.027337 -11.964189 22.357857 0.000000 44.000000 14.276762 0.000000
-30.422857 -12.217379 18.092605 0.000000 22.000000 15.032595 8.000000
-32.983865 -12.288577 22.998373 0.000000 34.000000 14.262285 0.000000
-31.555501 -11.219942 18.225883 0.000000 40.000000 14.678779 5.000000
-32.927346 -12.594980 23.603466 0.000000 36.000000 14.241744 0.000000
-36.708501 -10.073719 22.694327 0.000000 32.000000 14.250817 0.000000
-30.533621 -12.436786 19.933159 0.000000 45.000000 14.522671 13.000000
-30.711427 -11.246831 18.602780 0.000000 34.000000 14.176804 0.000000
-31.850786 -12.118400 21.341511 0.000000 38.000000 14.286572 0.000000
-30.850271 -11.684938 19.720080 0.000000 23.000000 14.143818 0.000000
-34.076640 -11.551596 22.234062 0.000000 76.000000 14.458545 3.000000
-35.315793 -10.282336 21.213454 0.000000 51.000000 14.394325 27.000000
-33.151935 -10.625964 19.843343 0.000000 34.000000 14.261226 0.000000
-31.752833 -11.365503 18.686060 0.000000 51.000000 14.699115 5.000000
-32.885448 -12.396671 21.451448 0.000000 67.000000 14.923448 12.000000
-33.900099 -10.120776 18.910969 0.000000 49.000000 14.558488 18.000000
-34.008499 -9.924145 19.270237 0.000000 32.000000 14.304969 0.000000
-34.721134 -9.405212 18.940949 0.000000 42.000000 14.334619 0.000000
-33.914517 -9.765850 17.360852 0.000000 54.000000 14.898887 15.000000
-34.576642 -11.514623 23.216294 0.000000 43.000000 14.257527 0.000000
-33.651998 -9.705474 17.411632 0.000000 47.000000 14.714089 15.000000
-36.166681 -10.256172 22.609642 0.000000 36.000000 14.191730 0.000000
-36.370028 -10.222679 22.627863 0.000000 36.000000 14.247420 0.000000
-36.557925 -10.124875 22.615368 0.000000 36.000000 14.256895 0.000000
-31.161378 -11.034116 18.406192 0.000000 30.000000 14.283322 0.000000
-31.406053 -13.129871 20.813636 0.000000 40.000000 15.113285 23.000000
-31.305638 -11.341084 19.180061 0.000000 35.000000 14.284561 0.000000
-31.380061 -11.516126 19.575657 0.000000 39.000000 14.300050 0.000000
-33.024581 -10.000047 17.382624 0.000000 51.000000 14.684993 15.000000
-31.728626 -13.134381 21.385636 0.000000 35.000000 15.031015 23.000000
-35.498313 -9.694864 19.443982 0.000000 63.000000 14.709840 14.000000
-31.697841 -13.778387 23.137416 0.000000 36.000000 14.835035 29.000000
-36.039246 -10.174554 19.507770 0.000000 2.000000 15.308727 30.000000
-35.322974 -9.547363 20.044779 0.000000 36.000000 14.273917 0.000000
-35.333287 -9.701487 20.379258 0.000000 35.000000 14.268682 0.000000
-35.365716 -10.422329 21.746601 0.000000 44.000000 14.315897 0.000000
-32.197922 -13.295222 22.901258 0.000000 43.000000 14.762280 20.000000
-34.985408 -9.581494 19.896105 0.000000 29.000000 14.211524 0.000000
-35.351454 -10.977192 22.731827 0.000000 35.000000 14.361775 0.000000
-32.600507 -10.195981 17.712220 0.000000 44.000000 14.523311 16.000000
-30.469030 -11.886488 18.814027 0.000000 42.000000 14.499091 8.000000
-34.960862 -10.305409 21.075607 0.000000 39.000000 14.311051 0.000000
-33.749158 -10.105986 18.934354 0.000000 57.000000 14.470560 18.000000
-34.909155 -10.707675 21.776560 0.000000 37.000000 14.331349 0.000000
-30.918407 -13.005350 21.085031 0.000000 77.000000 14.689356 25.000000
-34.839796 -11.089203 22.441432 0.000000 35.000000 14.341599 0.000000
-34.714083 -10.978001 22.576893 0.000000 34.000000 14.142617 0.000000
-30.246483 -11.763438 18.879470 0.000000 34.000000 14.275761 0.000000
-34.638928 -10.056714 19.391688 0.000000 56.000000 14.641563 18.000000
-32.011233 -13.881381 23.646370 0.000000 48.000000 14.852992 21.000000
-30.696301 -11.842318 18.283190 0.000000 62.000000 14.776068 8.000000
-35.302035 -10.410999 21.256561 0.000000 48.000000 14.474373 27.000000
-34.159340 -11.850689 23.262247 0.000000 33.000000 14.324681 0.000000
-34.310369 -11.694514 23.153173 0.000000 34.000000 14.309548 0.000000
-33.131669 -12.197782 21.894398 0.000000 41.000000 14.695602 12.000000
-35.986654 -11.383066 22.349947 0.000000 56.000000 15.121031 2.000000
-34.136151 -10.274662 20.169794 0.000000 33.000000 14.283648 0.000000
-31.641923 -13.226294 21.055277 0.000000 50.000000 15.198466 23.000000
-34.509448 -10.001869 19.986649 0.000000 34.000000 14.302662 0.000000
-34.921848 -10.997121 22.710726 0.000000 32.000000 14.196345 0.000000
-34.665667 -9.757768 19.828900 0.000000 41.000000 14.238641 0.000000
-30.651224 -12.603853 20.948650 0.000000 28.000000 14.303255 0.000000
-32.649759 -10.556857 17.351028 0.000000 53.000000 14.979199 16.000000
-30.925010 -13.321982 21.158665 0.000000 62.000000 14.917190 25.000000
-36.338837 -10.139815 22.374902 0.000000 32.000000 14.268109 0.000000
-36.511929 -10.024020 22.350060 0.000000 34.000000 14.261521 0.000000
-32.149113 -13.355488 22.696392 0.000000 43.000000 14.870938 22.000000
-33.216809 -9.747977 18.074335 0.000000 37.000000 14.291215 0.000000
-31.618980 -12.972964 20.925480 0.000000 64.000000 15.036688 23.000000
-31.587000 -13.211400 21.274571 0.000000 55.000000 15.074645 23.000000
-33.375287 -10.415335 19.819791 0.000000 33.000000 14.200163 0.000000
-32.469026 -12.660129 21.399987 0.000000 52.000000 14.971577 10.000000
-33.078395 -9.660161 17.605222 0.000000 44.000000 14.346869 0.000000
-32.883832 -10.399944 18.329394 0.000000 48.000000 14.565858 4.000000
-33.069271 -9.764272 17.959664 0.000000 42.000000 14.284898 0.000000
-33.048175 -9.843381 18.285757 0.000000 42.000000 14.208876 0.000000
-33.082194 -11.835811 21.288440 0.000000 59.000000 14.625011 12.000000
-32.450339 -13.441111 23.180585 0.000000 33.000000 14.879455 20.000000
-32.012336 -13.304423 22.179241 0.000000 50.000000 14.976021 22.000000
-32.148678 -12.983169 22.218730 0.000000 62.000000 14.762468 22.000000
-36.234512 -10.954475 22.383766 0.000000 54.000000 14.872812 2.000000
-34.827672 -10.972231 22.053925 0.000000 34.000000 14.397054 28.000000
-33.527571 -11.799080 22.581593 0.000000 43.000000 14.275864 0.000000
-32.081003 -13.354442 22.716331 0.000000 64.000000 14.832033 22.000000
-35.149522 -9.923154 19.494648 0.000000 64.000000 14.718821 14.000000
-30.920128 -12.469151 20.167083 0.000000 73.000000 14.626056 24.000000
-36.328508 -10.932047 22.569387 0.000000 42.000000 14.822204 2.000000
-32.391619 -12.407338 20.847680 0.000000 58.000000 14.954909 9.000000
-33.102612 -11.664793 21.744238 0.000000 36.000000 14.314626 0.000000
-31.993452 -13.546741 22.351850 0.000000 52.000000 15.093370 22.000000
-31.204988 -13.533930 21.312545 0.000000 66.000000 15.149709 25.000000
-33.013740 -12.100631 22.666103 0.000000 34.000000 14.257234 0.000000
-32.983191 -12.251331 22.965095 0.000000 33.000000 14.245363 0.000000
-32.257291 -13.440759 23.488292 0.000000 76.000000 14.670958 20.000000
-32.924482 -12.583092 23.572664 0.000000 35.000000 14.243232 0.000000
-31.012602 -11.446091 19.015345 0.000000 41.000000 14.305183 0.000000
-31.147081 -11.255540 18.798069 0.000000 41.000000 14.298341 0.000000
-31.271161 -11.030048 18.555306 0.000000 33.000000 14.269017 0.000000
-31.681033 -10.361722 17.862541 0.000000 31.000000 14.190036 0.000000
-31.887132 -10.298723 17.766524 0.000000 43.000000 14.268869 0.000000
-34.458466 -10.466732 19.214147 0.000000 9.000000 14.962051 18.000000
-33.194713 -10.851988 20.347706 0.000000 36.000000 14.260239 0.000000
-32.676005 -11.891694 20.617502 0.000000 38.000000 14.758351 11.000000
-32.006391 -11.413343 19.323885 0.000000 39.000000 14.594857 6.000000
-33.904073 -11.162617 21.056207 0.000000 42.000000 14.540274 19.000000
-33.850164 -10.243834 19.875150 0.000000 32.000000 14.250173 0.000000
-34.020394 -10.114004 19.786503 0.000000 30.000000 14.256530 0.000000
-29.800454 -12.232490 19.203490 0.000000 35.000000 14.325976 0.000000
-33.738338 -11.361021 21.297574 0.000000 38.000000 14.529988 19.000000
-34.437938 -11.504571 22.078303 0.000000 38.000000 14.642660 3.000000
-32.091342 -12.324520 21.015521 0.000000 33.000000 14.688645 9.000000
-31.414736 -10.970576 18.412512 0.000000 42.000000 14.341733 0.000000
-31.462260 -11.068336 18.751602 0.000000 37.000000 14.305828 0.000000
-36.387484 -10.436344 22.065512 0.000000 44.000000 14.651356 1.000000
-31.562874 -11.320363 19.452453 0.000000 38.000000 14.272811 0.000000
-31.616612 -11.470680 19.817010 0.000000 37.000000 14.271696 0.000000
-32.064402 -12.429643 21.594606 0.000000 60.000000 14.529892 10.000000
-31.768789 -11.904427 20.619683 0.000000 38.000000 14.366760 0.000000
-35.543825 -10.356456 21.349426 0.000000 46.000000 14.500332 27.000000
-31.815011 -12.065395 20.972547 0.000000 37.000000 14.375549 0.000000
-31.266731 -10.929786 18.314110 0.000000 34.000000 14.282860 0.000000
-31.773280 -12.023482 21.180264 0.000000 37.000000 14.240479 0.000000
-31.312252 -11.116477 18.725934 0.000000 39.000000 14.288451 0.000000
-32.543914 -10.411270 17.612221 0.000000 54.000000 14.711164 16.000000
-31.404911 -11.529916 19.559277 0.000000 40.000000 14.328651 0.000000
-31.368195 -12.926235 20.576585 0.000000 65.000000 15.027666 23.000000
-30.637300 -12.832540 20.678309 0.000000 47.000000 14.588760 13.000000
-35.484273 -9.501693 20.200240 0.000000 33.000000 14.246431 0.000000
-35.496294 -9.674507 20.541365 0.000000 36.000000 14.254307 0.000000
-30.913615 -13.010149 21.172045 0.000000 52.000000 14.656340 25.000000
-35.183231 -9.670624 20.141382 0.000000 39.000000 14.272580 0.000000
-34.011158 -11.195789 21.063292 0.000000 42.000000 14.611415 19.000000
-35.066989 -9.800060 20.680334 0.000000 33.000000 14.109917 0.000000
-32.983473 -12.341417 21.504529 0.000000 69.000000 14.901188 12.000000
-35.088844 -10.496483 21.564317 0.000000 37.000000 14.325897 0.000000
-32.614827 -12.249100 21.403231 0.000000 74.000000 14.704572 12.000000
-33.974386 -10.844318 20.894592 0.000000 36.000000 14.380233 19.000000
-34.933969 -10.910869 22.444481 0.000000 35.000000 14.238760 0.000000
-31.401771 -12.883753 20.620595 0.000000 45.000000 14.990805 23.000000
-34.865032 -11.340424 23.096277 0.000000 34.000000 14.292995 0.000000
-30.426562 -12.044588 19.504557 0.000000 40.000000 14.331516 0.000000
-33.654188 -11.250059 21.071607 0.000000 49.000000 14.493921 19.000000
-30.501264 -11.337359 18.806580 0.000000 24.000000 14.075239 0.000000
-30.669919 -11.246797 18.664588 0.000000 34.000000 14.133747 0.000000
-30.958164 -11.423521 18.734986 0.000000 41.000000 14.374969 0.000000
-31.160554 -10.917723 18.226914 0.000000 27.000000 14.261071 0.000000
-32.209932 -12.205936 22.160517 0.000000 30.000000 14.188500 0.000000
-32.418021 -12.205066 22.111163 0.000000 44.000000 14.299479 0.000000
-32.536655 -11.970615 21.914584 0.000000 35.000000 14.242107 0.000000
-32.708295 -11.862172 21.802288 0.000000 35.000000 14.275711 0.000000
-34.403319 -11.393945 22.234803 0.000000 71.000000 14.475999 3.000000
-31.684283 -12.705137 20.945244 0.000000 45.000000 14.842531 23.000000
-33.362833 -12.191825 22.518464 0.000000 54.000000 14.543732 26.000000
-34.377924 -10.299754 20.607354 0.000000 42.000000 14.235895 0.000000
-31.659212 -11.253462 18.703149 0.000000 64.000000 14.560921 5.000000
-34.747043 -10.054442 20.466695 0.000000 38.000000 14.258167 0.000000
-30.689552 -11.952285 18.244428 0.000000 43.000000 14.876894 8.000000
-35.078070 -9.628796 20.228227 0.000000 35.000000 14.157822 0.000000
-35.309933 -9.663260 20.281000 0.000000 39.000000 14.266898 0.000000
-34.403490 -11.318452 21.912178 0.000000 48.000000 14.544291 28.000000
-35.719444 -9.544595 20.276585 0.000000 39.000000 14.354333 0.000000
-35.984515 -10.428790 22.845585 0.000000 26.000000 14.155637 0.000000
-33.967289 -9.842010 17.290426 0.000000 32.000000 15.011511 15.000000
-29.588572 -11.930050 18.503608 0.000000 35.000000 14.268939 0.000000
-31.969893 -12.355441 21.236236 0.000000 43.000000 14.571654 9.000000
-29.562067 -11.969640 18.529577 0.000000 41.000000 14.278653 0.000000
-29.648404 -12.171994 18.961831 0.000000 41.000000 14.306705 0.000000
-33.541872 -9.813777 18.388455 0.000000 50.000000 14.362272 0.000000
-33.018264 -12.261194 21.609802 0.000000 60.000000 14.810082 12.000000
-33.602824 -10.192887 19.633441 0.000000 31.000000 14.196476 0.000000
-33.611246 -10.299158 19.946731 0.000000 39.000000 14.160431 0.000000
-31.851306 -11.246012 18.225262 0.000000 49.000000 14.830699 5.000000
-31.634204 -12.400557 20.857306 0.000000 33.000000 14.610876 23.000000
-32.054049 -11.397035 19.392750 0.000000 46.000000 14.575317 6.000000
-33.804447 -9.691767 17.203055 0.000000 52.000000 14.853759 15.000000
-34.410054 -9.831085 18.937398 0.000000 26.000000 14.540624 18.000000
-33.701415 -11.492140 22.304664 0.000000 33.000000 14.216760 0.000000
-33.328891 -10.594188 20.046814 0.000000 34.000000 14.232645 0.000000
-30.741467 -12.726756 20.428316 0.000000 42.000000 14.649675 13.000000
-33.325843 -10.793818 20.416626 0.000000 35.000000 14.243942 0.000000
-34.683365 -11.787493 22.334754 0.000000 10.000000 14.875950 3.000000
-33.321952 -10.998721 20.784105 0.000000 35.000000 14.260036 0.000000
-33.710002 -12.053682 23.271678 0.000000 33.000000 14.285374 0.000000
-32.925100 -12.306908 21.676623 0.000000 51.000000 14.778939 12.000000
-33.314733 -11.427174 21.511695 0.000000 36.000000 14.310390 0.000000
-30.943058 -11.410113 18.942591 0.000000 29.000000 14.274607 0.000000
-33.232344 -12.144758 22.804924 0.000000 50.000000 14.333846 0.000000
-33.116094 -12.333246 23.313685 0.000000 29.000000 14.230669 0.000000
-32.058597 -10.674199 18.625533 0.000000 37.000000 14.303154 0.000000
-34.173355 -9.245314 17.578998 0.000000 29.000000 14.508050 15.000000
-31.414843 -11.195786 19.041105 0.000000 40.000000 14.271616 0.000000
-32.152281 -12.326064 21.944641 0.000000 43.000000 14.345730 0.000000
-31.616690 -11.146287 18.944404 0.000000 39.000000 14.359686 0.000000
-31.865148 -10.642794 18.462929 0.000000 43.000000 14.257377 0.000000
-36.027538 -10.691518 21.791141 0.000000 49.000000 14.806819 1.000000
-32.247331 -10.437467 18.224302 0.000000 43.000000 14.356668 0.000000
-31.097482 -11.519615 18.721991 0.000000 50.000000 14.518915 7.000000
-30.015837 -11.963900 18.201110 0.000000 67.000000 14.605776 8.000000
-33.291643 -10.980325 20.749210 0.000000 29.000000 14.245801 0.000000
-32.934159 -9.768251 17.617358 0.000000 44.000000 14.365096 0.000000
-31.253592 -13.533221 21.826337 0.000000 43.000000 14.965415 25.000000
-33.905476 -10.260447 20.226767 0.000000 27.000000 14.147528 0.000000
-34.086406 -9.726812 18.248739 0.000000 40.000000 14.588879 15.000000
-33.813082 -11.155206 21.051684 0.000000 54.000000 14.495914 19.000000
-35.897937 -9.715606 20.024891 0.000000 49.000000 14.671103 30.000000
-33.748777 -10.118258 19.058604 0.000000 46.000000 14.430624 18.000000
-34.751603 -9.524590 19.790276 0.000000 22.000000 14.104755 0.000000
-30.148820 -12.029333 18.178927 0.000000 52.000000 14.725965 8.000000
-33.869061 -11.175240 20.979965 0.000000 43.000000 14.565390 19.000000
-35.960491 -11.423191 22.429398 0.000000 68.000000 15.109965 2.000000
-30.687195 -12.796700 21.145984 0.000000 38.000000 14.395235 25.000000
-34.008663 -11.394296 21.362636 0.000000 54.000000 14.650200 19.000000
-30.552042 -11.654802 19.159405 0.000000 20.000000 14.211740 0.000000
-34.411267 -11.378900 22.107539 0.000000 52.000000 14.518254 3.000000
-32.560366 -12.535988 21.637024 0.000000 37.000000 14.817561 10.000000
-32.240679 -11.844426 20.953811 0.000000 47.000000 14.393671 9.000000
-31.529259 -11.298682 19.423513 0.000000 35.000000 14.252099 0.000000
-31.562352 -11.504599 19.820953 0.000000 38.000000 14.273385 0.000000
-31.569216 -11.657130 20.173833 0.000000 32.000000 14.257995 0.000000
-31.582040 -11.831176 20.534894 0.000000 37.000000 14.259254 0.000000
-31.690517 -13.833916 22.635965 0.000000 42.000000 15.076677 29.000000
-35.672953 -9.494244 20.360182 0.000000 33.000000 14.259954 0.000000
-31.927449 -11.969126 20.762834 0.000000 61.000000 14.431675 9.000000
-35.669011 -9.794204 20.989088 0.000000 30.000000 14.247964 0.000000
-35.643967 -9.877480 21.256219 0.000000 31.000000 14.197094 0.000000
-35.352253 -9.455052 19.929759 0.000000 39.000000 14.258650 0.000000
-35.331832 -9.676663 20.300040 0.000000 39.000000 14.279738 0.000000
-32.383503 -12.502299 21.629992 0.000000 44.000000 14.715144 10.000000
-33.845611 -11.216331 20.947550 0.000000 45.000000 14.600977 19.000000
-31.778645 -13.760727 23.375499 0.000000 53.000000 14.761472 21.000000
-33.728224 -10.230164 19.017256 0.000000 36.000000 14.527940 18.000000
-35.117885 -10.845988 22.292095 0.000000 34.000000 14.328790 0.000000
-36.050492 -10.082540 19.803541 0.000000 13.000000 15.121659 30.000000
-32.026643 -13.369608 23.229279 0.000000 64.000000 14.615320 20.000000
-32.057668 -11.827343 19.581523 0.000000 40.000000 14.847152 6.000000
-30.769894 -11.328346 18.833211 0.000000 34.000000 14.176087 0.000000
-34.134093 -11.003852 21.018070 0.000000 26.000000 14.529640 19.000000
-31.117567 -11.174582 18.590720 0.000000 41.000000 14.303084 0.000000
-31.241141 -10.958494 18.372102 0.000000 29.000000 14.271447 0.000000
-31.071600 -12.770465 20.701013 0.000000 52.000000 14.721772 23.000000
-32.458489 -12.195856 22.106249 0.000000 44.000000 14.311930 0.000000
-32.586724 -11.974377 21.923741 0.000000 34.000000 14.263600 0.000000
-32.742176 -11.823002 21.792594 0.000000 34.000000 14.263094 0.000000
-33.484801 -12.164927 22.632038 0.000000 69.000000 14.530670 26.000000
-33.404443 -11.258311 21.326430 0.000000 36.000000 14.288398 0.000000
-34.257293 -10.499560 20.806507 0.000000 37.000000 14.263529 0.000000
-34.446265 -10.397357 20.749822 0.000000 37.000000 14.287594 0.000000
-34.471402 -11.745913 22.199901 0.000000 57.000000 14.802733 3.000000
-30.851090 -12.383857 20.287067 0.000000 53.000000 14.479114 24.000000
-31.976650 -13.372004 22.476228 0.000000 58.000000 14.895916 22.000000
-35.133783 -9.694281 20.376074 0.000000 32.000000 14.175993 0.000000
-35.359430 -9.727131 20.428833 0.000000 38.000000 14.281033 0.000000
-32.598741 -11.774581 20.858680 0.000000 47.000000 14.533811 11.000000
-30.500892 -12.722554 19.611270 0.000000 53.000000 14.866301 13.000000
-29.789513 -11.773848 18.394138 0.000000 40.000000 14.276003 0.000000
-29.702782 -11.802784 18.408782 0.000000 37.000000 14.255065 0.000000
-29.762841 -11.972276 18.809816 0.000000 36.000000 14.257576 0.000000
-31.438628 -13.076452 21.161694 0.000000 45.000000 14.945762 23.000000
-32.199695 -13.185428 22.757532 0.000000 73.000000 14.732278 22.000000
-33.480049 -12.004453 22.664484 0.000000 40.000000 14.386715 26.000000
-33.514852 -10.245412 19.319869 0.000000 40.000000 14.325025 0.000000
-33.826576 -11.235423 21.874645 0.000000 26.000000 14.237622 0.000000
-31.077111 -10.912573 17.931177 0.000000 27.000000 14.338172 0.000000
-30.922999 -13.298085 21.057274 0.000000 54.000000 14.937603 25.000000
-32.379619 -12.919839 23.046815 0.000000 33.000000 14.482931 20.000000
-33.813257 -11.568528 22.492990 0.000000 33.000000 14.252328 0.000000
-31.933238 -10.899677 18.921472 0.000000 35.000000 14.310662 0.000000
-33.821570 -11.797676 22.832097 0.000000 33.000000 14.304620 0.000000
-33.440931 -10.924814 20.694403 0.000000 37.000000 14.289081 0.000000
-33.837087 -12.049553 23.180830 0.000000 32.000000 14.374508 0.000000
-33.417535 -11.095989 21.026860 0.000000 36.000000 14.283451 0.000000
-33.774752 -12.078257 23.391711 0.000000 32.000000 14.285790 0.000000
-34.647244 -9.860257 18.311250 0.000000 46.000000 14.918962 17.000000
-31.358563 -12.660458 20.155806 0.000000 4.000000 14.977989 24.000000
-31.622781 -13.534199 22.357151 0.000000 43.000000 14.917359 25.000000
-33.191177 -12.199607 21.593634 0.000000 42.000000 14.843492 12.000000
-33.127813 -12.405364 23.434075 0.000000 28.000000 14.245693 0.000000
-31.927465 -13.596038 23.423461 0.000000 54.000000 14.675806 21.000000
-31.270285 -11.351044 19.146351 0.000000 39.000000 14.290400 0.000000
-31.415845 -11.176812 18.958336 0.000000 39.000000 14.289876 0.000000
-32.125888 -12.294068 21.806730 0.000000 34.000000 14.363447 0.000000
-31.856051 -10.608444 18.385564 0.000000 41.000000 14.256665 0.000000
-34.345634 -11.921317 22.408251 0.000000 42.000000 14.804825 3.000000
-32.229158 -10.387754 18.146062 0.000000 42.000000 14.339954 0.000000
-30.700891 -12.677999 19.985617 0.000000 66.000000 14.769391 13.000000
-33.149046 -11.212584 20.837821 0.000000 36.000000 14.333944 0.000000
-31.506288 -11.807494 20.379449 0.000000 27.000000 14.268837 0.000000
-30.371218 -12.882934 19.879923 0.000000 74.000000 14.830513 13.000000
-33.598531 -10.674260 20.437325 0.000000 37.000000 14.260160 0.000000
-35.530005 -9.616858 19.461656 0.000000 59.000000 14.654132 14.000000
-32.682455 -11.010321 19.843852 0.000000 35.000000 14.362257 0.000000
-33.891410 -10.292531 20.135533 0.000000 26.000000 14.203521 0.000000
-34.615332 -9.828088 19.921315 0.000000 29.000000 14.235968 0.000000
-32.166373 -11.389801 19.470171 0.000000 40.000000 14.588226 6.000000
-32.284786 -12.489959 21.990763 0.000000 37.000000 14.517514 10.000000
-32.211141 -13.182663 22.806957 0.000000 48.000000 14.715376 22.000000
-35.360090 -9.488523 19.824899 0.000000 39.000000 14.330879 0.000000
-31.666981 -11.136098 18.965884 0.000000 49.000000 14.365149 0.000000
-31.632736 -11.188554 19.247998 0.000000 37.000000 14.279474 0.000000
-31.702662 -12.987363 22.024801 0.000000 45.000000 14.646173 23.000000
-31.643357 -11.367737 19.615299 0.000000 32.000000 14.281393 0.000000
-31.408760 -12.645701 20.311026 0.000000 36.000000 14.926327 24.000000
-31.663474 -11.733355 20.341908 0.000000 36.000000 14.293750 0.000000
-31.781525 -12.089006 21.237926 0.000000 31.000000 14.273724 0.000000
-35.755820 -9.553971 20.568916 0.000000 29.000000 14.261185 0.000000
-35.745406 -9.701605 20.875420 0.000000 29.000000 14.252748 0.000000
-35.725686 -9.830582 21.164266 0.000000 24.000000 14.232266 0.000000
-31.874595 -12.182176 21.173381 0.000000 51.000000 14.415471 9.000000
-32.155473 -12.244992 22.106861 0.000000 23.000000 14.217233 0.000000
-35.342573 -9.745445 20.499808 0.000000 37.000000 14.259946 0.000000
-35.983445 -11.440687 22.451925 0.000000 56.000000 15.125165 2.000000
-35.567338 -10.827984 22.587562 0.000000 57.000000 14.394958 2.000000
-36.088122 -10.609387 21.931453 0.000000 44.000000 14.711586 1.000000
-31.291040 -11.257246 18.880342 0.000000 30.000000 14.330475 0.000000
-35.072138 -10.884482 22.393951 0.000000 41.000000 14.298811 0.000000
-34.995398 -10.984068 22.638545 0.000000 36.000000 14.247195 0.000000
-31.195196 -13.119398 20.858919 0.000000 61.000000 14.993599 23.000000
-30.450400 -11.835992 19.279991 0.000000 32.000000 14.264194 0.000000
-31.311210 -12.957615 20.229634 0.000000 17.000000 15.166257 24.000000
-30.609763 -11.286569 18.730670 0.000000 26.000000 14.112713 0.000000
-30.875087 -11.417652 18.764272 0.000000 39.000000 14.321842 0.000000
-32.123210 -11.524187 19.924728 0.000000 42.000000 14.495543 6.000000
-31.260623 -10.834773 18.165631 0.000000 37.000000 14.263146 0.000000
-32.249253 -12.293479 22.013943 0.000000 43.000000 14.334736 0.000000
-34.398726 -10.033312 19.672992 0.000000 49.000000 14.404257 18.000000
-32.735351 -11.912349 21.674916 0.000000 35.000000 14.378844 0.000000
-33.339220 -11.177545 21.129765 0.000000 35.000000 14.273246 0.000000
-34.458896 -11.619067 23.258347 0.000000 38.000000 14.272583 0.000000
-34.162322 -10.246592 18.873044 0.000000 48.000000 14.790584 18.000000
-34.129033 -10.171379 18.589720 0.000000 63.000000 14.828617 18.000000
-34.371328 -10.251463 20.555772 0.000000 128.000000 14.214793 0.000000
-32.365584 -13.466053 23.152447 0.000000 42.000000 14.873270 20.000000
-34.572842 -9.907027 18.948680 0.000000 49.000000 14.669060 18.000000
-34.759047 -10.072867 20.482560 0.000000 37.000000 14.271935 0.000000
-31.151226 -11.454175 19.135796 0.000000 29.000000 14.324833 0.000000
-35.646745 -9.665645 19.661367 0.000000 46.000000 14.665148 30.000000
-35.309790 -9.693202 20.339014 0.000000 37.000000 14.267715 0.000000
-35.494168 -9.567556 20.304531 0.000000 37.000000 14.262053 0.000000
-35.696868 -9.537112 20.329914 0.000000 37.000000 14.317046 0.000000
-35.974525 -10.577949 22.881785 0.000000 33.000000 14.256571 0.000000
-36.102979 -10.280210 22.759340 0.000000 29.000000 14.123096 0.000000
-36.305399 -10.331004 22.835395 0.000000 30.000000 14.222979 0.000000
-32.172836 -13.819024 23.485315 0.000000 67.000000 14.938651 21.000000
-29.781409 -11.771133 18.324884 0.000000 40.000000 14.297900 0.000000
-33.937248 -11.119956 21.067243 0.000000 64.000000 14.516261 19.000000
-35.886103 -10.196363 21.599032 0.000000 33.000000 14.423321 1.000000
-35.736777 -10.434175 22.002134 0.000000 37.000000 14.387344 1.000000
-31.739864 -13.383928 22.606393 0.000000 47.000000 14.748858 22.000000
-33.791881 -11.282954 21.933237 0.000000 33.000000 14.237065 0.000000
-33.430134 -10.352687 19.709068 0.000000 38.000000 14.218305 0.000000
-30.405656 -12.802029 19.693346 0.000000 44.000000 14.855266 13.000000
-32.764557 -12.078268 20.886974 0.000000 46.000000 14.839721 11.000000
-31.672106 -12.363872 20.959172 0.000000 31.000000 14.557476 23.000000
-32.334949 -11.803371 19.674285 0.000000 45.000000 14.913394 6.000000
-33.762834 -11.852212 22.863679 0.000000 32.000000 14.309853 0.000000
-33.414721 -11.084996 20.843062 0.000000 37.000000 14.346785 0.000000
-32.277334 -13.262404 22.875539 0.000000 42.000000 14.781288 20.000000
-33.341191 -11.137843 21.086802 0.000000 35.000000 14.259388 0.000000
-33.703472 -12.148526 23.413167 0.000000 31.000000 14.302159 0.000000
-31.454715 -12.808630 20.641736 0.000000 56.000000 14.945419 23.000000
-33.317987 -11.623835 21.798147 0.000000 34.000000 14.355383 0.000000
-33.823210 -10.137381 17.855879 0.000000 56.000000 14.959243 15.000000
-31.975657 -13.069950 21.933302 0.000000 60.000000 14.869704 23.000000
-34.189452 -10.162753 18.608818 0.000000 29.000000 14.840763 18.000000
-31.921164 -13.369215 22.608717 0.000000 52.000000 14.816238 22.000000
-31.104597 -11.592053 19.433644 0.000000 37.000000 14.296013 0.000000
-34.246369 -9.411098 18.212656 0.000000 29.000000 14.420399 15.000000
-32.026389 -11.608570 19.893165 0.000000 49.000000 14.533138 6.000000
-31.986334 -12.122029 21.700262 0.000000 29.000000 14.206109 0.000000
-34.017490 -9.749850 18.226844 0.000000 39.000000 14.585672 15.000000
-32.027449 -10.572758 18.425051 0.000000 40.000000 14.287980 0.000000
