-5.929244 -4.930571 65.302481 0.000000 33.000000 14.097733 0.000000
-6.053902 -5.182939 63.950108 0.000000 33.000000 14.154337 0.000000
-6.793738 -5.418633 66.327139 0.000000 56.000000 14.718254 28.000000
-5.881752 -5.142446 64.024768 0.000000 32.000000 14.126466 0.000000
-6.127052 -5.353577 63.332568 0.000000 38.000000 14.234868 0.000000
-3.058650 -5.635481 63.185090 0.000000 45.000000 14.521612 25.000000
-5.331678 -4.970299 65.653486 0.000000 40.000000 14.192478 0.000000
-6.611024 -5.219162 64.298524 0.000000 39.000000 14.234463 0.000000
-5.160687 -4.947587 65.726286 0.000000 32.000000 14.181931 0.000000
-5.288810 -5.139682 64.350040 0.000000 34.000000 14.175453 0.000000
-4.975630 -4.943095 65.814929 0.000000 34.000000 14.191800 0.000000
-5.091141 -5.140068 64.452110 0.000000 37.000000 14.192175 0.000000
-6.460471 -6.128375 60.275754 0.000000 57.000000 14.564611 3.000000
-4.529706 -5.854302 60.598357 0.000000 51.000000 14.357164 4.000000
-3.884582 -5.840649 60.202613 0.000000 44.000000 14.293480 17.000000
-3.950052 -5.952821 62.122612 0.000000 45.000000 14.676531 30.000000
-4.498259 -4.820001 65.951390 0.000000 31.000000 14.093792 0.000000
-7.105548 -5.325748 64.401773 0.000000 39.000000 14.350009 15.000000
-4.258349 -4.915101 66.115181 0.000000 32.000000 14.213423 0.000000
-3.981392 -5.091165 64.912095 0.000000 47.000000 14.219448 0.000000
-7.781918 -5.958775 62.305126 0.000000 46.000000 14.672562 6.000000
-2.084216 -4.975998 65.379001 0.000000 41.000000 14.189466 0.000000
-7.220486 -5.941799 60.856685 0.000000 43.000000 14.455328 3.000000
-2.780732 -5.416978 65.600983 0.000000 63.000000 14.650975 23.000000
-2.026877 -5.668585 61.147565 0.000000 38.000000 14.274692 0.000000
-4.072661 -5.019343 66.257814 0.000000 54.000000 14.338591 16.000000
-2.959666 -5.285858 63.008265 0.000000 31.000000 14.151363 0.000000
-4.590552 -5.537582 61.757027 0.000000 40.000000 14.207626 0.000000
-3.668221 -5.644624 63.707000 0.000000 60.000000 14.599079 19.000000
-7.305509 -6.405016 60.739103 0.000000 55.000000 14.896341 3.000000
-6.207939 -5.805357 61.980719 0.000000 50.000000 14.489338 2.000000
-4.570704 -5.959279 60.539012 0.000000 65.000000 14.452263 4.000000
-5.111142 -5.491738 61.894894 0.000000 33.000000 14.176964 0.000000
-3.715039 -5.501678 63.150341 0.000000 64.000000 14.378107 19.000000
-7.324029 -5.919158 60.322686 0.000000 40.000000 14.356125 3.000000
-5.561369 -5.517649 62.159782 0.000000 36.000000 14.236020 0.000000
-6.322191 -5.245745 63.873521 0.000000 30.000000 14.203125 0.000000
-2.462991 -5.985389 62.853057 0.000000 74.000000 14.826373 22.000000
-5.383670 -5.216677 63.771768 0.000000 31.000000 14.168667 0.000000
-3.072083 -5.995628 63.461202 0.000000 55.000000 14.917175 25.000000
-5.563742 -5.158898 63.796179 0.000000 20.000000 14.113261 0.000000
-6.732482 -5.311293 66.036474 0.000000 64.000000 14.571306 8.000000
-3.946902 -5.717072 63.598077 0.000000 62.000000 14.652721 19.000000
-2.485927 -5.908827 62.863042 0.000000 49.000000 14.751794 22.000000
-2.381137 -5.671414 63.693690 0.000000 65.000000 14.635725 20.000000
-2.979841 -5.514442 65.116358 0.000000 61.000000 14.676773 23.000000
-8.022441 -6.004252 61.156155 0.000000 57.000000 14.552181 6.000000
-3.705116 -5.467458 65.661688 0.000000 73.000000 14.700930 16.000000
-6.112975 -5.153689 64.176865 0.000000 30.000000 14.157032 0.000000
-6.616954 -5.422377 62.739164 0.000000 39.000000 14.214133 0.000000
-7.387077 -6.426458 60.795439 0.000000 41.000000 14.924802 3.000000
-5.312519 -5.238468 63.774656 0.000000 31.000000 14.191310 0.000000
-5.197109 -5.996953 60.334327 0.000000 52.000000 14.454640 29.000000
-3.409716 -5.675366 65.458254 0.000000 53.000000 14.880593 23.000000
-3.942210 -4.954948 66.389415 0.000000 56.000000 14.294757 16.000000
-4.783542 -5.497468 63.678606 0.000000 48.000000 14.438975 9.000000
-3.085391 -5.700672 64.025057 0.000000 70.000000 14.705162 24.000000
-7.184633 -5.306008 63.088086 0.000000 24.000000 14.143193 0.000000
-5.520359 -4.995987 65.631419 0.000000 35.000000 14.213009 0.000000
-4.085414 -5.955095 62.284374 0.000000 52.000000 14.700488 30.000000
-6.809193 -5.664047 62.038452 0.000000 42.000000 14.352049 5.000000
-1.994256 -5.426751 63.605882 0.000000 51.000000 14.384695 0.000000
-6.963169 -5.105095 64.928915 0.000000 37.000000 14.207783 0.000000
-7.526618 -5.277997 63.451399 0.000000 35.000000 14.163862 0.000000
-5.250498 -5.745669 61.775898 0.000000 43.000000 14.410113 1.000000
-2.331784 -6.036495 60.848805 0.000000 64.000000 14.593588 7.000000
-7.373197 -4.954775 65.175095 0.000000 29.000000 14.090121 0.000000
-7.820997 -5.251547 63.848151 0.000000 33.000000 14.191271 0.000000
-7.911910 -5.240287 63.980939 0.000000 40.000000 14.198132 0.000000
-7.999084 -5.225284 64.115970 0.000000 35.000000 14.201641 0.000000
-5.329324 -6.175606 60.332282 0.000000 51.000000 14.629951 29.000000
-8.080156 -5.214931 64.253488 0.000000 38.000000 14.210164 0.000000
-2.275586 -6.211216 60.577991 0.000000 43.000000 14.728602 7.000000
-7.764038 -4.962087 65.886308 0.000000 38.000000 14.194699 0.000000
-6.848513 -5.860308 61.484785 0.000000 54.000000 14.467328 5.000000
-2.841007 -5.371316 65.084566 0.000000 45.000000 14.531885 23.000000
-7.981589 -4.915857 66.292781 0.000000 40.000000 14.204625 0.000000
-2.926461 -5.004953 66.114103 0.000000 49.000000 14.314644 23.000000
-3.752199 -5.799532 61.575926 0.000000 48.000000 14.449022 18.000000
-2.353221 -4.852161 66.106712 0.000000 32.000000 14.167710 0.000000
-2.497907 -4.811467 66.160512 0.000000 30.000000 14.133718 0.000000
-5.269697 -6.049403 60.235111 0.000000 67.000000 14.491791 29.000000
-2.787814 -4.727099 66.276517 0.000000 29.000000 14.063974 0.000000
-2.849466 -5.110475 65.292664 0.000000 34.000000 14.303169 23.000000
-3.802410 -5.374001 65.320551 0.000000 61.000000 14.559076 16.000000
-2.233432 -5.498102 62.167320 0.000000 40.000000 14.248817 0.000000
-2.187335 -5.652944 60.786545 0.000000 40.000000 14.206449 0.000000
-2.010510 -5.620071 60.913481 0.000000 38.000000 14.193585 0.000000
-2.455115 -5.674786 65.155753 0.000000 67.000000 14.845979 12.000000
-2.613946 -6.004214 62.044755 0.000000 48.000000 14.728821 22.000000
-7.376226 -5.371187 62.088732 0.000000 24.000000 14.064015 0.000000
-7.468519 -5.292465 65.498247 0.000000 41.000000 14.469371 14.000000
-6.948147 -5.389636 62.475344 0.000000 30.000000 14.141171 0.000000
-5.924473 -5.300936 62.526528 0.000000 22.000000 14.070200 0.000000
-6.720456 -5.419146 62.685281 0.000000 40.000000 14.202316 0.000000
-5.849684 -5.361711 62.582922 0.000000 15.000000 14.139062 0.000000
-4.607513 -5.401432 62.830381 0.000000 43.000000 14.225115 0.000000
-6.596542 -5.601963 61.451213 0.000000 38.000000 14.209197 0.000000
-6.153567 -5.370952 63.122760 0.000000 38.000000 14.222027 0.000000
-5.881339 -5.134448 63.802485 0.000000 27.000000 14.086989 0.000000
-5.893313 -5.172183 63.211072 0.000000 23.000000 14.040251 0.000000
-3.742542 -5.950606 61.937541 0.000000 72.000000 14.649997 18.000000
-5.651286 -5.234948 63.425159 0.000000 28.000000 14.135036 0.000000
-5.905859 -5.371393 61.850994 0.000000 24.000000 14.044190 0.000000
-5.455625 -5.232672 63.562823 0.000000 34.000000 14.154158 0.000000
-4.463477 -5.864046 60.562717 0.000000 51.000000 14.362367 0.000000
-5.267746 -5.218331 63.684316 0.000000 32.000000 14.158968 0.000000
-2.658777 -5.749768 62.615415 0.000000 48.000000 14.557578 22.000000
-3.443155 -5.520948 65.024864 0.000000 55.000000 14.665895 23.000000
-4.573295 -5.351227 63.341679 0.000000 42.000000 14.248343 0.000000
-3.022910 -5.790394 62.459614 0.000000 71.000000 14.572267 11.000000
-5.106306 -5.922416 60.722366 0.000000 58.000000 14.436810 4.000000
-2.152552 -5.562719 63.240248 0.000000 58.000000 14.465883 21.000000
-3.827377 -5.167972 64.277348 0.000000 30.000000 14.206779 0.000000
-4.405507 -5.066236 64.132845 0.000000 40.000000 14.080161 0.000000
-4.521266 -5.293392 62.737108 0.000000 37.000000 14.105735 0.000000
-4.206420 -5.085232 64.261175 0.000000 33.000000 14.119046 0.000000
-3.882860 -6.132927 60.814633 0.000000 55.000000 14.669704 17.000000
-6.254098 -5.151317 64.537060 0.000000 31.000000 14.204513 0.000000
-3.813388 -5.879344 62.539545 0.000000 56.000000 14.664281 30.000000
-7.972948 -4.979311 65.941053 0.000000 35.000000 14.217570 0.000000
-7.809717 -4.960528 66.049961 0.000000 42.000000 14.215967 0.000000
-5.156942 -5.993612 60.408348 0.000000 64.000000 14.462219 29.000000
-7.890044 -6.064146 61.687201 0.000000 50.000000 14.688108 6.000000
-7.349719 -5.011879 65.021911 0.000000 35.000000 14.125111 0.000000
-8.038354 -5.658540 61.322650 0.000000 27.000000 14.233480 0.000000
-6.218674 -4.975658 65.617732 0.000000 40.000000 14.184424 0.000000
-5.904858 -5.428514 61.745807 0.000000 16.000000 14.085803 0.000000
-5.884522 -4.910137 65.733423 0.000000 37.000000 14.139117 0.000000
-7.642843 -5.273726 64.141301 0.000000 51.000000 14.256513 0.000000
-3.257581 -5.758650 63.127144 0.000000 61.000000 14.633442 25.000000
-5.317544 -4.920723 65.976707 0.000000 40.000000 14.189435 0.000000
-6.114145 -5.822927 62.104766 0.000000 31.000000 14.525219 2.000000
-5.269395 -6.144719 60.657242 0.000000 52.000000 14.646081 29.000000
-4.090338 -5.568719 66.070216 0.000000 45.000000 14.855573 16.000000
-4.624411 -4.866297 66.181755 0.000000 39.000000 14.171150 0.000000
-4.472797 -4.818917 66.193245 0.000000 39.000000 14.127301 0.000000
-2.502096 -5.342133 64.380466 0.000000 45.000000 14.406185 20.000000
-3.907079 -4.878091 66.384296 0.000000 44.000000 14.218282 0.000000
-2.007458 -5.578006 61.318696 0.000000 33.000000 14.209516 0.000000
-7.390054 -5.266561 65.760869 0.000000 58.000000 14.481754 14.000000
-7.733902 -6.308949 60.410366 0.000000 42.000000 14.750572 3.000000
-6.153446 -5.184411 64.203203 0.000000 26.000000 14.190803 0.000000
-6.817051 -5.086635 66.046625 0.000000 50.000000 14.349585 8.000000
-4.610947 -5.551869 61.234943 0.000000 30.000000 14.147443 0.000000
-6.743778 -6.376938 60.364534 0.000000 52.000000 14.820606 3.000000
-4.952007 -5.581486 61.332553 0.000000 28.000000 14.187435 0.000000
-3.340272 -5.869573 62.635621 0.000000 53.000000 14.672670 11.000000
-2.996914 -4.981393 66.130321 0.000000 56.000000 14.292968 23.000000
-2.638883 -5.647738 63.329638 0.000000 52.000000 14.558189 21.000000
-6.165484 -5.546705 61.650404 0.000000 24.000000 14.186811 0.000000
-6.782682 -5.556577 61.968256 0.000000 42.000000 14.235953 0.000000
-7.154149 -5.457964 62.033635 0.000000 25.000000 14.144159 0.000000
-7.622179 -6.138432 60.481642 0.000000 60.000000 14.592955 3.000000
-7.466926 -5.417256 62.183723 0.000000 20.000000 14.122256 0.000000
-7.564866 -5.458742 62.341736 0.000000 20.000000 14.184843 0.000000
-7.687458 -5.467464 62.460411 0.000000 40.000000 14.209183 0.000000
-7.828025 -5.448538 62.551472 0.000000 32.000000 14.202068 0.000000
-3.741302 -5.714678 66.252172 0.000000 76.000000 15.029143 16.000000
-6.812576 -6.097149 60.609466 0.000000 58.000000 14.577801 3.000000
-2.098369 -5.348151 62.824242 0.000000 34.000000 14.194934 0.000000
-2.233419 -5.144180 64.368682 0.000000 37.000000 14.211082 0.000000
-3.605785 -5.807525 63.240895 0.000000 52.000000 14.694720 19.000000
-6.023789 -5.826872 62.376777 0.000000 56.000000 14.568592 2.000000
-6.964866 -6.662340 61.752105 0.000000 7.000000 15.298070 5.000000
-2.308101 -5.370604 64.248336 0.000000 50.000000 14.417415 20.000000
-3.650085 -5.551693 66.090451 0.000000 71.000000 14.845705 16.000000
-2.866518 -5.130972 66.217143 0.000000 70.000000 14.454572 23.000000
-2.251838 -5.655369 62.847126 0.000000 46.000000 14.500841 21.000000
-4.776067 -4.984072 65.695853 0.000000 37.000000 14.217315 0.000000
-3.280832 -6.171907 61.578489 0.000000 59.000000 14.822373 11.000000
-4.935767 -5.581340 63.599100 0.000000 58.000000 14.509283 9.000000
-5.307185 -5.127657 64.472844 0.000000 35.000000 14.180817 0.000000
-7.242291 -6.139594 60.277982 0.000000 23.000000 14.568733 3.000000
-5.423399 -5.117938 64.584335 0.000000 35.000000 14.185943 0.000000
-5.147801 -4.925096 65.982581 0.000000 37.000000 14.196183 0.000000
-2.248371 -6.079809 60.474316 0.000000 55.000000 14.584064 7.000000
-2.193812 -5.841373 60.424830 0.000000 57.000000 14.341537 7.000000
-5.324981 -5.772525 61.596684 0.000000 59.000000 14.410553 1.000000
-5.373160 -4.903283 66.202333 0.000000 37.000000 14.203691 0.000000
-5.849976 -4.947521 64.800410 0.000000 29.000000 14.043959 0.000000
-3.339467 -5.475155 65.752263 0.000000 73.000000 14.724824 23.000000
-2.108969 -5.435408 62.991275 0.000000 35.000000 14.304922 21.000000
-2.173448 -4.909516 66.351548 0.000000 53.000000 14.260925 0.000000
-5.018615 -5.816809 61.070362 0.000000 39.000000 14.382511 0.000000
-5.173792 -6.084959 60.387805 0.000000 59.000000 14.549562 29.000000
-6.166371 -5.006367 65.397226 0.000000 33.000000 14.183997 0.000000
-4.949161 -5.504656 61.902045 0.000000 34.000000 14.192279 0.000000
-3.825449 -6.060288 60.853839 0.000000 46.000000 14.603907 17.000000
-6.404140 -4.990301 65.812545 0.000000 32.000000 14.224849 0.000000
-6.500693 -4.950660 65.923791 0.000000 37.000000 14.200506 0.000000
-6.559165 -5.019589 65.995913 0.000000 36.000000 14.278429 8.000000
-2.426853 -5.418393 64.803946 0.000000 58.000000 14.542504 12.000000
-3.782983 -5.148469 65.334013 0.000000 45.000000 14.337932 16.000000
-1.954621 -4.871808 66.216202 0.000000 46.000000 14.206426 0.000000
-2.216217 -5.604023 61.124915 0.000000 35.000000 14.205803 0.000000
-6.553682 -5.741076 60.411241 0.000000 37.000000 14.199622 0.000000
-4.806804 -5.163814 64.333283 0.000000 40.000000 14.201461 0.000000
-6.180427 -5.687613 60.775351 0.000000 34.000000 14.201891 0.000000
-4.795169 -5.493961 65.122768 0.000000 51.000000 14.640461 10.000000
-2.623272 -5.515179 63.785836 0.000000 52.000000 14.491903 20.000000
-5.271855 -5.550476 61.581974 0.000000 40.000000 14.189171 0.000000
-6.743787 -5.095329 65.342285 0.000000 57.000000 14.258862 8.000000
-4.780414 -5.956304 60.546365 0.000000 45.000000 14.448404 4.000000
-4.725728 -5.471487 62.013091 0.000000 35.000000 14.177302 0.000000
-2.968858 -5.432320 64.747324 0.000000 55.000000 14.543188 24.000000
-4.511630 -5.687673 60.834534 0.000000 45.000000 14.225936 0.000000
-3.050164 -5.446610 61.752081 0.000000 37.000000 14.131260 0.000000
-7.534555 -5.170001 64.061040 0.000000 24.000000 14.143458 0.000000
-5.628688 -5.559068 61.151947 0.000000 23.000000 14.133282 0.000000
-3.826867 -5.695003 63.501385 0.000000 55.000000 14.618268 19.000000
-3.293917 -5.706932 63.115268 0.000000 63.000000 14.580224 25.000000
-4.188568 -5.437997 65.662404 0.000000 46.000000 14.667356 16.000000
-7.349693 -6.030189 61.006471 0.000000 41.000000 14.562881 3.000000
-4.391331 -5.073089 64.367534 0.000000 29.000000 14.120402 0.000000
-5.413613 -5.736327 61.926270 0.000000 40.000000 14.420695 1.000000
-7.024812 -5.097451 64.512197 0.000000 25.000000 14.140469 0.000000
-7.290839 -5.238594 62.990107 0.000000 21.000000 14.061560 0.000000
-4.584277 -5.612277 65.181672 0.000000 14.000000 14.767906 10.000000
-7.024890 -5.312310 63.213189 0.000000 30.000000 14.168686 0.000000
-3.594878 -5.693862 61.842220 0.000000 44.000000 14.383709 18.000000
-2.505758 -5.961835 62.097881 0.000000 57.000000 14.695428 22.000000
-3.835421 -5.228605 64.217345 0.000000 32.000000 14.258200 19.000000
-6.609475 -5.317173 63.490635 0.000000 45.000000 14.216775 0.000000
-2.650619 -5.217141 64.334269 0.000000 35.000000 14.274518 0.000000
-2.268082 -5.480121 63.458247 0.000000 45.000000 14.414002 21.000000
-2.389557 -5.580764 64.357978 0.000000 44.000000 14.640245 20.000000
-6.240775 -5.267103 63.688883 0.000000 44.000000 14.198807 0.000000
-2.192496 -5.506905 65.171447 0.000000 73.000000 14.684487 12.000000
-7.391979 -5.747509 61.182757 0.000000 26.000000 14.307715 0.000000
-5.785638 -4.947140 65.192226 0.000000 36.000000 14.099819 0.000000
-3.167673 -5.611424 64.785417 0.000000 74.000000 14.724022 24.000000
-5.598171 -4.940826 65.286557 0.000000 25.000000 14.108715 0.000000
-5.750872 -5.107865 63.867761 0.000000 22.000000 14.071164 0.000000
-6.037991 -4.923886 65.898933 0.000000 37.000000 14.174795 0.000000
-3.137858 -6.009678 62.418204 0.000000 53.000000 14.782366 11.000000
-5.203576 -4.969232 65.501083 0.000000 34.000000 14.170978 0.000000
-4.100374 -5.629309 66.136360 0.000000 34.000000 14.924845 16.000000
-5.004421 -4.989748 65.607152 0.000000 32.000000 14.208205 0.000000
-6.685434 -5.809432 61.470636 0.000000 39.000000 14.416482 5.000000
-3.111954 -5.469802 63.130218 0.000000 38.000000 14.349329 25.000000
-4.693991 -5.540003 63.593722 0.000000 54.000000 14.469860 9.000000
-8.001470 -5.247406 66.207898 0.000000 48.000000 14.520561 13.000000
-4.756540 -5.131048 64.373122 0.000000 42.000000 14.175155 0.000000
-4.608053 -5.062398 64.387084 0.000000 32.000000 14.110572 0.000000
-4.410568 -5.076882 64.480917 0.000000 36.000000 14.140077 0.000000
-3.307973 -5.698323 60.623388 0.000000 33.000000 14.217734 0.000000
-3.830888 -5.112414 64.729738 0.000000 53.000000 14.215992 0.000000
-3.076244 -5.486281 63.923469 0.000000 51.000000 14.478613 25.000000
-8.029362 -5.385457 65.042527 0.000000 53.000000 14.491469 14.000000
-2.805516 -4.766936 66.213226 0.000000 32.000000 14.094253 0.000000
-2.638072 -4.753775 66.240552 0.000000 35.000000 14.086670 0.000000
-3.058644 -5.815911 62.492594 0.000000 56.000000 14.601874 11.000000
-5.038028 -5.405551 63.354022 0.000000 40.000000 14.299528 0.000000
-2.261797 -5.060988 65.119652 0.000000 48.000000 14.235106 0.000000
-2.535118 -6.011934 61.900228 0.000000 42.000000 14.716676 22.000000
-2.099986 -5.036440 65.128766 0.000000 46.000000 14.213613 0.000000
-7.962869 -4.911297 66.337025 0.000000 42.000000 14.206569 0.000000
-4.142455 -6.125765 60.866401 0.000000 51.000000 14.667542 17.000000
-2.096033 -5.596569 61.042240 0.000000 38.000000 14.187808 0.000000
-2.271998 -5.606142 61.062331 0.000000 47.000000 14.198493 0.000000
-2.066915 -5.370362 62.636682 0.000000 33.000000 14.190579 0.000000
-4.065481 -6.033883 61.110332 0.000000 22.000000 14.611951 17.000000
-7.908516 -6.132751 61.697965 0.000000 58.000000 14.757371 6.000000
-7.031717 -6.094651 60.423495 0.000000 31.000000 14.546875 3.000000
-2.919520 -5.353356 62.734331 0.000000 29.000000 14.179651 0.000000
-3.086607 -5.352317 62.767411 0.000000 43.000000 14.181760 0.000000
-4.557795 -5.546442 61.477647 0.000000 31.000000 14.177031 0.000000
-4.698868 -5.578718 61.581451 0.000000 40.000000 14.222400 0.000000
-8.068484 -6.394722 61.145423 0.000000 51.000000 14.936723 6.000000
-4.881348 -5.540994 61.608017 0.000000 32.000000 14.187129 0.000000
-6.623950 -5.305267 63.659136 0.000000 32.000000 14.228781 0.000000
-5.049243 -5.526011 61.664129 0.000000 37.000000 14.178699 0.000000
-2.129190 -5.864874 63.310571 0.000000 78.000000 14.775167 21.000000
-5.724618 -5.419669 61.881749 0.000000 21.000000 14.098034 0.000000
-7.418874 -6.126793 61.041115 0.000000 45.000000 14.662775 3.000000
-7.415185 -5.939352 61.183304 0.000000 37.000000 14.497467 3.000000
-3.097277 -5.673496 64.733041 0.000000 48.000000 14.778683 24.000000
-7.719985 -5.785669 61.887867 0.000000 43.000000 14.442547 6.000000
-4.897865 -5.477203 62.277008 0.000000 37.000000 14.218827 0.000000
-5.876649 -5.228674 63.899360 0.000000 28.000000 14.194056 0.000000
-5.868957 -4.913253 65.160314 0.000000 25.000000 14.060968 0.000000
-2.978603 -5.210052 64.530694 0.000000 50.000000 14.292331 24.000000
-5.624607 -5.140174 63.964144 0.000000 28.000000 14.118010 0.000000
-6.157735 -5.187832 64.069419 0.000000 33.000000 14.175153 0.000000
-6.648744 -5.434366 62.649009 0.000000 41.000000 14.212901 0.000000
-6.840819 -6.172742 60.406403 0.000000 37.000000 14.623527 3.000000
-6.767088 -5.436169 62.771055 0.000000 41.000000 14.230911 0.000000
-2.279863 -5.902469 61.789322 0.000000 62.000000 14.594961 22.000000
-6.527200 -5.478014 65.387082 0.000000 54.000000 14.646036 8.000000
-6.529828 -5.159753 64.385820 0.000000 37.000000 14.188813 0.000000
-1.946178 -5.660482 60.738639 0.000000 36.000000 14.209359 0.000000
-6.643228 -5.157148 64.505194 0.000000 40.000000 14.202126 0.000000
-4.676439 -6.117071 60.641666 0.000000 67.000000 14.622039 4.000000
-4.032450 -5.648055 65.535444 0.000000 57.000000 14.858707 16.000000
-7.360780 -5.229496 63.065886 0.000000 23.000000 14.062662 0.000000
-6.885361 -5.110865 64.712558 0.000000 32.000000 14.183499 0.000000
-7.452157 -5.232397 63.210598 0.000000 22.000000 14.085229 0.000000
-3.571223 -5.682938 60.864859 0.000000 27.000000 14.234336 0.000000
-8.087404 -6.141828 61.055060 0.000000 56.000000 14.673395 6.000000
-7.592168 -5.280558 63.545575 0.000000 38.000000 14.179158 0.000000
-6.610604 -5.163754 66.309361 0.000000 72.000000 14.465155 28.000000
-4.799821 -5.458030 63.039633 0.000000 39.000000 14.309055 0.000000
-7.373328 -4.948343 65.097328 0.000000 30.000000 14.072710 0.000000
-3.217308 -5.590878 65.368161 0.000000 67.000000 14.785969 23.000000
-7.856017 -5.241318 63.950907 0.000000 42.000000 14.195410 0.000000
-2.280929 -5.819726 63.544244 0.000000 40.000000 14.762242 21.000000
-6.673767 -5.291477 66.224818 0.000000 70.000000 14.578983 28.000000
-7.920984 -5.396786 65.952843 0.000000 49.000000 14.632956 13.000000
-7.639962 -4.982499 65.703668 0.000000 34.000000 14.190127 0.000000
-8.094876 -5.179012 64.356332 0.000000 38.000000 14.189075 0.000000
-4.885579 -6.071297 60.543340 0.000000 48.000000 14.560815 4.000000
-7.782447 -4.951481 65.975987 0.000000 41.000000 14.196763 0.000000
-7.839295 -4.945687 66.123710 0.000000 44.000000 14.211473 0.000000
-7.916313 -4.908815 66.245669 0.000000 36.000000 14.191575 0.000000
-2.177518 -5.210929 64.078218 0.000000 29.000000 14.236428 0.000000
-6.562446 -5.330392 65.733363 0.000000 55.000000 14.548757 8.000000
-2.120782 -4.931094 65.721968 0.000000 35.000000 14.193378 0.000000
-2.521210 -5.713938 63.208656 0.000000 58.000000 14.607635 21.000000
-2.385898 -4.902958 65.883947 0.000000 38.000000 14.186052 0.000000
-2.551313 -4.812167 65.901807 0.000000 37.000000 14.097177 0.000000
-2.978319 -5.861845 63.368416 0.000000 60.000000 14.772454 25.000000
-2.803244 -4.790012 66.085835 0.000000 31.000000 14.099027 0.000000
-3.260955 -5.607051 64.578227 0.000000 61.000000 14.689403 24.000000
-2.780772 -5.133440 65.110216 0.000000 41.000000 14.300635 23.000000
-2.911917 -5.422414 63.323099 0.000000 38.000000 14.331680 25.000000
-3.695985 -5.726902 60.677388 0.000000 42.000000 14.250068 0.000000
-3.026827 -5.573642 61.222155 0.000000 43.000000 14.181970 0.000000
-4.250402 -5.840744 62.311830 0.000000 57.000000 14.589659 30.000000
-2.570499 -5.503510 64.858565 0.000000 57.000000 14.633169 12.000000
-2.959981 -5.742443 61.193054 0.000000 52.000000 14.345545 0.000000
-2.682446 -5.416342 64.808482 0.000000 22.000000 14.538731 12.000000
-8.020708 -5.632758 61.355621 0.000000 22.000000 14.212807 0.000000
-2.930974 -5.519854 66.093100 0.000000 69.000000 14.821280 23.000000
-6.921140 -5.284990 63.812641 0.000000 37.000000 14.227732 0.000000
-7.176134 -5.415297 62.059174 0.000000 24.000000 14.105347 0.000000
-6.671433 -5.460204 65.778397 0.000000 53.000000 14.682625 8.000000
-2.385402 -5.600046 65.732299 0.000000 53.000000 14.854518 26.000000
-7.060882 -5.614815 60.826275 0.000000 22.000000 14.128843 0.000000
-2.380599 -5.826557 61.789033 0.000000 64.000000 14.518839 22.000000
-4.738991 -5.095411 64.734598 0.000000 38.000000 14.191372 0.000000
-6.682249 -5.342464 65.741261 0.000000 48.000000 14.560709 8.000000
-7.039522 -5.304310 63.441901 0.000000 34.000000 14.193107 0.000000
-6.182548 -5.389515 62.858742 0.000000 41.000000 14.202641 0.000000
-6.400747 -5.620136 61.370547 0.000000 41.000000 14.217559 0.000000
-2.843881 -5.582247 65.894366 0.000000 48.000000 14.855632 23.000000
-2.630161 -5.990328 61.882414 0.000000 60.000000 14.691874 22.000000
-3.043259 -5.566222 65.954567 0.000000 71.000000 14.846457 23.000000
-7.813425 -5.627934 61.683253 0.000000 28.000000 14.256490 6.000000
-2.939062 -5.418306 63.621328 0.000000 42.000000 14.369707 25.000000
-5.904100 -5.424076 61.623093 0.000000 23.000000 14.063992 0.000000
-5.452933 -5.302005 63.335979 0.000000 45.000000 14.190599 0.000000
-1.988646 -6.159957 60.678195 0.000000 43.000000 14.694771 7.000000
-5.267986 -5.291188 63.454410 0.000000 33.000000 14.198436 0.000000
-5.016917 -5.325539 63.725280 0.000000 33.000000 14.273245 0.000000
-8.006649 -5.629207 62.239744 0.000000 49.000000 14.334966 6.000000
-2.976095 -5.870245 61.874771 0.000000 41.000000 14.568697 11.000000
-2.270330 -5.719775 64.999469 0.000000 61.000000 14.870044 12.000000
-3.990601 -5.261331 66.339243 0.000000 53.000000 14.590445 16.000000
-4.670036 -5.427534 62.450635 0.000000 37.000000 14.196445 0.000000
-4.436391 -5.086752 63.835331 0.000000 31.000000 14.057934 0.000000
-8.054228 -5.548864 66.165639 0.000000 40.000000 14.812458 13.000000
-4.189906 -5.182440 64.039210 0.000000 34.000000 14.183900 0.000000
-6.624643 -5.627436 61.817243 0.000000 46.000000 14.286123 5.000000
-2.846467 -5.256912 63.264043 0.000000 41.000000 14.160088 0.000000
-5.589465 -5.826989 61.610040 0.000000 24.000000 14.463889 1.000000
-7.878276 -4.985154 65.789595 0.000000 33.000000 14.202731 0.000000
-8.085605 -5.182451 64.388358 0.000000 36.000000 14.197114 0.000000
-7.717272 -4.960323 65.893702 0.000000 32.000000 14.194439 0.000000
-4.399193 -5.222230 65.184111 0.000000 51.000000 14.383903 10.000000
-7.595933 -4.888040 65.948726 0.000000 27.000000 14.131838 0.000000
-7.439489 -4.856655 66.038283 0.000000 28.000000 14.114950 0.000000
-7.521041 -5.163966 64.761305 0.000000 39.000000 14.237046 0.000000
-7.413570 -5.058320 64.784468 0.000000 34.000000 14.136767 0.000000
-7.212129 -5.069439 64.912664 0.000000 32.000000 14.167857 0.000000
-7.913343 -5.025420 66.185694 0.000000 48.000000 14.298505 13.000000
-2.467523 -5.715106 65.424707 0.000000 45.000000 14.923963 26.000000
-2.195944 -5.451066 63.883064 0.000000 53.000000 14.446239 20.000000
-5.989720 -4.928029 65.469962 0.000000 39.000000 14.118435 0.000000
-3.886118 -6.108928 60.579846 0.000000 64.000000 14.612579 17.000000
-2.163286 -5.110932 65.050460 0.000000 41.000000 14.275637 12.000000
-5.396183 -4.979862 65.748147 0.000000 38.000000 14.214783 0.000000
-4.668189 -5.319364 65.200335 0.000000 61.000000 14.479840 10.000000
-7.012505 -5.799032 62.109329 0.000000 53.000000 14.493827 5.000000
-2.347757 -5.333149 65.367741 0.000000 41.000000 14.538923 26.000000
-4.708175 -4.924641 65.949645 0.000000 38.000000 14.195161 0.000000
-3.343041 -5.399238 66.226377 0.000000 62.000000 14.716969 27.000000
-6.964967 -5.293908 65.917699 0.000000 27.000000 14.535061 8.000000
-3.696971 -5.191117 65.481059 0.000000 57.000000 14.401828 16.000000
-5.427194 -5.277775 63.519726 0.000000 32.000000 14.192948 0.000000
-3.942679 -5.739186 66.245734 0.000000 45.000000 15.050607 16.000000
-2.559592 -4.763341 66.237784 0.000000 32.000000 14.096478 0.000000
-2.343543 -4.872130 66.340414 0.000000 45.000000 14.220750 0.000000
-2.189483 -4.857905 66.334620 0.000000 40.000000 14.207286 0.000000
-4.882704 -5.015620 65.819686 0.000000 34.000000 14.265130 0.000000
-2.234059 -5.607145 61.013334 0.000000 38.000000 14.192882 0.000000
-7.398390 -5.797531 61.884628 0.000000 30.000000 14.456831 5.000000
-3.012861 -5.524717 60.863744 0.000000 28.000000 14.082781 0.000000
-3.143836 -5.625206 60.983709 0.000000 38.000000 14.198059 0.000000
-4.583089 -5.638232 61.134114 0.000000 42.000000 14.218870 0.000000
-6.703118 -5.607722 62.081789 0.000000 39.000000 14.303442 5.000000
-3.021284 -5.488964 65.160688 0.000000 52.000000 14.657463 23.000000
-5.133734 -5.587915 61.198106 0.000000 24.000000 14.173010 0.000000
-7.344445 -6.014809 60.995008 0.000000 41.000000 14.546079 3.000000
-5.451184 -5.616607 61.336673 0.000000 38.000000 14.218122 0.000000
-6.040664 -5.475489 61.357118 0.000000 29.000000 14.075839 0.000000
-4.034137 -6.184625 60.480483 0.000000 59.000000 14.672015 17.000000
-6.297149 -5.555060 61.602574 0.000000 34.000000 14.187059 0.000000
-4.552231 -5.695454 60.835094 0.000000 35.000000 14.233338 0.000000
-3.946855 -5.970596 62.012224 0.000000 61.000000 14.678481 30.000000
-2.379968 -5.949813 62.325914 0.000000 64.000000 14.717083 22.000000
-6.872560 -5.514085 65.837147 0.000000 44.000000 14.742422 8.000000
-3.083612 -5.914423 61.900150 0.000000 54.000000 14.615026 11.000000
-4.538668 -5.302707 62.836507 0.000000 26.000000 14.128908 0.000000
-2.507773 -5.885211 62.303888 0.000000 66.000000 14.648817 22.000000
-7.873721 -5.432177 62.589235 0.000000 34.000000 14.190808 0.000000
-7.762869 -5.246057 64.725931 0.000000 34.000000 14.311020 0.000000
-3.817090 -5.642053 66.300267 0.000000 55.000000 14.963378 16.000000
-3.442795 -5.629503 61.111924 0.000000 30.000000 14.217726 0.000000
-7.459784 -5.312919 64.919208 0.000000 47.000000 14.407476 15.000000
-2.190413 -5.164620 64.060914 0.000000 35.000000 14.188014 0.000000
-3.027122 -5.276043 62.806772 0.000000 34.000000 14.112406 0.000000
-2.884569 -5.488096 65.922218 0.000000 65.000000 14.766013 23.000000
-4.455970 -5.184087 63.630485 0.000000 29.000000 14.125009 0.000000
-4.781263 -5.242768 64.027687 0.000000 42.000000 14.236456 0.000000
-4.905402 -5.228517 64.131376 0.000000 46.000000 14.235915 0.000000
-3.002484 -5.934606 61.868410 0.000000 46.000000 14.631253 11.000000
-7.089637 -6.418928 60.495787 0.000000 60.000000 14.877577 3.000000
-2.608937 -5.786226 61.498031 0.000000 60.000000 14.435466 22.000000
-4.533127 -5.163671 63.693378 0.000000 28.000000 14.113011 0.000000
-5.031885 -4.937759 65.786788 0.000000 33.000000 14.181997 0.000000
-5.400154 -5.121626 64.527462 0.000000 36.000000 14.181735 0.000000
-5.133385 -4.939025 65.911832 0.000000 35.000000 14.200058 0.000000
-6.888731 -5.721205 61.807799 0.000000 38.000000 14.375132 5.000000
-3.708334 -5.402717 65.243322 0.000000 48.000000 14.577412 16.000000
-4.503344 -5.353061 63.203166 0.000000 39.000000 14.231144 0.000000
-3.071776 -5.884347 61.418127 0.000000 48.000000 14.516921 11.000000
-2.405870 -5.894970 61.659772 0.000000 50.000000 14.567966 22.000000
-7.836020 -6.175568 61.908153 0.000000 43.000000 14.830275 6.000000
-2.672005 -5.523060 64.822610 0.000000 39.000000 14.646467 12.000000
-5.606413 -4.784829 66.293817 0.000000 26.000000 14.097255 0.000000
-5.649185 -5.813763 60.278427 0.000000 38.000000 14.261156 29.000000
-6.033374 -4.965764 65.201302 0.000000 37.000000 14.117230 0.000000
-6.108776 -4.964804 65.343906 0.000000 31.000000 14.135824 0.000000
-2.152192 -5.231576 65.127811 0.000000 40.000000 14.406140 12.000000
-8.058062 -5.452564 64.996944 0.000000 45.000000 14.551153 14.000000
-3.073212 -5.465228 62.579935 0.000000 45.000000 14.267026 11.000000
-6.360070 -4.971711 65.939116 0.000000 42.000000 14.224832 0.000000
-6.446994 -4.922438 66.050333 0.000000 36.000000 14.191041 0.000000
-6.508717 -4.905493 66.186199 0.000000 38.000000 14.192984 0.000000
-6.562556 -4.890928 66.326796 0.000000 40.000000 14.198029 0.000000
-2.857199 -5.314095 64.742860 0.000000 62.000000 14.426575 24.000000
-2.521821 -5.502569 64.099076 0.000000 35.000000 14.524847 20.000000
-2.250041 -5.848312 63.278250 0.000000 59.000000 14.753056 21.000000
-2.391053 -5.653290 63.728974 0.000000 36.000000 14.622702 20.000000
-6.296107 -5.747164 60.421469 0.000000 31.000000 14.209506 0.000000
-6.117202 -5.711824 60.580014 0.000000 37.000000 14.198709 0.000000
-5.962473 -5.642506 60.693311 0.000000 25.000000 14.147628 0.000000
-2.758644 -5.309024 62.759891 0.000000 30.000000 14.140902 0.000000
-7.581407 -5.732772 61.524277 0.000000 29.000000 14.339853 0.000000
-5.366403 -5.624400 61.236402 0.000000 37.000000 14.212390 0.000000
-5.192276 -5.586384 61.368439 0.000000 35.000000 14.195135 0.000000
-4.999275 -5.580144 61.529809 0.000000 35.000000 14.213675 0.000000
-2.302989 -5.529908 65.391675 0.000000 60.000000 14.737495 26.000000
-4.621607 -5.556524 61.829906 0.000000 42.000000 14.236434 0.000000
-2.897419 -5.794600 60.438198 0.000000 38.000000 14.290568 0.000000
-3.262724 -5.710207 64.274165 0.000000 50.000000 14.748316 24.000000
-3.183428 -5.407057 62.775255 0.000000 37.000000 14.236153 0.000000
-3.905905 -5.083110 65.376412 0.000000 46.000000 14.278110 16.000000
-6.883155 -5.920978 60.449893 0.000000 42.000000 14.380105 3.000000
-3.927977 -5.715376 63.467148 0.000000 40.000000 14.632628 19.000000
-7.846844 -5.282881 63.701189 0.000000 32.000000 14.201176 0.000000
-6.597014 -5.118199 66.333159 0.000000 52.000000 14.423569 28.000000
-1.887709 -5.578242 61.300926 0.000000 36.000000 14.208344 0.000000
-6.601832 -5.870641 60.397726 0.000000 42.000000 14.325500 3.000000
-3.932996 -6.093660 60.404871 0.000000 67.000000 14.572184 17.000000
-7.736894 -5.457065 62.494145 0.000000 38.000000 14.203219 0.000000
-3.897821 -5.873351 60.269724 0.000000 33.000000 14.335254 17.000000
-7.184396 -5.144646 64.138751 0.000000 22.000000 14.132665 0.000000
-5.290855 -6.114745 60.706242 0.000000 62.000000 14.623169 29.000000
-5.106554 -5.073393 65.376481 0.000000 64.000000 14.257291 10.000000
-2.246434 -5.725934 62.975454 0.000000 56.000000 14.588960 21.000000
-4.709448 -5.464826 63.858060 0.000000 35.000000 14.432839 9.000000
-4.837426 -5.733539 60.941856 0.000000 40.000000 14.283533 0.000000
-7.727619 -5.053883 66.061389 0.000000 68.000000 14.310761 13.000000
-6.797652 -5.326090 65.354557 0.000000 37.000000 14.488513 8.000000
-4.989290 -5.126560 64.496116 0.000000 32.000000 14.186004 0.000000
-6.575471 -5.359608 63.241180 0.000000 38.000000 14.223674 0.000000
-6.238515 -5.121369 64.731179 0.000000 36.000000 14.202580 0.000000
-7.689841 -5.784466 61.971824 0.000000 49.000000 14.453559 6.000000
-6.100342 -5.046163 64.771248 0.000000 32.000000 14.135118 0.000000
-2.969806 -5.600889 63.143760 0.000000 43.000000 14.482332 25.000000
-5.077249 -5.400500 63.090745 0.000000 44.000000 14.256777 0.000000
-4.260637 -5.382526 63.511608 0.000000 37.000000 14.306372 19.000000
-4.831234 -6.283498 60.312788 0.000000 49.000000 14.738628 4.000000
-3.062230 -5.809618 62.823240 0.000000 88.000000 14.642562 11.000000
-7.545264 -6.428749 60.871661 0.000000 47.000000 14.936416 3.000000
-5.699899 -5.187740 63.638722 0.000000 33.000000 14.118179 0.000000
-3.927001 -5.105010 65.099111 0.000000 44.000000 14.260215 0.000000
-6.936731 -5.492074 62.295828 0.000000 31.000000 14.217182 0.000000
-5.094701 -5.214868 63.956900 0.000000 35.000000 14.195863 0.000000
-2.240649 -5.720178 62.601774 0.000000 63.000000 14.530256 22.000000
-4.565788 -5.148630 64.143514 0.000000 42.000000 14.161736 0.000000
-8.066520 -5.993340 60.874047 0.000000 33.000000 14.500911 6.000000
-3.287461 -5.682520 63.048561 0.000000 65.000000 14.546649 25.000000
-3.982843 -5.188926 64.397810 0.000000 48.000000 14.243174 0.000000
-3.831250 -5.136578 64.409373 0.000000 36.000000 14.194416 0.000000
-3.075497 -5.736925 64.491568 0.000000 67.000000 14.807381 24.000000
-2.434760 -4.855079 65.997119 0.000000 39.000000 14.154274 0.000000
-2.251913 -4.884624 66.051210 0.000000 34.000000 14.192907 0.000000
-2.084842 -4.882323 66.074683 0.000000 35.000000 14.195522 0.000000
-2.095407 -5.085053 64.797707 0.000000 42.000000 14.214765 0.000000
-1.908609 -4.912330 66.121378 0.000000 41.000000 14.233500 0.000000
-8.045109 -5.499820 65.709986 0.000000 54.000000 14.699298 13.000000
-7.946803 -4.963236 66.072670 0.000000 41.000000 14.220592 0.000000
-7.791277 -4.948174 66.174570 0.000000 41.000000 14.221604 0.000000
-2.381470 -5.626128 63.373013 0.000000 51.000000 14.545362 21.000000
-2.872457 -5.358538 63.921680 0.000000 36.000000 14.353818 0.000000
-2.050642 -6.320660 60.337077 0.000000 58.000000 14.804823 7.000000
-8.008915 -5.632469 61.463108 0.000000 29.000000 14.227894 0.000000
-4.042899 -5.932537 62.099815 0.000000 61.000000 14.652349 30.000000
-2.483905 -5.653992 60.894823 0.000000 52.000000 14.220091 0.000000
-2.684545 -5.599696 60.856846 0.000000 37.000000 14.159082 0.000000
-3.030793 -5.598564 60.925109 0.000000 35.000000 14.164422 0.000000
-2.981986 -5.304708 62.465407 0.000000 32.000000 14.092729 0.000000
-3.076553 -5.438709 62.655525 0.000000 42.000000 14.251479 0.000000
-3.027396 -5.411340 64.087603 0.000000 50.000000 14.428198 24.000000
-3.640958 -5.746973 63.177665 0.000000 73.000000 14.625478 19.000000
-4.993926 -5.241396 65.626946 0.000000 51.000000 14.460201 10.000000
-5.008654 -5.560439 61.635191 0.000000 37.000000 14.209046 0.000000
-5.164127 -5.544152 61.703888 0.000000 38.000000 14.201228 0.000000
-4.538850 -5.639723 65.644798 0.000000 66.000000 14.861259 10.000000
-5.809326 -5.416796 61.954675 0.000000 23.000000 14.104755 0.000000
-5.389751 -5.283615 63.600965 0.000000 30.000000 14.210614 0.000000
-5.952719 -5.400284 62.041696 0.000000 23.000000 14.099428 0.000000
-3.206939 -5.575839 62.714158 0.000000 41.000000 14.394322 11.000000
-5.730563 -5.158771 63.682180 0.000000 21.000000 14.095390 0.000000
-3.368195 -6.009916 61.354997 0.000000 55.000000 14.629480 11.000000
-5.870237 -5.135034 63.769214 0.000000 21.000000 14.082949 0.000000
-6.987644 -6.004125 61.589142 0.000000 40.000000 14.623200 5.000000
-3.641904 -5.237280 66.160288 0.000000 53.000000 14.544484 16.000000
-2.895120 -5.746407 63.647455 0.000000 41.000000 14.698590 25.000000
-6.088513 -5.158999 64.019679 0.000000 22.000000 14.140197 0.000000
-6.530682 -5.437574 62.673773 0.000000 38.000000 14.220695 0.000000
-6.176061 -5.193890 64.171717 0.000000 31.000000 14.195505 0.000000
-5.316585 -6.353983 60.576744 0.000000 73.000000 14.841344 29.000000
-7.512401 -5.504681 65.353098 0.000000 52.000000 14.658406 14.000000
-3.042892 -5.814425 62.411524 0.000000 62.000000 14.589038 11.000000
-6.395835 -5.184352 64.405724 0.000000 30.000000 14.217239 0.000000
-7.286212 -6.284391 60.743133 0.000000 56.000000 14.777696 3.000000
-6.541457 -5.845678 60.315375 0.000000 33.000000 14.289662 3.000000
-7.001455 -5.358039 63.117506 0.000000 35.000000 14.200581 0.000000
-3.749656 -5.940528 62.394146 0.000000 66.000000 14.704791 30.000000
-7.104728 -5.341122 63.242721 0.000000 28.000000 14.200653 0.000000
-6.715034 -5.147268 64.759947 0.000000 32.000000 14.227851 0.000000
-2.987347 -5.576592 64.469752 0.000000 63.000000 14.646405 24.000000
-3.494212 -5.670720 63.698023 0.000000 43.000000 14.625260 25.000000
-7.340837 -5.260073 63.446598 0.000000 32.000000 14.147174 0.000000
-2.445134 -5.588591 64.802060 0.000000 58.000000 14.710531 12.000000
-7.508191 -5.234052 63.720474 0.000000 31.000000 14.158744 0.000000
-7.580031 -5.230907 63.868916 0.000000 35.000000 14.176039 0.000000
-7.627305 -5.248816 64.043183 0.000000 43.000000 14.218070 0.000000
-6.047498 -5.917649 62.323189 0.000000 43.000000 14.650614 2.000000
-7.495482 -4.894837 65.677708 0.000000 21.000000 14.101020 0.000000
-3.375239 -5.927672 62.402809 0.000000 50.000000 14.696792 11.000000
-7.548442 -4.896462 65.832875 0.000000 26.000000 14.124167 0.000000
-5.455032 -5.390062 63.171881 0.000000 25.000000 14.254439 0.000000
-4.010416 -6.003025 61.184681 0.000000 57.000000 14.592479 17.000000
-7.613283 -4.929373 66.166626 0.000000 33.000000 14.203529 0.000000
-3.541634 -5.761393 62.232098 0.000000 34.000000 14.506411 30.000000
-2.070200 -5.170285 64.212427 0.000000 35.000000 14.216257 0.000000
-3.315314 -5.764087 63.914781 0.000000 52.000000 14.750126 25.000000
-2.329882 -5.145692 64.393644 0.000000 45.000000 14.215222 0.000000
-2.196370 -4.946145 65.665795 0.000000 35.000000 14.199593 0.000000
-7.098248 -6.231921 62.049615 0.000000 45.000000 14.913031 5.000000
-2.461114 -4.886988 65.821852 0.000000 28.000000 14.160725 0.000000
-2.157501 -5.718676 62.557603 0.000000 66.000000 14.523273 22.000000
-3.823420 -5.304062 64.187513 0.000000 66.000000 14.328765 19.000000
-4.758314 -6.139862 60.473987 0.000000 71.000000 14.620024 4.000000
-5.327906 -5.622671 61.210767 0.000000 36.000000 14.207397 0.000000
-3.036191 -4.839562 66.335067 0.000000 43.000000 14.181287 0.000000
-7.344221 -5.166030 65.482815 0.000000 40.000000 14.343192 14.000000
-2.243065 -5.772958 61.740076 0.000000 51.000000 14.460119 22.000000
-3.563931 -5.707576 60.498262 0.000000 33.000000 14.206736 0.000000
-3.111594 -5.741899 64.486606 0.000000 64.000000 14.811263 24.000000
-3.214154 -5.657414 60.791434 0.000000 42.000000 14.201980 0.000000
-3.072575 -5.573302 60.859777 0.000000 33.000000 14.129750 0.000000
-3.818008 -5.951281 62.408514 0.000000 58.000000 14.716837 30.000000
-7.982720 -6.441477 61.853377 0.000000 2.000000 15.084330 6.000000
-7.900783 -5.660296 61.249559 0.000000 35.000000 14.226125 0.000000
-6.793519 -5.533621 62.188693 0.000000 32.000000 14.244431 0.000000
-4.204117 -6.195813 60.610839 0.000000 54.000000 14.700012 17.000000
-6.872307 -5.733395 60.805453 0.000000 43.000000 14.245021 0.000000
-3.238727 -5.777991 63.954777 0.000000 62.000000 14.770283 25.000000
-6.945364 -5.240470 66.165401 0.000000 36.000000 14.517523 28.000000
-5.783772 -4.946785 65.108929 0.000000 29.000000 14.087657 0.000000
-6.490746 -5.670635 61.075204 0.000000 35.000000 14.224766 0.000000
-6.105475 -5.383181 62.649964 0.000000 32.000000 14.167445 0.000000
-4.705963 -4.946882 66.344795 0.000000 56.000000 14.273306 0.000000
-5.972976 -5.292235 62.695670 0.000000 25.000000 14.085152 0.000000
-6.126688 -5.587760 61.300313 0.000000 38.000000 14.178099 0.000000
-3.988261 -6.029673 60.717737 0.000000 40.000000 14.552757 17.000000
-2.222694 -5.991390 65.065838 0.000000 22.000000 15.148763 12.000000
-3.976663 -5.733642 63.795378 0.000000 43.000000 14.696861 19.000000
-5.332678 -5.366615 63.178496 0.000000 45.000000 14.233312 0.000000
-2.315421 -5.595216 62.085679 0.000000 48.000000 14.332584 22.000000
-4.311134 -5.141270 65.470419 0.000000 42.000000 14.345243 16.000000
-3.944776 -6.061028 60.517166 0.000000 59.000000 14.555719 17.000000
-2.267491 -5.606056 63.687251 0.000000 50.000000 14.571179 20.000000
-7.237894 -5.288976 64.060314 0.000000 46.000000 14.263889 0.000000
-3.229621 -5.474398 66.008838 0.000000 58.000000 14.761533 23.000000
-2.969860 -5.253852 62.876398 0.000000 34.000000 14.100862 0.000000
-7.764170 -5.025129 65.552167 0.000000 40.000000 14.209651 0.000000
-2.924903 -5.566088 65.172228 0.000000 66.000000 14.736339 23.000000
-7.617861 -4.991276 65.644677 0.000000 31.000000 14.190644 0.000000
-2.106711 -5.400258 64.733213 0.000000 52.000000 14.517499 12.000000
-7.151630 -5.053601 64.622307 0.000000 21.000000 14.111515 0.000000
-6.891815 -5.146724 64.818233 0.000000 34.000000 14.233938 0.000000
-7.901358 -5.564304 65.649053 0.000000 61.000000 14.755815 13.000000
-6.065044 -4.967323 65.303734 0.000000 31.000000 14.133022 0.000000
-6.441031 -4.895058 66.307413 0.000000 30.000000 14.200500 0.000000
-2.172440 -5.715571 63.186019 0.000000 50.000000 14.609294 21.000000
-3.212349 -5.729584 60.516717 0.000000 46.000000 14.234423 0.000000
-6.384400 -5.079960 65.055651 0.000000 44.000000 14.206303 0.000000
-4.577081 -5.615430 61.192878 0.000000 25.000000 14.204701 0.000000
-6.078034 -4.990787 65.153730 0.000000 37.000000 14.134825 0.000000
-2.933213 -5.300810 65.149136 0.000000 60.000000 14.470405 23.000000
-5.726402 -4.967516 65.294829 0.000000 33.000000 14.135110 0.000000
-5.515189 -5.014302 65.409804 0.000000 32.000000 14.199718 0.000000
-7.006585 -5.202679 65.318532 0.000000 24.000000 14.359292 0.000000
-4.994103 -4.978645 65.579314 0.000000 35.000000 14.193359 0.000000
-7.984051 -5.259410 65.342593 0.000000 37.000000 14.409736 14.000000
-4.650180 -4.954756 65.675371 0.000000 35.000000 14.186564 0.000000
-2.406402 -6.071760 62.484009 0.000000 51.000000 14.859990 22.000000
-3.258322 -5.618650 64.555946 0.000000 50.000000 14.697744 24.000000
-2.325337 -4.883669 66.017916 0.000000 37.000000 14.186548 0.000000
-5.928143 -5.913611 60.323263 0.000000 32.000000 14.363750 0.000000
-6.761864 -5.763409 60.693043 0.000000 44.000000 14.259799 0.000000
-7.061748 -5.438359 64.523092 0.000000 50.000000 14.479109 15.000000
-3.819037 -5.604769 62.609845 0.000000 50.000000 14.402430 30.000000
-2.780572 -5.584514 60.650479 0.000000 35.000000 14.113855 0.000000
-6.633534 -6.403830 60.296430 0.000000 59.000000 14.838583 3.000000
-3.263776 -5.600867 64.311993 0.000000 38.000000 14.645450 24.000000
-3.268137 -5.862706 64.134384 0.000000 59.000000 14.879365 24.000000
-4.238435 -5.474633 66.013565 0.000000 68.000000 14.753017 16.000000
-4.519999 -5.645295 60.950696 0.000000 39.000000 14.200406 0.000000
-3.787250 -6.069822 61.095280 0.000000 53.000000 14.647985 17.000000
-3.146013 -5.962647 61.542099 0.000000 64.000000 14.611334 11.000000
-2.913800 -5.216902 66.151984 0.000000 40.000000 14.529933 23.000000
-4.813720 -5.137414 64.487755 0.000000 24.000000 14.197200 0.000000
-3.087133 -5.938634 61.748810 0.000000 64.000000 14.617468 11.000000
-2.795072 -5.029353 66.121527 0.000000 42.000000 14.341076 23.000000
-6.179809 -5.556316 61.506381 0.000000 22.000000 14.175739 0.000000
-6.297623 -5.594202 61.640594 0.000000 35.000000 14.231197 0.000000
-2.528475 -5.817869 63.083463 0.000000 57.000000 14.692664 21.000000
-6.735679 -5.561153 61.894159 0.000000 43.000000 14.230399 0.000000
-2.578346 -5.596154 65.620931 0.000000 61.000000 14.833050 23.000000
-7.374121 -5.387615 62.149187 0.000000 24.000000 14.088880 0.000000
-2.942316 -5.115280 66.175143 0.000000 58.000000 14.432367 23.000000
-5.374058 -5.986958 61.649756 0.000000 51.000000 14.629881 1.000000
-6.771823 -5.666709 62.062773 0.000000 34.000000 14.358487 5.000000
-5.048322 -5.452093 62.347286 0.000000 30.000000 14.202548 0.000000
-7.870117 -5.425561 62.834869 0.000000 41.000000 14.219173 0.000000
-4.768667 -5.456835 63.995965 0.000000 35.000000 14.443958 9.000000
-8.090011 -5.374523 63.061315 0.000000 18.000000 14.198756 0.000000
-8.019161 -5.379754 63.143388 0.000000 26.000000 14.216249 0.000000
-2.185145 -5.216997 63.976187 0.000000 42.000000 14.227876 0.000000
-2.712945 -5.313667 62.613259 0.000000 31.000000 14.125103 0.000000
-6.735053 -5.821843 60.838844 0.000000 51.000000 14.338592 0.000000
-3.341939 -5.791569 63.660205 0.000000 53.000000 14.740931 25.000000
-5.108651 -6.181766 60.330434 0.000000 52.000000 14.637846 4.000000
-4.772645 -5.223546 64.190213 0.000000 45.000000 14.240588 0.000000
-4.907682 -5.170829 64.266773 0.000000 42.000000 14.198019 0.000000
-4.669934 -4.969691 65.608936 0.000000 30.000000 14.191729 0.000000
-2.518379 -6.040937 62.046060 0.000000 50.000000 14.766248 22.000000
-4.767494 -4.971819 65.733408 0.000000 38.000000 14.210599 0.000000
-3.259757 -5.401863 65.395120 0.000000 49.000000 14.602309 23.000000
-8.124903 -5.009488 66.139806 0.000000 41.000000 14.274244 13.000000
-2.384033 -4.880930 66.227697 0.000000 39.000000 14.213078 0.000000
-3.083130 -5.506283 65.316830 0.000000 53.000000 14.696199 23.000000
-5.397539 -5.110927 64.881698 0.000000 37.000000 14.221470 0.000000
-2.830140 -5.285493 65.350841 0.000000 64.000000 14.484848 23.000000
-5.481932 -5.103846 65.016574 0.000000 38.000000 14.232824 0.000000
-5.260556 -4.888066 66.317148 0.000000 48.000000 14.205984 0.000000
-5.200396 -5.235242 64.033320 0.000000 31.000000 14.225894 0.000000
-5.747271 -4.929442 65.148434 0.000000 33.000000 14.076441 0.000000
-4.405830 -5.092596 65.222233 0.000000 40.000000 14.260939 10.000000
-7.561226 -5.814895 61.648698 0.000000 31.000000 14.438997 5.000000
-5.971178 -4.880430 65.549675 0.000000 30.000000 14.082812 0.000000
-6.005206 -4.909615 65.722803 0.000000 38.000000 14.135966 0.000000
-2.388708 -5.805851 62.115813 0.000000 73.000000 14.544671 22.000000
-6.091002 -4.926974 66.035951 0.000000 35.000000 14.196813 0.000000
-6.158707 -4.892044 66.158985 0.000000 32.000000 14.179077 0.000000
-6.199779 -4.886659 66.309663 0.000000 39.000000 14.194758 0.000000
-3.174295 -5.764354 63.185874 0.000000 51.000000 14.648205 25.000000
-6.299764 -5.771370 60.290495 0.000000 32.000000 14.214834 0.000000
-7.053546 -6.209378 60.527268 0.000000 34.000000 14.674967 3.000000
-5.988732 -5.640985 60.526325 0.000000 25.000000 14.122167 0.000000
-2.353009 -6.032237 62.470488 0.000000 54.000000 14.819448 22.000000
-1.908345 -6.447671 60.334821 0.000000 51.000000 14.931549 7.000000
-2.441177 -5.853503 62.583047 0.000000 59.000000 14.657693 22.000000
-8.047102 -6.036091 60.719844 0.000000 33.000000 14.521511 6.000000
