-43.665295 -0.566184 22.772082 0.000000 50.000000 14.855607 18.000000
-44.216207 0.684891 22.514405 0.000000 51.000000 14.654877 20.000000
-43.816264 2.150079 23.042264 0.000000 72.000000 15.089347 27.000000
-44.130526 -0.162110 22.275503 0.000000 45.000000 14.423413 0.000000
-42.516302 0.484666 22.519225 0.000000 35.000000 14.417833 0.000000
-44.817491 0.511000 22.373295 0.000000 30.000000 14.605803 19.000000
-42.484884 0.677158 22.556156 0.000000 39.000000 14.445898 0.000000
-40.394706 -0.434144 23.090748 0.000000 36.000000 14.695066 13.000000
-41.238716 -1.892681 23.067681 0.000000 35.000000 14.824072 1.000000
-39.404117 -2.175476 22.911898 0.000000 26.000000 14.410348 0.000000
-43.970002 0.836055 22.431028 0.000000 43.000000 14.533698 0.000000
-39.143529 -2.598150 23.372277 0.000000 44.000000 14.836711 4.000000
-42.398765 1.397783 22.598053 0.000000 47.000000 14.460196 0.000000
-40.554875 1.009603 23.258774 0.000000 55.000000 14.855021 6.000000
-42.375562 1.573861 22.599652 0.000000 51.000000 14.454831 0.000000
-43.932968 1.188751 22.350533 0.000000 52.000000 14.441518 0.000000
-43.852765 1.399401 22.425563 0.000000 51.000000 14.499847 0.000000
-43.621019 2.490207 22.409130 0.000000 40.000000 14.427827 0.000000
-44.905390 -2.012429 22.354528 0.000000 68.000000 14.651402 10.000000
-43.493581 2.857960 22.455858 0.000000 59.000000 14.448122 0.000000
-40.795230 -2.904836 23.248654 0.000000 51.000000 14.959589 3.000000
-40.463007 3.153047 22.922572 0.000000 55.000000 14.465434 0.000000
-44.822660 1.948010 22.435115 0.000000 46.000000 14.638408 26.000000
-42.257957 2.059221 22.937946 0.000000 45.000000 14.762588 25.000000
-39.509820 -2.485702 23.246974 0.000000 46.000000 14.763445 4.000000
-41.782427 -0.723673 23.061313 0.000000 68.000000 14.872586 14.000000
-44.103290 2.181321 22.916523 0.000000 60.000000 15.005837 27.000000
-40.609357 -2.627619 23.196821 0.000000 64.000000 14.875773 3.000000
-43.952555 1.941447 22.896997 0.000000 58.000000 14.969607 27.000000
-43.976202 2.817501 23.020733 0.000000 61.000000 15.077574 24.000000
-41.504370 -0.337869 22.708276 0.000000 30.000000 14.475249 0.000000
-44.506118 2.213324 22.546224 0.000000 62.000000 14.697127 27.000000
-44.486148 0.561846 22.945808 0.000000 63.000000 15.123208 20.000000
-42.529577 1.821650 23.015336 0.000000 40.000000 14.883282 25.000000
-40.182695 -0.122789 22.939664 0.000000 46.000000 14.508586 0.000000
-40.298737 -0.720686 22.783198 0.000000 38.000000 14.382775 0.000000
-45.369225 -0.850760 22.425308 0.000000 65.000000 14.764832 16.000000
-40.487365 -2.145694 22.869230 0.000000 63.000000 14.524224 0.000000
-39.453800 -2.653742 23.437935 0.000000 30.000000 14.947680 4.000000
-39.983183 3.306337 22.993132 0.000000 46.000000 14.462704 0.000000
-40.559946 3.293948 22.945454 0.000000 54.000000 14.499220 0.000000
-43.512668 -2.079048 22.820313 0.000000 44.000000 14.912089 11.000000
-40.616234 2.962597 22.919572 0.000000 51.000000 14.488514 0.000000
-39.467153 -0.252485 23.243090 0.000000 63.000000 14.707897 5.000000
-44.807884 -2.132208 22.522263 0.000000 53.000000 14.805676 10.000000
-40.278697 1.170890 23.301124 0.000000 50.000000 14.853679 6.000000
-39.412366 -2.429840 23.316059 0.000000 49.000000 14.816553 4.000000
-43.578681 2.838324 22.972706 0.000000 57.000000 14.972135 24.000000
-41.031707 1.262132 22.813594 0.000000 44.000000 14.478443 0.000000
-41.166224 2.443956 23.321222 0.000000 58.000000 14.975987 22.000000
-42.526453 0.595304 22.512527 0.000000 41.000000 14.410419 0.000000
-40.412701 -1.927688 23.191830 0.000000 45.000000 14.828118 12.000000
-42.553016 0.435019 22.568624 0.000000 38.000000 14.473025 0.000000
-41.387086 -1.248746 23.174075 0.000000 23.000000 14.937657 14.000000
-40.910723 -0.026664 23.255008 0.000000 53.000000 14.923898 13.000000
-41.324923 0.515580 22.665381 0.000000 39.000000 14.389456 0.000000
-42.686896 0.066223 22.557493 0.000000 53.000000 14.488899 0.000000
-41.319033 0.389396 22.790102 0.000000 60.000000 14.514559 0.000000
-43.599742 2.762785 22.905924 0.000000 79.000000 14.910657 24.000000
-42.833092 -0.308384 22.545585 0.000000 46.000000 14.505904 0.000000
-42.031304 -0.882715 22.476342 0.000000 23.000000 14.333134 0.000000
-44.544475 2.621409 22.867808 0.000000 61.000000 15.012489 24.000000
-43.510000 -1.696990 22.404743 0.000000 52.000000 14.492801 0.000000
-42.288995 -1.663701 22.598404 0.000000 56.000000 14.507085 0.000000
-42.732472 -2.339091 22.358836 0.000000 33.000000 14.348008 0.000000
-42.695854 2.415016 22.950777 0.000000 41.000000 14.831370 25.000000
-44.343284 -3.170796 22.806248 0.000000 9.000000 15.040585 2.000000
-42.896840 -2.662551 22.451108 0.000000 44.000000 14.469661 0.000000
-43.349276 -0.109827 22.861705 0.000000 59.000000 14.889251 17.000000
-43.153947 -3.057189 22.411356 0.000000 39.000000 14.475573 0.000000
-43.286349 -3.255057 22.394778 0.000000 44.000000 14.482359 0.000000
-39.235780 -0.931622 23.038636 0.000000 44.000000 14.486015 0.000000
-39.346384 -0.818237 23.022562 0.000000 38.000000 14.483801 0.000000
-39.715565 -0.441026 23.347799 0.000000 52.000000 14.851260 5.000000
-39.568668 -0.588620 22.974775 0.000000 50.000000 14.463998 0.000000
-40.043797 0.058327 22.955016 0.000000 50.000000 14.499989 0.000000
-43.272359 0.092050 22.837280 0.000000 75.000000 14.849846 17.000000
-40.233990 0.309735 22.916469 0.000000 43.000000 14.484241 0.000000
-40.331456 0.437088 22.884072 0.000000 39.000000 14.463694 0.000000
-40.459455 0.540728 22.786878 0.000000 42.000000 14.383945 0.000000
-40.557582 0.667975 22.749136 0.000000 42.000000 14.358207 0.000000
-39.511188 1.617139 23.045763 0.000000 38.000000 14.480937 0.000000
-45.596744 0.373607 22.828596 0.000000 59.000000 15.171741 19.000000
-40.576727 -2.313294 22.871190 0.000000 51.000000 14.542507 0.000000
-39.746699 2.016476 22.951476 0.000000 39.000000 14.413586 0.000000
-43.893562 1.966048 22.957903 0.000000 66.000000 15.020824 27.000000
-41.101525 1.852569 22.757794 0.000000 49.000000 14.421302 0.000000
-43.228544 -0.050430 22.816869 0.000000 58.000000 14.826221 17.000000
-41.202747 1.979288 22.677211 0.000000 39.000000 14.353642 0.000000
-40.729240 -2.931330 24.082632 0.000000 3.000000 15.775616 3.000000
-43.589810 -0.133089 22.652276 0.000000 36.000000 14.717337 17.000000
-43.551465 1.991802 22.992083 0.000000 54.000000 15.004628 27.000000
-44.709847 1.620325 22.749306 0.000000 57.000000 14.939591 26.000000
-44.722007 2.311227 22.719819 0.000000 58.000000 14.898093 24.000000
-43.673692 -3.194919 22.402712 0.000000 31.000000 14.545012 2.000000
-42.386123 2.219408 23.268235 0.000000 61.000000 15.104608 25.000000
-42.956075 -1.640711 22.468791 0.000000 25.000000 14.474888 0.000000
-44.347449 2.528633 23.043949 0.000000 61.000000 15.160132 24.000000
-40.657965 -1.115837 23.003536 0.000000 50.000000 14.660769 9.000000
-44.464248 1.319861 22.296693 0.000000 44.000000 14.462434 0.000000
-40.113744 -0.435026 22.793938 0.000000 24.000000 14.360816 0.000000
-44.573179 1.153778 22.313552 0.000000 57.000000 14.498255 0.000000
-45.088411 0.482309 22.679540 0.000000 69.000000 14.948537 19.000000
-43.300662 1.306621 22.489362 0.000000 51.000000 14.484991 0.000000
-43.890890 2.480921 22.813967 0.000000 60.000000 14.867548 24.000000
-43.432497 1.138167 22.468662 0.000000 52.000000 14.487017 0.000000
-40.584034 -0.040828 22.912906 0.000000 43.000000 14.538499 13.000000
-44.448548 -0.940448 22.334207 0.000000 58.000000 14.543360 30.000000
-44.679309 2.256434 22.469321 0.000000 52.000000 14.645223 24.000000
-44.420732 0.034998 22.151219 0.000000 36.000000 14.338423 0.000000
-44.545433 -0.119177 22.178007 0.000000 44.000000 14.386105 0.000000
-44.666789 -0.268809 22.214018 0.000000 42.000000 14.442335 0.000000
-45.177062 -1.619342 22.216516 0.000000 43.000000 14.546154 0.000000
-42.259936 2.460035 23.135362 0.000000 55.000000 14.950001 25.000000
-40.512183 -2.690248 23.443194 0.000000 50.000000 15.106724 3.000000
-43.573020 -2.302280 22.961438 0.000000 29.000000 15.064982 11.000000
-40.810418 -2.194356 22.776468 0.000000 46.000000 14.480180 0.000000
-42.312013 -2.785422 22.539121 0.000000 39.000000 14.474639 0.000000
-42.390571 -2.630094 22.514602 0.000000 38.000000 14.458579 0.000000
-40.663180 2.609255 23.331774 0.000000 43.000000 14.910289 22.000000
-43.800857 2.653305 22.778588 0.000000 58.000000 14.816010 24.000000
-39.487965 0.292376 23.029017 0.000000 31.000000 14.488022 0.000000
-43.292622 -0.516032 22.921928 0.000000 59.000000 14.948915 18.000000
-45.526027 0.347049 23.049484 0.000000 5.000000 15.380572 19.000000
-40.643366 1.020939 23.204056 0.000000 35.000000 14.813460 6.000000
-44.167070 -3.333896 22.779900 0.000000 17.000000 14.992355 2.000000
-42.670167 -1.773254 22.522459 0.000000 51.000000 14.489326 0.000000
-41.243709 -1.093110 22.707914 0.000000 38.000000 14.452584 0.000000
-42.728348 -1.606905 22.504202 0.000000 43.000000 14.476289 0.000000
-45.492510 2.151745 22.625609 0.000000 78.000000 14.919600 26.000000
-41.914145 2.063161 22.905944 0.000000 60.000000 14.681116 25.000000
-42.904633 -1.116253 22.421351 0.000000 42.000000 14.409823 0.000000
-41.056483 0.328750 22.749739 0.000000 30.000000 14.437888 0.000000
-45.210142 -0.299308 22.370919 0.000000 55.000000 14.676772 15.000000
-43.073274 -1.748843 22.648603 0.000000 39.000000 14.671929 11.000000
-40.838884 1.762207 23.205206 0.000000 60.000000 14.827766 7.000000
-39.944097 2.911852 23.240244 0.000000 46.000000 14.709555 28.000000
-41.646594 0.536637 22.591383 0.000000 31.000000 14.362352 0.000000
-40.227439 2.006743 23.062671 0.000000 24.000000 14.593327 0.000000
-44.395542 -0.774451 22.954121 0.000000 52.000000 15.145571 30.000000
-43.122598 0.307985 22.407881 0.000000 39.000000 14.398988 0.000000
-41.507114 -1.109257 23.055479 0.000000 48.000000 14.834852 14.000000
-40.568254 -2.391764 22.898041 0.000000 48.000000 14.569444 0.000000
-40.658975 0.117986 22.907656 0.000000 60.000000 14.540907 13.000000
-43.100065 0.695254 22.487586 0.000000 55.000000 14.466682 0.000000
-41.643211 1.260654 22.714804 0.000000 47.000000 14.469198 0.000000
-45.302004 1.273312 22.578925 0.000000 56.000000 14.863770 21.000000
-41.642437 1.436570 22.734396 0.000000 52.000000 14.484881 0.000000
-40.858152 1.583012 22.963564 0.000000 50.000000 14.595157 7.000000
-41.651497 1.604957 22.730273 0.000000 48.000000 14.478680 0.000000
-43.111680 1.237053 22.498029 0.000000 50.000000 14.467647 0.000000
-40.407941 1.163393 23.200418 0.000000 47.000000 14.772901 6.000000
-40.007531 2.905403 23.322812 0.000000 57.000000 14.800544 28.000000
-43.511386 -0.574007 22.998962 0.000000 62.000000 15.057950 18.000000
-42.889565 2.998387 22.804813 0.000000 55.000000 14.703098 23.000000
-39.825187 -0.149416 23.333430 0.000000 60.000000 14.846957 5.000000
-43.052441 2.478955 22.517042 0.000000 45.000000 14.452565 0.000000
-40.570311 1.908428 23.212485 0.000000 71.000000 14.793136 7.000000
-41.799358 -1.230882 23.482918 0.000000 1.000000 15.302459 14.000000
-41.722096 1.383979 22.705436 0.000000 47.000000 14.468827 0.000000
-43.940824 -0.477506 22.414341 0.000000 43.000000 14.539752 18.000000
-41.678519 -0.539876 22.736317 0.000000 52.000000 14.532299 14.000000
-43.774483 -0.650520 22.870558 0.000000 50.000000 14.970541 18.000000
-43.239763 -1.903713 22.929097 0.000000 52.000000 14.976655 11.000000
-40.287973 1.502144 23.034510 0.000000 30.000000 14.584513 0.000000
-44.714784 -1.600763 22.177670 0.000000 42.000000 14.440476 0.000000
-44.936444 -2.249485 22.647277 0.000000 42.000000 14.950336 10.000000
-41.880483 1.240196 22.668816 0.000000 35.000000 14.458442 0.000000
-39.370957 -2.382920 23.072659 0.000000 49.000000 14.568817 4.000000
-44.521676 0.100380 22.075779 0.000000 31.000000 14.277060 0.000000
-42.933661 -0.435834 22.877240 0.000000 54.000000 14.851147 18.000000
-44.188725 0.930578 22.298657 0.000000 34.000000 14.432459 0.000000
-44.135828 1.114935 22.298013 0.000000 39.000000 14.420411 0.000000
-42.304664 0.145088 22.712990 0.000000 56.000000 14.585829 0.000000
-43.073877 -0.746518 22.809516 0.000000 50.000000 14.810767 18.000000
-40.682611 -1.094162 23.168865 0.000000 55.000000 14.827448 9.000000
-40.002420 1.470356 23.034671 0.000000 59.000000 14.544014 6.000000
-45.753667 1.851610 22.592415 0.000000 52.000000 14.930658 26.000000
-40.257656 3.364708 22.913019 0.000000 51.000000 14.421964 0.000000
-45.442032 0.487317 22.507466 0.000000 52.000000 14.829358 19.000000
-39.941108 1.199237 23.264275 0.000000 54.000000 14.767814 6.000000
-40.516800 1.524446 23.009778 0.000000 51.000000 14.592692 0.000000
-40.791617 -2.888294 23.373373 0.000000 37.000000 15.082111 3.000000
-39.693400 1.747996 22.986990 0.000000 44.000000 14.446484 0.000000
-42.513808 2.647887 23.029321 0.000000 43.000000 14.877990 23.000000
-39.621312 1.441183 22.992792 0.000000 41.000000 14.448051 0.000000
-39.581744 1.290344 23.010723 0.000000 49.000000 14.463142 0.000000
-39.567886 1.121525 22.976750 0.000000 49.000000 14.430971 0.000000
-44.091241 -1.974907 22.376541 0.000000 50.000000 14.554646 0.000000
-39.542047 0.781622 22.919220 0.000000 48.000000 14.377251 0.000000
-39.495790 0.639915 22.971671 0.000000 46.000000 14.425337 0.000000
-40.416423 2.793890 23.173707 0.000000 56.000000 14.714460 22.000000
-42.443695 2.952429 23.178753 0.000000 70.000000 15.009468 23.000000
-43.801928 0.677193 22.562523 0.000000 75.000000 14.642709 0.000000
-39.399160 0.011503 23.040709 0.000000 54.000000 14.492469 0.000000
-39.409118 -0.704413 22.946787 0.000000 40.000000 14.415592 0.000000
-39.383396 -0.849065 23.005159 0.000000 37.000000 14.472567 0.000000
-39.383717 -1.023882 23.005936 0.000000 45.000000 14.476946 0.000000
-42.272574 0.129445 22.864048 0.000000 42.000000 14.730944 8.000000
-40.160120 1.372931 23.093562 0.000000 46.000000 14.627072 6.000000
-39.430581 -1.579366 22.939989 0.000000 36.000000 14.429811 0.000000
-45.325023 1.004816 22.610671 0.000000 79.000000 14.903979 21.000000
-44.850334 0.594803 22.692884 0.000000 60.000000 14.925006 19.000000
-41.484327 2.333629 23.168376 0.000000 50.000000 14.873044 25.000000
-45.140116 0.439893 22.765333 0.000000 52.000000 15.041753 19.000000
-41.183703 -2.614536 22.729870 0.000000 28.000000 14.496645 0.000000
-40.537181 2.947133 22.911227 0.000000 51.000000 14.469139 0.000000
-41.955941 1.843167 22.531987 0.000000 36.000000 14.321702 0.000000
-42.492239 -1.791262 22.586547 0.000000 45.000000 14.527356 0.000000
-41.617525 2.369334 23.127155 0.000000 60.000000 14.850805 25.000000
-40.165767 1.364233 23.205102 0.000000 58.000000 14.738409 6.000000
-41.949398 1.190691 22.650547 0.000000 43.000000 14.451347 0.000000
-41.971062 1.014798 22.648642 0.000000 50.000000 14.456183 0.000000
-40.624677 1.293672 22.908289 0.000000 43.000000 14.512601 0.000000
-39.754248 -0.643819 23.055903 0.000000 52.000000 14.572226 0.000000
-40.455132 1.129912 23.140618 0.000000 51.000000 14.721252 6.000000
-42.103910 0.444789 22.548896 0.000000 46.000000 14.388346 0.000000
-44.921716 -1.441970 22.264599 0.000000 45.000000 14.553169 0.000000
-41.748963 2.451147 23.099462 0.000000 50.000000 14.840754 25.000000
-40.821844 0.383939 22.775240 0.000000 43.000000 14.428049 0.000000
-40.833099 0.225830 22.820073 0.000000 43.000000 14.477252 0.000000
-43.742461 -2.523087 22.615941 0.000000 44.000000 14.752203 11.000000
-41.217835 2.223158 22.938170 0.000000 35.000000 14.609012 22.000000
-44.472874 -2.192066 22.605917 0.000000 30.000000 14.841193 10.000000
-39.931991 -0.159156 23.171779 0.000000 48.000000 14.702688 5.000000
-40.945724 -2.021949 23.142120 0.000000 36.000000 14.857966 1.000000
-41.081729 -0.695188 22.742312 0.000000 41.000000 14.455069 0.000000
-42.513901 -1.236906 22.503532 0.000000 49.000000 14.437062 0.000000
-45.237116 1.730071 22.868143 0.000000 21.000000 15.131186 26.000000
-42.561711 -1.418523 22.521455 0.000000 36.000000 14.465412 0.000000
-41.202418 -1.074330 22.708426 0.000000 39.000000 14.446735 0.000000
-42.267836 1.792647 22.742398 0.000000 43.000000 14.576002 25.000000
-41.247661 -1.248507 22.726580 0.000000 35.000000 14.474790 0.000000
-42.684230 -1.801868 22.525803 0.000000 58.000000 14.495252 0.000000
-41.299797 -1.422664 22.742857 0.000000 63.000000 14.501985 0.000000
-44.204749 -3.184882 22.351120 0.000000 59.000000 14.570587 2.000000
-40.369382 2.429155 23.318542 0.000000 70.000000 14.858373 22.000000
-39.922446 1.318953 23.039611 0.000000 35.000000 14.540420 6.000000
-45.370989 2.365611 22.332410 0.000000 34.000000 14.607607 0.000000
-45.022049 0.635050 22.385483 0.000000 53.000000 14.644921 19.000000
-43.416641 2.682231 22.599197 0.000000 35.000000 14.582377 0.000000
-43.985148 2.800513 22.936648 0.000000 57.000000 14.996031 24.000000
-43.208339 -3.045460 22.409351 0.000000 44.000000 14.481218 0.000000
-40.937151 2.423431 23.459923 0.000000 21.000000 15.080483 22.000000
-41.859429 -2.787547 22.630016 0.000000 54.000000 14.499135 0.000000
-41.428683 -1.813590 22.941041 0.000000 44.000000 14.724657 1.000000
-39.942678 2.466918 23.064763 0.000000 29.000000 14.544823 28.000000
-39.487225 0.370689 23.020519 0.000000 45.000000 14.477911 0.000000
-39.602697 0.476274 23.002067 0.000000 38.000000 14.474208 0.000000
-40.942141 2.400821 23.299273 0.000000 56.000000 14.922739 22.000000
-41.390126 -1.081948 22.966304 0.000000 44.000000 14.729154 14.000000
-41.616853 -0.536180 22.816146 0.000000 38.000000 14.602276 14.000000
-43.123284 2.239695 22.955790 0.000000 54.000000 14.901732 25.000000
-41.833172 0.115455 22.972756 0.000000 44.000000 14.775211 8.000000
-40.378529 1.152100 23.458506 0.000000 11.000000 15.024196 6.000000
-39.890987 2.703029 23.214647 0.000000 42.000000 14.680808 28.000000
-43.153826 -1.325325 22.510141 0.000000 46.000000 14.537970 0.000000
-41.103747 1.785383 22.744783 0.000000 31.000000 14.410122 0.000000
-41.358500 2.733530 22.760731 0.000000 45.000000 14.443418 0.000000
-40.122526 3.150457 23.009276 0.000000 45.000000 14.502010 0.000000
-43.337992 -1.730961 22.683611 0.000000 54.000000 14.744489 11.000000
-41.779292 3.051509 23.168462 0.000000 68.000000 14.901160 23.000000
-43.671924 2.272891 22.674443 0.000000 56.000000 14.702089 27.000000
-43.457479 2.841365 22.460652 0.000000 58.000000 14.447980 0.000000
-43.098743 -0.016916 22.811896 0.000000 49.000000 14.801842 17.000000
-43.022254 -0.238032 22.746294 0.000000 47.000000 14.730388 17.000000
-44.201687 1.217355 22.300655 0.000000 53.000000 14.430463 0.000000
-42.808932 1.510082 22.509355 0.000000 50.000000 14.429491 0.000000
-44.291365 1.035710 22.296425 0.000000 49.000000 14.442954 0.000000
-42.886016 1.340380 22.517729 0.000000 57.000000 14.452386 0.000000
-44.382987 0.852783 22.294566 0.000000 54.000000 14.458098 0.000000
-41.854758 2.985550 23.199097 0.000000 51.000000 14.943727 23.000000
-40.669924 1.831625 23.356483 0.000000 63.000000 14.951564 7.000000
-43.190037 0.798366 22.447417 0.000000 42.000000 14.437856 0.000000
-43.271843 0.631041 22.466336 0.000000 51.000000 14.471817 0.000000
-43.143753 -0.453268 22.541313 0.000000 43.000000 14.549570 18.000000
-43.468551 0.395239 22.300286 0.000000 36.000000 14.340811 0.000000
-41.660466 -1.115567 23.037318 0.000000 46.000000 14.839197 14.000000
-44.890415 -2.059471 22.292439 0.000000 44.000000 14.588772 10.000000
-45.026766 -0.267491 22.244159 0.000000 78.000000 14.524197 0.000000
-40.925107 -3.002481 23.178621 0.000000 57.000000 14.911086 29.000000
-43.128124 -0.228294 22.580322 0.000000 43.000000 14.581312 17.000000
-40.430465 -1.664323 23.145993 0.000000 47.000000 14.779973 12.000000
-44.963171 -1.797315 22.189666 0.000000 52.000000 14.492281 0.000000
-40.486459 -0.897897 23.839072 0.000000 1.000000 15.458090 9.000000
-40.982814 -2.937372 22.756512 0.000000 42.000000 14.500525 0.000000
-39.716131 -2.274961 22.943877 0.000000 37.000000 14.489146 0.000000
-45.111267 0.879170 22.614053 0.000000 51.000000 14.878967 21.000000
-41.668733 2.918343 23.005390 0.000000 52.000000 14.726560 23.000000
-41.198133 -2.682469 22.721271 0.000000 44.000000 14.491611 0.000000
-40.796181 -0.309842 23.058837 0.000000 55.000000 14.719037 13.000000
-42.014856 2.729707 22.862611 0.000000 46.000000 14.639226 23.000000
-44.588432 2.467148 22.911172 0.000000 45.000000 15.064892 24.000000
-40.129409 -1.780909 22.845247 0.000000 48.000000 14.441282 0.000000
-41.142138 -1.298407 23.108932 0.000000 33.000000 14.838794 14.000000
-40.754396 -0.829397 22.699183 0.000000 31.000000 14.367790 0.000000
-43.798292 -0.471481 22.727302 0.000000 50.000000 14.828615 18.000000
-40.652769 0.086984 22.965418 0.000000 53.000000 14.597784 13.000000
-42.357479 -0.824850 22.511833 0.000000 43.000000 14.414246 0.000000
-42.410151 -0.656582 22.528730 0.000000 42.000000 14.435150 0.000000
-42.467657 -0.494089 22.533869 0.000000 54.000000 14.445239 0.000000
-40.631610 2.340960 23.163029 0.000000 50.000000 14.744258 22.000000
-40.019451 1.626185 22.943295 0.000000 24.000000 14.452905 0.000000
-40.945243 -0.344010 23.186496 0.000000 42.000000 14.867585 13.000000
-44.443122 -2.156178 22.626317 0.000000 46.000000 14.856339 10.000000
-43.151065 0.301873 22.596497 0.000000 37.000000 14.589823 17.000000
-41.341249 0.519715 22.598274 0.000000 33.000000 14.325346 0.000000
-40.645568 -1.835502 22.898995 0.000000 53.000000 14.570230 12.000000
-41.371030 0.690306 22.633105 0.000000 33.000000 14.360633 0.000000
-42.824642 0.265520 22.364740 0.000000 36.000000 14.314075 0.000000
-41.363150 0.887680 22.735394 0.000000 46.000000 14.456660 0.000000
-40.454581 -1.144492 23.203078 0.000000 43.000000 14.829335 9.000000
-42.859071 2.090890 23.475464 0.000000 63.000000 15.380647 25.000000
-42.821086 0.662441 22.520714 0.000000 50.000000 14.459769 0.000000
-40.984167 1.508720 22.823361 0.000000 36.000000 14.476201 0.000000
-44.622003 2.632328 22.919178 0.000000 42.000000 15.074300 24.000000
-41.480328 1.369964 22.740550 0.000000 58.000000 14.468878 0.000000
-43.339706 2.259312 22.884600 0.000000 53.000000 14.862212 27.000000
-41.509448 1.535542 22.751215 0.000000 62.000000 14.480265 0.000000
-42.060089 2.365405 23.286577 0.000000 66.000000 15.072615 25.000000
-41.566613 1.680792 22.704552 0.000000 38.000000 14.439410 0.000000
-42.958953 1.337748 22.523674 0.000000 54.000000 14.468871 0.000000
-42.490023 0.528784 22.506044 0.000000 26.000000 14.400093 0.000000
-43.029135 1.485113 22.453098 0.000000 41.000000 14.406199 0.000000
-43.896063 -2.256264 22.727255 0.000000 57.000000 14.879101 11.000000
-42.674386 2.449941 22.740418 0.000000 53.000000 14.619450 25.000000
-41.482374 -3.080429 22.752323 0.000000 58.000000 14.571560 29.000000
-43.408384 0.181340 22.897711 0.000000 61.000000 14.927485 17.000000
-40.716506 -1.207482 23.052156 0.000000 56.000000 14.719204 9.000000
-41.671603 -0.793295 23.059063 0.000000 54.000000 14.855749 14.000000
-41.474169 -0.680356 23.018516 0.000000 48.000000 14.784775 14.000000
-42.015413 -2.014684 22.672803 0.000000 28.000000 14.548268 0.000000
-45.453412 -0.211190 22.166456 0.000000 51.000000 14.507895 0.000000
-43.748391 0.637857 22.439518 0.000000 62.000000 14.514082 0.000000
-42.855953 2.168916 23.118640 0.000000 62.000000 15.025609 25.000000
-44.570768 0.715481 22.447578 0.000000 53.000000 14.639431 20.000000
-45.370116 0.549481 22.133754 0.000000 44.000000 14.447985 0.000000
-43.666523 1.184217 22.460196 0.000000 53.000000 14.511556 0.000000
-43.399018 2.428274 22.496900 0.000000 36.000000 14.483806 0.000000
-43.364278 2.595929 22.481581 0.000000 39.000000 14.460208 0.000000
-44.054508 2.555843 22.836729 0.000000 52.000000 14.912206 24.000000
-40.017384 3.428513 22.985401 0.000000 51.000000 14.457513 0.000000
-41.154763 -2.937211 23.345107 0.000000 46.000000 15.107675 29.000000
-39.829752 3.183895 23.066606 0.000000 56.000000 14.515693 0.000000
-39.758066 3.049743 23.064850 0.000000 55.000000 14.506321 0.000000
-39.690368 2.911974 23.055276 0.000000 57.000000 14.489866 0.000000
-40.244515 3.270446 22.944963 0.000000 47.000000 14.453586 0.000000
-41.472650 2.932753 22.812781 0.000000 49.000000 14.507359 0.000000
-44.922851 -0.919992 22.654582 0.000000 46.000000 14.928489 16.000000
-41.449268 2.599715 22.752908 0.000000 49.000000 14.451537 0.000000
-40.155819 2.291192 22.808506 0.000000 41.000000 14.325729 0.000000
-40.386293 1.181808 23.111107 0.000000 55.000000 14.681042 6.000000
-45.452962 0.072613 22.462320 0.000000 43.000000 14.794733 19.000000
-44.129559 2.174820 22.984375 0.000000 77.000000 15.076893 27.000000
-40.070698 2.006503 22.926275 0.000000 41.000000 14.435726 0.000000
-42.640507 2.359778 23.075208 0.000000 67.000000 14.947586 25.000000
-40.036930 1.860870 22.973120 0.000000 50.000000 14.480153 0.000000
-43.621543 -1.922385 22.693907 0.000000 45.000000 14.799594 11.000000
-40.030542 1.694107 22.961160 0.000000 43.000000 14.470798 0.000000
-41.498715 2.790293 23.199011 0.000000 46.000000 14.896121 23.000000
-44.494768 2.190585 22.842084 0.000000 48.000000 14.988635 27.000000
-39.284480 -2.163802 23.051015 0.000000 49.000000 14.530429 4.000000
-45.356765 0.705862 22.273767 0.000000 40.000000 14.581377 0.000000
-41.369977 0.737319 22.630087 0.000000 37.000000 14.356536 0.000000
-41.392229 0.550272 22.587601 0.000000 36.000000 14.321538 0.000000
-44.153931 2.328212 22.689125 0.000000 76.000000 14.785208 27.000000
-40.056945 0.668070 22.855502 0.000000 33.000000 14.391012 0.000000
-40.718316 -2.635277 23.001667 0.000000 41.000000 14.698630 3.000000
-41.701834 2.481316 23.074931 0.000000 59.000000 14.809053 25.000000
-40.034164 0.361290 22.934273 0.000000 38.000000 14.471898 0.000000
-44.291918 0.530267 22.886004 0.000000 49.000000 15.036594 20.000000
-40.045911 0.027305 22.956467 0.000000 46.000000 14.502363 0.000000
-41.486876 -1.022821 22.650038 0.000000 45.000000 14.429071 0.000000
-42.028602 2.983825 23.222404 0.000000 53.000000 14.991966 23.000000
-40.171708 -0.868517 22.894074 0.000000 50.000000 14.477101 0.000000
-41.566951 -1.569630 22.670533 0.000000 38.000000 14.472078 0.000000
-39.688739 0.019344 23.185825 0.000000 43.000000 14.677757 5.000000
-40.263518 -1.405907 22.890484 0.000000 41.000000 14.497787 0.000000
-44.633132 -2.256459 22.546089 0.000000 47.000000 14.806501 10.000000
-40.597649 -0.050188 23.002403 0.000000 47.000000 14.629196 13.000000
-44.620413 2.526104 22.941386 0.000000 58.000000 15.098206 24.000000
-41.233091 2.634304 22.978957 0.000000 48.000000 14.643185 22.000000
-41.914330 -2.932572 22.606532 0.000000 50.000000 14.486801 0.000000
-41.970098 -3.126418 22.611150 0.000000 43.000000 14.503389 0.000000
-41.072274 -1.560800 22.865609 0.000000 36.000000 14.593325 0.000000
-39.716330 1.796832 23.096416 0.000000 36.000000 14.557057 0.000000
-40.937455 2.655242 23.094497 0.000000 54.000000 14.714295 22.000000
-39.961438 1.922242 22.934134 0.000000 46.000000 14.429414 0.000000
-40.869082 0.050950 23.167474 0.000000 40.000000 14.829697 13.000000
-43.325842 1.960705 22.859782 0.000000 36.000000 14.841743 27.000000
-43.805155 2.710044 23.078189 0.000000 65.000000 15.111862 24.000000
-40.834481 2.834485 22.857921 0.000000 62.000000 14.461706 0.000000
-40.948991 2.949376 22.823436 0.000000 42.000000 14.441813 0.000000
-43.655607 -2.803178 22.415291 0.000000 63.000000 14.546853 0.000000
-45.468602 1.881376 22.907204 0.000000 46.000000 15.200228 26.000000
-39.906642 3.430513 22.980873 0.000000 44.000000 14.436973 0.000000
-43.110635 2.683013 22.566205 0.000000 41.000000 14.505458 0.000000
-43.198922 2.486486 22.472133 0.000000 41.000000 14.429173 0.000000
-43.491373 -0.375906 22.510362 0.000000 39.000000 14.567657 18.000000
-42.221995 2.306790 23.220752 0.000000 62.000000 15.032111 25.000000
-39.191328 -1.322805 23.049418 0.000000 35.000000 14.498227 0.000000
-42.107922 3.067557 23.128935 0.000000 65.000000 14.909267 23.000000
-40.652374 -1.824035 23.528241 0.000000 3.000000 15.193476 12.000000
-42.176871 1.503323 22.616753 0.000000 46.000000 14.444446 0.000000
-40.441602 -2.655607 23.727098 0.000000 1.000000 15.376666 3.000000
-42.205118 1.343731 22.657348 0.000000 54.000000 14.491945 0.000000
-44.415030 2.239273 22.981363 0.000000 55.000000 15.113893 27.000000
-43.451893 -0.101140 22.850684 0.000000 59.000000 14.893015 17.000000
-40.737879 -2.769059 23.248466 0.000000 51.000000 14.948339 3.000000
-42.348322 0.977715 22.595625 0.000000 41.000000 14.459062 0.000000
-43.172004 2.336782 22.867319 0.000000 46.000000 14.819278 25.000000
-43.962675 0.247559 22.197509 0.000000 36.000000 14.313623 0.000000
-44.978482 -0.410804 22.558218 0.000000 48.000000 14.830824 15.000000
-42.897584 2.347565 22.721605 0.000000 46.000000 14.635212 25.000000
-42.640682 0.380153 22.396566 0.000000 35.000000 14.316613 0.000000
-45.764002 1.990191 22.709950 0.000000 46.000000 15.045602 26.000000
-42.709907 0.201533 22.393974 0.000000 36.000000 14.327704 0.000000
-44.127895 -0.276132 22.279952 0.000000 46.000000 14.429759 0.000000
-40.574406 -1.152183 23.319799 0.000000 37.000000 14.962294 9.000000
-45.580198 1.876207 22.690229 0.000000 55.000000 15.001829 26.000000
-42.793409 -0.112444 22.498170 0.000000 42.000000 14.449262 0.000000
-45.494216 0.768872 22.439593 0.000000 61.000000 14.764021 21.000000
-44.771679 -1.506995 22.084458 0.000000 34.000000 14.354583 0.000000
-45.065784 2.523089 22.714492 0.000000 63.000000 14.938231 24.000000
-43.413104 -1.291358 22.292765 0.000000 37.000000 14.359738 0.000000
-44.875141 -1.826869 22.235108 0.000000 57.000000 14.525104 0.000000
-44.043630 0.764801 22.481622 0.000000 37.000000 14.595853 20.000000
-40.111875 3.092597 23.139104 0.000000 58.000000 14.630084 28.000000
-43.676020 -1.821020 22.345906 0.000000 48.000000 14.461139 0.000000
-44.329885 -2.835156 22.198442 0.000000 43.000000 14.430517 0.000000
-44.415243 -2.992856 22.257533 0.000000 46.000000 14.504537 0.000000
-40.005265 -0.318050 23.306004 0.000000 55.000000 14.849312 5.000000
-44.720060 -3.414432 22.182711 0.000000 35.000000 14.483206 0.000000
-41.231369 2.802253 22.962265 0.000000 37.000000 14.622999 0.000000
-40.444332 1.116828 23.214085 0.000000 50.000000 14.792635 6.000000
-39.884451 -2.050925 22.801513 0.000000 49.000000 14.368089 0.000000
-45.092161 1.941637 22.808476 0.000000 65.000000 15.046878 26.000000
-40.809482 1.703760 23.098872 0.000000 61.000000 14.719511 7.000000
-42.969745 1.897008 22.777795 0.000000 48.000000 14.710424 25.000000
-44.013606 2.372006 23.010838 0.000000 54.000000 15.082279 27.000000
-40.973777 1.535669 22.798739 0.000000 39.000000 14.449790 0.000000
-40.282466 1.514902 22.978535 0.000000 57.000000 14.528081 0.000000
-40.410041 -2.611988 22.984627 0.000000 44.000000 14.636706 3.000000
-40.017031 2.532175 23.290859 0.000000 44.000000 14.777918 28.000000
-43.315489 -0.701025 23.097162 0.000000 60.000000 15.129349 18.000000
-41.830438 2.979432 22.912993 0.000000 52.000000 14.657299 23.000000
-40.679498 3.032485 22.893121 0.000000 30.000000 14.470073 0.000000
-41.349587 -0.312886 22.738721 0.000000 51.000000 14.482468 0.000000
-43.464981 -1.378263 22.516100 0.000000 46.000000 14.589953 0.000000
-41.458389 -0.193154 22.694008 0.000000 41.000000 14.451532 0.000000
-45.369707 2.370776 22.321424 0.000000 44.000000 14.596448 0.000000
-41.543655 -0.053881 22.688510 0.000000 38.000000 14.455587 0.000000
-41.816337 -0.976275 22.702453 0.000000 31.000000 14.527631 14.000000
-40.445876 0.564619 22.751974 0.000000 36.000000 14.346964 0.000000
-41.812498 0.356008 22.631645 0.000000 46.000000 14.429864 0.000000
-44.928982 -2.098185 22.471197 0.000000 68.000000 14.771981 10.000000
-42.013606 0.611985 22.532601 0.000000 40.000000 14.355754 0.000000
-39.964699 -2.749381 23.075870 0.000000 39.000000 14.665352 3.000000
-42.030040 0.799533 22.635079 0.000000 52.000000 14.455686 0.000000
-44.347258 -2.117077 22.558226 0.000000 44.000000 14.774314 10.000000
-41.305650 -2.017429 23.117997 0.000000 41.000000 14.886074 1.000000
-44.834787 1.382168 22.523939 0.000000 45.000000 14.739570 26.000000
-40.400152 2.845998 23.048428 0.000000 53.000000 14.587108 28.000000
-42.252113 -0.039972 22.767191 0.000000 53.000000 14.635620 0.000000
-45.559366 1.801521 22.759848 0.000000 62.000000 15.069210 26.000000
-44.558900 2.182067 22.855689 0.000000 60.000000 15.011545 27.000000
-40.871403 2.534044 23.175853 0.000000 52.000000 14.787694 22.000000
-40.714662 -1.608208 23.067015 0.000000 53.000000 14.741808 12.000000
-44.616303 2.304183 22.715377 0.000000 64.000000 14.878552 27.000000
-41.311616 2.618173 22.752796 0.000000 39.000000 14.431138 0.000000
-41.348796 2.771430 22.767186 0.000000 39.000000 14.447627 0.000000
-42.936732 2.364649 22.692555 0.000000 34.000000 14.611788 25.000000
-43.517669 2.933305 22.457730 0.000000 44.000000 14.451922 0.000000
-45.198093 0.727220 22.502789 0.000000 62.000000 14.784554 21.000000
-45.029084 -1.043106 22.590109 0.000000 47.000000 14.882585 16.000000
-44.708751 1.264683 22.292420 0.000000 55.000000 14.494699 0.000000
-44.836095 1.100875 22.292275 0.000000 50.000000 14.516316 0.000000
-45.297209 0.573851 22.198012 0.000000 50.000000 14.500511 0.000000
-42.115931 -3.122246 22.596463 0.000000 44.000000 14.509870 0.000000
-40.716085 2.827493 23.231423 0.000000 74.000000 14.814218 22.000000
-42.287166 -2.829622 22.548217 0.000000 35.000000 14.480944 0.000000
-42.372563 -2.686304 22.513796 0.000000 39.000000 14.456323 0.000000
-43.924583 -3.298247 22.326332 0.000000 53.000000 14.507850 0.000000
-44.616952 -0.627447 22.329116 0.000000 55.000000 14.556301 0.000000
-42.571642 -2.425940 22.382431 0.000000 34.000000 14.349856 0.000000
-43.567890 0.176552 22.744021 0.000000 70.000000 14.798614 17.000000
-44.364871 -2.548198 22.092069 0.000000 35.000000 14.324496 0.000000
-42.731381 -1.705393 22.488862 0.000000 38.000000 14.463561 0.000000
-39.540748 0.571115 22.949025 0.000000 31.000000 14.410840 0.000000
-44.354809 -2.104324 22.260157 0.000000 44.000000 14.480275 0.000000
-42.822023 -1.364834 22.492066 0.000000 36.000000 14.472898 0.000000
-44.401406 -1.925134 22.254815 0.000000 44.000000 14.478077 0.000000
-43.993369 0.724065 22.538683 0.000000 44.000000 14.645862 20.000000
-41.985513 2.062786 22.848751 0.000000 44.000000 14.634868 25.000000
-42.983537 -1.083914 22.350110 0.000000 34.000000 14.350100 0.000000
-44.499912 -1.573572 22.223478 0.000000 42.000000 14.454157 0.000000
-41.108909 0.093491 22.830256 0.000000 42.000000 14.529921 13.000000
-43.038442 -0.339217 22.479789 0.000000 36.000000 14.471147 0.000000
-44.688352 -0.492404 22.178968 0.000000 43.000000 14.415339 0.000000
-44.714772 -0.316373 22.163431 0.000000 39.000000 14.400201 0.000000
-42.228367 2.995643 23.427937 0.000000 6.000000 15.223950 23.000000
-42.508987 2.661464 22.998223 0.000000 63.000000 14.846252 23.000000
-40.104033 2.798029 23.423504 0.000000 56.000000 14.916305 28.000000
-39.975488 1.354726 23.027949 0.000000 38.000000 14.535826 6.000000
-43.215429 -0.621724 23.027665 0.000000 49.000000 15.044507 18.000000
-43.171408 0.868123 22.455347 0.000000 35.000000 14.441584 0.000000
-40.680354 1.788289 23.371469 0.000000 53.000000 14.968781 7.000000
-40.214833 2.591818 23.171466 0.000000 63.000000 14.687202 28.000000
-44.699513 0.825348 22.247681 0.000000 41.000000 14.458061 0.000000
-45.723454 1.757528 22.759616 0.000000 52.000000 15.093613 26.000000
-42.321328 2.472148 23.034545 0.000000 50.000000 14.858899 25.000000
-44.687635 1.193771 22.253190 0.000000 56.000000 14.454281 0.000000
-40.281164 3.213769 22.901928 0.000000 35.000000 14.417470 0.000000
-44.519706 1.923965 22.826586 0.000000 60.000000 14.982347 26.000000
-43.817407 -0.497463 22.604805 0.000000 55.000000 14.710727 18.000000
-39.434447 -0.003171 23.004765 0.000000 35.000000 14.462315 0.000000
-40.069940 3.419027 22.981000 0.000000 45.000000 14.460954 0.000000
-41.284486 3.080140 22.820478 0.000000 52.000000 14.484750 0.000000
-44.569150 1.578645 22.729481 0.000000 52.000000 14.900476 26.000000
-41.241270 2.925776 22.799382 0.000000 51.000000 14.460777 0.000000
-44.797024 2.177048 22.617600 0.000000 66.000000 14.810557 26.000000
-45.288532 2.120400 22.566136 0.000000 59.000000 14.831898 26.000000
-42.733276 2.480316 22.990718 0.000000 60.000000 14.874964 25.000000
-40.931304 1.859405 22.775730 0.000000 44.000000 14.414284 0.000000
-39.667711 2.077148 22.927561 0.000000 37.000000 14.377265 0.000000
-39.517025 1.650432 23.041044 0.000000 42.000000 14.476434 0.000000
-44.033358 0.379803 22.645781 0.000000 48.000000 14.764614 20.000000
-43.684857 1.803208 22.757961 0.000000 73.000000 14.796158 27.000000
-45.793354 2.531820 22.286463 0.000000 39.000000 14.619860 0.000000
-44.427978 -2.958417 22.291030 0.000000 36.000000 14.538815 0.000000
-40.389971 1.246608 23.069850 0.000000 58.000000 14.639438 6.000000
-45.099742 -1.339293 22.233001 0.000000 58.000000 14.545568 0.000000
-42.258188 2.527465 23.034445 0.000000 63.000000 14.848538 25.000000
-39.385289 0.864099 23.037233 0.000000 40.000000 14.469641 0.000000
-43.077238 0.374280 22.389265 0.000000 26.000000 14.372658 0.000000
-40.301121 1.268212 23.081712 0.000000 51.000000 14.637880 6.000000
-44.099106 -3.258416 22.620005 0.000000 37.000000 14.822805 2.000000
-44.938167 0.560279 22.563800 0.000000 57.000000 14.810716 19.000000
-45.246321 0.545939 22.360685 0.000000 54.000000 14.654647 19.000000
-44.250529 2.659042 22.482937 0.000000 28.000000 14.588460 24.000000
-39.302744 0.057357 23.046006 0.000000 48.000000 14.482828 0.000000
-42.945880 2.144848 23.017657 0.000000 52.000000 14.939208 25.000000
-40.628521 -0.792265 22.723905 0.000000 33.000000 14.373281 0.000000
-45.750447 1.699367 22.789588 0.000000 33.000000 15.128354 26.000000
-45.139244 0.993896 22.564691 0.000000 72.000000 14.831842 21.000000
-42.081358 2.963825 23.161771 0.000000 56.000000 14.940023 23.000000
-41.603607 3.011827 23.080549 0.000000 41.000000 14.789586 23.000000
-40.701221 -2.189924 22.781821 0.000000 42.000000 14.469589 0.000000
-39.353492 -1.683968 22.973851 0.000000 31.000000 14.454292 0.000000
-39.389269 0.511872 23.044888 0.000000 33.000000 14.484971 0.000000
-42.690123 2.408259 22.956402 0.000000 60.000000 14.836243 25.000000
-40.144486 -1.134343 23.451074 0.000000 27.000000 15.029608 9.000000
-40.382183 3.002832 22.933589 0.000000 50.000000 14.467704 0.000000
-41.821070 2.488976 23.077639 0.000000 67.000000 14.828824 25.000000
-43.719581 2.197466 22.811269 0.000000 79.000000 14.845878 27.000000
-40.554217 0.333961 22.826507 0.000000 29.000000 14.441072 0.000000
-41.341766 -1.150847 22.920084 0.000000 67.000000 14.677839 14.000000
-41.431779 2.696485 22.778765 0.000000 51.000000 14.472614 0.000000
-39.812355 2.766608 23.261920 0.000000 76.000000 14.714903 28.000000
-45.414205 1.866733 22.976941 0.000000 66.000000 15.261647 26.000000
-41.877314 1.471838 22.672860 0.000000 36.000000 14.457261 0.000000
-39.398127 -0.113971 23.230363 0.000000 61.000000 14.682498 5.000000
-42.831596 1.438061 22.546030 0.000000 62.000000 14.470520 0.000000
-41.515475 1.682727 22.731763 0.000000 44.000000 14.458892 0.000000
-44.097474 2.291613 22.673844 0.000000 67.000000 14.762671 27.000000
-39.919022 1.274115 23.089134 0.000000 45.000000 14.589831 6.000000
-42.887019 1.077223 22.523313 0.000000 43.000000 14.463420 0.000000
-41.552771 1.345768 22.738279 0.000000 58.000000 14.477603 0.000000
-42.346356 -1.846429 22.646355 0.000000 43.000000 14.566545 0.000000
-43.008626 -1.017725 22.634409 0.000000 46.000000 14.633629 0.000000
-41.414689 3.137690 22.904898 0.000000 52.000000 14.585926 23.000000
-41.022357 2.783103 22.873196 0.000000 37.000000 14.505042 0.000000
-43.004478 0.523337 22.463089 0.000000 39.000000 14.432126 0.000000
-45.254844 -2.176679 22.575746 0.000000 69.000000 14.924145 10.000000
-44.666886 2.205265 22.722360 0.000000 66.000000 14.894794 27.000000
-43.950212 1.750086 22.790462 0.000000 65.000000 14.867777 27.000000
-40.304842 3.296423 22.923309 0.000000 32.000000 14.440361 0.000000
-41.149681 2.274153 23.039240 0.000000 30.000000 14.698099 22.000000
-45.398471 1.434141 22.522521 0.000000 49.000000 14.818646 26.000000
-41.946062 -0.438193 22.648708 0.000000 44.000000 14.482257 0.000000
-40.012026 3.027839 23.223075 0.000000 47.000000 14.700031 28.000000
-42.510079 -0.677420 22.901016 0.000000 36.000000 14.818322 18.000000
-42.124848 -0.863654 22.499677 0.000000 34.000000 14.369361 0.000000
-43.482531 -1.341867 22.437664 0.000000 68.000000 14.514155 0.000000
-45.203915 0.497621 22.838104 0.000000 18.000000 15.121795 19.000000
-40.171520 2.975342 23.184584 0.000000 60.000000 14.686094 28.000000
-43.648601 -1.758418 22.372928 0.000000 48.000000 14.482629 0.000000
-41.882397 -0.785549 22.861778 0.000000 55.000000 14.690914 14.000000
-42.879562 1.922694 22.867218 0.000000 52.000000 14.785319 25.000000
-44.168016 -2.983961 22.286775 0.000000 44.000000 14.497522 0.000000
-42.779918 -2.579101 22.412538 0.000000 44.000000 14.412890 0.000000
-39.472578 -2.161806 23.449394 0.000000 48.000000 14.951702 4.000000
-41.082058 3.249141 22.946839 0.000000 30.000000 14.577029 23.000000
-45.738317 1.441979 22.677978 0.000000 77.000000 15.021435 26.000000
-43.514497 2.189659 23.101747 0.000000 71.000000 15.103734 27.000000
-39.165889 -0.797185 23.020580 0.000000 38.000000 14.455302 0.000000
-45.151781 2.131618 22.389805 0.000000 37.000000 14.637449 26.000000
-39.409536 -0.605717 23.014839 0.000000 52.000000 14.480963 0.000000
-45.285670 0.475729 22.787265 0.000000 61.000000 15.083774 19.000000
-42.108032 -1.917063 22.676418 0.000000 33.000000 14.563252 0.000000
-40.253260 0.091533 22.894527 0.000000 43.000000 14.469771 0.000000
-41.750977 -1.308718 23.360715 0.000000 6.000000 15.176155 14.000000
-44.592583 -1.008654 22.618895 0.000000 47.000000 14.847219 30.000000
-45.776167 1.423569 22.765747 0.000000 73.000000 15.114113 26.000000
-40.881925 0.546573 22.676141 0.000000 29.000000 14.335388 0.000000
-43.940082 2.269706 22.491512 0.000000 51.000000 14.559974 27.000000
-42.322489 2.783970 23.042750 0.000000 44.000000 14.860826 23.000000
-42.548168 2.751425 23.025478 0.000000 41.000000 14.877047 23.000000
-41.365616 -2.058632 22.779436 0.000000 45.000000 14.560659 1.000000
-40.391605 1.893852 23.076173 0.000000 43.000000 14.632733 7.000000
-39.845538 1.365053 23.010672 0.000000 44.000000 14.499727 0.000000
-41.117172 1.016232 22.768871 0.000000 45.000000 14.451576 0.000000
-39.948283 1.478250 22.978784 0.000000 45.000000 14.480735 0.000000
-44.526769 0.661835 22.660002 0.000000 58.000000 14.844305 20.000000
-40.042851 1.601751 22.965607 0.000000 42.000000 14.478861 0.000000
-43.618725 -2.244927 22.971947 0.000000 52.000000 15.080820 11.000000
-40.134229 1.725720 22.954031 0.000000 37.000000 14.478099 0.000000
-40.655941 -2.786323 22.841327 0.000000 41.000000 14.534067 3.000000
-45.294370 1.315196 22.507520 0.000000 41.000000 14.791173 21.000000
-42.267741 3.001957 23.153580 0.000000 71.000000 14.958103 23.000000
-40.302916 1.984827 22.951943 0.000000 52.000000 14.495152 0.000000
-40.245812 1.142772 23.324816 0.000000 43.000000 14.872933 6.000000
-40.451286 2.071086 22.798327 0.000000 34.000000 14.362887 0.000000
-43.295967 -2.190100 22.754356 0.000000 47.000000 14.817758 11.000000
-40.600563 -2.642236 23.446660 0.000000 53.000000 15.121958 3.000000
-41.721433 -0.589006 23.072607 0.000000 56.000000 14.872190 14.000000
-40.549040 -2.547323 23.178820 0.000000 52.000000 14.847603 3.000000
-40.881043 1.571650 22.930454 0.000000 36.000000 14.565945 7.000000
-43.229357 2.182000 22.941169 0.000000 54.000000 14.903788 27.000000
-43.786447 1.105974 22.406013 0.000000 45.000000 14.476897 0.000000
-43.902769 0.920065 22.365283 0.000000 51.000000 14.457220 0.000000
-39.085706 -1.397409 23.075609 0.000000 49.000000 14.510380 0.000000
-44.570252 -0.041338 22.105799 0.000000 39.000000 14.316675 0.000000
-44.649480 -0.197493 22.156802 0.000000 40.000000 14.381775 0.000000
-44.767588 -0.373542 22.149686 0.000000 38.000000 14.395409 0.000000
-44.891203 -0.817954 22.386063 0.000000 39.000000 14.656193 16.000000
-45.014809 -0.734332 22.142406 0.000000 47.000000 14.431324 0.000000
-44.309920 2.009357 22.926533 0.000000 60.000000 15.049135 27.000000
-44.012702 2.289395 22.453744 0.000000 47.000000 14.532715 27.000000
-43.107467 0.127750 22.529463 0.000000 33.000000 14.520752 0.000000
-42.718542 1.103747 22.536504 0.000000 33.000000 14.451559 0.000000
-45.418022 0.447585 22.865846 0.000000 55.000000 15.181231 19.000000
-40.903566 -2.040288 22.719346 0.000000 39.000000 14.434003 0.000000
-42.068442 2.576060 23.048077 0.000000 60.000000 14.833586 25.000000
-41.087196 0.310064 22.847559 0.000000 41.000000 14.539482 0.000000
-42.463606 -2.495311 22.386532 0.000000 36.000000 14.339700 0.000000
-43.647895 2.085403 22.986538 0.000000 51.000000 15.011182 27.000000
-44.714450 1.529137 22.651016 0.000000 57.000000 14.844881 26.000000
-42.545087 -2.108014 22.547814 0.000000 35.000000 14.503141 0.000000
-41.222378 -1.450361 22.739970 0.000000 57.000000 14.488495 0.000000
-42.619649 -1.952194 22.557434 0.000000 51.000000 14.520267 0.000000
-41.311115 -1.317853 22.711160 0.000000 33.000000 14.470128 0.000000
-42.720917 -1.821529 22.510530 0.000000 44.000000 14.485850 0.000000
-42.814567 -1.678625 22.477880 0.000000 46.000000 14.464184 0.000000
-42.904495 -1.537196 22.443236 0.000000 38.000000 14.440036 0.000000
-42.964407 -1.370119 22.460900 0.000000 43.000000 14.462770 0.000000
-41.645279 -0.545192 22.729802 0.000000 44.000000 14.521154 0.000000
-41.738133 -0.417333 22.664525 0.000000 47.000000 14.467402 0.000000
-41.805257 -0.270524 22.646479 0.000000 41.000000 14.456265 0.000000
-40.814247 -0.145489 23.423690 0.000000 47.000000 15.079238 13.000000
-40.629774 2.854856 22.874767 0.000000 35.000000 14.448345 0.000000
-42.180151 0.245315 22.779531 0.000000 66.000000 14.631602 8.000000
-42.100985 0.679645 22.648060 0.000000 54.000000 14.481234 0.000000
-43.639647 0.194416 22.237751 0.000000 36.000000 14.307790 0.000000
-43.026292 -2.664414 22.531060 0.000000 56.000000 14.567519 0.000000
-43.657104 0.379868 22.277060 0.000000 35.000000 14.345422 0.000000
-42.196216 0.990123 22.617251 0.000000 38.000000 14.458200 0.000000
-45.585784 0.240101 22.850034 0.000000 21.000000 15.194086 19.000000
-42.236497 1.147958 22.606109 0.000000 47.000000 14.449787 0.000000
-43.677254 0.751937 22.363367 0.000000 44.000000 14.426131 0.000000
-43.430340 -0.294236 22.540369 0.000000 49.000000 14.586849 17.000000
-41.436558 1.621904 22.736671 0.000000 29.000000 14.453572 0.000000
-40.884359 2.398544 23.414176 0.000000 36.000000 15.028097 22.000000
-40.434082 -0.807029 22.970901 0.000000 36.000000 14.589803 9.000000
-42.337404 1.628440 22.590790 0.000000 45.000000 14.439432 0.000000
-41.849481 0.358838 22.551525 0.000000 23.000000 14.355895 0.000000
-39.958225 3.091144 23.339125 0.000000 49.000000 14.805763 28.000000
-45.180376 0.554977 22.595010 0.000000 59.000000 14.876735 19.000000
-44.777215 -2.085709 22.371572 0.000000 42.000000 14.651217 10.000000
-44.666049 -3.036950 22.169198 0.000000 45.000000 14.454328 0.000000
-44.756770 -2.899653 22.074308 0.000000 45.000000 14.370780 0.000000
-44.706673 -2.644619 22.195132 0.000000 49.000000 14.477861 0.000000
-44.812444 -1.718978 22.170646 0.000000 47.000000 14.450065 0.000000
-44.837695 -1.543749 22.143758 0.000000 44.000000 14.423545 0.000000
-43.483607 1.792592 22.701796 0.000000 60.000000 14.711701 27.000000
-44.711791 1.135096 22.371168 0.000000 40.000000 14.575684 0.000000
-44.819374 -0.407756 22.155561 0.000000 43.000000 14.409409 0.000000
-44.820948 -0.228031 22.134440 0.000000 67.000000 14.385078 0.000000
-41.797625 2.733897 22.952371 0.000000 48.000000 14.696515 23.000000
-44.657018 0.733266 22.233785 0.000000 35.000000 14.440045 0.000000
-41.100340 -0.582937 22.856334 0.000000 42.000000 14.568271 14.000000
-42.229992 2.516337 23.100206 0.000000 63.000000 14.909742 25.000000
-45.748978 2.223434 22.120034 0.000000 47.000000 14.455085 0.000000
-44.937626 -2.133543 22.463416 0.000000 50.000000 14.766255 10.000000
-41.708745 -0.532531 22.829653 0.000000 50.000000 14.628856 14.000000
-40.648289 2.851633 22.908171 0.000000 55.000000 14.484135 0.000000
-43.018894 0.095094 22.584461 0.000000 74.000000 14.563013 17.000000
