-2.782233 -13.996790 9.991135 0.000000 39.000000 14.432185 0.000000
-2.749562 -14.172203 10.044939 0.000000 33.000000 14.367108 0.000000
-7.617113 -17.058671 11.654194 0.000000 42.000000 14.987962 16.000000
-3.196399 -15.217650 10.798050 0.000000 54.000000 14.454288 0.000000
-3.265441 -15.329385 10.878025 0.000000 56.000000 14.467604 0.000000
-3.306788 -15.470831 10.942424 0.000000 51.000000 14.445770 0.000000
-5.767912 -14.877794 10.137518 0.000000 39.000000 14.659298 13.000000
-4.063889 -13.481519 9.965014 0.000000 54.000000 14.973177 12.000000
-4.839918 -15.111333 10.740581 0.000000 62.000000 14.810151 17.000000
-3.930845 -13.284754 10.254025 0.000000 47.000000 15.287539 12.000000
-5.546055 -14.330512 10.008939 0.000000 62.000000 14.826406 29.000000
-3.583404 -15.955477 11.230079 0.000000 63.000000 14.451918 0.000000
-4.610492 -15.107816 10.986138 0.000000 47.000000 14.959020 17.000000
-3.931408 -16.894710 11.973626 0.000000 51.000000 14.572165 3.000000
-7.624018 -16.312630 11.096420 0.000000 65.000000 14.977077 21.000000
-5.286791 -16.566295 11.202087 0.000000 40.000000 14.431016 0.000000
-4.667432 -17.576988 11.980100 0.000000 37.000000 14.337203 0.000000
-5.388602 -16.673834 11.250080 0.000000 38.000000 14.428218 0.000000
-4.851005 -17.581784 12.066475 0.000000 54.000000 14.440800 0.000000
-4.274763 -12.170796 8.958375 0.000000 53.000000 14.974076 11.000000
-4.630501 -17.171257 12.118292 0.000000 51.000000 14.672294 4.000000
-5.178670 -15.228879 11.069610 0.000000 49.000000 15.073053 18.000000
-5.063913 -17.806443 12.161146 0.000000 57.000000 14.430573 0.000000
-5.178695 -17.907612 12.208730 0.000000 58.000000 14.433798 0.000000
-7.329209 -15.428863 10.550954 0.000000 60.000000 14.992700 27.000000
-6.120568 -16.770009 12.069366 0.000000 53.000000 15.172794 24.000000
-6.302721 -17.720990 11.574098 0.000000 30.000000 14.271552 0.000000
-7.650280 -14.084193 9.260947 0.000000 44.000000 14.811675 23.000000
-6.780664 -17.824047 11.737111 0.000000 44.000000 14.440214 0.000000
-7.012794 -18.029539 11.786492 0.000000 40.000000 14.409147 0.000000
-5.865015 -17.302274 12.082280 0.000000 56.000000 14.823967 24.000000
-6.205909 -15.175378 10.231411 0.000000 41.000000 14.653101 0.000000
-6.360189 -15.628560 11.290089 0.000000 53.000000 15.262214 25.000000
-7.617745 -13.542177 8.871378 0.000000 44.000000 14.808393 23.000000
-7.615174 -16.456386 11.232686 0.000000 43.000000 15.000402 21.000000
-1.438601 -16.661614 12.268177 0.000000 32.000000 14.423361 0.000000
-6.558471 -16.510557 11.391390 0.000000 54.000000 14.876116 25.000000
-7.913404 -14.732350 10.028705 0.000000 56.000000 15.100935 28.000000
-7.396877 -15.615624 10.718136 0.000000 70.000000 15.031593 27.000000
-6.618398 -13.567500 9.087948 0.000000 50.000000 14.758367 7.000000
-6.347021 -15.456360 10.986117 0.000000 33.000000 15.117970 25.000000
-5.866401 -14.979643 10.845355 0.000000 67.000000 15.181287 19.000000
-6.749026 -14.199581 9.151850 0.000000 46.000000 14.472415 0.000000
-5.831146 -14.511025 10.292355 0.000000 56.000000 15.005885 13.000000
-6.382921 -13.968472 9.077242 0.000000 45.000000 14.470520 0.000000
-5.973516 -13.780437 8.992738 0.000000 35.000000 14.427056 0.000000
-8.216608 -13.513835 9.214880 0.000000 58.000000 15.220502 23.000000
-7.570625 -16.593924 11.345105 0.000000 69.000000 15.001040 21.000000
-4.923016 -14.316892 9.696830 0.000000 41.000000 14.458273 0.000000
-5.306881 -16.903763 11.854269 0.000000 49.000000 14.757208 8.000000
-1.876403 -15.411331 11.915795 0.000000 37.000000 14.954248 1.000000
-5.617819 -15.584982 11.483967 0.000000 35.000000 15.287052 19.000000
-6.964091 -16.555960 11.350029 0.000000 56.000000 14.901226 27.000000
-3.592999 -16.325380 11.703855 0.000000 51.000000 14.616090 3.000000
-3.702006 -13.109482 9.667844 0.000000 46.000000 14.877080 12.000000
-5.450058 -13.084845 9.056387 0.000000 57.000000 14.769171 5.000000
-4.203709 -12.950928 8.904042 0.000000 34.000000 14.467649 0.000000
-7.056186 -18.102554 12.435042 0.000000 67.000000 14.889396 26.000000
-5.302698 -15.480340 11.052915 0.000000 70.000000 14.940877 18.000000
-6.107077 -13.394478 8.899062 0.000000 43.000000 14.602563 0.000000
-6.609519 -16.369321 11.271121 0.000000 62.000000 14.872738 25.000000
-1.950765 -15.312869 11.936211 0.000000 38.000000 15.042431 1.000000
-5.622141 -15.712549 11.386804 0.000000 49.000000 15.137677 19.000000
-6.568283 -14.890745 10.368306 0.000000 51.000000 15.000164 20.000000
-8.036932 -14.318452 9.247602 0.000000 68.000000 14.746404 23.000000
-5.723413 -15.306543 11.569100 0.000000 1.000000 15.536436 19.000000
-7.866376 -13.514018 9.053170 0.000000 46.000000 15.019924 23.000000
-6.257445 -17.550925 11.456485 0.000000 35.000000 14.266920 0.000000
-5.220746 -16.852837 11.475069 0.000000 50.000000 14.468570 0.000000
-6.441420 -16.510584 11.652228 0.000000 58.000000 15.058300 25.000000
-4.774978 -16.915909 11.406733 0.000000 37.000000 14.285941 0.000000
-4.457248 -13.250353 9.339740 0.000000 51.000000 14.692718 0.000000
-5.853805 -14.295498 10.083886 0.000000 47.000000 14.969560 29.000000
-4.252664 -16.574084 11.489735 0.000000 53.000000 14.440128 0.000000
-5.740364 -14.202074 10.061382 0.000000 48.000000 14.982005 29.000000
-4.549456 -15.587072 10.704196 0.000000 52.000000 14.447596 0.000000
-6.763508 -18.151850 12.382130 0.000000 70.000000 14.758586 26.000000
-3.562269 -15.352728 10.792326 0.000000 34.000000 14.447796 0.000000
-2.885353 -16.274950 11.615437 0.000000 40.000000 14.428646 0.000000
-3.387971 -15.322329 10.811639 0.000000 48.000000 14.444487 0.000000
-7.852001 -13.623223 9.140226 0.000000 45.000000 15.023032 23.000000
-6.614173 -16.732894 11.260560 0.000000 62.000000 14.656221 0.000000
-2.556546 -16.182394 11.680819 0.000000 38.000000 14.465567 0.000000
-6.604452 -15.825640 11.140140 0.000000 57.000000 15.080746 25.000000
-8.262527 -14.908015 9.998846 0.000000 40.000000 15.048530 22.000000
-7.945471 -15.839239 10.436265 0.000000 42.000000 14.793453 22.000000
-1.950098 -16.171256 11.749377 0.000000 35.000000 14.400702 0.000000
-2.417274 -15.285223 10.897943 0.000000 36.000000 14.333207 0.000000
-5.948201 -15.128730 10.714885 0.000000 36.000000 15.009212 19.000000
-5.009774 -15.596824 11.207180 0.000000 37.000000 14.935331 18.000000
-1.619729 -16.091042 11.838549 0.000000 49.000000 14.449028 0.000000
-4.379736 -13.567091 9.445995 0.000000 43.000000 14.578582 0.000000
-1.430896 -16.076520 11.879602 0.000000 59.000000 14.450783 0.000000
-5.979048 -15.144836 10.555982 0.000000 47.000000 14.880577 19.000000
-1.786858 -15.126021 11.085083 0.000000 40.000000 14.442390 0.000000
-6.954143 -17.972608 12.050772 0.000000 35.000000 14.638905 15.000000
-7.095368 -13.784103 8.747313 0.000000 39.000000 14.462929 0.000000
-7.095741 -13.897392 8.834524 0.000000 43.000000 14.466863 0.000000
-7.959305 -14.333771 9.653924 0.000000 60.000000 15.043090 23.000000
-3.406805 -13.361745 9.888426 0.000000 50.000000 14.845448 12.000000
-7.050996 -14.312184 9.044501 0.000000 33.000000 14.385196 0.000000
-7.034413 -14.463945 9.109829 0.000000 35.000000 14.346174 0.000000
-7.022860 -14.610572 9.177855 0.000000 35.000000 14.313281 0.000000
-8.404718 -14.993698 10.116729 0.000000 53.000000 15.121972 22.000000
-3.452569 -14.177482 10.285085 0.000000 52.000000 14.699639 14.000000
-7.436471 -16.215597 11.059615 0.000000 56.000000 14.964941 27.000000
-7.376180 -15.988228 10.226718 0.000000 47.000000 14.424083 0.000000
-6.096149 -18.176810 11.975194 0.000000 38.000000 14.284043 0.000000
-6.322375 -14.844567 10.126789 0.000000 56.000000 14.784687 13.000000
-5.316116 -13.050553 9.164016 0.000000 32.000000 14.846348 5.000000
-5.694915 -17.945020 12.097075 0.000000 51.000000 14.430770 0.000000
-6.007618 -15.389295 10.951413 0.000000 53.000000 15.058827 19.000000
-5.361041 -17.889672 12.156532 0.000000 56.000000 14.440551 0.000000
-5.173154 -17.890509 12.179722 0.000000 52.000000 14.419532 0.000000
-3.842590 -12.861460 9.243536 0.000000 53.000000 14.713039 12.000000
-5.121547 -15.268709 11.007860 0.000000 43.000000 14.989451 18.000000
-5.328967 -15.128270 10.953577 0.000000 56.000000 15.070203 18.000000
-7.102503 -15.903047 11.148484 0.000000 58.000000 15.145918 27.000000
-4.244728 -12.655139 8.655680 0.000000 39.000000 14.449718 0.000000
-4.229775 -12.863578 8.832840 0.000000 39.000000 14.466937 0.000000
-4.222290 -12.975281 8.916596 0.000000 38.000000 14.467423 0.000000
-4.206015 -13.096680 8.995193 0.000000 47.000000 14.456430 0.000000
-4.207275 -13.207687 9.080975 0.000000 39.000000 14.460729 0.000000
-6.591392 -16.281481 11.307072 0.000000 55.000000 14.947961 25.000000
-8.006039 -15.825097 10.819724 0.000000 58.000000 15.117594 21.000000
-4.617356 -13.052874 8.741756 0.000000 28.000000 14.366199 0.000000
-4.203005 -12.382528 8.697162 0.000000 53.000000 14.630713 11.000000
-7.650246 -14.482429 9.752875 0.000000 30.000000 14.971922 28.000000
-4.271936 -14.024651 9.669229 0.000000 33.000000 14.469755 0.000000
-4.629577 -13.463523 8.954055 0.000000 28.000000 14.300544 0.000000
-5.112337 -15.272475 10.500749 0.000000 41.000000 14.584049 18.000000
-4.694296 -13.696025 9.121887 0.000000 24.000000 14.313031 0.000000
-6.358043 -14.153541 9.856162 0.000000 53.000000 14.975362 13.000000
-4.779745 -13.758944 9.238172 0.000000 28.000000 14.386557 0.000000
-6.755321 -15.238895 10.566781 0.000000 73.000000 14.995703 25.000000
-7.293804 -16.682936 10.992537 0.000000 39.000000 14.613519 0.000000
-4.886393 -13.966444 9.419926 0.000000 33.000000 14.433122 0.000000
-4.938297 -14.075739 9.504734 0.000000 31.000000 14.448118 0.000000
-4.992223 -14.182409 9.589320 0.000000 32.000000 14.464867 0.000000
-5.019432 -14.322200 9.653369 0.000000 33.000000 14.440782 0.000000
-5.299096 -14.905387 10.031662 0.000000 40.000000 14.462612 0.000000
-5.961225 -17.315226 11.995846 0.000000 44.000000 14.768028 24.000000
-6.500010 -13.232520 9.171917 0.000000 46.000000 14.992991 7.000000
-5.413917 -16.742528 12.184904 0.000000 50.000000 15.133768 8.000000
-7.652580 -16.633075 11.440308 0.000000 75.000000 15.070828 21.000000
-6.303330 -16.819739 11.805388 0.000000 53.000000 14.973107 24.000000
-3.855021 -12.979685 9.932890 0.000000 15.000000 15.193167 12.000000
-5.838316 -13.663754 9.153784 0.000000 40.000000 14.593637 6.000000
-6.004506 -17.714918 11.780292 0.000000 38.000000 14.376500 0.000000
-6.033721 -17.926639 11.798982 0.000000 37.000000 14.275560 0.000000
-6.219916 -17.909026 11.900244 0.000000 35.000000 14.404370 0.000000
-4.459350 -13.161796 9.152897 0.000000 41.000000 14.596221 0.000000
-6.881065 -16.866246 11.258365 0.000000 38.000000 14.633027 27.000000
-7.138691 -17.353744 11.347642 0.000000 38.000000 14.476606 0.000000
-6.423913 -15.389195 10.875031 0.000000 48.000000 15.084604 25.000000
-6.081799 -14.417192 10.354607 0.000000 21.000000 15.161005 13.000000
-3.809309 -13.421831 10.035447 0.000000 49.000000 15.010554 12.000000
-2.142235 -15.216312 11.070317 0.000000 50.000000 14.452330 0.000000
-1.447728 -16.116941 11.913119 0.000000 52.000000 14.457544 0.000000
-3.653652 -14.234879 10.365815 0.000000 48.000000 14.772138 14.000000
-7.631362 -13.987995 9.229476 0.000000 44.000000 14.838184 23.000000
-4.024575 -13.675107 9.954220 0.000000 38.000000 14.845149 12.000000
-6.702289 -16.953610 11.357731 0.000000 32.000000 14.624410 0.000000
-4.005469 -16.724262 11.971499 0.000000 43.000000 14.683851 3.000000
-1.623247 -16.547720 12.095382 0.000000 36.000000 14.390340 0.000000
-2.364712 -15.791987 11.288550 0.000000 32.000000 14.339973 0.000000
-1.861370 -15.733048 11.671990 0.000000 43.000000 14.573142 1.000000
-3.178629 -12.759101 9.363564 0.000000 34.000000 14.729471 9.000000
-6.481644 -16.748199 11.517489 0.000000 57.000000 14.823321 25.000000
-2.568416 -16.003250 11.423185 0.000000 35.000000 14.367172 0.000000
-1.849600 -16.958770 12.274688 0.000000 39.000000 14.342667 0.000000
-6.070832 -13.476588 9.002848 0.000000 55.000000 14.629969 6.000000
-2.809809 -16.175045 11.564361 0.000000 38.000000 14.430052 0.000000
-4.540307 -16.814950 12.130863 0.000000 39.000000 14.868516 4.000000
-5.730230 -14.449806 10.201603 0.000000 50.000000 14.948387 13.000000
-7.045104 -16.466910 11.515702 0.000000 67.000000 15.100330 27.000000
-3.218936 -16.620886 11.778915 0.000000 35.000000 14.428095 0.000000
-3.305324 -16.753794 11.819377 0.000000 39.000000 14.401552 0.000000
-3.378264 -16.903483 11.850546 0.000000 31.000000 14.355218 0.000000
-3.875488 -17.277603 12.038572 0.000000 33.000000 14.391755 0.000000
-3.992407 -17.379285 12.076797 0.000000 36.000000 14.387722 0.000000
-4.253359 -17.557664 12.158531 0.000000 42.000000 14.403820 0.000000
-4.341643 -17.703643 12.175535 0.000000 37.000000 14.351586 0.000000
-6.451010 -14.089673 9.854709 0.000000 57.000000 15.030191 13.000000
-4.791860 -17.898780 12.298346 0.000000 42.000000 14.429730 0.000000
-4.907441 -18.010550 12.318653 0.000000 44.000000 14.405436 0.000000
-6.093132 -16.661063 11.915265 0.000000 58.000000 15.107823 24.000000
-8.181574 -14.490431 8.959693 0.000000 42.000000 14.449572 0.000000
-7.701235 -15.284370 9.654671 0.000000 45.000000 14.443494 0.000000
-6.309155 -14.583099 10.029589 0.000000 71.000000 14.855419 13.000000
-7.736044 -16.426160 11.341960 0.000000 19.000000 15.129286 21.000000
-7.005277 -14.867789 9.332345 0.000000 34.000000 14.283958 0.000000
-7.254185 -13.708309 8.580156 0.000000 28.000000 14.407109 0.000000
-5.805573 -15.693577 11.364055 0.000000 50.000000 15.168554 19.000000
-6.351760 -14.140833 9.203038 0.000000 41.000000 14.464486 0.000000
-7.933144 -13.749450 9.349958 0.000000 32.000000 15.133207 23.000000
-5.891689 -14.038923 9.045886 0.000000 34.000000 14.303503 0.000000
-6.208422 -16.960146 12.041657 0.000000 73.000000 15.059686 24.000000
-5.537469 -14.020063 9.750838 0.000000 45.000000 14.798932 29.000000
-6.690439 -15.613186 10.981953 0.000000 76.000000 15.095555 25.000000
-5.131491 -13.429767 9.014318 0.000000 45.000000 14.471543 0.000000
-4.961620 -13.406654 8.975733 0.000000 30.000000 14.419140 0.000000
-4.060785 -15.200742 10.921224 0.000000 45.000000 14.740413 17.000000
-7.730770 -15.185301 9.875640 0.000000 43.000000 14.681466 0.000000
-4.049957 -12.981930 8.982122 0.000000 45.000000 14.479786 0.000000
-3.241108 -12.840079 8.966023 0.000000 29.000000 14.381211 0.000000
-6.950658 -17.105269 11.142330 0.000000 44.000000 14.418119 0.000000
-7.363233 -16.146135 10.384568 0.000000 43.000000 14.455501 0.000000
-5.961944 -15.315961 10.162362 0.000000 41.000000 14.467096 0.000000
-5.991309 -15.696708 11.053644 0.000000 50.000000 14.959538 19.000000
-5.277317 -16.775440 12.195364 0.000000 47.000000 15.094841 8.000000
-7.282821 -15.938499 10.856368 0.000000 68.000000 14.931669 27.000000
-7.356738 -14.482561 9.356240 0.000000 32.000000 14.597195 0.000000
-5.251051 -15.007793 10.109094 0.000000 40.000000 14.455045 0.000000
-6.931436 -17.852409 12.433440 0.000000 54.000000 15.006186 26.000000
-5.803295 -14.864831 10.131702 0.000000 46.000000 14.669476 13.000000
-8.701816 -14.004218 8.710780 0.000000 53.000000 14.639928 0.000000
-3.578096 -15.523053 10.886354 0.000000 39.000000 14.427517 0.000000
-4.017206 -14.617972 10.093929 0.000000 36.000000 14.411869 0.000000
-4.734824 -14.564681 10.070529 0.000000 44.000000 14.572542 0.000000
-6.416928 -17.745953 12.310889 0.000000 38.000000 14.863932 15.000000
-5.894956 -17.104872 12.018256 0.000000 53.000000 14.893038 24.000000
-6.209093 -14.848298 10.174325 0.000000 58.000000 14.796713 13.000000
-2.390413 -15.266248 10.979895 0.000000 45.000000 14.403418 0.000000
-6.970601 -18.277462 12.360200 0.000000 47.000000 14.711847 26.000000
-4.560503 -15.152746 11.020090 0.000000 56.000000 14.949699 17.000000
-2.087201 -15.158520 11.051126 0.000000 50.000000 14.458992 0.000000
-6.847030 -17.812790 11.971613 0.000000 55.000000 14.646012 15.000000
-5.390217 -16.769635 11.702452 0.000000 53.000000 14.731457 8.000000
-4.436350 -15.393559 10.843595 0.000000 47.000000 14.645810 17.000000
-6.679892 -15.879394 10.922497 0.000000 50.000000 14.893200 25.000000
-3.991288 -13.244910 10.211397 0.000000 54.000000 15.289232 12.000000
-8.115547 -14.354474 8.867026 0.000000 38.000000 14.440769 0.000000
-8.103542 -14.472939 8.949906 0.000000 46.000000 14.435736 0.000000
-7.265725 -17.420672 11.942424 0.000000 39.000000 14.935117 16.000000
-8.410991 -14.020076 8.550980 0.000000 38.000000 14.444143 0.000000
-5.356321 -13.046459 9.030185 0.000000 51.000000 14.751110 5.000000
-6.884542 -14.861721 10.268234 0.000000 65.000000 15.003123 20.000000
-3.967329 -16.946517 12.005945 0.000000 56.000000 14.575379 3.000000
-6.792984 -15.337547 10.576072 0.000000 64.000000 14.954109 25.000000
-3.819439 -13.940676 9.861901 0.000000 43.000000 14.576875 12.000000
-5.126524 -15.402788 11.313405 0.000000 50.000000 15.155171 18.000000
-6.847832 -17.708806 11.606950 0.000000 52.000000 14.417392 0.000000
-6.701250 -17.652347 11.609072 0.000000 53.000000 14.421205 0.000000
-6.661817 -15.535845 10.926422 0.000000 58.000000 15.090169 25.000000
-5.832465 -13.793191 9.238747 0.000000 55.000000 14.585216 0.000000
-6.127428 -17.672974 11.551402 0.000000 35.000000 14.244925 0.000000
-5.927849 -14.498131 10.036726 0.000000 67.000000 14.831013 13.000000
-8.001544 -14.126655 9.560482 0.000000 67.000000 15.097012 23.000000
-7.702011 -14.904751 9.766045 0.000000 44.000000 14.750147 28.000000
-7.365101 -14.929145 10.063056 0.000000 56.000000 14.901434 28.000000
-2.495170 -16.852769 12.150051 0.000000 51.000000 14.438626 0.000000
-2.269588 -16.887101 12.180289 0.000000 42.000000 14.396116 0.000000
-6.332944 -16.559564 11.675124 0.000000 52.000000 15.025794 25.000000
-1.867622 -16.904230 12.268751 0.000000 42.000000 14.373070 0.000000
-5.315498 -15.385017 10.957640 0.000000 54.000000 14.922954 18.000000
-5.594060 -13.152477 8.663596 0.000000 43.000000 14.449220 0.000000
-7.626506 -14.216576 9.518422 0.000000 59.000000 14.934376 23.000000
-6.915719 -15.467755 10.723634 0.000000 51.000000 15.021401 27.000000
-5.635978 -15.267911 10.636394 0.000000 47.000000 14.802413 19.000000
-8.355569 -14.846710 9.872448 0.000000 51.000000 15.003019 22.000000
-5.670031 -13.365509 9.163734 0.000000 31.000000 14.738224 6.000000
-5.957964 -13.985823 8.975377 0.000000 30.000000 14.291963 0.000000
-5.721244 -17.372139 11.848543 0.000000 54.000000 14.569042 24.000000
-6.455715 -15.360421 10.700170 0.000000 70.000000 14.969352 25.000000
-6.617102 -17.284961 11.315705 0.000000 36.000000 14.382930 0.000000
-6.706696 -17.378689 11.394330 0.000000 50.000000 14.409788 0.000000
-3.501694 -14.284888 11.087786 0.000000 0.000000 15.283289 14.000000
-7.191200 -18.093250 11.781282 0.000000 42.000000 14.405307 0.000000
-3.762265 -13.914892 9.998931 0.000000 42.000000 14.688317 12.000000
-6.435381 -14.268024 9.776308 0.000000 50.000000 14.862325 13.000000
-2.956793 -12.295396 8.760204 0.000000 39.000000 14.472768 0.000000
-6.299111 -13.331040 8.916984 0.000000 28.000000 14.692984 7.000000
-3.455152 -14.885560 10.657820 0.000000 53.000000 14.587882 14.000000
-6.499963 -15.955604 11.232692 0.000000 47.000000 15.057611 25.000000
-2.406466 -13.476670 9.748134 0.000000 42.000000 14.461257 0.000000
-7.147557 -16.421818 11.288714 0.000000 56.000000 14.967833 27.000000
-6.695245 -15.946427 11.164651 0.000000 74.000000 15.049463 25.000000
-2.408750 -13.829369 9.997098 0.000000 39.000000 14.455894 0.000000
-2.414186 -13.952588 10.081278 0.000000 43.000000 14.452766 0.000000
-5.876736 -16.656370 11.514759 0.000000 49.000000 14.748769 24.000000
-2.439809 -14.196613 10.245451 0.000000 46.000000 14.447638 0.000000
-6.857822 -15.521937 10.978095 0.000000 50.000000 15.179633 25.000000
-4.121662 -14.949779 10.907339 0.000000 48.000000 14.886376 17.000000
-2.492787 -14.576943 10.488744 0.000000 53.000000 14.432387 0.000000
-4.139211 -12.803779 9.194498 0.000000 43.000000 14.768805 11.000000
-2.516090 -14.706866 10.565872 0.000000 44.000000 14.423520 0.000000
-7.274573 -18.169744 12.547160 0.000000 73.000000 14.984684 26.000000
-5.964933 -15.152221 10.585570 0.000000 42.000000 14.896824 19.000000
-6.574467 -16.870980 11.274737 0.000000 30.000000 14.579797 0.000000
-7.892176 -15.896914 10.865040 0.000000 68.000000 15.088581 21.000000
-2.521316 -15.179895 10.752956 0.000000 30.000000 14.300582 0.000000
-6.660267 -13.660431 8.919294 0.000000 58.000000 14.580108 7.000000
-7.843096 -16.497271 11.189231 0.000000 69.000000 14.989672 21.000000
-2.732785 -15.488701 11.024195 0.000000 42.000000 14.381393 0.000000
-2.814058 -15.584441 11.112867 0.000000 40.000000 14.413323 0.000000
-2.886610 -15.692747 11.194663 0.000000 47.000000 14.430778 0.000000
-2.952509 -15.810750 11.272513 0.000000 57.000000 14.438156 0.000000
-3.005328 -15.944633 11.341262 0.000000 41.000000 14.426490 0.000000
-3.659698 -15.198155 10.637386 0.000000 39.000000 14.434250 0.000000
-3.087745 -16.049275 11.420738 0.000000 49.000000 14.446259 0.000000
-5.462899 -14.343501 9.956521 0.000000 36.000000 14.760239 29.000000
-3.365496 -16.548237 11.691114 0.000000 42.000000 14.430732 0.000000
-3.386843 -16.734865 11.729008 0.000000 35.000000 14.357795 0.000000
-6.578555 -16.514450 11.591196 0.000000 53.000000 15.036160 25.000000
-5.124972 -15.769966 10.982254 0.000000 48.000000 14.681580 18.000000
-4.323367 -16.082503 11.173916 0.000000 30.000000 14.487572 0.000000
-6.883665 -18.023001 12.213647 0.000000 56.000000 14.724231 26.000000
-4.455081 -16.362144 11.263713 0.000000 51.000000 14.425056 0.000000
-6.503623 -18.023122 12.682503 0.000000 57.000000 15.016551 10.000000
-4.551187 -16.470898 11.319830 0.000000 40.000000 14.426807 0.000000
-3.952062 -17.402761 12.109523 0.000000 42.000000 14.391767 0.000000
-4.623754 -16.606956 11.362131 0.000000 34.000000 14.397046 0.000000
-4.051791 -17.516186 12.165932 0.000000 39.000000 14.391812 0.000000
-4.693237 -16.751688 11.400049 0.000000 45.000000 14.358189 0.000000
-4.162728 -17.616135 12.226579 0.000000 42.000000 14.405282 0.000000
-4.760293 -16.903261 11.434062 0.000000 40.000000 14.311805 0.000000
-8.316252 -15.134108 10.261910 0.000000 17.000000 15.137795 22.000000
-4.389303 -17.817988 12.340650 0.000000 47.000000 14.426355 0.000000
-6.382106 -14.221846 9.966206 0.000000 65.000000 15.028144 13.000000
-5.837390 -17.703353 11.883901 0.000000 48.000000 14.430557 0.000000
-4.574341 -16.737894 12.531671 0.000000 3.000000 15.237082 4.000000
-4.724516 -16.908922 11.932191 0.000000 41.000000 14.695364 4.000000
-6.093381 -18.140638 11.933451 0.000000 34.000000 14.271240 0.000000
-8.077643 -14.516934 8.997793 0.000000 47.000000 14.442968 0.000000
-3.835706 -13.038030 9.839697 0.000000 49.000000 15.081857 12.000000
-7.225775 -13.725833 8.632754 0.000000 35.000000 14.432775 0.000000
-4.692787 -15.397019 10.766711 0.000000 55.000000 14.636054 17.000000
-6.921317 -13.476579 8.543177 0.000000 39.000000 14.442231 0.000000
-6.123064 -14.975304 10.011345 0.000000 55.000000 14.576871 13.000000
-7.276944 -16.490449 10.629312 0.000000 40.000000 14.433287 0.000000
-6.463901 -17.891418 12.264937 0.000000 41.000000 14.753620 15.000000
-6.460408 -13.513056 9.142416 0.000000 46.000000 14.800086 7.000000
-6.025168 -15.184131 10.846906 0.000000 77.000000 15.097760 19.000000
-6.750655 -15.393781 10.737220 0.000000 63.000000 15.040535 25.000000
-5.183364 -15.183403 10.172352 0.000000 34.000000 14.390089 0.000000
-4.935611 -13.932518 9.385811 0.000000 34.000000 14.435825 0.000000
-4.744466 -13.924516 9.345322 0.000000 27.000000 14.368819 0.000000
-4.584497 -13.882216 9.331383 0.000000 28.000000 14.349006 0.000000
-4.087326 -13.581625 9.391529 0.000000 33.000000 14.466592 0.000000
-2.767583 -14.369691 10.140937 0.000000 32.000000 14.333219 0.000000
-2.684564 -14.261824 10.200420 0.000000 36.000000 14.425153 0.000000
-6.639854 -17.797635 12.481092 0.000000 46.000000 15.015048 15.000000
-4.711285 -15.770479 11.092130 0.000000 53.000000 14.682612 18.000000
-2.221649 -14.139655 10.271621 0.000000 43.000000 14.455953 0.000000
-5.766554 -16.178205 11.063391 0.000000 44.000000 14.643781 19.000000
-2.519766 -13.207041 9.519441 0.000000 39.000000 14.458807 0.000000
-3.158076 -14.705007 10.696118 0.000000 38.000000 14.660551 0.000000
-7.987750 -15.006000 9.552284 0.000000 48.000000 14.581884 0.000000
-6.759979 -17.054677 11.195449 0.000000 50.000000 14.449788 0.000000
-6.111146 -18.092788 11.909466 0.000000 37.000000 14.283457 0.000000
-5.668562 -15.468187 11.467732 0.000000 56.000000 15.351885 19.000000
-5.826403 -17.954301 11.898700 0.000000 37.000000 14.295654 0.000000
-5.770801 -17.762154 11.942253 0.000000 53.000000 14.429132 0.000000
-5.448197 -17.678832 11.922168 0.000000 54.000000 14.394387 0.000000
-5.303122 -17.612368 11.924640 0.000000 47.000000 14.404543 0.000000
-5.157494 -17.550349 11.928088 0.000000 54.000000 14.412801 0.000000
-5.579999 -16.611983 11.135859 0.000000 43.000000 14.413016 0.000000
-5.279113 -16.505861 11.140726 0.000000 39.000000 14.415626 0.000000
-7.394709 -14.984760 10.104193 0.000000 53.000000 14.908130 28.000000
-6.838677 -17.712560 12.365386 0.000000 48.000000 15.013567 15.000000
-8.236996 -15.314778 10.058658 0.000000 57.000000 14.856617 22.000000
-3.869915 -17.168616 11.990274 0.000000 45.000000 14.415066 0.000000
-3.809700 -16.780348 12.253020 0.000000 61.000000 14.833866 3.000000
-6.716561 -14.682633 10.334861 0.000000 65.000000 15.124091 20.000000
-3.994418 -16.159777 11.217579 0.000000 37.000000 14.409591 0.000000
-6.151385 -13.671207 9.107525 0.000000 36.000000 14.617543 7.000000
-3.148326 -17.065653 12.048500 0.000000 43.000000 14.371007 0.000000
-3.670167 -16.081667 11.260057 0.000000 54.000000 14.421019 0.000000
-2.989349 -17.013061 12.080422 0.000000 40.000000 14.393613 0.000000
-2.811794 -16.985723 12.104651 0.000000 36.000000 14.391761 0.000000
-6.788738 -17.852328 12.204379 0.000000 40.000000 14.795415 15.000000
-3.226564 -14.644151 10.697696 0.000000 47.000000 14.710979 14.000000
-6.176485 -16.508917 11.643214 0.000000 50.000000 14.997286 25.000000
-7.132202 -15.679939 10.997666 0.000000 72.000000 15.161036 27.000000
-2.983770 -15.959264 11.358213 0.000000 41.000000 14.427028 0.000000
-3.946464 -16.992847 12.056771 0.000000 51.000000 14.584636 3.000000
-6.177941 -15.958379 11.281422 0.000000 63.000000 15.027924 25.000000
-2.099117 -16.867300 12.232315 0.000000 36.000000 14.413393 0.000000
-2.631996 -15.909683 11.417152 0.000000 46.000000 14.429376 0.000000
-6.642421 -15.741228 11.298440 0.000000 46.000000 15.262437 25.000000
-2.322294 -16.017619 11.390814 0.000000 30.000000 14.282344 0.000000
-1.725916 -16.823441 12.308477 0.000000 46.000000 14.421646 0.000000
-5.609350 -16.818011 11.849115 0.000000 70.000000 14.865060 8.000000
-2.033598 -15.906334 11.499145 0.000000 37.000000 14.372330 0.000000
-6.573045 -18.442816 12.513490 0.000000 66.000000 14.655762 10.000000
-6.870139 -13.451608 8.543587 0.000000 39.000000 14.446325 0.000000
-7.331357 -15.439773 10.705345 0.000000 74.000000 15.109055 27.000000
-6.830853 -13.678438 8.702648 0.000000 39.000000 14.433606 0.000000
-6.818552 -13.788971 8.788205 0.000000 40.000000 14.435193 0.000000
-7.003382 -15.863867 11.088723 0.000000 59.000000 15.100642 27.000000
-6.807615 -14.007496 8.960206 0.000000 39.000000 14.443359 0.000000
-6.802084 -14.119955 9.043908 0.000000 47.000000 14.443772 0.000000
-5.760717 -15.245914 10.653501 0.000000 76.000000 14.854423 19.000000
-7.151549 -13.549598 8.556841 0.000000 34.000000 14.458701 0.000000
-7.245535 -15.595052 10.913996 0.000000 27.000000 15.167103 27.000000
-7.165821 -13.654008 8.649498 0.000000 42.000000 14.474929 0.000000
-7.156879 -13.788156 8.720599 0.000000 31.000000 14.452188 0.000000
-7.157921 -13.915094 8.796411 0.000000 29.000000 14.439389 0.000000
-7.179526 -14.019825 8.888669 0.000000 37.000000 14.456635 0.000000
-7.169400 -14.166427 8.950576 0.000000 32.000000 14.419209 0.000000
-7.145300 -14.337598 8.996115 0.000000 28.000000 14.351806 0.000000
-5.760877 -15.107069 10.664281 0.000000 75.000000 14.942849 19.000000
-8.133742 -14.174937 9.229322 0.000000 60.000000 14.834524 23.000000
-3.544425 -16.687015 12.037948 0.000000 30.000000 14.662431 3.000000
-6.617439 -17.457791 12.040485 0.000000 59.000000 14.857183 15.000000
-7.512803 -15.589753 9.920896 0.000000 45.000000 14.439531 0.000000
-7.549005 -15.719566 9.993262 0.000000 39.000000 14.429628 0.000000
-7.517156 -17.412703 11.230175 0.000000 43.000000 14.428068 0.000000
-3.961292 -12.967167 8.982767 0.000000 48.000000 14.470434 0.000000
-6.251986 -15.565645 10.862024 0.000000 69.000000 14.937233 25.000000
-8.110991 -14.990150 9.739108 0.000000 51.000000 14.764364 22.000000
-4.334812 -12.716949 8.690788 0.000000 40.000000 14.460597 0.000000
-5.915909 -14.339404 10.039035 0.000000 39.000000 14.921665 29.000000
-6.293780 -14.079133 9.931704 0.000000 46.000000 15.064643 13.000000
-3.905665 -14.237448 9.893482 0.000000 39.000000 14.449018 0.000000
-8.235485 -13.893833 9.043455 0.000000 46.000000 14.870174 23.000000
-6.113890 -16.873396 12.150299 0.000000 72.000000 15.175996 24.000000
-1.897501 -15.459951 11.861651 0.000000 53.000000 14.887800 1.000000
-7.108639 -16.728325 11.098223 0.000000 47.000000 14.632725 27.000000
-4.565289 -14.415611 9.804874 0.000000 40.000000 14.412952 0.000000
-8.381073 -13.915358 8.749036 0.000000 44.000000 14.654924 23.000000
-6.283611 -14.754231 10.137951 0.000000 64.000000 14.837457 13.000000
-4.683966 -16.751862 11.399816 0.000000 50.000000 14.355986 0.000000
-7.504429 -14.952837 10.077018 0.000000 40.000000 14.927696 28.000000
-4.546763 -14.788977 10.375215 0.000000 50.000000 14.645733 0.000000
-5.268637 -17.535999 11.878350 0.000000 44.000000 14.404697 0.000000
-8.325011 -14.954268 9.570131 0.000000 57.000000 14.695574 22.000000
-4.631090 -16.748322 11.660224 0.000000 58.000000 14.553165 4.000000
-5.558288 -17.854785 12.068422 0.000000 39.000000 14.431715 0.000000
-6.235008 -15.668239 11.176850 0.000000 57.000000 15.123862 25.000000
-5.721949 -18.122451 12.166346 0.000000 42.000000 14.389132 0.000000
-6.215514 -17.456883 11.390707 0.000000 34.000000 14.260276 0.000000
-5.818213 -18.236760 12.219203 0.000000 43.000000 14.385140 0.000000
-5.608380 -14.432005 10.126699 0.000000 54.000000 14.874125 29.000000
-6.655599 -17.712212 12.286262 0.000000 61.000000 14.913252 15.000000
-3.581091 -16.223332 11.773266 0.000000 48.000000 14.727253 3.000000
-6.618143 -17.620780 11.604141 0.000000 52.000000 14.418257 0.000000
-6.730133 -17.712135 11.656655 0.000000 46.000000 14.430452 0.000000
-6.824921 -17.831025 11.695924 0.000000 38.000000 14.412766 0.000000
-4.031885 -12.886883 9.046340 0.000000 43.000000 14.581537 11.000000
-5.209505 -13.989220 9.599094 0.000000 36.000000 14.628696 0.000000
-6.352770 -14.807426 10.112411 0.000000 43.000000 14.800963 20.000000
-3.241060 -14.156498 10.674944 0.000000 44.000000 14.976464 14.000000
-3.102624 -12.914750 9.712917 0.000000 37.000000 14.900692 9.000000
-5.627002 -15.092244 10.635372 0.000000 48.000000 14.900786 19.000000
-2.065425 -16.304404 11.719894 0.000000 31.000000 14.324656 0.000000
-6.290151 -16.568181 11.580859 0.000000 57.000000 14.937378 25.000000
-6.803741 -16.759117 11.429096 0.000000 70.000000 14.813757 27.000000
-7.706531 -14.933454 9.765091 0.000000 59.000000 14.733818 28.000000
-2.543410 -16.658513 11.996897 0.000000 41.000000 14.439137 0.000000
-2.642480 -16.771067 12.051286 0.000000 43.000000 14.437948 0.000000
-7.422256 -15.967646 10.794783 0.000000 76.000000 14.895027 27.000000
-5.839281 -15.245472 10.966285 0.000000 36.000000 15.118477 19.000000
-3.871868 -16.839121 12.153963 0.000000 61.000000 14.734534 3.000000
-7.390072 -15.034736 10.047288 0.000000 36.000000 14.833390 28.000000
-4.102162 -14.842503 10.560164 0.000000 36.000000 14.669287 14.000000
-1.966083 -15.182876 12.180411 0.000000 5.000000 15.313632 1.000000
-7.187621 -17.868857 11.990455 0.000000 40.000000 14.699173 26.000000
-6.606815 -16.484637 11.567550 0.000000 67.000000 15.040444 25.000000
-6.941306 -14.016874 8.976117 0.000000 42.000000 14.478230 0.000000
-6.814435 -13.954463 8.933136 0.000000 36.000000 14.453851 0.000000
-6.701862 -13.875398 8.906874 0.000000 42.000000 14.455243 0.000000
-3.836945 -14.315960 10.375302 0.000000 44.000000 14.770949 14.000000
-5.620464 -13.212605 8.729695 0.000000 38.000000 14.472412 0.000000
-7.558792 -17.168314 11.468904 0.000000 54.000000 14.766186 21.000000
-4.815516 -13.940482 9.420691 0.000000 35.000000 14.433990 0.000000
-7.292151 -16.108652 11.120746 0.000000 81.000000 15.044961 27.000000
-6.738434 -15.437946 11.000974 0.000000 53.000000 15.221338 25.000000
-4.678765 -12.807524 8.663901 0.000000 40.000000 14.458417 0.000000
-6.922001 -17.920952 12.137966 0.000000 54.000000 14.730969 15.000000
-4.254546 -17.328133 12.241762 0.000000 36.000000 14.601958 0.000000
-5.827681 -17.183434 12.013192 0.000000 54.000000 14.829918 24.000000
-3.470217 -12.504046 8.656319 0.000000 40.000000 14.376814 0.000000
-3.361662 -12.435146 8.698255 0.000000 38.000000 14.427163 0.000000
-5.788749 -15.740316 11.531999 0.000000 48.000000 15.271100 19.000000
-7.073107 -18.412805 12.551754 0.000000 52.000000 14.806813 26.000000
-7.608515 -16.858374 11.385018 0.000000 61.000000 14.888363 21.000000
-2.533373 -13.211333 9.532407 0.000000 40.000000 14.469416 0.000000
-8.307579 -13.681644 8.938819 0.000000 52.000000 14.924336 23.000000
-8.327035 -15.219212 9.833928 0.000000 60.000000 14.752371 22.000000
-3.698058 -13.036271 9.383184 0.000000 49.000000 14.693092 12.000000
-6.040701 -13.009202 8.792064 0.000000 57.000000 14.725750 30.000000
-8.110891 -13.831376 9.250450 0.000000 52.000000 15.044125 23.000000
-4.593517 -16.953279 12.006949 0.000000 47.000000 14.701899 4.000000
-6.259734 -17.250208 11.346436 0.000000 48.000000 14.353268 0.000000
-5.483177 -16.778689 11.281549 0.000000 39.000000 14.412387 0.000000
-3.928420 -14.297608 10.436163 0.000000 47.000000 14.848604 14.000000
-7.614190 -14.218007 9.569736 0.000000 37.000000 14.971613 23.000000
-6.095094 -16.476912 11.404056 0.000000 52.000000 14.809578 25.000000
-6.959850 -14.274809 9.790554 0.000000 74.000000 14.978256 20.000000
-7.984580 -14.396043 9.535801 0.000000 60.000000 14.919021 23.000000
-4.167069 -16.236855 11.254114 0.000000 49.000000 14.429908 0.000000
-4.002801 -16.197086 11.254831 0.000000 41.000000 14.419348 0.000000
-3.815230 -16.181050 11.244451 0.000000 40.000000 14.381532 0.000000
-3.753509 -14.927637 10.693281 0.000000 45.000000 14.653501 14.000000
-3.943877 -15.169174 10.482896 0.000000 30.000000 14.387478 0.000000
-7.222726 -16.227246 11.171444 0.000000 63.000000 15.002500 27.000000
-3.226699 -15.941642 11.316766 0.000000 41.000000 14.454646 0.000000
-3.151934 -13.091629 9.534433 0.000000 45.000000 14.667907 9.000000
-5.445130 -14.036799 9.723077 0.000000 40.000000 14.748223 29.000000
-2.697539 -15.860134 11.355851 0.000000 50.000000 14.422929 0.000000
-2.402854 -15.947569 11.318346 0.000000 34.000000 14.281959 0.000000
-2.292214 -15.854655 11.371197 0.000000 38.000000 14.354327 0.000000
-2.767924 -14.939744 10.575886 0.000000 32.000000 14.349624 0.000000
-2.136790 -15.807039 11.403607 0.000000 39.000000 14.375193 0.000000
-2.579763 -14.927577 10.588286 0.000000 34.000000 14.327489 0.000000
-2.011503 -15.731258 11.454008 0.000000 50.000000 14.432735 0.000000
-7.334800 -15.630666 10.618741 0.000000 57.000000 14.931430 27.000000
-3.756924 -16.900860 12.358251 0.000000 56.000000 14.836905 3.000000
-2.338213 -14.780335 10.693075 0.000000 45.000000 14.445112 0.000000
-2.159922 -14.761016 10.718497 0.000000 40.000000 14.439438 0.000000
-7.754556 -14.321707 9.517167 0.000000 64.000000 14.899418 23.000000
-8.192931 -14.284512 8.794770 0.000000 33.000000 14.439844 0.000000
-8.192016 -14.408751 8.872207 0.000000 39.000000 14.429478 0.000000
-7.952353 -14.595576 9.329713 0.000000 39.000000 14.634483 23.000000
-4.749375 -16.606420 12.153240 0.000000 51.000000 15.049443 4.000000
-6.818912 -18.104852 11.949526 0.000000 46.000000 14.454722 0.000000
-6.081405 -18.099803 11.899247 0.000000 40.000000 14.265179 0.000000
-5.925365 -18.054592 11.909375 0.000000 33.000000 14.266901 0.000000
-4.131599 -14.867423 10.622573 0.000000 48.000000 14.710438 14.000000
-5.706434 -17.827684 11.990344 0.000000 45.000000 14.416177 0.000000
-6.721878 -15.378682 10.719982 0.000000 66.000000 15.029621 25.000000
-6.155096 -16.731343 11.830146 0.000000 63.000000 15.012862 24.000000
-6.842819 -15.841515 10.973002 0.000000 60.000000 14.988681 27.000000
-5.052100 -17.685494 12.058860 0.000000 49.000000 14.416745 0.000000
-4.894582 -17.640941 12.085212 0.000000 57.000000 14.430622 0.000000
-4.697603 -17.647475 12.093294 0.000000 48.000000 14.392487 0.000000
-4.472153 -17.692092 12.089374 0.000000 39.000000 14.317056 0.000000
-4.368098 -17.577720 12.151281 0.000000 43.000000 14.410296 0.000000
-3.688994 -14.024915 10.099418 0.000000 43.000000 14.689393 12.000000
-4.012833 -17.544246 12.203136 0.000000 37.000000 14.397052 0.000000
-4.981979 -16.296988 11.385883 0.000000 45.000000 14.668281 0.000000
-7.399636 -15.946728 10.764343 0.000000 72.000000 14.878286 27.000000
-3.908547 -13.619832 9.971130 0.000000 49.000000 14.866308 12.000000
-7.832226 -14.569360 9.971957 0.000000 64.000000 15.132971 28.000000
-7.103366 -15.412946 10.713630 0.000000 79.000000 15.083850 27.000000
-4.685011 -14.492744 10.136634 0.000000 45.000000 14.655924 0.000000
-1.549912 -15.774257 11.845501 0.000000 36.000000 14.622288 1.000000
-5.294308 -13.760300 9.211331 0.000000 35.000000 14.471044 0.000000
-5.299008 -13.865606 9.300061 0.000000 48.000000 14.481668 0.000000
-3.085399 -12.763872 9.560595 0.000000 50.000000 14.863360 9.000000
-5.707619 -13.939722 9.158168 0.000000 33.000000 14.411321 0.000000
-5.700440 -14.090704 9.217122 0.000000 30.000000 14.369649 0.000000
-5.371410 -14.801977 9.955443 0.000000 37.000000 14.476740 0.000000
-5.742700 -14.188966 9.311227 0.000000 30.000000 14.396353 0.000000
-7.385932 -17.091625 11.382446 0.000000 56.000000 14.706092 21.000000
-5.299752 -15.178548 10.036253 0.000000 33.000000 14.309264 0.000000
-5.316925 -15.311649 10.110178 0.000000 31.000000 14.294765 0.000000
-6.779920 -17.532620 12.114590 0.000000 38.000000 14.906422 15.000000
-6.078835 -15.250530 10.014898 0.000000 32.000000 14.412223 0.000000
-6.197855 -17.551406 11.443563 0.000000 36.000000 14.244082 0.000000
-4.046443 -13.424114 10.053380 0.000000 59.000000 15.072518 12.000000
-6.534242 -15.840938 11.273012 0.000000 50.000000 15.162570 25.000000
-7.305556 -15.596806 10.634415 0.000000 60.000000 14.957257 27.000000
-2.373873 -16.765847 12.671363 0.000000 46.000000 14.876083 2.000000
-5.179041 -15.509135 11.213139 0.000000 48.000000 15.025521 18.000000
-2.588436 -12.925357 9.281681 0.000000 33.000000 14.446877 0.000000
-5.616111 -15.501176 11.294107 0.000000 65.000000 15.184646 19.000000
-6.548743 -15.270486 10.521341 0.000000 56.000000 14.898811 25.000000
-3.756833 -16.308670 11.640021 0.000000 50.000000 14.609095 3.000000
-2.616204 -13.381927 9.621499 0.000000 38.000000 14.458946 0.000000
-2.065004 -14.215693 10.363293 0.000000 34.000000 14.452343 0.000000
-6.029518 -13.462606 9.231276 0.000000 42.000000 14.810238 6.000000
-6.204536 -14.815370 10.280236 0.000000 43.000000 14.898528 13.000000
-3.541211 -16.342050 11.676852 0.000000 52.000000 14.574411 0.000000
-2.074812 -14.467300 10.525602 0.000000 34.000000 14.438105 0.000000
-4.002453 -14.521420 10.511187 0.000000 78.000000 14.794569 14.000000
-4.119340 -12.511061 9.206529 0.000000 51.000000 14.942579 11.000000
-5.062837 -15.748228 11.255257 0.000000 40.000000 14.897278 18.000000
-4.318266 -12.255289 8.978409 0.000000 60.000000 14.950336 11.000000
-2.699346 -13.996010 10.018512 0.000000 38.000000 14.437142 0.000000
-2.146167 -14.819991 10.779024 0.000000 40.000000 14.450572 0.000000
-2.716987 -14.127987 10.091661 0.000000 29.000000 14.422773 0.000000
-2.169094 -14.945957 10.859313 0.000000 54.000000 14.446404 0.000000
-2.702282 -14.291382 10.141655 0.000000 32.000000 14.365313 0.000000
-6.051688 -16.955378 12.013134 0.000000 58.000000 15.007413 24.000000
-2.781142 -14.373556 10.245220 0.000000 28.000000 14.416333 0.000000
-2.249917 -15.177317 11.027235 0.000000 58.000000 14.462954 0.000000
-2.265335 -15.318511 11.096897 0.000000 56.000000 14.440063 0.000000
-2.240418 -15.504470 11.142501 0.000000 35.000000 14.364036 0.000000
-6.296331 -15.359687 10.621985 0.000000 50.000000 14.874907 25.000000
-6.498343 -15.477208 11.056933 0.000000 74.000000 15.193345 25.000000
-3.729137 -16.711567 12.148177 0.000000 49.000000 14.773778 3.000000
-2.367860 -16.066846 11.414717 0.000000 32.000000 14.282378 0.000000
-2.522270 -16.095215 11.535570 0.000000 35.000000 14.393666 0.000000
-3.220577 -15.308735 10.857650 0.000000 50.000000 14.454071 0.000000
-4.033706 -12.167793 8.938933 0.000000 38.000000 14.910520 11.000000
-3.278331 -15.435762 10.924535 0.000000 48.000000 14.445894 0.000000
-2.687253 -16.299610 11.699608 0.000000 40.000000 14.440071 0.000000
-3.334449 -15.564480 10.987747 0.000000 46.000000 14.433500 0.000000
-2.718996 -16.457873 11.754334 0.000000 38.000000 14.398921 0.000000
-2.507667 -16.996372 12.465493 0.000000 57.000000 14.608256 2.000000
-7.195001 -18.381788 12.337881 0.000000 53.000000 14.680625 26.000000
-3.462875 -15.815364 11.113203 0.000000 43.000000 14.415064 0.000000
-2.864380 -16.696701 11.893658 0.000000 40.000000 14.401906 0.000000
-3.527318 -15.944703 11.171914 0.000000 33.000000 14.400474 0.000000
-7.566360 -17.289244 11.759786 0.000000 46.000000 14.928400 16.000000
-3.646999 -16.020265 11.258319 0.000000 54.000000 14.450166 0.000000
-4.511388 -15.017935 10.914913 0.000000 51.000000 14.933837 17.000000
-4.513994 -14.705327 10.380546 0.000000 71.000000 14.691284 0.000000
-8.351585 -13.670510 9.165840 0.000000 51.000000 15.119513 23.000000
-5.152586 -15.236942 11.499216 0.000000 23.000000 15.403008 18.000000
-6.880353 -17.528005 12.183940 0.000000 65.000000 14.984749 15.000000
-7.763303 -14.737382 9.841999 0.000000 58.000000 14.919212 28.000000
-7.850987 -16.511171 11.272053 0.000000 70.000000 15.048856 21.000000
-4.053800 -16.615185 11.548850 0.000000 38.000000 14.422109 0.000000
-7.326813 -15.789585 10.568218 0.000000 54.000000 14.798385 27.000000
-4.876261 -17.454428 11.966523 0.000000 47.000000 14.440179 0.000000
-6.891124 -17.671780 12.361091 0.000000 74.000000 15.044479 15.000000
-5.069855 -17.691096 12.039758 0.000000 39.000000 14.402081 0.000000
-5.172220 -17.801368 12.075772 0.000000 39.000000 14.388345 0.000000
-7.394080 -15.716751 10.450207 0.000000 76.000000 14.760807 27.000000
-5.442491 -17.942453 12.176519 0.000000 42.000000 14.442869 0.000000
-5.565024 -18.029099 12.216082 0.000000 65.000000 14.449705 0.000000
-8.376782 -14.999166 9.426785 0.000000 70.000000 14.567020 0.000000
-5.740694 -18.304777 12.251255 0.000000 35.000000 14.355338 0.000000
-5.896059 -18.347166 12.302661 0.000000 36.000000 14.403799 0.000000
-6.217891 -15.222647 10.540266 0.000000 39.000000 14.872822 19.000000
-6.356053 -16.913582 11.768013 0.000000 56.000000 14.900465 24.000000
-8.382403 -14.314934 8.773316 0.000000 44.000000 14.444586 0.000000
-7.937268 -15.072246 9.460672 0.000000 43.000000 14.460829 0.000000
-8.291560 -14.226072 8.724103 0.000000 35.000000 14.437946 0.000000
-8.213438 -14.119242 8.688727 0.000000 41.000000 14.455226 0.000000
-7.097516 -14.474664 9.055504 0.000000 32.000000 14.310077 0.000000
-4.440436 -14.882956 10.585378 0.000000 42.000000 14.735993 17.000000
-5.694456 -16.055161 11.167218 0.000000 48.000000 14.781799 19.000000
-6.870511 -14.122856 9.028989 0.000000 44.000000 14.444460 0.000000
-6.027662 -15.624223 11.038678 0.000000 59.000000 14.996911 19.000000
-6.649435 -13.970983 8.963914 0.000000 44.000000 14.434554 0.000000
-6.355125 -14.269346 9.991199 0.000000 43.000000 15.015017 13.000000
-6.521365 -15.715199 11.178193 0.000000 50.000000 15.157187 25.000000
-5.147051 -12.809937 8.936714 0.000000 50.000000 14.769864 5.000000
-5.771626 -14.191442 10.102316 0.000000 50.000000 15.026986 29.000000
-4.478486 -12.833035 8.710561 0.000000 41.000000 14.439214 0.000000
-6.311685 -17.098934 11.730323 0.000000 47.000000 14.754841 24.000000
-3.484895 -12.604107 8.734637 0.000000 46.000000 14.384280 0.000000
-6.844718 -14.395963 10.275575 0.000000 9.000000 15.268586 20.000000
-3.237106 -12.523258 8.790373 0.000000 33.000000 14.423603 0.000000
-3.131941 -12.471710 8.835134 0.000000 46.000000 14.466909 0.000000
-7.406235 -17.336673 11.807419 0.000000 68.000000 14.905672 16.000000
-6.467877 -13.039782 8.844981 0.000000 42.000000 14.838460 7.000000
-8.029430 -15.976865 10.911331 0.000000 66.000000 15.107640 21.000000
-5.911546 -14.466819 9.789586 0.000000 45.000000 14.650061 13.000000
-5.899341 -14.724990 10.250585 0.000000 60.000000 14.863875 13.000000
-6.241384 -14.279864 9.911837 0.000000 52.000000 14.922617 13.000000
-5.236239 -12.808269 9.076068 0.000000 57.000000 14.899570 5.000000
-7.183191 -17.768668 11.758904 0.000000 43.000000 14.572633 16.000000
-3.862666 -15.335026 10.538991 0.000000 32.000000 14.319666 0.000000
-3.845368 -15.145136 10.620647 0.000000 36.000000 14.489931 0.000000
-6.864538 -17.424140 12.356107 0.000000 53.000000 15.177471 15.000000
-2.883498 -14.905357 10.648465 0.000000 36.000000 14.450766 0.000000
-6.512716 -16.185222 11.369783 0.000000 76.000000 15.036672 25.000000
-2.514802 -14.875224 10.651390 0.000000 41.000000 14.394096 0.000000
-5.328237 -15.337563 11.081621 0.000000 56.000000 15.051005 18.000000
-7.299599 -17.398249 11.968057 0.000000 61.000000 14.975312 16.000000
-2.826954 -13.908989 9.914540 0.000000 43.000000 14.431326 0.000000
-7.690440 -16.243870 11.090261 0.000000 59.000000 15.025501 21.000000
-3.548551 -14.109591 10.459971 0.000000 56.000000 14.896961 14.000000
-2.071862 -14.730368 10.740178 0.000000 34.000000 14.455998 0.000000
-2.523935 -13.831108 9.965358 0.000000 29.000000 14.453617 0.000000
-1.911465 -14.696878 10.767025 0.000000 41.000000 14.463307 0.000000
-3.411518 -14.253088 10.680483 0.000000 57.000000 14.960574 14.000000
-6.676356 -17.568171 11.526387 0.000000 49.000000 14.399031 0.000000
-7.122176 -18.462177 12.422425 0.000000 68.000000 14.686221 26.000000
-7.237350 -16.181386 11.299743 0.000000 50.000000 15.133441 27.000000
-6.319380 -14.505010 10.049990 0.000000 60.000000 14.918596 13.000000
-5.596293 -16.975006 11.647686 0.000000 49.000000 14.612645 8.000000
-5.142556 -17.156126 12.037128 0.000000 47.000000 14.722754 8.000000
-5.552106 -17.152634 11.897811 0.000000 41.000000 14.699279 8.000000
-7.338653 -15.363577 10.550721 0.000000 57.000000 15.032022 27.000000
-5.132644 -17.992529 12.301623 0.000000 62.000000 14.448939 0.000000
-8.075552 -15.780230 10.487316 0.000000 41.000000 14.894721 22.000000
-7.613081 -14.880124 9.965364 0.000000 50.000000 14.903646 28.000000
-4.316176 -17.786327 12.326630 0.000000 42.000000 14.418333 0.000000
-5.857065 -14.131957 10.057267 0.000000 63.000000 15.043235 29.000000
-4.166003 -17.727866 12.345161 0.000000 57.000000 14.435540 0.000000
-3.923581 -14.401749 10.865632 0.000000 46.000000 15.127586 14.000000
-3.072970 -16.521978 11.718563 0.000000 40.000000 14.407009 0.000000
-8.226756 -13.788259 8.765615 0.000000 35.000000 14.709208 23.000000
-3.409235 -14.799801 10.789090 0.000000 52.000000 14.731592 14.000000
-7.932389 -14.642321 9.446369 0.000000 47.000000 14.695786 28.000000
-3.931142 -13.530383 10.136933 0.000000 47.000000 15.053651 12.000000
-5.419637 -13.099996 9.019836 0.000000 58.000000 14.725232 5.000000
-1.954322 -16.457940 11.897026 0.000000 35.000000 14.353530 0.000000
-6.903173 -16.699874 11.314201 0.000000 64.000000 14.777485 27.000000
-4.919107 -15.786862 11.356842 0.000000 29.000000 14.925700 18.000000
-1.463618 -16.368321 12.051881 0.000000 40.000000 14.426060 0.000000
-6.516259 -13.784113 8.884882 0.000000 46.000000 14.451926 0.000000
-6.867707 -15.571414 10.853137 0.000000 68.000000 15.054329 27.000000
-8.160917 -13.701112 9.061389 0.000000 51.000000 14.979783 23.000000
-6.385632 -14.925825 10.289575 0.000000 47.000000 14.879871 20.000000
-6.849404 -17.551833 12.115219 0.000000 28.000000 14.910251 15.000000
-5.435754 -12.828316 8.938716 0.000000 60.000000 14.820635 5.000000
