47.127290 28.885158 -30.035406 0.000000 36.000000 14.105209 0.000000
46.915823 28.835544 -29.819436 0.000000 32.000000 14.115453 0.000000
46.713584 28.781721 -29.649048 0.000000 27.000000 14.098040 0.000000
45.540660 31.897174 -31.778938 0.000000 40.000000 14.033445 0.000000
45.960531 32.839138 -32.246380 0.000000 34.000000 14.493459 20.000000
44.794116 31.076133 -30.478650 0.000000 39.000000 14.030587 0.000000
47.675217 30.866228 -32.200174 0.000000 45.000000 14.150129 0.000000
46.608599 29.312301 -29.886672 0.000000 53.000000 14.212681 0.000000
48.672947 32.165608 -34.212543 0.000000 29.000000 14.097389 0.000000
44.812031 32.707711 -31.444824 0.000000 72.000000 14.391523 28.000000
45.075696 32.673433 -32.014037 0.000000 27.000000 14.127110 0.000000
47.527518 32.622246 -33.588687 0.000000 66.000000 14.234272 0.000000
48.787628 28.990223 -31.490180 0.000000 29.000000 14.010194 0.000000
46.189603 33.372415 -32.932176 0.000000 70.000000 14.477351 21.000000
44.090723 32.212245 -30.044663 0.000000 71.000000 14.660245 30.000000
46.704813 33.070376 -33.507250 0.000000 52.000000 14.167376 0.000000
43.961833 31.244113 -29.524533 0.000000 49.000000 14.355895 25.000000
46.265132 31.935989 -32.192910 0.000000 41.000000 14.130620 0.000000
45.588433 33.604242 -32.420033 0.000000 75.000000 14.663998 27.000000
45.124788 32.865417 -31.917591 0.000000 62.000000 14.327687 28.000000
47.814651 31.940078 -33.296247 0.000000 45.000000 14.150192 0.000000
47.664380 32.038852 -33.256519 0.000000 37.000000 14.164190 0.000000
44.063910 31.085693 -29.404243 0.000000 63.000000 14.386950 4.000000
48.171380 32.048316 -33.705997 0.000000 35.000000 14.118229 0.000000
46.164661 32.937077 -33.205770 0.000000 35.000000 14.027759 0.000000
46.042771 32.785726 -32.890048 0.000000 43.000000 14.083837 0.000000
49.614255 30.694758 -33.470830 0.000000 41.000000 14.140009 0.000000
44.491807 30.430316 -29.637119 0.000000 27.000000 14.045473 0.000000
45.826372 34.063828 -33.058197 0.000000 65.000000 14.638737 27.000000
45.654544 33.997735 -32.983263 0.000000 67.000000 14.566564 27.000000
47.070958 30.512741 -31.397748 0.000000 30.000000 14.172431 0.000000
44.283459 31.145037 -29.405248 0.000000 72.000000 14.525418 4.000000
45.350064 30.597622 -30.106356 0.000000 33.000000 14.246987 0.000000
46.627298 30.332969 -30.932451 0.000000 43.000000 14.156466 0.000000
46.860905 30.301693 -31.122982 0.000000 30.000000 14.124659 0.000000
44.528849 30.893614 -29.683742 0.000000 43.000000 14.310363 4.000000
46.408003 30.525719 -30.940500 0.000000 39.000000 14.163300 0.000000
46.223383 33.901905 -33.976279 0.000000 42.000000 14.135051 0.000000
47.579565 31.873609 -33.262945 0.000000 39.000000 14.021022 0.000000
44.155677 32.535314 -30.616331 0.000000 50.000000 14.514612 30.000000
46.285118 30.093328 -30.491214 0.000000 23.000000 14.136934 0.000000
48.210220 31.605981 -33.275890 0.000000 29.000000 14.149783 0.000000
48.130436 31.192920 -32.801078 0.000000 52.000000 14.171843 0.000000
44.181622 32.742681 -31.531166 0.000000 35.000000 14.059250 0.000000
47.453204 33.006724 -34.003596 0.000000 49.000000 14.161153 0.000000
45.001823 31.416866 -30.472368 0.000000 46.000000 14.336773 18.000000
45.314249 32.466065 -31.407678 0.000000 74.000000 14.507672 19.000000
45.497340 32.762381 -31.474640 0.000000 64.000000 14.728250 19.000000
46.630531 33.954738 -34.090354 0.000000 58.000000 14.284959 21.000000
48.662870 31.939163 -33.919536 0.000000 52.000000 14.146522 0.000000
47.986879 31.059861 -32.581841 0.000000 47.000000 14.166239 0.000000
48.260511 32.313076 -33.972607 0.000000 48.000000 14.146419 0.000000
44.050810 31.544097 -29.451902 0.000000 60.000000 14.624586 25.000000
45.731784 31.583119 -30.927211 0.000000 48.000000 14.486451 2.000000
45.510588 29.666340 -29.487473 0.000000 39.000000 14.165121 0.000000
46.991452 33.370206 -33.942582 0.000000 55.000000 14.200591 0.000000
48.896278 31.118325 -33.258742 0.000000 45.000000 14.192319 0.000000
48.708119 30.988573 -33.100732 0.000000 47.000000 14.128048 0.000000
48.508970 30.864344 -32.893063 0.000000 44.000000 14.094027 0.000000
45.150898 32.067878 -30.702862 0.000000 76.000000 14.648023 18.000000
46.387270 33.382967 -33.295040 0.000000 63.000000 14.342162 21.000000
49.397650 31.537907 -33.949085 0.000000 47.000000 14.233596 0.000000
44.855050 33.090113 -31.641387 0.000000 72.000000 14.513761 28.000000
45.009271 30.182391 -29.467180 0.000000 48.000000 14.250962 0.000000
45.100617 33.214935 -31.736639 0.000000 29.000000 14.642760 28.000000
48.387930 32.064695 -33.828389 0.000000 51.000000 14.151009 0.000000
47.897002 32.219294 -33.602412 0.000000 54.000000 14.158256 0.000000
43.825242 31.777858 -29.216211 0.000000 45.000000 14.810717 25.000000
47.256261 30.244919 -31.334677 0.000000 32.000000 14.140181 0.000000
48.518788 31.060919 -33.216835 0.000000 35.000000 14.006974 0.000000
47.053732 30.154188 -31.102366 0.000000 28.000000 14.140577 0.000000
43.865601 32.140361 -29.480653 0.000000 58.000000 14.875866 26.000000
47.210072 28.566413 -29.361240 0.000000 50.000000 14.389430 10.000000
47.293683 30.328164 -31.439366 0.000000 44.000000 14.139980 0.000000
45.082500 30.896871 -30.266478 0.000000 48.000000 14.196478 0.000000
46.133691 34.456576 -33.720694 0.000000 74.000000 14.590416 27.000000
46.429104 33.434209 -33.420662 0.000000 49.000000 14.311327 21.000000
46.057391 32.522370 -32.779549 0.000000 39.000000 14.004432 0.000000
46.754105 31.860307 -32.367647 0.000000 54.000000 14.202883 0.000000
45.990242 33.795401 -33.393585 0.000000 40.000000 14.338235 27.000000
47.119963 30.522161 -31.506639 0.000000 34.000000 14.130746 0.000000
45.633707 33.492556 -32.833445 0.000000 46.000000 14.350986 27.000000
44.938592 33.537858 -32.855309 0.000000 43.000000 14.036096 0.000000
45.703965 29.604197 -29.695499 0.000000 39.000000 14.084525 0.000000
45.499909 29.903962 -29.633440 0.000000 21.000000 14.208020 0.000000
46.557685 33.094054 -33.532962 0.000000 27.000000 14.095528 0.000000
47.110726 32.876362 -33.492557 0.000000 46.000000 14.252111 0.000000
45.743903 34.382168 -34.259679 0.000000 34.000000 14.013280 0.000000
46.741738 33.488435 -34.186635 0.000000 32.000000 13.995748 0.000000
44.875785 32.963523 -31.286376 0.000000 72.000000 14.677368 28.000000
44.140164 31.035175 -29.325056 0.000000 60.000000 14.443882 4.000000
46.176164 33.819824 -33.836541 0.000000 42.000000 14.154002 0.000000
44.638875 32.488969 -30.209525 0.000000 72.000000 14.977950 30.000000
45.513202 34.069482 -33.673381 0.000000 35.000000 14.096415 0.000000
46.699039 33.467562 -33.854085 0.000000 36.000000 14.178241 0.000000
45.383343 33.196406 -32.288587 0.000000 43.000000 14.407944 28.000000
45.078785 31.698175 -30.513558 0.000000 62.000000 14.514972 18.000000
45.807072 33.057262 -31.881870 0.000000 57.000000 14.787574 20.000000
44.408906 32.394004 -30.179573 0.000000 53.000000 14.831953 30.000000
45.357998 31.711331 -31.463145 0.000000 35.000000 14.040235 0.000000
44.192782 31.183398 -29.685730 0.000000 46.000000 14.324173 4.000000
45.770466 30.021919 -30.094998 0.000000 40.000000 14.107715 0.000000
46.439276 32.297202 -32.638539 0.000000 43.000000 14.140887 0.000000
46.211960 31.456029 -31.706144 0.000000 46.000000 14.132885 0.000000
48.077566 29.403719 -30.898607 0.000000 48.000000 14.305709 9.000000
46.055560 33.904300 -33.170482 0.000000 60.000000 14.578625 27.000000
48.789765 30.741451 -32.605277 0.000000 65.000000 14.339030 6.000000
49.425707 30.194141 -32.515268 0.000000 66.000000 14.369322 14.000000
44.898756 32.155500 -31.192617 0.000000 44.000000 14.264743 18.000000
46.691933 33.635175 -33.878804 0.000000 56.000000 14.259320 21.000000
46.728009 32.494506 -33.022368 0.000000 31.000000 14.146981 0.000000
45.885002 30.178556 -30.244709 0.000000 53.000000 14.158736 0.000000
46.945540 29.931083 -30.735543 0.000000 24.000000 14.193184 0.000000
45.831581 32.588597 -32.252842 0.000000 54.000000 14.278343 20.000000
45.047530 33.375525 -32.640210 0.000000 52.000000 14.129379 0.000000
44.506334 32.276834 -30.374964 0.000000 57.000000 14.681303 30.000000
46.661836 33.614346 -33.616651 0.000000 48.000000 14.402241 21.000000
46.611966 32.350035 -32.786493 0.000000 50.000000 14.158282 0.000000
47.148534 30.355170 -31.400114 0.000000 28.000000 14.113087 0.000000
45.082796 33.919086 -32.737230 0.000000 34.000000 14.408916 23.000000
47.369450 30.334624 -31.522628 0.000000 47.000000 14.125725 0.000000
48.941021 31.447810 -33.784566 0.000000 37.000000 14.070656 0.000000
45.373125 32.013536 -30.990930 0.000000 71.000000 14.533928 18.000000
47.279927 28.988122 -29.868163 0.000000 46.000000 14.347095 10.000000
48.543912 29.307852 -31.297843 0.000000 54.000000 14.209967 0.000000
45.783694 32.411125 -32.447116 0.000000 39.000000 14.023741 0.000000
49.731655 31.383460 -34.268093 0.000000 29.000000 14.092233 0.000000
46.043337 31.638765 -31.707567 0.000000 47.000000 14.161908 0.000000
45.341585 33.348071 -32.296163 0.000000 64.000000 14.474214 27.000000
45.647358 34.450924 -34.037646 0.000000 36.000000 14.152575 0.000000
47.064012 31.901875 -32.609260 0.000000 37.000000 14.217664 0.000000
46.128865 29.208564 -29.555204 0.000000 32.000000 14.138675 0.000000
47.347790 31.507210 -31.886004 0.000000 50.000000 14.582966 1.000000
45.386130 32.292451 -31.131855 0.000000 71.000000 14.616001 18.000000
44.799117 32.846846 -31.192439 0.000000 69.000000 14.632069 28.000000
45.317134 32.914777 -32.349253 0.000000 48.000000 14.168732 0.000000
47.467211 33.197270 -34.205264 0.000000 37.000000 14.151456 0.000000
44.157628 32.684165 -30.855736 0.000000 68.000000 14.449835 30.000000
46.653389 33.802520 -34.285470 0.000000 42.000000 14.078313 0.000000
45.337446 33.719764 -32.875376 0.000000 51.000000 14.320241 27.000000
48.185497 32.556181 -34.208119 0.000000 42.000000 14.104327 0.000000
47.994504 30.727918 -32.279435 0.000000 61.000000 14.166594 0.000000
47.797783 32.250847 -33.559620 0.000000 35.000000 14.158043 0.000000
47.632324 32.098776 -33.410630 0.000000 36.000000 14.085271 0.000000
47.435149 31.956248 -33.078928 0.000000 35.000000 14.121460 0.000000
45.159394 31.497699 -30.882494 0.000000 49.000000 14.194204 0.000000
46.871275 31.556739 -32.220112 0.000000 48.000000 14.171719 0.000000
46.787608 32.973765 -33.194645 0.000000 59.000000 14.350784 16.000000
46.809488 32.025151 -32.555418 0.000000 59.000000 14.206295 0.000000
47.960039 32.332107 -33.866391 0.000000 36.000000 14.084803 0.000000
46.324326 34.228125 -33.880086 0.000000 40.000000 14.440348 27.000000
48.644061 30.485685 -32.139561 0.000000 36.000000 14.418351 6.000000
47.436424 33.172058 -34.197275 0.000000 51.000000 14.126997 0.000000
46.656611 33.219158 -33.933031 0.000000 40.000000 13.958326 0.000000
47.294969 31.938112 -32.850617 0.000000 34.000000 14.192174 0.000000
45.790682 30.860527 -30.765369 0.000000 46.000000 14.186003 0.000000
48.964515 30.710745 -32.811149 0.000000 58.000000 14.269876 0.000000
46.511942 33.798952 -33.800598 0.000000 69.000000 14.323137 21.000000
48.531733 29.628388 -31.715088 0.000000 41.000000 14.126335 0.000000
45.859761 34.311830 -33.613472 0.000000 68.000000 14.443845 27.000000
44.431837 32.097949 -30.179760 0.000000 70.000000 14.665271 30.000000
46.287418 31.362000 -31.629330 0.000000 44.000000 14.161837 0.000000
45.100483 30.466601 -29.962044 0.000000 42.000000 14.144121 0.000000
46.089102 31.258452 -31.389908 0.000000 30.000000 14.161142 0.000000
47.257738 31.249341 -31.659803 0.000000 44.000000 14.532327 1.000000
47.714281 30.786856 -32.163155 0.000000 36.000000 14.144950 0.000000
44.042699 31.097047 -29.721674 0.000000 31.000000 14.178389 0.000000
44.733667 32.687390 -30.982418 0.000000 50.000000 14.641531 30.000000
44.417595 31.808658 -30.174353 0.000000 62.000000 14.488726 30.000000
45.635988 34.347873 -34.103912 0.000000 43.000000 14.042601 0.000000
44.551031 32.666256 -30.892281 0.000000 77.000000 14.601032 30.000000
47.111849 32.171086 -32.863744 0.000000 65.000000 14.236887 0.000000
47.878748 31.948673 -33.334643 0.000000 47.000000 14.160737 0.000000
44.043983 31.794777 -29.683478 0.000000 57.000000 14.621742 25.000000
44.061743 32.082729 -29.871689 0.000000 76.000000 14.680881 30.000000
46.621054 33.657122 -34.143057 0.000000 24.000000 14.068080 0.000000
46.730003 33.243383 -33.887280 0.000000 38.000000 14.037057 0.000000
44.950722 33.250076 -31.969244 0.000000 49.000000 14.442626 28.000000
45.339579 34.375947 -33.417028 0.000000 46.000000 14.363976 23.000000
45.736758 34.023322 -32.991451 0.000000 67.000000 14.615378 27.000000
44.648489 31.598169 -30.184002 0.000000 61.000000 14.465285 18.000000
45.273335 31.458583 -31.182231 0.000000 45.000000 14.030603 0.000000
47.833896 29.222059 -30.678632 0.000000 45.000000 14.224240 0.000000
43.980562 32.079658 -29.869897 0.000000 79.000000 14.641907 30.000000
47.967876 30.950549 -32.506718 0.000000 45.000000 14.140382 0.000000
45.791683 34.307635 -34.172729 0.000000 37.000000 14.047414 0.000000
46.749092 29.017557 -29.830773 0.000000 41.000000 14.138523 0.000000
43.541949 31.796026 -30.271275 0.000000 37.000000 14.005410 0.000000
45.817843 31.816260 -31.423003 0.000000 51.000000 14.345982 2.000000
48.819167 31.606352 -33.684274 0.000000 29.000000 14.173048 0.000000
47.452348 30.850652 -32.002516 0.000000 45.000000 14.163542 0.000000
46.036292 32.519681 -32.776345 0.000000 30.000000 13.994941 0.000000
43.684153 31.759670 -29.321241 0.000000 74.000000 14.665320 25.000000
45.975877 33.148911 -32.608119 0.000000 48.000000 14.452271 20.000000
45.169800 33.836780 -33.142145 0.000000 47.000000 14.138687 0.000000
48.071873 31.340981 -32.961445 0.000000 42.000000 14.129180 0.000000
45.892641 33.660478 -33.456302 0.000000 42.000000 14.170784 0.000000
46.701394 32.666335 -33.071928 0.000000 51.000000 14.205314 0.000000
47.020701 32.357177 -33.016456 0.000000 61.000000 14.206591 0.000000
46.646631 31.416171 -31.895295 0.000000 53.000000 14.191671 0.000000
47.840757 30.584970 -32.038109 0.000000 29.000000 14.164549 0.000000
44.004444 32.321888 -30.188461 0.000000 72.000000 14.592210 30.000000
48.775996 30.446732 -32.288641 0.000000 67.000000 14.360802 6.000000
45.039552 33.292796 -32.010205 0.000000 37.000000 14.483624 28.000000
47.238813 32.210400 -33.104194 0.000000 41.000000 14.164774 0.000000
46.323923 32.786370 -33.198144 0.000000 37.000000 14.017523 0.000000
45.991608 29.774099 -29.774903 0.000000 41.000000 14.270632 0.000000
44.745403 31.996553 -30.713411 0.000000 49.000000 14.407192 18.000000
45.220032 30.831471 -30.265334 0.000000 35.000000 14.222909 0.000000
45.412593 33.683293 -32.668533 0.000000 67.000000 14.467652 27.000000
46.200705 34.312677 -33.715322 0.000000 76.000000 14.539286 27.000000
44.107200 32.250294 -30.049293 0.000000 49.000000 14.687819 30.000000
48.596180 28.983679 -30.723843 0.000000 45.000000 14.411741 13.000000
44.330248 32.132515 -29.872287 0.000000 47.000000 14.836978 30.000000
49.205978 31.618713 -34.212326 0.000000 37.000000 14.021297 0.000000
46.249140 31.301803 -31.519052 0.000000 44.000000 14.179058 0.000000
44.337762 32.271755 -30.002801 0.000000 75.000000 14.839511 30.000000
49.418898 31.114200 -33.535228 0.000000 34.000000 14.257500 0.000000
44.408049 32.024671 -29.901204 0.000000 69.000000 14.790356 30.000000
45.939579 30.187436 -30.422296 0.000000 39.000000 14.074912 0.000000
47.566498 31.239470 -32.461661 0.000000 49.000000 14.153303 0.000000
47.621271 32.406175 -33.666416 0.000000 43.000000 14.098754 0.000000
46.587772 30.130166 -30.761333 0.000000 29.000000 14.127018 0.000000
43.638033 32.059582 -29.662955 0.000000 60.000000 14.602186 26.000000
48.376559 31.576657 -33.319753 0.000000 39.000000 14.182300 0.000000
47.485609 30.004328 -31.298134 0.000000 45.000000 14.127859 0.000000
44.270687 32.551240 -30.573471 0.000000 67.000000 14.606133 30.000000
44.726949 30.481270 -29.360985 0.000000 54.000000 14.365561 3.000000
44.956058 31.668637 -30.384385 0.000000 67.000000 14.522951 18.000000
46.804496 28.964236 -29.889041 0.000000 32.000000 14.095015 0.000000
47.021247 28.908056 -30.040516 0.000000 33.000000 14.065602 0.000000
48.420519 29.827573 -31.840488 0.000000 29.000000 14.112088 0.000000
48.653182 29.776790 -31.954091 0.000000 32.000000 14.117916 0.000000
47.152290 31.750372 -32.627779 0.000000 25.000000 14.156552 0.000000
46.662443 33.540046 -34.170474 0.000000 33.000000 13.999721 0.000000
48.047916 28.641050 -30.429506 0.000000 39.000000 14.138259 0.000000
46.161802 33.656444 -33.379698 0.000000 69.000000 14.344890 21.000000
44.010651 31.841464 -29.889150 0.000000 57.000000 14.500933 30.000000
44.389535 31.047452 -29.235650 0.000000 67.000000 14.626706 4.000000
46.911349 32.601101 -33.278573 0.000000 51.000000 14.131580 0.000000
47.061441 32.675910 -33.354927 0.000000 47.000000 14.197803 0.000000
44.195274 32.298255 -30.195101 0.000000 75.000000 14.663770 30.000000
45.259452 33.129671 -31.927831 0.000000 64.000000 14.542908 28.000000
44.104782 32.184744 -29.840300 0.000000 73.000000 14.782610 30.000000
47.117668 33.205068 -33.545833 0.000000 60.000000 14.417859 15.000000
46.474767 31.317632 -31.628216 0.000000 49.000000 14.224348 0.000000
45.378156 31.745491 -30.962230 0.000000 41.000000 14.394272 18.000000
45.465359 31.657025 -31.577716 0.000000 35.000000 13.984221 0.000000
45.123927 32.176321 -31.273547 0.000000 41.000000 14.331074 18.000000
45.868944 33.351389 -33.190482 0.000000 46.000000 14.146389 0.000000
44.621982 31.235090 -29.910986 0.000000 67.000000 14.411872 4.000000
44.987948 30.990286 -30.287698 0.000000 53.000000 14.194118 0.000000
46.057851 32.470983 -32.741993 0.000000 30.000000 13.998158 0.000000
47.608991 32.658961 -33.792467 0.000000 59.000000 14.162868 0.000000
44.652431 31.366244 -30.422824 0.000000 52.000000 14.173686 0.000000
46.856455 30.725698 -31.531295 0.000000 29.000000 14.112444 0.000000
44.129474 31.420750 -29.544882 0.000000 50.000000 14.527638 25.000000
44.096917 31.611674 -29.529566 0.000000 80.000000 14.636578 25.000000
49.789129 31.079786 -33.848450 0.000000 36.000000 14.208885 0.000000
46.569646 32.516523 -32.898287 0.000000 53.000000 14.165745 0.000000
47.688134 32.808324 -34.041099 0.000000 34.000000 14.128839 0.000000
46.875027 29.784482 -30.273978 0.000000 75.000000 14.370693 5.000000
49.909901 31.238966 -34.221370 0.000000 30.000000 14.119968 0.000000
45.994949 33.818910 -33.783147 0.000000 26.000000 14.102517 0.000000
48.110571 30.551304 -32.189790 0.000000 46.000000 14.173522 0.000000
47.045365 32.181567 -32.800522 0.000000 49.000000 14.252707 0.000000
47.914680 30.088590 -31.675333 0.000000 40.000000 14.136713 0.000000
44.424222 31.638758 -30.541719 0.000000 44.000000 14.152395 0.000000
46.005454 32.154825 -32.193022 0.000000 53.000000 14.139170 0.000000
47.488837 29.922968 -31.129770 0.000000 38.000000 14.189557 0.000000
45.292783 31.818534 -30.994760 0.000000 59.000000 14.376719 18.000000
45.361742 32.912544 -32.402609 0.000000 50.000000 14.153918 0.000000
44.786321 32.507089 -30.759003 0.000000 56.000000 14.702879 30.000000
49.318291 31.610140 -33.983186 0.000000 49.000000 14.217378 0.000000
46.212748 33.005733 -33.355727 0.000000 35.000000 13.994563 0.000000
48.906061 30.096709 -32.416105 0.000000 39.000000 14.129981 0.000000
45.009418 30.335396 -29.743291 0.000000 41.000000 14.164075 0.000000
43.756517 31.585463 -29.319338 0.000000 48.000000 14.596311 25.000000
45.658955 34.512935 -34.182783 0.000000 54.000000 14.101304 0.000000
47.334684 30.218926 -31.341884 0.000000 49.000000 14.156937 0.000000
45.418140 31.870186 -31.752657 0.000000 39.000000 13.976484 0.000000
47.098032 29.687056 -30.171890 0.000000 40.000000 14.483559 5.000000
46.906716 30.079273 -30.932455 0.000000 29.000000 14.136267 0.000000
45.886572 34.026672 -33.033798 0.000000 69.000000 14.660657 27.000000
45.219110 33.583049 -32.555823 0.000000 68.000000 14.389242 27.000000
46.261467 29.912255 -30.207941 0.000000 50.000000 14.200551 0.000000
46.061912 29.854686 -30.051750 0.000000 46.000000 14.172974 0.000000
47.175273 31.587544 -32.406831 0.000000 39.000000 14.212776 0.000000
47.511595 28.133656 -29.487118 0.000000 52.000000 14.190943 0.000000
47.258262 32.314715 -33.117915 0.000000 35.000000 14.227570 0.000000
47.196599 33.357896 -33.981156 0.000000 47.000000 14.265029 15.000000
44.643878 31.143281 -30.241814 0.000000 25.000000 14.153169 0.000000
45.894021 32.107518 -32.231130 0.000000 37.000000 14.033610 0.000000
46.859292 33.452494 -33.818908 0.000000 36.000000 14.267562 0.000000
48.512052 30.554064 -32.216238 0.000000 53.000000 14.347445 6.000000
44.668510 32.579412 -30.535674 0.000000 79.000000 14.835118 30.000000
44.675124 30.947619 -30.117110 0.000000 51.000000 14.131356 0.000000
46.113037 33.571023 -33.340188 0.000000 66.000000 14.296269 21.000000
44.614638 33.184368 -31.383651 0.000000 68.000000 14.623569 24.000000
47.264194 32.069392 -32.876363 0.000000 66.000000 14.239656 0.000000
46.673170 33.578517 -34.207875 0.000000 33.000000 14.003635 0.000000
44.439366 31.180071 -29.992569 0.000000 64.000000 14.239988 4.000000
45.470996 31.113957 -30.792959 0.000000 49.000000 14.169197 0.000000
46.154470 33.405323 -32.989540 0.000000 66.000000 14.443384 21.000000
47.555024 30.218223 -31.532084 0.000000 48.000000 14.137403 0.000000
44.962346 30.178335 -29.497682 0.000000 44.000000 14.206664 0.000000
48.029264 29.596959 -30.785642 0.000000 28.000000 14.471783 9.000000
48.339668 32.419787 -34.129963 0.000000 53.000000 14.145893 0.000000
48.956559 30.794468 -33.002032 0.000000 47.000000 14.192795 0.000000
47.223925 32.045059 -32.789222 0.000000 64.000000 14.262457 0.000000
47.037454 31.179574 -31.969119 0.000000 50.000000 14.186510 0.000000
45.883655 33.130791 -32.603473 0.000000 72.000000 14.400919 20.000000
45.117010 34.058548 -32.620726 0.000000 63.000000 14.583982 23.000000
47.041915 32.148580 -32.803566 0.000000 63.000000 14.229346 0.000000
44.648068 32.693556 -30.906830 0.000000 73.000000 14.653748 30.000000
45.315094 34.149246 -33.226031 0.000000 67.000000 14.340164 23.000000
49.504713 30.766483 -33.473939 0.000000 33.000000 14.129299 0.000000
47.572519 31.744047 -32.982406 0.000000 46.000000 14.121564 0.000000
44.637915 32.741797 -30.931753 0.000000 60.000000 14.661738 30.000000
48.678534 29.470623 -31.601636 0.000000 47.000000 14.174455 0.000000
47.062218 30.072631 -31.047923 0.000000 38.000000 14.130938 0.000000
48.553184 31.111881 -33.270978 0.000000 35.000000 14.018704 0.000000
46.650806 32.013818 -32.484806 0.000000 48.000000 14.170336 0.000000
45.855152 33.002952 -32.838148 0.000000 49.000000 14.159061 0.000000
44.996875 30.809187 -30.146289 0.000000 46.000000 14.181309 0.000000
47.091117 31.354150 -31.915982 0.000000 65.000000 14.350795 1.000000
47.718703 31.549290 -32.925803 0.000000 21.000000 14.110452 0.000000
46.677337 33.636297 -34.360564 0.000000 18.000000 13.941438 0.000000
47.302660 32.046897 -32.983093 0.000000 53.000000 14.175275 0.000000
49.355129 29.688683 -32.483499 0.000000 30.000000 14.053743 0.000000
44.707380 32.913666 -32.010216 0.000000 40.000000 14.099779 0.000000
46.463964 30.033071 -30.416365 0.000000 40.000000 14.233617 0.000000
47.307540 32.539973 -33.390856 0.000000 50.000000 14.209200 0.000000
47.492425 28.593543 -29.972127 0.000000 38.000000 14.143664 0.000000
45.247566 30.950677 -30.419035 0.000000 55.000000 14.207883 0.000000
46.583692 33.776360 -33.973216 0.000000 63.000000 14.231773 21.000000
48.499275 32.046686 -33.985634 0.000000 31.000000 14.091013 0.000000
43.492842 31.994419 -29.261864 0.000000 36.000000 14.754138 26.000000
46.212992 34.173878 -33.902959 0.000000 52.000000 14.340533 27.000000
46.827417 33.540453 -34.341436 0.000000 28.000000 13.967182 0.000000
44.931821 30.248891 -29.546176 0.000000 22.000000 14.203165 0.000000
47.153479 31.136468 -32.055169 0.000000 45.000000 14.159744 0.000000
45.062589 30.592588 -29.811719 0.000000 41.000000 14.298980 0.000000
47.528181 29.327096 -30.549888 0.000000 50.000000 14.226255 0.000000
47.023057 29.014164 -30.051182 0.000000 45.000000 14.123129 0.000000
47.799720 29.425377 -30.559537 0.000000 59.000000 14.406981 9.000000
47.290274 32.610816 -33.473887 0.000000 56.000000 14.189784 0.000000
45.882380 32.063391 -32.190820 0.000000 39.000000 14.027759 0.000000
47.129437 33.413385 -34.259011 0.000000 38.000000 14.086839 0.000000
44.105372 32.465271 -30.358310 0.000000 74.000000 14.615842 30.000000
46.240875 30.598497 -30.944594 0.000000 40.000000 14.125422 0.000000
47.898345 31.159580 -32.594389 0.000000 33.000000 14.176105 0.000000
46.608125 34.022290 -33.825191 0.000000 74.000000 14.486407 21.000000
46.057534 31.049820 -30.901808 0.000000 65.000000 14.337024 0.000000
45.793010 33.040916 -32.666071 0.000000 71.000000 14.263817 20.000000
45.690428 30.327950 -30.217963 0.000000 43.000000 14.173765 0.000000
46.719950 31.099430 -31.773531 0.000000 44.000000 14.115259 0.000000
46.229495 34.145245 -33.840307 0.000000 72.000000 14.371694 27.000000
46.018333 33.828975 -33.297531 0.000000 58.000000 14.433742 27.000000
46.437133 31.256859 -31.523017 0.000000 40.000000 14.238242 0.000000
45.335619 30.523262 -30.101693 0.000000 43.000000 14.198638 0.000000
45.169348 33.303895 -32.114205 0.000000 57.000000 14.484218 28.000000
45.463201 33.587575 -32.360394 0.000000 71.000000 14.633523 27.000000
49.302869 30.123396 -32.051118 0.000000 64.000000 14.569270 14.000000
45.956029 33.458696 -33.363821 0.000000 41.000000 14.139619 0.000000
47.226170 29.901065 -30.667291 0.000000 71.000000 14.351728 5.000000
46.801268 33.357062 -34.109335 0.000000 30.000000 13.995127 0.000000
47.961776 28.895744 -30.563852 0.000000 42.000000 14.163309 0.000000
46.135178 32.361795 -32.574662 0.000000 24.000000 14.077467 0.000000
44.949318 30.150886 -29.482160 0.000000 40.000000 14.194115 0.000000
45.182273 30.826120 -30.253349 0.000000 63.000000 14.209646 0.000000
44.672555 31.988366 -30.804354 0.000000 47.000000 14.309089 0.000000
45.352072 34.004531 -33.547449 0.000000 34.000000 14.062965 0.000000
46.834017 33.272058 -34.035643 0.000000 28.000000 14.007319 0.000000
45.890604 34.022235 -33.030837 0.000000 72.000000 14.661816 27.000000
45.707861 32.121698 -32.071554 0.000000 31.000000 14.057529 0.000000
48.670994 28.833888 -31.203768 0.000000 39.000000 14.046803 0.000000
45.919355 32.171620 -32.171678 0.000000 41.000000 14.122428 0.000000
47.418523 31.001715 -32.142852 0.000000 45.000000 14.147305 0.000000
44.975822 32.116209 -31.363775 0.000000 45.000000 14.166826 0.000000
45.168459 31.145633 -30.679573 0.000000 48.000000 14.118821 0.000000
47.219447 31.637881 -32.594866 0.000000 27.000000 14.142126 0.000000
46.495952 30.366179 -30.901870 0.000000 46.000000 14.134191 0.000000
48.033962 28.392679 -29.874754 0.000000 45.000000 14.341759 11.000000
48.518429 32.264890 -34.158140 0.000000 45.000000 14.119181 0.000000
46.012110 34.451072 -33.996689 0.000000 56.000000 14.351216 27.000000
46.965954 30.803640 -31.615119 0.000000 32.000000 14.156563 0.000000
48.988843 31.327543 -33.590829 0.000000 43.000000 14.146493 0.000000
45.991070 31.249314 -31.293563 0.000000 38.000000 14.171755 0.000000
48.476070 30.408076 -31.938066 0.000000 63.000000 14.422966 6.000000
48.311078 31.065007 -32.776383 0.000000 33.000000 14.196391 0.000000
45.057086 33.189083 -31.787409 0.000000 69.000000 14.573892 28.000000
45.391820 33.318193 -32.046863 0.000000 73.000000 14.641291 28.000000
47.950888 32.188196 -33.522493 0.000000 54.000000 14.216745 0.000000
48.082460 32.488764 -34.063587 0.000000 45.000000 14.108835 0.000000
46.710907 31.954395 -32.414685 0.000000 57.000000 14.208447 0.000000
48.326930 32.513752 -34.192342 0.000000 35.000000 14.155827 0.000000
46.766954 33.512438 -34.235251 0.000000 29.000000 13.990572 0.000000
46.583938 30.592855 -31.253209 0.000000 47.000000 14.084209 0.000000
46.720102 33.401601 -34.125115 0.000000 24.000000 13.973317 0.000000
46.303402 33.888786 -34.053176 0.000000 43.000000 14.115189 0.000000
45.745873 34.122168 -33.096634 0.000000 83.000000 14.610853 27.000000
45.602260 34.274877 -34.075041 0.000000 38.000000 14.001634 0.000000
47.726678 30.969265 -32.336849 0.000000 38.000000 14.147716 0.000000
47.294899 32.673948 -33.590951 0.000000 50.000000 14.154057 0.000000
46.978997 29.959439 -30.796039 0.000000 29.000000 14.186818 0.000000
45.759383 29.995638 -30.025495 0.000000 37.000000 14.131705 0.000000
45.969232 29.970345 -30.183810 0.000000 43.000000 14.113118 0.000000
46.885651 31.863132 -32.470402 0.000000 27.000000 14.200150 0.000000
46.866715 32.709666 -33.091462 0.000000 53.000000 14.296620 16.000000
47.339823 33.343220 -34.225446 0.000000 52.000000 14.165754 0.000000
46.609910 32.334303 -32.763170 0.000000 48.000000 14.162975 0.000000
46.427173 30.349317 -30.842616 0.000000 28.000000 14.129979 0.000000
46.518709 33.714718 -33.091185 0.000000 57.000000 14.734809 21.000000
44.639922 32.431682 -30.461655 0.000000 74.000000 14.781009 30.000000
45.316162 34.289628 -32.991269 0.000000 68.000000 14.576653 23.000000
45.793070 33.449590 -33.259681 0.000000 34.000000 14.124667 0.000000
46.448337 33.432149 -33.563780 0.000000 39.000000 14.226576 21.000000
45.676139 31.420954 -31.096179 0.000000 64.000000 14.253732 2.000000
47.432391 28.584683 -29.914191 0.000000 33.000000 14.147519 0.000000
48.868121 29.433141 -31.835621 0.000000 32.000000 14.090053 0.000000
47.635212 28.527219 -29.991178 0.000000 37.000000 14.158956 0.000000
47.985718 31.483226 -33.052665 0.000000 36.000000 14.114750 0.000000
44.484450 31.219676 -30.113206 0.000000 53.000000 14.206939 0.000000
46.688619 33.525371 -33.825061 0.000000 40.000000 14.226738 21.000000
48.253665 32.546582 -34.234843 0.000000 46.000000 14.113441 0.000000
48.417379 31.204890 -33.226841 0.000000 35.000000 14.038924 0.000000
47.094851 32.851473 -33.626786 0.000000 34.000000 14.142873 0.000000
46.934396 32.689903 -33.391844 0.000000 36.000000 14.122376 0.000000
46.770047 32.531898 -33.132448 0.000000 30.000000 14.117999 0.000000
44.653152 31.229737 -29.652442 0.000000 73.000000 14.590630 4.000000
46.443166 32.235490 -32.605071 0.000000 39.000000 14.127399 0.000000
45.271360 33.788613 -32.549590 0.000000 69.000000 14.541082 27.000000
44.279548 32.421782 -30.255352 0.000000 75.000000 14.738553 30.000000
45.476938 34.476741 -33.642311 0.000000 73.000000 14.343413 22.000000
47.122601 32.250424 -32.937554 0.000000 65.000000 14.241742 0.000000
45.403670 34.219206 -33.151606 0.000000 70.000000 14.472010 23.000000
45.336644 31.070876 -30.659689 0.000000 51.000000 14.166229 0.000000
45.263924 30.136028 -29.545228 0.000000 61.000000 14.292812 17.000000
45.012515 33.689641 -32.455671 0.000000 36.000000 14.420446 24.000000
46.560085 32.295852 -32.753133 0.000000 43.000000 14.122929 0.000000
45.322336 31.320495 -30.971278 0.000000 34.000000 14.107457 0.000000
49.320310 30.264941 -32.576850 0.000000 57.000000 14.322185 14.000000
44.731398 30.917931 -30.272668 0.000000 42.000000 14.039476 0.000000
45.159005 31.408219 -31.080537 0.000000 39.000000 14.012288 0.000000
45.698120 34.252960 -33.785311 0.000000 27.000000 14.221158 27.000000
47.172819 31.359616 -32.343673 0.000000 38.000000 14.115919 0.000000
44.700197 30.868565 -30.235314 0.000000 33.000000 14.019347 0.000000
45.960959 31.436357 -31.301864 0.000000 42.000000 14.264246 2.000000
45.453231 31.571621 -31.133326 0.000000 52.000000 14.214824 0.000000
44.375700 30.678950 -29.686129 0.000000 38.000000 14.107965 0.000000
46.420394 33.872449 -33.602349 0.000000 61.000000 14.452244 21.000000
45.607366 34.044652 -33.137978 0.000000 71.000000 14.472329 27.000000
44.365253 30.908863 -29.373458 0.000000 56.000000 14.443065 4.000000
47.259125 31.846665 -32.648795 0.000000 48.000000 14.251043 0.000000
45.870990 31.847652 -31.257374 0.000000 72.000000 14.497011 2.000000
49.748048 30.425090 -33.339472 0.000000 35.000000 14.126532 0.000000
44.623354 31.125963 -30.099969 0.000000 50.000000 14.224877 0.000000
44.829552 33.682945 -32.078751 0.000000 63.000000 14.573974 24.000000
46.125698 31.874390 -31.938556 0.000000 39.000000 14.192495 0.000000
46.726302 31.759706 -32.143310 0.000000 60.000000 14.274627 0.000000
45.739847 34.247933 -34.124780 0.000000 38.000000 14.018213 0.000000
46.930083 33.088665 -33.548534 0.000000 51.000000 14.257886 15.000000
46.168830 31.293168 -31.519435 0.000000 38.000000 14.135754 0.000000
47.128952 33.378618 -34.130571 0.000000 22.000000 14.148873 0.000000
47.428300 29.456463 -30.750855 0.000000 43.000000 14.126635 0.000000
47.237509 29.380408 -30.612141 0.000000 41.000000 14.080811 0.000000
45.496307 32.793825 -31.895977 0.000000 77.000000 14.474023 20.000000
48.078438 30.069073 -31.759061 0.000000 58.000000 14.148098 0.000000
48.347691 30.233855 -31.757971 0.000000 44.000000 14.374537 6.000000
46.842561 33.298332 -33.590294 0.000000 20.000000 14.315205 15.000000
47.174008 32.046065 -32.759890 0.000000 44.000000 14.258490 0.000000
45.726257 33.636182 -32.855451 0.000000 56.000000 14.466458 27.000000
45.369190 30.784914 -30.397462 0.000000 45.000000 14.179895 0.000000
46.212646 32.964336 -33.250866 0.000000 32.000000 14.037552 0.000000
45.892163 34.340214 -33.486039 0.000000 75.000000 14.558577 27.000000
47.429969 33.458117 -33.795416 0.000000 70.000000 14.555319 15.000000
45.863991 32.872107 -31.939939 0.000000 64.000000 14.665922 20.000000
45.621508 34.024096 -33.078200 0.000000 77.000000 14.505356 27.000000
45.160730 30.295029 -29.803228 0.000000 42.000000 14.172488 0.000000
46.570911 29.999022 -30.591968 0.000000 37.000000 14.150059 0.000000
45.854135 33.990436 -32.909820 0.000000 74.000000 14.703852 27.000000
46.883172 33.669725 -34.156316 0.000000 36.000000 14.190695 0.000000
47.942945 29.514735 -30.743666 0.000000 37.000000 14.408959 9.000000
48.994582 29.689679 -31.599764 0.000000 60.000000 14.455992 14.000000
45.835157 31.999436 -31.834204 0.000000 50.000000 14.197875 0.000000
47.079913 32.506137 -33.281727 0.000000 52.000000 14.152155 0.000000
44.126870 32.753813 -30.697594 0.000000 65.000000 14.579363 30.000000
46.432635 31.588173 -31.928491 0.000000 58.000000 14.172306 0.000000
47.162751 32.712136 -33.564419 0.000000 44.000000 14.131767 0.000000
47.384918 32.752221 -33.691434 0.000000 40.000000 14.178410 0.000000
45.876560 34.142580 -33.010348 0.000000 83.000000 14.740549 27.000000
47.877218 32.818214 -34.187685 0.000000 36.000000 14.129123 0.000000
46.360599 32.727897 -33.165032 0.000000 39.000000 14.021212 0.000000
47.395759 32.521636 -33.420508 0.000000 62.000000 14.220643 0.000000
43.984153 31.866569 -29.256458 0.000000 78.000000 14.912789 25.000000
45.937590 33.340857 -33.022014 0.000000 57.000000 14.281448 21.000000
45.210966 33.078524 -31.940538 0.000000 76.000000 14.481173 28.000000
44.532029 31.976125 -30.313731 0.000000 53.000000 14.552872 30.000000
45.578965 32.038692 -31.926436 0.000000 27.000000 14.040879 0.000000
49.019123 30.687730 -32.576001 0.000000 64.000000 14.433972 6.000000
47.302359 33.383889 -34.134843 0.000000 59.000000 14.231064 15.000000
47.551378 28.581345 -29.975307 0.000000 39.000000 14.162108 0.000000
45.930084 30.940454 -30.868954 0.000000 62.000000 14.232634 0.000000
46.287109 34.334042 -33.587029 0.000000 75.000000 14.675842 27.000000
48.631185 30.697334 -32.768091 0.000000 35.000000 14.132464 0.000000
46.107852 29.985588 -30.207871 0.000000 39.000000 14.172072 0.000000
47.390007 30.962687 -32.102036 0.000000 38.000000 14.136876 0.000000
46.176112 33.400531 -32.722215 0.000000 29.000000 14.623664 21.000000
46.507214 33.960252 -33.982748 0.000000 51.000000 14.299708 21.000000
46.416178 31.507118 -31.822421 0.000000 53.000000 14.184601 0.000000
46.030881 33.887819 -33.186732 0.000000 64.000000 14.546597 27.000000
45.670319 31.109571 -30.861023 0.000000 31.000000 14.216557 0.000000
44.163754 32.790369 -31.156080 0.000000 64.000000 14.322051 30.000000
46.950831 29.910506 -30.773723 0.000000 37.000000 14.158652 0.000000
48.987353 31.271357 -33.250046 0.000000 67.000000 14.332593 8.000000
46.202477 33.491606 -33.057217 0.000000 51.000000 14.473941 21.000000
47.378275 29.860594 -31.014806 0.000000 42.000000 14.174408 0.000000
46.949256 32.804733 -33.172325 0.000000 67.000000 14.340200 16.000000
45.886202 34.474910 -33.826652 0.000000 69.000000 14.416110 27.000000
47.840774 29.781225 -31.397525 0.000000 35.000000 14.097422 0.000000
47.276717 31.722425 -32.616834 0.000000 47.000000 14.205582 0.000000
49.587074 30.780305 -33.490797 0.000000 46.000000 14.165524 0.000000
44.282489 32.761499 -30.780774 0.000000 27.000000 14.603561 30.000000
45.350056 31.777748 -31.513657 0.000000 49.000000 14.043604 0.000000
45.912781 31.466758 -31.432225 0.000000 57.000000 14.175398 0.000000
45.356342 30.424530 -30.050987 0.000000 52.000000 14.182063 0.000000
47.827430 30.606562 -32.044598 0.000000 50.000000 14.167001 0.000000
46.162047 33.962562 -33.943493 0.000000 41.000000 14.163671 0.000000
44.425333 31.842583 -30.176678 0.000000 66.000000 14.511198 30.000000
45.292155 34.142799 -33.396622 0.000000 60.000000 14.215119 0.000000
47.988606 31.803182 -33.251948 0.000000 38.000000 14.178886 0.000000
45.401630 33.011436 -32.437793 0.000000 39.000000 14.209221 0.000000
45.917626 33.358476 -33.218608 0.000000 46.000000 14.155403 0.000000
45.143781 32.694487 -32.073146 0.000000 29.000000 14.133601 0.000000
47.833823 31.976836 -33.299505 0.000000 52.000000 14.179151 0.000000
46.310499 29.689304 -30.070346 0.000000 47.000000 14.179117 0.000000
46.750049 29.960252 -30.691220 0.000000 42.000000 14.147121 0.000000
45.118448 32.019610 -30.731751 0.000000 49.000000 14.585107 18.000000
48.439282 32.339507 -34.166487 0.000000 39.000000 14.121154 0.000000
47.004301 32.898040 -33.462762 0.000000 59.000000 14.234174 0.000000
49.527999 30.954637 -33.672450 0.000000 50.000000 14.124589 0.000000
45.184029 30.796846 -30.192560 0.000000 30.000000 14.232262 0.000000
45.977891 31.646944 -31.491439 0.000000 42.000000 14.275759 2.000000
49.076674 31.851212 -34.388120 0.000000 27.000000 13.985875 0.000000
46.583637 33.851805 -34.183348 0.000000 69.000000 14.141006 0.000000
44.991537 32.149661 -30.632880 0.000000 71.000000 14.667125 18.000000
48.437145 31.458909 -33.350779 0.000000 33.000000 14.120259 0.000000
46.778376 33.741037 -34.008958 0.000000 64.000000 14.279319 21.000000
48.035020 31.216481 -32.767743 0.000000 42.000000 14.162517 0.000000
46.622816 33.837017 -34.107830 0.000000 62.000000 14.199483 0.000000
45.920751 32.786327 -32.304922 0.000000 46.000000 14.405180 20.000000
44.804991 32.138472 -31.034919 0.000000 49.000000 14.312332 18.000000
50.173587 31.108533 -34.320529 0.000000 49.000000 14.102052 0.000000
46.909711 33.454123 -34.276423 0.000000 37.000000 13.996337 0.000000
45.060682 33.638298 -33.050073 0.000000 49.000000 14.027863 0.000000
44.971971 33.776875 -32.082943 0.000000 62.000000 14.694719 24.000000
47.017304 32.955287 -33.436637 0.000000 50.000000 14.291507 15.000000
48.247341 31.493055 -33.188139 0.000000 41.000000 14.156404 0.000000
44.848801 32.142006 -31.321949 0.000000 43.000000 14.149424 0.000000
45.325011 32.971379 -32.193872 0.000000 56.000000 14.306882 20.000000
46.258110 32.671207 -33.060607 0.000000 38.000000 14.006459 0.000000
44.655368 31.106805 -30.172989 0.000000 39.000000 14.181260 0.000000
45.613511 33.831993 -32.688553 0.000000 69.000000 14.638566 27.000000
47.590320 31.181982 -32.352258 0.000000 32.000000 14.200874 0.000000
46.340515 30.296903 -30.717948 0.000000 39.000000 14.138351 0.000000
46.095528 34.372398 -33.792202 0.000000 79.000000 14.475719 27.000000
46.165901 30.205187 -30.577856 0.000000 44.000000 14.091666 0.000000
48.499746 28.678193 -30.631467 0.000000 41.000000 14.242986 13.000000
47.605124 33.107696 -34.272216 0.000000 45.000000 14.119529 0.000000
48.794274 31.869259 -33.929357 0.000000 32.000000 14.160270 0.000000
47.436650 32.406804 -33.386089 0.000000 61.000000 14.193398 0.000000
46.778788 30.803178 -31.537718 0.000000 40.000000 14.118074 0.000000
44.999860 32.215838 -31.223675 0.000000 84.000000 14.328492 18.000000
48.830552 29.882690 -31.553278 0.000000 59.000000 14.524332 14.000000
44.976107 30.686003 -29.978766 0.000000 43.000000 14.206086 0.000000
44.189335 32.914245 -30.764066 0.000000 55.000000 14.661945 30.000000
45.508791 32.613958 -31.687932 0.000000 78.000000 14.506739 19.000000
49.031182 29.862020 -31.654864 0.000000 49.000000 14.540866 14.000000
47.900072 28.112659 -29.929200 0.000000 27.000000 14.075609 0.000000
45.435106 33.671709 -32.568400 0.000000 71.000000 14.536111 27.000000
45.777048 33.021870 -32.681546 0.000000 58.000000 14.234865 20.000000
45.114206 30.110459 -29.427096 0.000000 51.000000 14.283295 17.000000
47.139959 29.752402 -30.647753 0.000000 33.000000 14.234633 5.000000
47.568869 28.657752 -30.072156 0.000000 36.000000 14.153481 0.000000
47.595766 28.283397 -29.625809 0.000000 35.000000 14.230638 0.000000
44.948645 33.480603 -32.814826 0.000000 42.000000 14.032725 0.000000
45.124587 33.568865 -32.738614 0.000000 47.000000 14.217903 0.000000
44.394913 30.779980 -29.615084 0.000000 40.000000 14.223520 4.000000
45.221101 32.535462 -31.921651 0.000000 32.000000 14.172803 0.000000
47.176447 33.534126 -34.025387 0.000000 66.000000 14.332494 15.000000
48.092835 31.940508 -33.421766 0.000000 56.000000 14.200467 0.000000
46.560670 33.841963 -33.745554 0.000000 63.000000 14.407502 21.000000
48.446037 30.176088 -31.936030 0.000000 41.000000 14.271124 6.000000
45.508776 33.698586 -32.593239 0.000000 73.000000 14.570895 27.000000
45.091093 30.986129 -30.449658 0.000000 49.000000 14.135503 0.000000
47.834510 31.468884 -32.825310 0.000000 49.000000 14.181917 0.000000
44.717160 32.436397 -30.652989 0.000000 69.000000 14.696486 30.000000
49.794361 30.311764 -33.316946 0.000000 27.000000 14.095053 0.000000
45.489602 31.036488 -30.762721 0.000000 50.000000 14.151121 0.000000
46.058764 32.518201 -32.751116 0.000000 39.000000 14.020976 0.000000
46.341143 33.868196 -33.524792 0.000000 76.000000 14.462487 21.000000
43.784945 32.326368 -30.117985 0.000000 64.000000 14.536949 29.000000
45.525564 33.111021 -32.711034 0.000000 44.000000 14.150575 0.000000
46.298053 30.787080 -31.159722 0.000000 42.000000 14.126205 0.000000
48.833563 30.762586 -32.662932 0.000000 60.000000 14.335053 6.000000
44.256977 31.453380 -30.209315 0.000000 45.000000 14.177484 0.000000
46.276756 30.651167 -30.972492 0.000000 46.000000 14.155855 0.000000
44.014840 32.539118 -30.862019 0.000000 57.000000 14.291514 30.000000
46.724405 32.957211 -33.375286 0.000000 61.000000 14.194189 0.000000
47.646096 30.695186 -31.970774 0.000000 41.000000 14.182323 0.000000
45.526041 32.009220 -31.801848 0.000000 36.000000 14.078858 0.000000
45.568858 32.777936 -31.928443 0.000000 62.000000 14.477722 20.000000
45.346308 32.067625 -31.127711 0.000000 65.000000 14.465196 18.000000
46.245879 34.255175 -34.279502 0.000000 43.000000 14.161153 0.000000
48.114097 31.135063 -32.760014 0.000000 45.000000 14.156037 0.000000
48.397022 31.106654 -33.178364 0.000000 32.000000 14.001826 0.000000
49.603238 30.783731 -33.444112 0.000000 45.000000 14.205404 0.000000
47.185384 30.123273 -31.152902 0.000000 39.000000 14.151462 0.000000
47.129355 33.357207 -34.141440 0.000000 43.000000 14.129203 0.000000
49.798454 31.009591 -33.821781 0.000000 47.000000 14.188481 0.000000
43.582069 32.095985 -29.190691 0.000000 44.000000 14.903123 26.000000
45.268893 33.886411 -33.418400 0.000000 44.000000 14.036446 0.000000
47.508066 32.795918 -33.838062 0.000000 58.000000 14.167820 0.000000
48.230844 32.063815 -33.675384 0.000000 38.000000 14.175369 0.000000
48.042029 32.045583 -33.588447 0.000000 46.000000 14.131624 0.000000
44.876931 32.408449 -31.330391 0.000000 64.000000 14.316868 0.000000
47.455196 29.719777 -31.022826 0.000000 29.000000 14.121134 0.000000
47.628527 32.605711 -33.765763 0.000000 41.000000 14.157455 0.000000
45.846262 33.968296 -32.778001 0.000000 67.000000 14.772152 27.000000
44.827979 32.265941 -31.129698 0.000000 54.000000 14.338231 30.000000
44.023860 31.207831 -29.585791 0.000000 47.000000 14.323786 25.000000
47.491289 31.883312 -33.042160 0.000000 44.000000 14.128029 0.000000
47.406085 28.579276 -29.886906 0.000000 33.000000 14.149523 0.000000
45.863801 33.078757 -32.619908 0.000000 70.000000 14.349746 20.000000
47.610272 28.516216 -29.982816 0.000000 31.000000 14.146009 0.000000
47.573993 31.784638 -33.080920 0.000000 55.000000 14.082847 0.000000
45.156667 33.006184 -31.633836 0.000000 72.000000 14.610635 28.000000
46.198877 32.896537 -33.297805 0.000000 21.000000 13.960069 0.000000
48.453266 32.227075 -34.075292 0.000000 39.000000 14.119385 0.000000
47.504001 32.806345 -33.796735 0.000000 58.000000 14.198885 0.000000
45.617824 34.028696 -33.174342 0.000000 67.000000 14.444176 27.000000
47.155026 32.362201 -33.149804 0.000000 54.000000 14.186695 0.000000
44.888313 32.709974 -31.322780 0.000000 79.000000 14.507815 28.000000
46.500902 32.459601 -32.785592 0.000000 49.000000 14.172121 0.000000
46.145337 31.060891 -31.180786 0.000000 47.000000 14.204592 0.000000
45.093134 32.168552 -30.823161 0.000000 75.000000 14.603266 18.000000
46.487621 31.809945 -32.207198 0.000000 50.000000 14.150808 0.000000
44.864641 32.134754 -30.983756 0.000000 70.000000 14.371341 18.000000
44.459711 31.240446 -29.630472 0.000000 56.000000 14.520013 4.000000
47.458980 32.563806 -33.505980 0.000000 48.000000 14.220436 0.000000
46.158154 31.555379 -31.771974 0.000000 43.000000 14.124441 0.000000
44.715836 32.473199 -30.637070 0.000000 72.000000 14.728209 30.000000
46.153370 34.130604 -33.400333 0.000000 65.000000 14.611650 27.000000
46.766417 33.252465 -33.686753 0.000000 47.000000 14.189404 0.000000
44.815021 33.308947 -31.678260 0.000000 71.000000 14.602137 24.000000
47.412965 31.587182 -32.403411 0.000000 39.000000 14.326893 1.000000
46.708903 32.033436 -32.593458 0.000000 44.000000 14.139204 0.000000
47.379727 31.268761 -31.983150 0.000000 31.000000 14.392319 1.000000
45.057199 32.919170 -31.573157 0.000000 59.000000 14.550838 28.000000
45.593944 32.971660 -32.630517 0.000000 45.000000 14.151424 0.000000
44.554919 32.928289 -30.942835 0.000000 61.000000 14.727154 30.000000
45.163297 30.904205 -30.337958 0.000000 60.000000 14.192742 0.000000
46.361003 30.959929 -31.301685 0.000000 54.000000 14.167617 0.000000
45.547113 30.252299 -29.994774 0.000000 49.000000 14.205226 0.000000
44.031949 32.668891 -30.432885 0.000000 57.000000 14.654959 29.000000
49.114157 29.454812 -31.843354 0.000000 51.000000 14.214090 0.000000
49.864525 30.877321 -33.405542 0.000000 57.000000 14.409680 12.000000
48.128415 32.006743 -33.630702 0.000000 51.000000 14.121765 0.000000
46.191561 32.809049 -33.070217 0.000000 39.000000 14.051436 0.000000
43.985234 32.122757 -30.012195 0.000000 58.000000 14.577875 30.000000
46.617317 32.810277 -33.376773 0.000000 33.000000 14.054680 0.000000
45.656252 34.739650 -34.038548 0.000000 83.000000 14.329174 22.000000
44.721605 30.901366 -30.264446 0.000000 34.000000 14.030251 0.000000
43.954364 31.702532 -29.172425 0.000000 81.000000 14.854821 25.000000
46.715082 29.459235 -30.109660 0.000000 57.000000 14.206683 0.000000
47.910369 29.782908 -30.882510 0.000000 63.000000 14.464441 9.000000
48.546946 29.614172 -31.742348 0.000000 30.000000 14.107358 0.000000
44.486940 31.265350 -29.969795 0.000000 74.000000 14.328257 4.000000
48.430581 31.299969 -33.175023 0.000000 41.000000 14.135640 0.000000
49.527618 30.311357 -33.070031 0.000000 42.000000 14.128724 0.000000
47.860194 32.065234 -33.259944 0.000000 51.000000 14.270146 0.000000
45.872597 31.414005 -31.138097 0.000000 34.000000 14.315120 2.000000
46.982596 32.184567 -32.804380 0.000000 39.000000 14.222400 0.000000
48.315568 30.403984 -32.298414 0.000000 38.000000 14.111682 0.000000
48.347852 29.968011 -31.823959 0.000000 41.000000 14.172646 0.000000
44.869129 32.521354 -31.275271 0.000000 48.000000 14.416492 30.000000
46.055858 30.075593 -30.399228 0.000000 41.000000 14.077675 0.000000
47.899023 29.853491 -31.381402 0.000000 42.000000 14.178625 0.000000
47.884661 28.403340 -29.744412 0.000000 70.000000 14.362044 11.000000
44.869338 33.552358 -32.085195 0.000000 65.000000 14.510333 24.000000
47.493974 29.722377 -31.170721 0.000000 29.000000 14.045305 0.000000
