-18.671667 -38.019485 5.537341 0.000000 44.000000 14.411987 0.000000
-16.794801 -39.498365 6.262546 0.000000 43.000000 14.897904 24.000000
-18.908238 -37.811290 5.533638 0.000000 48.000000 14.421356 0.000000
-17.294652 -40.423258 5.873406 0.000000 51.000000 15.019165 23.000000
-16.945937 -42.793369 5.181223 0.000000 62.000000 15.051488 15.000000
-19.298435 -37.486977 5.334361 0.000000 39.000000 14.271981 0.000000
-15.922814 -36.796182 7.061106 0.000000 51.000000 14.442154 0.000000
-16.152789 -37.339286 6.753587 0.000000 48.000000 14.422047 0.000000
-19.493304 -38.095445 5.970789 0.000000 64.000000 15.096527 1.000000
-15.040923 -39.104787 7.377790 0.000000 72.000000 15.168182 20.000000
-19.739849 -39.615703 4.938251 0.000000 82.000000 14.754592 3.000000
-20.086892 -39.015207 4.817682 0.000000 69.000000 14.571529 2.000000
-17.905514 -42.639217 4.832866 0.000000 49.000000 15.016497 16.000000
-18.873415 -39.858135 5.357632 0.000000 55.000000 14.912180 12.000000
-17.750775 -40.017492 5.147035 0.000000 52.000000 14.399270 0.000000
-17.862869 -40.164138 5.045324 0.000000 40.000000 14.394135 0.000000
-16.648136 -42.485892 5.003911 0.000000 49.000000 14.695454 15.000000
-19.722889 -38.591103 5.458414 0.000000 65.000000 14.879720 1.000000
-17.722728 -42.740376 5.130443 0.000000 41.000000 15.250896 16.000000
-17.063837 -42.930621 5.134612 0.000000 50.000000 15.094053 15.000000
-16.311309 -39.605324 6.228554 0.000000 38.000000 14.739522 25.000000
-18.674137 -37.089094 5.756455 0.000000 39.000000 14.307508 0.000000
-19.255467 -37.717679 5.391049 0.000000 58.000000 14.381893 0.000000
-16.487793 -39.490437 6.326692 0.000000 66.000000 14.848817 25.000000
-19.410041 -40.397043 5.159949 0.000000 39.000000 15.091124 11.000000
-16.797879 -43.519327 4.889057 0.000000 67.000000 14.976570 5.000000
-18.669569 -38.037801 5.537779 0.000000 55.000000 14.417559 0.000000
-19.513101 -38.870940 4.892590 0.000000 48.000000 14.398343 0.000000
-17.539625 -42.923496 4.718097 0.000000 61.000000 14.883228 16.000000
-17.466858 -42.425636 4.900923 0.000000 71.000000 14.860428 16.000000
-18.395444 -38.205747 5.570881 0.000000 44.000000 14.408628 0.000000
-16.305971 -41.968253 5.375360 0.000000 61.000000 14.742581 15.000000
-20.522097 -38.664025 4.461606 0.000000 40.000000 14.289882 0.000000
-18.333525 -41.332443 4.887119 0.000000 67.000000 14.788250 22.000000
-18.798704 -39.305976 5.069114 0.000000 53.000000 14.454097 0.000000
-14.488312 -38.266281 7.074480 0.000000 35.000000 14.444095 0.000000
-20.460345 -39.286484 5.154050 0.000000 47.000000 15.082151 2.000000
-16.944640 -42.778677 5.010280 0.000000 65.000000 14.895033 15.000000
-15.640651 -41.972792 5.787477 0.000000 33.000000 14.884903 15.000000
-19.850142 -39.535244 4.923338 0.000000 82.000000 14.752630 3.000000
-17.978185 -40.409619 4.973067 0.000000 58.000000 14.447941 0.000000
-14.605833 -39.216214 7.506914 0.000000 51.000000 15.171892 19.000000
-16.600258 -38.878716 6.685472 0.000000 71.000000 15.007456 10.000000
-20.214079 -38.852033 4.832352 0.000000 55.000000 14.574831 2.000000
-17.315278 -37.265075 6.474684 0.000000 49.000000 14.542518 27.000000
-13.942921 -40.764705 6.814072 0.000000 48.000000 14.833650 8.000000
-16.541119 -37.587297 6.733225 0.000000 59.000000 14.614467 30.000000
-15.328339 -41.786743 5.755153 0.000000 42.000000 14.691362 15.000000
-16.200419 -38.566538 6.189301 0.000000 42.000000 14.333366 0.000000
-20.809151 -39.697415 4.739773 0.000000 68.000000 14.965034 2.000000
-16.539893 -40.927008 6.023232 0.000000 69.000000 15.059808 18.000000
-17.635454 -39.475109 6.166179 0.000000 38.000000 15.088017 10.000000
-19.677106 -39.792276 4.955485 0.000000 46.000000 14.805522 3.000000
-17.580252 -36.208356 6.656438 0.000000 65.000000 14.452677 0.000000
-16.839564 -41.963817 5.190795 0.000000 48.000000 14.757360 29.000000
-18.384027 -41.385439 4.792492 0.000000 54.000000 14.738539 22.000000
-15.099620 -41.344549 6.417066 0.000000 56.000000 15.058005 13.000000
-17.824726 -40.045516 5.147448 0.000000 57.000000 14.433533 0.000000
-18.122391 -39.664593 5.163650 0.000000 43.000000 14.425524 0.000000
-16.602180 -39.174282 6.496737 0.000000 68.000000 14.936124 25.000000
-18.358458 -40.350241 5.493612 0.000000 74.000000 15.017518 12.000000
-19.965577 -38.194511 5.211836 0.000000 43.000000 14.615597 1.000000
-17.502749 -40.244364 5.520642 0.000000 37.000000 14.719438 23.000000
-14.037209 -39.348421 7.231454 0.000000 71.000000 14.779271 19.000000
-18.922118 -41.390670 4.830841 0.000000 71.000000 14.955232 22.000000
-18.695816 -38.876997 5.090314 0.000000 46.000000 14.300268 0.000000
-15.875509 -39.430376 6.299114 0.000000 39.000000 14.599055 25.000000
-17.752604 -37.592695 6.081286 0.000000 51.000000 14.446872 0.000000
-17.909009 -37.909321 5.884705 0.000000 45.000000 14.427353 0.000000
-20.908718 -39.354565 5.004573 0.000000 65.000000 15.122632 2.000000
-18.915005 -38.457198 5.286588 0.000000 47.000000 14.412720 0.000000
-16.692100 -37.911821 6.639821 0.000000 71.000000 14.686980 30.000000
-16.772430 -39.684859 6.346831 0.000000 71.000000 15.024954 24.000000
-16.954894 -40.876230 5.267891 0.000000 49.000000 14.514608 18.000000
-15.363394 -40.824743 5.884390 0.000000 42.000000 14.508136 17.000000
-18.351478 -37.111500 5.996549 0.000000 45.000000 14.418635 0.000000
-18.750916 -41.257268 4.781772 0.000000 58.000000 14.811288 22.000000
-15.410785 -37.907939 7.755564 0.000000 65.000000 15.242056 26.000000
-16.501461 -40.651401 5.686539 0.000000 62.000000 14.660241 18.000000
-16.485983 -41.290718 5.543807 0.000000 63.000000 14.734328 29.000000
-14.948525 -37.567873 7.171883 0.000000 38.000000 14.460541 0.000000
-17.507556 -41.408317 4.906675 0.000000 60.000000 14.552018 18.000000
-18.811007 -41.319108 4.661600 0.000000 57.000000 14.745039 22.000000
-14.364879 -41.201712 6.459158 0.000000 53.000000 14.802075 8.000000
-15.967109 -40.134524 6.615516 0.000000 41.000000 15.136383 9.000000
-16.176610 -41.430725 5.640725 0.000000 32.000000 14.761030 29.000000
-18.847253 -40.419957 4.589941 0.000000 40.000000 14.404624 0.000000
-17.176092 -38.866543 6.449181 0.000000 76.000000 14.988182 10.000000
-19.366049 -40.678410 4.311410 0.000000 41.000000 14.415812 0.000000
-18.727756 -36.871784 5.771295 0.000000 42.000000 14.268793 0.000000
-19.575312 -37.688415 5.160595 0.000000 48.000000 14.276146 0.000000
-18.611881 -36.987507 5.827301 0.000000 44.000000 14.316589 0.000000
-17.862499 -38.563585 6.117374 0.000000 41.000000 14.828055 4.000000
-15.763928 -40.908364 6.073007 0.000000 56.000000 14.836749 17.000000
-17.153207 -36.883985 6.648829 0.000000 40.000000 14.519540 27.000000
-16.644328 -39.330462 6.148548 0.000000 60.000000 14.692372 25.000000
-18.916510 -38.413483 5.295883 0.000000 48.000000 14.407394 0.000000
-17.193395 -36.024491 6.977025 0.000000 73.000000 14.547099 21.000000
-18.717648 -38.667418 5.303200 0.000000 56.000000 14.428624 0.000000
-15.443101 -37.474589 7.541675 0.000000 69.000000 14.924251 26.000000
-15.183078 -37.612896 7.481938 0.000000 62.000000 14.828365 26.000000
-20.935355 -39.357705 4.694996 0.000000 75.000000 14.858613 2.000000
-18.834696 -41.829277 5.044229 0.000000 66.000000 15.255741 22.000000
-16.696804 -42.715393 5.246150 0.000000 57.000000 15.000039 15.000000
-16.852740 -39.380665 6.205594 0.000000 67.000000 14.829139 10.000000
-17.479990 -39.427052 6.391711 0.000000 67.000000 15.219855 10.000000
-17.837228 -37.713624 6.672784 0.000000 46.000000 15.037750 27.000000
-18.198912 -40.420943 5.205234 0.000000 62.000000 14.731339 12.000000
-15.805499 -38.733373 6.719677 0.000000 69.000000 14.723544 25.000000
-13.479411 -39.454887 7.415512 0.000000 68.000000 14.788713 7.000000
-17.787564 -40.159595 5.044317 0.000000 42.000000 14.366442 0.000000
-17.766349 -41.372704 5.183905 0.000000 51.000000 14.873013 22.000000
-17.328341 -35.693235 6.790632 0.000000 41.000000 14.321001 0.000000
-17.275247 -41.166725 5.024294 0.000000 84.000000 14.500242 0.000000
-20.190445 -38.703050 5.461614 0.000000 70.000000 15.075892 1.000000
-16.288723 -40.700910 5.517111 0.000000 51.000000 14.454624 0.000000
-15.110959 -38.867610 6.771880 0.000000 45.000000 14.579204 25.000000
-16.242224 -40.887716 5.289300 0.000000 44.000000 14.297434 0.000000
-18.459371 -38.739464 6.326094 0.000000 6.000000 15.270201 4.000000
-16.860873 -42.291229 4.766655 0.000000 54.000000 14.494448 0.000000
-19.497726 -40.591889 4.995102 0.000000 42.000000 15.037399 11.000000
-16.246742 -42.733043 5.140194 0.000000 66.000000 14.760491 15.000000
-15.624771 -37.728222 7.084652 0.000000 63.000000 14.662468 26.000000
-18.141656 -39.117517 5.737463 0.000000 50.000000 14.763910 4.000000
-13.792805 -39.833078 7.455397 0.000000 44.000000 15.051108 7.000000
-15.637407 -38.584383 7.081877 0.000000 68.000000 14.939627 26.000000
-19.503683 -40.905455 4.809630 0.000000 73.000000 14.976101 11.000000
-17.386627 -39.603193 6.007535 0.000000 70.000000 14.905073 10.000000
-15.150996 -38.500304 6.744589 0.000000 49.000000 14.450388 0.000000
-15.007926 -38.451891 6.805410 0.000000 50.000000 14.440503 0.000000
-17.594185 -39.371707 6.237453 0.000000 64.000000 15.103955 10.000000
-16.627958 -40.966064 6.099364 0.000000 83.000000 15.169384 18.000000
-19.802307 -39.343504 5.064633 0.000000 36.000000 14.799918 3.000000
-17.777228 -39.233623 5.778643 0.000000 63.000000 14.715067 4.000000
-17.121494 -39.946789 5.923252 0.000000 63.000000 14.851768 24.000000
-19.843989 -40.559375 4.985178 0.000000 82.000000 15.134677 11.000000
-14.606683 -38.397615 7.391628 0.000000 81.000000 14.806861 20.000000
-17.386511 -42.074059 5.031867 0.000000 52.000000 14.836207 16.000000
-16.667002 -42.782400 5.181750 0.000000 61.000000 14.954564 15.000000
-17.326984 -40.176836 5.854596 0.000000 41.000000 14.934141 23.000000
-19.724931 -38.674572 5.327375 0.000000 70.000000 14.791276 1.000000
-16.502546 -42.952417 4.672334 0.000000 61.000000 14.503044 0.000000
-16.929071 -42.218564 4.752212 0.000000 57.000000 14.481243 0.000000
-16.739471 -39.592999 6.307236 0.000000 49.000000 14.949275 24.000000
-16.798232 -43.357422 4.177493 0.000000 24.000000 14.294843 0.000000
-16.285359 -40.944023 5.379213 0.000000 44.000000 14.409636 0.000000
-19.358712 -38.306231 5.808644 0.000000 46.000000 14.975523 1.000000
-16.489529 -40.492213 5.554427 0.000000 54.000000 14.488101 0.000000
-16.560297 -40.356766 5.523660 0.000000 48.000000 14.441121 0.000000
-18.053695 -42.544228 4.766253 0.000000 43.000000 14.976853 16.000000
-17.723705 -42.840822 5.264285 0.000000 11.000000 15.401988 16.000000
-16.823005 -39.690252 6.204556 0.000000 64.000000 14.917786 24.000000
-16.508970 -40.023070 6.025688 0.000000 57.000000 14.760846 24.000000
-17.104418 -39.411584 6.327268 0.000000 81.000000 15.031463 10.000000
-17.235627 -38.434504 5.953853 0.000000 45.000000 14.430869 0.000000
-17.261709 -37.138840 6.868251 0.000000 35.000000 14.832219 27.000000
-17.135132 -40.244539 5.970397 0.000000 77.000000 14.993847 23.000000
-16.212095 -39.744271 6.451195 0.000000 57.000000 14.947874 9.000000
-17.396831 -37.840816 5.926461 0.000000 44.000000 14.269926 0.000000
-16.617701 -37.322293 6.439843 0.000000 35.000000 14.295346 0.000000
-17.478087 -38.973124 6.274678 0.000000 79.000000 14.969639 4.000000
-18.774929 -41.904246 5.019500 0.000000 68.000000 15.237855 22.000000
-16.847674 -41.362330 5.664474 0.000000 59.000000 14.985867 18.000000
-17.447706 -37.387841 6.320777 0.000000 64.000000 14.490349 0.000000
-18.294971 -38.021680 5.709488 0.000000 68.000000 14.438292 0.000000
-17.995349 -38.699157 6.275894 0.000000 67.000000 15.056662 4.000000
-16.129045 -37.143780 6.999176 0.000000 70.000000 14.568537 28.000000
-15.387909 -41.661353 6.088116 0.000000 66.000000 14.965769 13.000000
-18.350418 -37.559586 5.845091 0.000000 55.000000 14.428345 0.000000
-18.868733 -40.978800 5.067466 0.000000 73.000000 15.014226 11.000000
-16.051444 -40.054136 6.110762 0.000000 50.000000 14.692173 9.000000
-18.168114 -41.222077 5.260799 0.000000 48.000000 15.027819 22.000000
-18.390136 -37.097768 5.969580 0.000000 51.000000 14.403358 0.000000
-16.421802 -40.184965 5.620052 0.000000 42.000000 14.424573 0.000000
-15.379362 -37.509219 7.330218 0.000000 60.000000 14.726790 26.000000
-16.083900 -39.418354 6.827120 0.000000 71.000000 15.132627 25.000000
-18.648341 -41.675137 4.856862 0.000000 69.000000 14.977627 22.000000
-17.630989 -36.095777 6.474189 0.000000 42.000000 14.272242 0.000000
-17.845203 -41.125957 5.567207 0.000000 60.000000 15.159431 23.000000
-15.135406 -38.898108 6.582939 0.000000 55.000000 14.430017 0.000000
-14.776749 -41.293218 6.508500 0.000000 62.000000 15.013772 13.000000
-14.994828 -38.519413 6.792633 0.000000 46.000000 14.446504 0.000000
-16.976591 -39.746350 6.331676 0.000000 75.000000 15.100019 24.000000
-15.267146 -38.648777 6.647739 0.000000 55.000000 14.451508 0.000000
-17.328283 -39.944589 5.327478 0.000000 43.000000 14.393354 0.000000
-17.654451 -40.063320 5.153523 0.000000 55.000000 14.387338 0.000000
-14.476670 -38.617100 7.550771 0.000000 62.000000 14.974554 20.000000
-17.980750 -40.167776 5.067184 0.000000 45.000000 14.454320 0.000000
-20.534238 -39.540097 4.882344 0.000000 51.000000 14.948110 2.000000
-15.675724 -41.724778 5.675977 0.000000 47.000000 14.718254 15.000000
-19.049109 -40.484333 4.482579 0.000000 44.000000 14.398234 0.000000
-17.462852 -39.902611 5.704356 0.000000 47.000000 14.758693 23.000000
-14.380473 -40.349930 7.092412 0.000000 71.000000 15.093832 14.000000
-18.684481 -40.019453 4.936063 0.000000 25.000000 14.527375 12.000000
-18.885682 -41.029697 4.998692 0.000000 80.000000 14.975431 11.000000
-14.726346 -40.651364 6.823612 0.000000 71.000000 15.069266 13.000000
-19.488851 -39.876427 4.349541 0.000000 39.000000 14.232945 0.000000
-20.932815 -39.242119 4.367059 0.000000 44.000000 14.530341 2.000000
-15.793607 -40.278993 6.413157 0.000000 66.000000 14.945365 9.000000
-17.689757 -38.797711 6.409824 0.000000 67.000000 15.104062 4.000000
-15.518082 -39.902659 6.880868 0.000000 59.000000 15.145562 9.000000
-18.166015 -40.022533 5.320411 0.000000 58.000000 14.694069 12.000000
-17.908000 -38.731199 6.234956 0.000000 60.000000 15.001342 4.000000
-19.445065 -37.972128 5.822651 0.000000 71.000000 14.909522 1.000000
-19.666607 -38.214027 5.520981 0.000000 36.000000 14.794879 1.000000
-18.466042 -37.562986 5.792587 0.000000 48.000000 14.421878 0.000000
-17.250912 -40.636307 5.879291 0.000000 61.000000 15.078177 23.000000
-18.650885 -39.396514 5.093316 0.000000 45.000000 14.454895 0.000000
-17.529580 -37.044917 6.378060 0.000000 50.000000 14.458305 0.000000
-14.457750 -39.307889 7.141161 0.000000 67.000000 14.827835 19.000000
-16.192169 -42.506991 5.277426 0.000000 58.000000 14.790880 15.000000
-17.594176 -37.519709 6.651980 0.000000 60.000000 14.875182 27.000000
-17.435630 -37.331613 6.308231 0.000000 57.000000 14.457097 0.000000
-17.274430 -39.576148 6.196415 0.000000 67.000000 15.025788 10.000000
-15.953761 -42.800149 5.216174 0.000000 62.000000 14.750731 6.000000
-18.213757 -38.298551 5.691886 0.000000 46.000000 14.484433 0.000000
-17.367040 -37.626961 6.081178 0.000000 42.000000 14.328053 0.000000
-19.246390 -38.391814 5.478967 0.000000 44.000000 14.673470 1.000000
-17.277131 -37.918363 6.089699 0.000000 52.000000 14.399062 0.000000
-16.513243 -39.844277 6.087849 0.000000 70.000000 14.759795 24.000000
-17.559225 -39.101387 6.238004 0.000000 70.000000 15.005737 4.000000
-17.128591 -38.516416 6.013096 0.000000 50.000000 14.473629 0.000000
-14.192083 -41.114072 6.579084 0.000000 43.000000 14.821882 8.000000
-15.854255 -40.255094 6.545053 0.000000 47.000000 15.074823 9.000000
-18.701096 -41.829001 4.733502 0.000000 59.000000 14.935686 22.000000
-17.812063 -40.359672 5.060810 0.000000 72.000000 14.453634 0.000000
-19.206172 -38.139688 5.661521 0.000000 55.000000 14.740417 1.000000
-13.981584 -39.873687 6.801531 0.000000 49.000000 14.548986 14.000000
-18.254619 -38.766709 6.388434 0.000000 66.000000 15.265238 4.000000
-19.892651 -40.087710 4.196077 0.000000 38.000000 14.300956 0.000000
-19.717700 -40.028488 4.246444 0.000000 40.000000 14.267614 0.000000
-15.718404 -38.463926 7.337114 0.000000 53.000000 15.154040 26.000000
-19.349492 -39.905823 4.436779 0.000000 34.000000 14.272715 0.000000
-16.202409 -38.054208 6.861530 0.000000 65.000000 14.764217 26.000000
-18.161072 -38.502585 6.143852 0.000000 57.000000 14.932341 4.000000
-16.610741 -36.894153 7.026013 0.000000 66.000000 14.674096 27.000000
-16.901938 -37.207710 6.749760 0.000000 32.000000 14.628434 27.000000
-20.543729 -39.444646 4.870116 0.000000 72.000000 14.909782 2.000000
-15.690429 -40.553503 6.042134 0.000000 55.000000 14.670559 17.000000
-16.282754 -37.610660 6.610201 0.000000 30.000000 14.426157 0.000000
-17.270408 -42.135850 4.982921 0.000000 65.000000 14.773692 16.000000
-16.931427 -40.320665 5.476512 0.000000 68.000000 14.512668 23.000000
-14.660847 -39.895226 6.723651 0.000000 53.000000 14.715561 19.000000
-17.515129 -40.078883 5.298678 0.000000 50.000000 14.473931 0.000000
-15.001603 -38.917678 7.323957 0.000000 73.000000 15.047127 20.000000
-17.033226 -36.972025 6.703029 0.000000 52.000000 14.555451 27.000000
-17.749367 -39.163610 5.985498 0.000000 26.000000 14.866251 4.000000
-14.018549 -39.186486 6.932573 0.000000 44.000000 14.456384 0.000000
-13.874892 -39.199953 6.973902 0.000000 43.000000 14.448952 0.000000
-18.256109 -40.956651 5.023254 0.000000 72.000000 14.761821 22.000000
-15.997481 -40.097233 6.807629 0.000000 38.000000 15.304641 9.000000
-15.923283 -38.418244 7.233788 0.000000 64.000000 15.116841 26.000000
-13.304978 -39.267750 7.174107 0.000000 45.000000 14.456171 0.000000
-18.855710 -41.223928 4.541990 0.000000 64.000000 14.623608 22.000000
-13.244250 -40.204064 6.872433 0.000000 60.000000 14.469880 0.000000
-17.861797 -40.648388 5.629588 0.000000 65.000000 15.066627 23.000000
-17.183554 -39.120666 6.644732 0.000000 64.000000 15.245499 10.000000
-13.492341 -40.004346 7.361781 0.000000 47.000000 14.922229 7.000000
-18.128252 -40.012091 5.300562 0.000000 65.000000 14.660436 12.000000
-17.804315 -41.989046 4.461783 0.000000 62.000000 14.444903 0.000000
-17.816039 -41.804920 4.538193 0.000000 63.000000 14.457255 0.000000
-15.335460 -41.659720 5.971909 0.000000 46.000000 14.844745 13.000000
-17.842932 -41.452855 4.626466 0.000000 59.000000 14.431198 0.000000
-18.437772 -41.576176 4.981733 0.000000 49.000000 14.985459 22.000000
-17.879497 -37.607904 6.582149 0.000000 67.000000 14.937755 27.000000
-20.071773 -38.366352 5.215365 0.000000 41.000000 14.709724 1.000000
-15.705333 -38.756712 7.024727 0.000000 71.000000 14.967330 26.000000
-17.478027 -40.805492 5.708572 0.000000 52.000000 15.057920 23.000000
-16.012758 -38.060904 7.628481 0.000000 60.000000 15.381345 26.000000
-19.936400 -39.953391 4.604359 0.000000 59.000000 14.633829 3.000000
-16.822624 -37.314442 6.481865 0.000000 49.000000 14.398971 0.000000
-16.188662 -39.852203 6.376345 0.000000 65.000000 14.908456 9.000000
-18.375829 -42.255609 4.813623 0.000000 74.000000 15.034351 16.000000
-16.825713 -39.714481 6.201877 0.000000 65.000000 14.924118 24.000000
-18.093596 -40.737821 5.367058 0.000000 76.000000 14.941039 23.000000
-16.254097 -37.103134 7.160441 0.000000 60.000000 14.740273 28.000000
-13.702567 -39.526925 7.019094 0.000000 44.000000 14.536124 7.000000
-17.754643 -40.371090 5.216935 0.000000 44.000000 14.576163 23.000000
-15.683121 -38.740210 7.152109 0.000000 49.000000 15.067288 26.000000
-19.951536 -38.732063 5.414739 0.000000 46.000000 14.963343 1.000000
-16.989326 -37.332536 6.531044 0.000000 36.000000 14.504412 27.000000
-14.914245 -40.734329 6.814917 0.000000 70.000000 15.151483 13.000000
-15.463350 -41.065327 5.981221 0.000000 45.000000 14.704851 13.000000
-14.751764 -38.495293 7.268661 0.000000 60.000000 14.778265 20.000000
-17.727995 -38.629469 6.181112 0.000000 74.000000 14.860395 4.000000
-17.315919 -37.127205 6.702323 0.000000 52.000000 14.699864 27.000000
-16.894769 -41.038016 5.833572 0.000000 40.000000 15.047069 18.000000
-16.873151 -35.658279 7.078055 0.000000 40.000000 14.410969 0.000000
-15.808646 -42.135437 5.651282 0.000000 46.000000 14.873205 15.000000
-16.629561 -36.907720 6.622255 0.000000 43.000000 14.327444 0.000000
-13.722719 -39.472741 6.942327 0.000000 48.000000 14.457535 0.000000
-17.198256 -39.781431 5.778901 0.000000 55.000000 14.696657 24.000000
-13.661763 -38.971187 7.127257 0.000000 38.000000 14.439384 0.000000
-13.801362 -39.006575 7.050870 0.000000 39.000000 14.430134 0.000000
-13.939842 -39.042340 6.966261 0.000000 37.000000 14.413353 0.000000
-16.403313 -38.125288 6.360243 0.000000 22.000000 14.411017 0.000000
-17.558588 -40.841890 5.709176 0.000000 64.000000 15.097271 23.000000
-17.737506 -40.165312 5.032842 0.000000 42.000000 14.341280 0.000000
-17.896191 -40.154594 5.061702 0.000000 45.000000 14.416774 0.000000
-18.294959 -38.872915 5.214804 0.000000 26.000000 14.274245 0.000000
-17.888358 -39.034092 5.790282 0.000000 80.000000 14.698589 4.000000
-16.710416 -43.349069 4.701210 0.000000 41.000000 14.726124 5.000000
-18.297892 -42.319935 4.888331 0.000000 37.000000 15.094935 16.000000
-18.273795 -39.250250 5.243486 0.000000 46.000000 14.413869 0.000000
-17.934475 -39.723563 5.832987 0.000000 61.000000 14.973656 10.000000
-18.454446 -39.236803 5.104083 0.000000 39.000000 14.346954 0.000000
-19.502802 -40.084484 4.355718 0.000000 61.000000 14.310023 0.000000
-15.645946 -40.931348 6.148960 0.000000 58.000000 14.871662 17.000000
-18.371781 -40.872316 4.872268 0.000000 55.000000 14.639991 22.000000
-17.379696 -39.060942 6.422821 0.000000 52.000000 15.095890 10.000000
-16.195167 -42.076792 5.608115 0.000000 62.000000 14.946204 15.000000
-17.801380 -39.227755 6.236317 0.000000 17.000000 15.126373 4.000000
-14.593201 -39.322554 7.024523 0.000000 63.000000 14.774900 19.000000
-15.534864 -39.056383 7.001887 0.000000 69.000000 14.986133 25.000000
-17.586852 -40.971848 5.475775 0.000000 58.000000 14.942007 23.000000
-17.776342 -37.260121 6.174588 0.000000 52.000000 14.430473 0.000000
-18.072150 -40.968866 5.498619 0.000000 61.000000 15.124571 23.000000
-15.606778 -42.576310 5.502661 0.000000 45.000000 14.815534 6.000000
-20.691691 -38.769119 4.324437 0.000000 38.000000 14.259350 0.000000
-17.030823 -35.863474 7.179648 0.000000 50.000000 14.619938 21.000000
-15.530771 -37.462016 7.645688 0.000000 60.000000 15.041766 26.000000
-15.927413 -36.971987 7.335850 0.000000 60.000000 14.743409 28.000000
-16.489612 -41.521274 5.521915 0.000000 50.000000 14.790326 29.000000
-19.137494 -41.099040 5.259726 0.000000 18.000000 15.313499 11.000000
-15.466304 -41.635949 6.372679 0.000000 65.000000 15.235833 13.000000
-19.008438 -40.777315 5.200303 0.000000 58.000000 15.114003 11.000000
-17.076501 -38.843419 6.578420 0.000000 66.000000 15.061615 10.000000
-16.789709 -36.337829 6.885095 0.000000 52.000000 14.430671 0.000000
-17.612528 -37.110519 6.287502 0.000000 50.000000 14.427168 0.000000
-19.291050 -40.472344 4.657435 0.000000 72.000000 14.630549 11.000000
-15.717134 -39.661366 6.889544 0.000000 75.000000 15.142616 9.000000
-17.600125 -37.714490 6.121096 0.000000 46.000000 14.469969 0.000000
-15.109363 -39.375202 6.988248 0.000000 68.000000 14.933419 20.000000
-18.778719 -40.033102 5.250416 0.000000 74.000000 14.841696 12.000000
-17.948208 -42.084836 4.599014 0.000000 74.000000 14.645589 16.000000
-15.922123 -37.725344 7.234840 0.000000 54.000000 14.894528 26.000000
-19.780272 -38.687027 5.217738 0.000000 34.000000 14.716870 1.000000
-17.631747 -38.183207 5.815008 0.000000 54.000000 14.360456 0.000000
-16.110162 -37.100070 7.006601 0.000000 52.000000 14.554696 28.000000
-17.753633 -40.738075 5.842425 0.000000 61.000000 15.247447 23.000000
-17.521460 -38.721223 6.237111 0.000000 88.000000 14.869968 4.000000
-17.094289 -36.037516 7.075953 0.000000 73.000000 14.605495 21.000000
-17.722895 -39.295687 5.498984 0.000000 59.000000 14.469231 0.000000
-18.402779 -41.323112 5.301166 0.000000 76.000000 15.175007 22.000000
-19.901331 -38.535051 5.614582 0.000000 70.000000 15.059956 1.000000
-15.810730 -42.696721 5.486481 0.000000 50.000000 14.908571 6.000000
-17.538404 -41.267219 4.785895 0.000000 45.000000 14.410121 0.000000
-19.696163 -38.666764 5.345251 0.000000 67.000000 14.794906 1.000000
-17.785802 -41.971929 4.469224 0.000000 58.000000 14.439753 0.000000
-19.974152 -39.140626 4.613616 0.000000 41.000000 14.393320 0.000000
-19.785583 -39.137251 4.691862 0.000000 44.000000 14.398032 0.000000
-19.221255 -39.130494 5.026784 0.000000 53.000000 14.502383 0.000000
-17.402063 -41.470320 5.021330 0.000000 59.000000 14.637937 18.000000
-20.630127 -38.892291 4.421180 0.000000 32.000000 14.363871 0.000000
-14.489853 -41.455584 6.420037 0.000000 71.000000 14.891157 8.000000
-17.005260 -39.704625 6.331529 0.000000 63.000000 15.096116 24.000000
-16.325444 -42.262320 5.495805 0.000000 76.000000 14.950313 15.000000
-15.886349 -37.931250 7.482798 0.000000 87.000000 15.168171 26.000000
-18.064780 -38.914359 5.672694 0.000000 75.000000 14.615376 4.000000
-16.207802 -42.514502 5.385597 0.000000 42.000000 14.894294 15.000000
-16.830963 -35.419560 7.101206 0.000000 55.000000 14.340485 0.000000
-17.996392 -40.151256 5.045117 0.000000 41.000000 14.434740 0.000000
-18.916473 -41.446476 4.574271 0.000000 45.000000 14.744203 22.000000
-18.726499 -37.812232 5.598171 0.000000 36.000000 14.417618 0.000000
-15.832173 -38.216560 7.301031 0.000000 43.000000 15.080829 26.000000
-20.403543 -39.449323 4.969700 0.000000 63.000000 14.952251 2.000000
-14.974269 -39.914187 6.335144 0.000000 55.000000 14.483277 0.000000
-15.256000 -39.319049 6.624142 0.000000 45.000000 14.642449 9.000000
-15.196231 -39.941726 6.521931 0.000000 60.000000 14.732143 9.000000
-17.704515 -42.069258 4.460230 0.000000 57.000000 14.435743 0.000000
-16.454129 -42.309688 5.130976 0.000000 37.000000 14.685957 15.000000
-19.733228 -40.697103 5.011635 0.000000 65.000000 15.165119 11.000000
-16.002643 -39.308193 6.882364 0.000000 67.000000 15.118747 25.000000
-18.099192 -38.879931 5.833196 0.000000 66.000000 14.757935 4.000000
-17.358299 -40.019535 5.601101 0.000000 63.000000 14.669730 23.000000
-16.557301 -38.153808 6.310087 0.000000 41.000000 14.427616 0.000000
-15.695023 -38.575369 7.281856 0.000000 72.000000 15.133109 26.000000
-19.835943 -40.331811 4.797531 0.000000 42.000000 14.892702 11.000000
-18.632058 -41.903385 4.988076 0.000000 60.000000 15.161689 22.000000
-17.160144 -38.538707 5.931430 0.000000 50.000000 14.419137 0.000000
-16.359462 -37.738632 6.551921 0.000000 50.000000 14.441548 0.000000
-18.436078 -40.494443 5.259378 0.000000 56.000000 14.882707 12.000000
-17.962818 -39.781152 5.757282 0.000000 65.000000 14.934712 10.000000
-16.166582 -39.576445 6.637901 0.000000 62.000000 15.043827 25.000000
-16.314826 -42.359862 5.321157 0.000000 54.000000 14.823539 15.000000
-15.854198 -36.825322 7.117777 0.000000 57.000000 14.478594 0.000000
-16.952738 -40.409614 5.578160 0.000000 52.000000 14.638412 23.000000
-20.027991 -38.513572 5.594940 0.000000 41.000000 15.078285 1.000000
-16.372425 -37.204917 6.637314 0.000000 40.000000 14.349831 0.000000
-19.009427 -37.620205 5.490724 0.000000 23.000000 14.355968 0.000000
-16.830392 -40.613376 5.645723 0.000000 47.000000 14.722574 18.000000
-16.510477 -37.130986 6.528100 0.000000 40.000000 14.275848 0.000000
-16.198843 -38.703753 6.589733 0.000000 45.000000 14.731372 10.000000
-16.952807 -38.820419 6.734135 0.000000 56.000000 15.150411 10.000000
-16.511443 -43.298156 4.824412 0.000000 53.000000 14.751834 5.000000
-14.224017 -40.085389 6.487623 0.000000 36.000000 14.420830 0.000000
-15.730593 -40.679566 6.319465 0.000000 51.000000 14.970073 17.000000
-16.949093 -38.664189 6.589786 0.000000 50.000000 14.971157 10.000000
-20.176360 -39.946987 4.753892 0.000000 73.000000 14.844862 3.000000
-17.373779 -40.576312 5.974067 0.000000 81.000000 15.184108 23.000000
-17.932576 -40.170532 5.071503 0.000000 50.000000 14.442818 0.000000
-19.189034 -39.668552 4.613161 0.000000 51.000000 14.298515 0.000000
-16.548104 -39.040827 6.444918 0.000000 69.000000 14.829142 10.000000
-19.479481 -39.508591 4.620216 0.000000 40.000000 14.351049 0.000000
-18.610783 -38.663412 5.241668 0.000000 33.000000 14.336916 0.000000
-15.020722 -41.151359 6.582267 0.000000 60.000000 15.115533 13.000000
-14.893776 -38.252568 6.900731 0.000000 33.000000 14.422348 0.000000
-19.296481 -41.263900 4.850419 0.000000 51.000000 15.057762 11.000000
-15.614958 -40.797059 6.281915 0.000000 63.000000 14.935716 17.000000
-19.921928 -39.257494 4.584008 0.000000 45.000000 14.387129 0.000000
-15.257233 -37.867367 7.213461 0.000000 68.000000 14.697546 26.000000
-17.736984 -36.481607 6.499203 0.000000 45.000000 14.454141 0.000000
-15.860301 -39.242164 6.866422 0.000000 65.000000 15.035502 25.000000
-20.100528 -39.794309 4.695937 0.000000 68.000000 14.718946 3.000000
-16.570581 -40.124887 5.878458 0.000000 51.000000 14.684019 24.000000
-15.787068 -38.321983 7.232003 0.000000 67.000000 15.038464 26.000000
-14.931203 -40.789693 6.704466 0.000000 65.000000 15.077241 13.000000
-16.498762 -36.597004 6.902520 0.000000 45.000000 14.431545 0.000000
-16.861484 -38.963579 6.756262 0.000000 66.000000 15.185308 10.000000
-17.730962 -39.099307 6.061542 0.000000 60.000000 14.906680 4.000000
-19.626569 -41.115802 5.190960 0.000000 70.000000 15.422604 11.000000
-17.960845 -41.490202 4.611099 0.000000 30.000000 14.469288 0.000000
-15.586623 -38.104206 7.209919 0.000000 71.000000 14.881426 26.000000
-16.729619 -37.451114 6.453033 0.000000 48.000000 14.386113 0.000000
-18.307999 -40.456237 5.388232 0.000000 39.000000 14.941362 12.000000
-16.089395 -37.257584 6.833899 0.000000 48.000000 14.445518 0.000000
-16.912057 -38.027843 6.289323 0.000000 63.000000 14.488103 0.000000
-16.142480 -37.398636 6.729510 0.000000 48.000000 14.416357 0.000000
-16.195758 -37.541011 6.658846 0.000000 46.000000 14.417535 0.000000
-17.027875 -38.324690 6.075518 0.000000 60.000000 14.433320 0.000000
-16.245857 -37.679928 6.648296 0.000000 55.000000 14.469736 0.000000
-16.843538 -36.144934 7.070742 0.000000 21.000000 14.551053 21.000000
-16.484426 -38.245875 6.389736 0.000000 50.000000 14.503198 0.000000
-16.074526 -37.259036 7.098438 0.000000 58.000000 14.675113 28.000000
-17.892834 -40.155464 5.035941 0.000000 46.000000 14.393125 0.000000
-15.706783 -41.706832 5.729661 0.000000 71.000000 14.770447 15.000000
-16.888006 -39.326533 6.359647 0.000000 71.000000 14.959941 10.000000
-18.429828 -41.445373 4.964919 0.000000 69.000000 14.925835 22.000000
-16.901313 -41.275777 5.677845 0.000000 42.000000 14.987914 18.000000
-18.425250 -38.124163 5.589485 0.000000 36.000000 14.408884 0.000000
-16.862908 -40.287019 5.731185 0.000000 36.000000 14.704189 23.000000
-19.810612 -39.303129 4.612908 0.000000 45.000000 14.389926 0.000000
-17.781164 -37.642477 6.486818 0.000000 61.000000 14.831412 27.000000
-15.869124 -38.336987 6.662225 0.000000 28.000000 14.566618 26.000000
-18.223288 -38.624475 6.152686 0.000000 71.000000 15.000299 4.000000
-15.465495 -37.288852 7.461272 0.000000 65.000000 14.800888 26.000000
-13.625206 -39.655214 7.161821 0.000000 50.000000 14.677673 7.000000
-17.701718 -40.456788 5.586375 0.000000 55.000000 14.912890 23.000000
-14.224348 -38.396983 7.277817 0.000000 37.000000 14.577272 20.000000
-16.889868 -39.202666 6.356188 0.000000 64.000000 14.917668 10.000000
-18.299714 -37.675268 5.810520 0.000000 44.000000 14.417892 0.000000
-15.114728 -39.218535 6.925152 0.000000 60.000000 14.828993 20.000000
-15.781564 -41.937457 5.807678 0.000000 68.000000 14.938835 15.000000
-16.756293 -38.754124 6.904408 0.000000 39.000000 15.213661 10.000000
-17.544577 -41.628934 5.114117 0.000000 65.000000 14.819029 18.000000
-19.590546 -40.873256 5.078947 0.000000 69.000000 15.233335 11.000000
-15.377712 -41.211745 6.382450 0.000000 55.000000 15.078234 13.000000
-16.041227 -37.217946 6.943657 0.000000 59.000000 14.513702 28.000000
-18.880968 -40.531405 5.045693 0.000000 60.000000 14.855179 11.000000
-18.661738 -37.464056 5.724175 0.000000 28.000000 14.395364 0.000000
-16.442849 -42.795646 5.010976 0.000000 44.000000 14.732252 15.000000
-17.822571 -40.077142 5.140622 0.000000 43.000000 14.436939 0.000000
-17.312947 -38.964796 6.483541 0.000000 53.000000 15.096246 10.000000
-15.220304 -42.031077 5.263544 0.000000 41.000000 14.298491 0.000000
-15.228968 -40.736974 5.928290 0.000000 50.000000 14.473527 0.000000
-16.080049 -37.114209 7.276142 0.000000 72.000000 14.787669 28.000000
-16.766628 -37.937710 6.417106 0.000000 32.000000 14.523271 30.000000
-18.001126 -40.172929 5.015737 0.000000 45.000000 14.417301 0.000000
-18.801408 -39.382873 5.054151 0.000000 57.000000 14.466496 0.000000
-15.336394 -37.411129 7.456594 0.000000 57.000000 14.792632 26.000000
-17.470780 -37.090268 6.582163 0.000000 49.000000 14.633747 27.000000
-15.393507 -37.877504 7.585632 0.000000 81.000000 15.076054 26.000000
-18.286352 -38.209548 5.615413 0.000000 48.000000 14.412553 0.000000
-17.722524 -37.199865 6.198821 0.000000 27.000000 14.414431 0.000000
-16.995989 -38.738833 6.699033 0.000000 69.000000 15.107635 10.000000
-18.482801 -37.971295 5.628994 0.000000 52.000000 14.414051 0.000000
-18.598059 -41.458150 4.874730 0.000000 66.000000 14.906732 22.000000
-14.815029 -38.405106 7.270025 0.000000 60.000000 14.771755 20.000000
-18.768593 -37.604113 5.646476 0.000000 48.000000 14.407599 0.000000
-18.873748 -37.481135 5.574905 0.000000 41.000000 14.340087 0.000000
-16.904716 -42.918927 5.186659 0.000000 65.000000 15.082811 15.000000
-16.333338 -42.389117 5.255995 0.000000 46.000000 14.781506 15.000000
-16.253626 -38.564795 6.191501 0.000000 44.000000 14.352657 0.000000
-14.424710 -41.311169 6.443624 0.000000 69.000000 14.843664 8.000000
-16.642479 -37.562281 6.868736 0.000000 54.000000 14.760464 30.000000
-17.961470 -40.245185 4.998457 0.000000 58.000000 14.411902 0.000000
-18.879490 -41.727990 4.920923 0.000000 70.000000 15.129106 22.000000
-17.693297 -39.947051 5.211865 0.000000 51.000000 14.414651 0.000000
-18.403923 -40.499372 4.702354 0.000000 20.000000 14.380475 0.000000
-16.736694 -36.917709 6.864679 0.000000 58.000000 14.581266 27.000000
-16.612742 -36.203116 6.996769 0.000000 51.000000 14.426632 0.000000
-17.469148 -36.085932 6.961572 0.000000 58.000000 14.645976 21.000000
-14.607766 -39.675220 6.818442 0.000000 72.000000 14.710835 19.000000
-20.689455 -39.165083 5.066245 0.000000 72.000000 15.042490 2.000000
-17.499713 -37.525771 6.639928 0.000000 42.000000 14.834677 27.000000
-19.464359 -40.362982 4.695553 0.000000 73.000000 14.687431 11.000000
-17.086605 -39.109773 6.635025 0.000000 46.000000 15.200780 10.000000
-17.383871 -39.705446 5.856684 0.000000 51.000000 14.803521 10.000000
-17.376201 -39.094151 6.378840 0.000000 54.000000 15.066469 10.000000
-18.266621 -38.172199 5.646350 0.000000 53.000000 14.421283 0.000000
-18.156201 -38.284043 5.624320 0.000000 43.000000 14.400600 0.000000
-16.965043 -35.904267 7.198676 0.000000 44.000000 14.627764 21.000000
-13.705453 -39.695229 7.665904 0.000000 77.000000 15.163688 7.000000
-17.819428 -38.593073 6.352344 0.000000 50.000000 15.031007 4.000000
-20.383678 -39.591092 4.799048 0.000000 79.000000 14.840126 2.000000
-19.676075 -40.568405 5.088401 0.000000 63.000000 15.172436 11.000000
-16.044578 -36.912481 7.164766 0.000000 42.000000 14.612278 28.000000
-18.241360 -39.964984 5.287056 0.000000 93.000000 14.671392 12.000000
-15.838064 -38.401042 7.142288 0.000000 66.000000 15.001650 26.000000
-20.267240 -38.886708 4.776119 0.000000 56.000000 14.554103 2.000000
-18.407007 -40.445610 4.749052 0.000000 26.000000 14.405552 0.000000
-16.622466 -38.678128 6.767892 0.000000 68.000000 15.023362 10.000000
-16.350889 -35.994497 7.194845 0.000000 48.000000 14.446728 0.000000
-16.049614 -41.009967 5.495639 0.000000 66.000000 14.454560 0.000000
-16.678055 -42.243728 4.795443 0.000000 56.000000 14.443130 0.000000
-15.820245 -41.445479 5.387094 0.000000 55.000000 14.421379 0.000000
-19.552062 -38.776212 5.274106 0.000000 58.000000 14.718649 1.000000
-15.462129 -42.224757 5.137475 0.000000 39.000000 14.330581 0.000000
-16.549655 -42.247731 5.107618 0.000000 50.000000 14.677502 15.000000
-17.031762 -39.627325 6.039251 0.000000 68.000000 14.821491 10.000000
-13.509528 -39.487027 7.567707 0.000000 59.000000 14.943886 7.000000
-17.974459 -40.244606 5.015623 0.000000 57.000000 14.431279 0.000000
-18.804732 -39.917358 5.076510 0.000000 68.000000 14.659307 12.000000
-17.012784 -42.135590 4.939776 0.000000 54.000000 14.648731 29.000000
-15.143846 -38.672438 6.702939 0.000000 39.000000 14.466482 0.000000
-16.503259 -39.871732 6.203955 0.000000 65.000000 14.868026 24.000000
-14.303088 -38.438417 7.501474 0.000000 42.000000 14.815043 20.000000
-15.166986 -38.250958 6.781914 0.000000 38.000000 14.408607 0.000000
-14.080980 -40.702332 6.605851 0.000000 61.000000 14.675760 8.000000
-16.459237 -42.948524 5.239914 0.000000 7.000000 14.989558 15.000000
-14.766702 -38.061145 7.044227 0.000000 45.000000 14.445022 0.000000
-20.010968 -39.861438 5.078148 0.000000 75.000000 15.048676 3.000000
-16.688837 -42.555921 4.956334 0.000000 67.000000 14.689565 15.000000
-15.362098 -40.097980 6.340773 0.000000 58.000000 14.677879 9.000000
-15.350386 -38.812553 6.668498 0.000000 28.000000 14.550566 25.000000
-14.887273 -38.757811 7.414693 0.000000 56.000000 15.037543 20.000000
-16.168794 -42.912145 4.623772 0.000000 40.000000 14.334803 0.000000
-15.843379 -41.394179 5.405141 0.000000 41.000000 14.428637 0.000000
-16.701084 -42.245947 4.784840 0.000000 54.000000 14.442209 0.000000
-16.467436 -37.385156 6.609788 0.000000 27.000000 14.415410 0.000000
-15.624476 -42.540977 5.133957 0.000000 27.000000 14.483802 0.000000
-16.669174 -40.026607 6.133623 0.000000 48.000000 14.911422 24.000000
-15.833977 -40.854698 6.000218 0.000000 64.000000 14.778638 17.000000
-17.464781 -41.179499 4.864078 0.000000 48.000000 14.426330 0.000000
-17.694829 -42.811052 5.224616 0.000000 51.000000 15.347587 16.000000
-16.015014 -39.586642 6.304507 0.000000 50.000000 14.701031 9.000000
-18.503117 -41.242448 4.772734 0.000000 37.000000 14.715137 22.000000
-18.304105 -39.596851 5.160219 0.000000 55.000000 14.461848 0.000000
-17.098787 -41.108940 5.973701 0.000000 52.000000 15.262554 18.000000
-15.425790 -38.319677 7.067849 0.000000 42.000000 14.770866 26.000000
-17.970294 -39.040489 6.032960 0.000000 60.000000 14.943002 4.000000
-17.654563 -38.236991 5.957773 0.000000 32.000000 14.511787 4.000000
-18.275612 -41.588045 4.642274 0.000000 44.000000 14.634269 22.000000
-15.704493 -42.086141 5.643914 0.000000 60.000000 14.815781 15.000000
-16.240585 -38.676093 6.345056 0.000000 56.000000 14.519969 10.000000
-19.469128 -37.913574 5.454520 0.000000 46.000000 14.572971 1.000000
-17.518981 -40.460998 5.792695 0.000000 52.000000 15.035357 23.000000
-18.648105 -41.987733 4.903414 0.000000 68.000000 15.119287 22.000000
-16.588537 -39.849296 6.162376 0.000000 70.000000 14.852707 24.000000
-15.414081 -39.356037 6.494568 0.000000 38.000000 14.592861 9.000000
-17.056752 -39.942059 5.799803 0.000000 51.000000 14.719202 24.000000
-15.940848 -38.393626 7.305459 0.000000 72.000000 15.178267 26.000000
-18.025970 -37.330777 6.060129 0.000000 46.000000 14.435896 0.000000
-14.324806 -40.442707 6.534323 0.000000 53.000000 14.611000 13.000000
-18.069058 -37.187971 6.095074 0.000000 44.000000 14.435394 0.000000
-17.563510 -37.172929 6.435890 0.000000 61.000000 14.562078 27.000000
-16.505811 -36.986274 6.860649 0.000000 44.000000 14.522058 27.000000
-16.113150 -39.208900 6.810559 0.000000 58.000000 15.060447 25.000000
-17.640864 -41.544251 5.122225 0.000000 68.000000 14.831370 18.000000
-16.117212 -40.603419 6.039729 0.000000 62.000000 14.828100 17.000000
-18.106805 -42.077753 4.481124 0.000000 49.000000 14.592340 16.000000
-16.686616 -38.564912 6.757647 0.000000 58.000000 14.999468 10.000000
-15.319021 -37.654211 7.555418 0.000000 71.000000 14.952432 26.000000
-18.244790 -36.468870 6.325101 0.000000 51.000000 14.466834 0.000000
-14.832181 -38.110919 6.998596 0.000000 45.000000 14.442679 0.000000
-19.615533 -38.139977 5.592066 0.000000 70.000000 14.816790 1.000000
-18.321151 -42.365458 4.998494 0.000000 73.000000 15.214903 16.000000
-17.670156 -38.411127 6.247710 0.000000 58.000000 14.829651 4.000000
-20.184496 -39.577413 4.508227 0.000000 25.000000 14.511308 2.000000
-18.372866 -42.075861 4.634827 0.000000 56.000000 14.817298 16.000000
-15.374156 -42.270329 5.373229 0.000000 43.000000 14.524289 6.000000
-15.187232 -38.319067 6.771782 0.000000 41.000000 14.428358 0.000000
-16.089658 -38.899337 6.170855 0.000000 47.000000 14.386805 0.000000
-17.545649 -40.034071 5.235054 0.000000 47.000000 14.413478 0.000000
-17.704275 -40.121070 5.109646 0.000000 54.000000 14.383844 0.000000
-17.863405 -40.205569 5.014458 0.000000 38.000000 14.380323 0.000000
-18.013851 -40.279962 4.981912 0.000000 59.000000 14.426070 0.000000
-16.791541 -42.011110 5.181579 0.000000 48.000000 14.748254 29.000000
-17.521551 -36.710978 6.468130 0.000000 37.000000 14.427917 0.000000
-18.454685 -36.696148 5.987422 0.000000 40.000000 14.311699 0.000000
-19.304626 -37.501897 5.313220 0.000000 45.000000 14.260152 0.000000
-17.108677 -42.598652 4.589276 0.000000 51.000000 14.519720 16.000000
-19.208423 -37.634989 5.366727 0.000000 47.000000 14.317941 0.000000
-17.144338 -43.190646 4.767076 0.000000 40.000000 14.879483 15.000000
-15.513713 -36.921558 7.170173 0.000000 43.000000 14.441344 0.000000
-19.626104 -38.448458 5.604613 0.000000 77.000000 14.930668 1.000000
-19.027870 -37.900107 5.463928 0.000000 53.000000 14.428481 0.000000
-17.410450 -42.073462 4.881281 0.000000 68.000000 14.710794 16.000000
-17.201715 -41.311389 5.231694 0.000000 61.000000 14.705586 18.000000
-18.758454 -38.700705 5.246623 0.000000 30.000000 14.402987 0.000000
-18.879728 -38.175068 5.409002 0.000000 54.000000 14.418453 0.000000
-15.626199 -40.631668 6.337842 0.000000 76.000000 14.935803 17.000000
-15.602944 -38.384525 7.278989 0.000000 57.000000 15.038206 26.000000
-20.153725 -39.758285 4.976792 0.000000 41.000000 14.973832 3.000000
-17.267589 -38.851141 6.404545 0.000000 29.000000 14.974512 10.000000
-18.624940 -38.744721 5.168734 0.000000 42.000000 14.303280 0.000000
-16.109998 -37.059410 7.306256 0.000000 62.000000 14.806775 28.000000
-17.653278 -38.182028 5.849262 0.000000 52.000000 14.397639 0.000000
-17.584419 -38.320574 5.884562 0.000000 51.000000 14.450270 0.000000
-18.048333 -39.874156 5.867674 0.000000 59.000000 15.091104 10.000000
-15.957594 -39.778913 6.533795 0.000000 45.000000 14.946481 9.000000
-16.723897 -40.705469 5.870698 0.000000 70.000000 14.915472 18.000000
-17.394707 -40.576677 5.769951 0.000000 65.000000 15.010614 23.000000
-18.236556 -39.616556 5.129764 0.000000 45.000000 14.418500 0.000000
-18.025906 -40.226030 5.005770 0.000000 58.000000 14.433897 0.000000
-15.366599 -37.712675 7.203023 0.000000 48.000000 14.675357 26.000000
-17.730451 -41.366517 4.680425 0.000000 51.000000 14.413336 0.000000
-17.271621 -39.080618 6.400871 0.000000 65.000000 15.046423 10.000000
-18.415622 -41.001103 4.976772 0.000000 75.000000 14.788656 22.000000
-19.924570 -38.823185 5.240233 0.000000 46.000000 14.829128 1.000000
-16.151349 -40.124741 5.760363 0.000000 24.000000 14.438378 0.000000
-20.408867 -38.547821 4.566438 0.000000 39.000000 14.307187 0.000000
-20.291568 -38.671275 5.334300 0.000000 5.000000 14.987021 1.000000
-16.795759 -39.000042 6.719203 0.000000 45.000000 15.142119 10.000000
-14.298024 -39.587574 7.498066 0.000000 51.000000 15.179920 19.000000
-19.254036 -41.216379 4.783614 0.000000 54.000000 14.969070 11.000000
-15.594610 -37.426731 7.402856 0.000000 70.000000 14.836980 26.000000
-18.314153 -39.901300 5.325028 0.000000 67.000000 14.709013 12.000000
-13.910288 -38.878664 6.983835 0.000000 47.000000 14.366319 0.000000
-20.053222 -40.012245 4.828253 0.000000 72.000000 14.890228 3.000000
-19.344779 -39.761986 4.483749 0.000000 38.000000 14.266438 0.000000
-13.120590 -39.701254 6.952058 0.000000 40.000000 14.337024 0.000000
-17.643559 -38.358642 5.947318 0.000000 64.000000 14.537957 4.000000
-12.845662 -39.727166 7.081179 0.000000 43.000000 14.367122 0.000000
-15.937340 -37.592217 7.227742 0.000000 79.000000 14.850549 26.000000
-16.975513 -41.993729 5.114382 0.000000 66.000000 14.745099 29.000000
-15.329664 -40.789470 6.277702 0.000000 70.000000 14.833544 17.000000
-17.709038 -42.012626 4.420754 0.000000 54.000000 14.384113 0.000000
-17.742008 -41.826365 4.544433 0.000000 58.000000 14.444763 0.000000
-19.627789 -38.198615 5.748802 0.000000 69.000000 14.978494 1.000000
-14.565985 -39.718673 6.987524 0.000000 68.000000 14.860398 19.000000
-17.502820 -40.832362 5.831647 0.000000 73.000000 15.183833 23.000000
-18.092332 -39.495110 5.241518 0.000000 45.000000 14.429817 0.000000
-17.266938 -38.651431 5.873802 0.000000 51.000000 14.440325 0.000000
-18.100953 -39.333131 5.302239 0.000000 52.000000 14.434362 0.000000
-17.208510 -39.994806 5.622092 0.000000 42.000000 14.629950 23.000000
-16.281925 -39.688117 6.552773 0.000000 53.000000 15.043214 25.000000
-15.404268 -40.410571 6.527511 0.000000 75.000000 14.957880 17.000000
-18.239418 -37.100928 6.043739 0.000000 34.000000 14.419292 0.000000
-20.464070 -39.590237 5.080988 0.000000 50.000000 15.116436 2.000000
-14.210726 -39.753004 7.118766 0.000000 51.000000 14.868049 19.000000
-14.744018 -38.435541 7.504995 0.000000 60.000000 14.965609 20.000000
-14.050506 -39.549743 7.222662 0.000000 67.000000 14.840715 19.000000
-19.052394 -40.979287 5.248551 0.000000 72.000000 15.236456 11.000000
-17.889478 -36.891636 6.256773 0.000000 39.000000 14.422768 0.000000
-17.234277 -35.967412 6.901539 0.000000 34.000000 14.475689 0.000000
-17.629386 -38.367655 6.039152 0.000000 66.000000 14.617364 4.000000
-16.606072 -39.484691 6.461149 0.000000 52.000000 15.005772 25.000000
-18.053459 -37.443418 5.997377 0.000000 48.000000 14.425836 0.000000
-17.261144 -36.698879 6.625084 0.000000 48.000000 14.475310 0.000000
-17.471218 -41.703935 5.166108 0.000000 63.000000 14.864481 18.000000
-17.896363 -39.791297 5.658344 0.000000 60.000000 14.828047 10.000000
-17.011528 -40.984939 6.008081 0.000000 56.000000 15.223738 18.000000
-19.440863 -40.728135 4.641468 0.000000 57.000000 14.749099 11.000000
-15.317722 -38.945225 6.821939 0.000000 46.000000 14.718049 25.000000
-14.982994 -40.369819 6.308212 0.000000 44.000000 14.608920 17.000000
-15.996350 -39.139710 6.919367 0.000000 60.000000 15.095191 25.000000
-18.182199 -38.074938 5.725073 0.000000 31.000000 14.431266 0.000000
-17.925677 -36.549174 6.370302 0.000000 48.000000 14.425284 0.000000
-19.089973 -38.111994 5.657775 0.000000 63.000000 14.689093 1.000000
-17.143902 -35.688531 6.891090 0.000000 34.000000 14.346334 0.000000
-17.585953 -42.448830 5.019438 0.000000 66.000000 15.012856 16.000000
-20.446705 -39.558185 4.928519 0.000000 73.000000 14.965340 2.000000
-15.009848 -41.532653 5.982898 0.000000 29.000000 14.704033 13.000000
-18.895656 -41.309411 4.824874 0.000000 74.000000 14.914912 22.000000
-13.663443 -38.827568 7.181098 0.000000 43.000000 14.441410 0.000000
-17.263466 -37.959951 6.035451 0.000000 31.000000 14.359827 0.000000
-13.906122 -38.968801 6.976428 0.000000 38.000000 14.387352 0.000000
-14.031511 -39.034729 6.907024 0.000000 47.000000 14.389324 0.000000
-18.970222 -41.179616 4.881392 0.000000 73.000000 14.948280 11.000000
-16.450437 -41.315874 5.427342 0.000000 35.000000 14.627379 29.000000
-13.915806 -38.642307 7.019222 0.000000 36.000000 14.323477 0.000000
-15.498145 -42.477393 5.712665 0.000000 56.000000 14.933029 6.000000
-17.160097 -39.892670 5.973949 0.000000 61.000000 14.892222 24.000000
-14.876988 -40.929544 6.789785 0.000000 38.000000 15.179489 13.000000
-15.101281 -39.525247 6.291409 0.000000 43.000000 14.362217 0.000000
-15.920090 -40.073862 6.451280 0.000000 56.000000 14.955693 9.000000
-19.601431 -40.740339 4.986404 0.000000 60.000000 15.112343 11.000000
-14.447782 -40.764493 6.908543 0.000000 53.000000 15.087082 13.000000
-19.892798 -38.877865 4.765012 0.000000 34.000000 14.415427 0.000000
