-40.434069 37.318997 -14.990047 0.000000 40.000000 14.337560 12.000000
-40.709494 41.818081 -17.519105 0.000000 43.000000 14.285086 0.000000
-40.563887 37.028563 -14.340762 0.000000 53.000000 14.339079 5.000000
-40.688224 41.548691 -17.392891 0.000000 47.000000 14.291004 0.000000
-40.673608 41.416333 -17.330782 0.000000 49.000000 14.290009 0.000000
-40.024929 37.812455 -17.169297 0.000000 57.000000 14.467690 8.000000
-40.887911 42.087081 -17.105645 0.000000 45.000000 14.270911 0.000000
-40.485488 40.573617 -17.613721 0.000000 49.000000 14.389493 26.000000
-40.347803 39.838795 -18.704352 0.000000 58.000000 14.742395 10.000000
-39.721838 37.760500 -18.909413 0.000000 64.000000 14.695936 21.000000
-39.936745 37.066722 -16.169158 0.000000 40.000000 14.270478 0.000000
-40.544631 40.332530 -16.920711 0.000000 42.000000 14.301419 0.000000
-40.476151 40.234353 -16.845149 0.000000 42.000000 14.238620 0.000000
-40.708281 41.165172 -16.761277 0.000000 39.000000 14.216850 0.000000
-39.640962 36.999137 -17.139370 0.000000 66.000000 14.288658 0.000000
-39.893448 40.541802 -19.138799 0.000000 37.000000 14.282756 0.000000
-40.556015 41.719314 -17.932720 0.000000 42.000000 14.283424 0.000000
-41.021465 41.820046 -16.677123 0.000000 53.000000 14.333746 0.000000
-41.257443 40.798214 -14.939313 0.000000 29.000000 14.290236 0.000000
-40.518119 39.205266 -16.504874 0.000000 51.000000 14.416471 16.000000
-41.717013 42.283209 -14.234997 0.000000 40.000000 14.175158 0.000000
-40.667015 38.995658 -15.754757 0.000000 54.000000 14.388309 14.000000
-41.663216 42.189904 -14.658122 0.000000 32.000000 14.267692 0.000000
-40.637335 40.446676 -16.642256 0.000000 38.000000 14.281718 0.000000
-40.044759 39.741223 -19.627836 0.000000 50.000000 14.747325 30.000000
-39.861126 38.303796 -18.666706 0.000000 68.000000 14.631285 21.000000
-39.593201 36.681228 -16.890741 0.000000 35.000000 14.246019 0.000000
-41.070003 41.291982 -15.924504 0.000000 43.000000 14.284620 0.000000
-39.060194 36.844760 -18.903590 0.000000 51.000000 14.289018 0.000000
-39.291635 36.789324 -18.069389 0.000000 43.000000 14.278172 0.000000
-40.504504 42.245213 -18.479062 0.000000 28.000000 14.271217 0.000000
-40.209037 40.777813 -18.801871 0.000000 71.000000 14.425668 23.000000
-40.590894 41.790024 -19.380509 0.000000 47.000000 14.714193 29.000000
-39.920948 38.375533 -18.669464 0.000000 51.000000 14.671254 21.000000
-40.186486 38.310528 -16.545292 0.000000 34.000000 14.324955 0.000000
-40.656566 40.894160 -19.501289 0.000000 59.000000 15.015528 29.000000
-40.356300 38.980462 -16.537020 0.000000 42.000000 14.326756 0.000000
-39.285177 37.355304 -18.339813 0.000000 42.000000 14.219668 0.000000
-40.236897 38.623404 -16.536608 0.000000 40.000000 14.297536 0.000000
-40.215879 41.929412 -19.165155 0.000000 44.000000 14.271684 0.000000
-40.500957 41.271753 -18.532015 0.000000 64.000000 14.506555 23.000000
-40.124424 39.202673 -17.441379 0.000000 69.000000 14.319000 0.000000
-39.493375 37.258790 -17.830019 0.000000 54.000000 14.289520 0.000000
-39.902819 37.473066 -16.756903 0.000000 32.000000 14.313929 0.000000
-40.567845 41.937841 -18.909286 0.000000 35.000000 14.523890 23.000000
-41.699225 41.717190 -15.242596 0.000000 45.000000 14.577064 3.000000
-40.563600 38.377758 -15.172445 0.000000 25.000000 14.267222 0.000000
-39.675752 37.110524 -16.851458 0.000000 32.000000 14.213009 0.000000
-40.667555 38.420046 -14.954344 0.000000 53.000000 14.291765 0.000000
-41.234675 42.256332 -16.647531 0.000000 47.000000 14.423447 19.000000
-40.103431 37.673789 -16.196382 0.000000 25.000000 14.293964 0.000000
-40.639538 38.867940 -15.283668 0.000000 40.000000 14.257179 0.000000
-41.021065 39.578268 -14.663450 0.000000 41.000000 14.271423 0.000000
-40.113025 39.103025 -17.449320 0.000000 67.000000 14.333546 0.000000
-40.819153 41.076554 -17.292061 0.000000 62.000000 14.492313 26.000000
-39.750713 38.649439 -18.088844 0.000000 58.000000 14.283765 0.000000
-39.815056 40.894532 -19.623480 0.000000 29.000000 14.267641 0.000000
-40.148318 39.616951 -19.576378 0.000000 58.000000 14.857452 30.000000
-40.103906 40.207904 -19.558527 0.000000 57.000000 14.675364 30.000000
-41.200238 41.852871 -15.688780 0.000000 25.000000 14.209509 0.000000
-39.310809 36.876350 -18.693588 0.000000 64.000000 14.454763 1.000000
-39.839678 40.011380 -18.339305 0.000000 39.000000 14.125580 0.000000
-40.237873 42.118470 -19.472668 0.000000 51.000000 14.336794 0.000000
-39.596802 37.265347 -17.657277 0.000000 68.000000 14.334762 0.000000
-40.724055 41.110549 -17.439505 0.000000 43.000000 14.438265 26.000000
-39.499392 37.585012 -19.443468 0.000000 45.000000 14.682219 28.000000
-40.618940 41.544092 -18.649828 0.000000 60.000000 14.587519 23.000000
-39.961765 39.054930 -17.594524 0.000000 60.000000 14.245459 0.000000
-41.505384 42.107613 -14.818033 0.000000 36.000000 14.185553 0.000000
-40.023312 39.368890 -17.864829 0.000000 50.000000 14.308035 0.000000
-39.509471 38.682418 -19.630404 0.000000 58.000000 14.493193 27.000000
-40.431194 41.965534 -19.494817 0.000000 67.000000 14.558077 29.000000
-39.947654 40.556872 -18.926727 0.000000 40.000000 14.268996 0.000000
-39.934354 40.335041 -18.869688 0.000000 25.000000 14.291216 0.000000
-40.848215 40.533867 -15.925850 0.000000 48.000000 14.252732 0.000000
-40.948596 41.196175 -16.225905 0.000000 56.000000 14.279981 0.000000
-39.863709 40.140431 -18.900904 0.000000 38.000000 14.279115 0.000000
-40.987109 39.308712 -14.576898 0.000000 45.000000 14.276935 0.000000
-41.070218 42.607513 -17.482917 0.000000 54.000000 14.429049 15.000000
-39.590081 38.585583 -18.175669 0.000000 43.000000 14.173862 0.000000
-40.193814 39.878716 -18.058965 0.000000 53.000000 14.405188 24.000000
-39.590029 38.808226 -18.871503 0.000000 37.000000 14.321946 0.000000
-39.812495 39.705891 -18.911554 0.000000 39.000000 14.334281 0.000000
-39.519709 38.544352 -18.865304 0.000000 33.000000 14.315334 0.000000
-40.974071 41.464961 -16.430021 0.000000 45.000000 14.300420 0.000000
-40.879492 40.851493 -16.135272 0.000000 45.000000 14.268876 0.000000
-39.826504 37.719299 -17.539145 0.000000 43.000000 14.410398 8.000000
-40.029147 39.675110 -18.085010 0.000000 43.000000 14.306210 0.000000
-40.718050 41.933784 -18.653996 0.000000 73.000000 14.591445 23.000000
-39.615653 40.569826 -19.726369 0.000000 55.000000 14.186156 0.000000
-40.671985 41.478013 -16.926564 0.000000 40.000000 14.158597 0.000000
-39.269467 37.647636 -18.903101 0.000000 33.000000 14.299235 0.000000
-38.973656 37.422440 -19.627400 0.000000 37.000000 14.283157 0.000000
-40.606594 41.254261 -17.418803 0.000000 49.000000 14.290082 0.000000
-40.581008 37.469683 -14.186143 0.000000 31.000000 14.209465 0.000000
-39.195170 37.399136 -18.933302 0.000000 29.000000 14.295817 0.000000
-39.404557 38.339064 -19.007308 0.000000 37.000000 14.296006 0.000000
-39.162271 37.274029 -18.953062 0.000000 33.000000 14.299592 0.000000
-40.598089 40.647691 -16.753331 0.000000 50.000000 14.230868 0.000000
-41.628403 42.400457 -14.825929 0.000000 34.000000 14.235021 0.000000
-41.029424 41.164928 -15.498586 0.000000 27.000000 14.154083 0.000000
-39.963906 36.637105 -15.573031 0.000000 44.000000 14.223676 0.000000
-39.289459 37.990358 -19.075806 0.000000 34.000000 14.288605 0.000000
-39.928975 40.113932 -18.217143 0.000000 45.000000 14.150124 0.000000
-41.257320 40.890677 -15.271563 0.000000 37.000000 14.364031 3.000000
-39.015383 36.791671 -19.050230 0.000000 26.000000 14.301511 0.000000
-40.687528 41.365796 -18.615057 0.000000 54.000000 14.682295 23.000000
-40.097486 39.887397 -19.613295 0.000000 65.000000 14.758653 30.000000
-41.454372 40.824684 -14.176122 0.000000 24.000000 14.248816 0.000000
-40.721009 41.788969 -18.667064 0.000000 68.000000 14.631185 23.000000
-39.920936 40.245064 -19.745036 0.000000 58.000000 14.550035 30.000000
-39.732733 37.302843 -18.060158 0.000000 62.000000 14.567960 9.000000
-40.746220 40.533322 -16.533810 0.000000 47.000000 14.332062 0.000000
-40.722733 38.527371 -14.890301 0.000000 34.000000 14.300117 0.000000
-39.929924 39.695904 -19.080038 0.000000 41.000000 14.494052 30.000000
-41.482669 41.783670 -14.853402 0.000000 47.000000 14.248918 0.000000
-39.993403 39.135080 -17.632747 0.000000 51.000000 14.267435 0.000000
-40.613092 41.040067 -16.895156 0.000000 27.000000 14.195358 0.000000
-39.724935 38.693992 -18.900621 0.000000 54.000000 14.482000 21.000000
-39.606077 38.607466 -19.256911 0.000000 33.000000 14.493318 27.000000
-40.787139 41.370779 -17.102971 0.000000 55.000000 14.340845 26.000000
-40.754257 37.744045 -14.593763 0.000000 50.000000 14.424357 5.000000
-41.140122 41.856996 -15.380413 0.000000 29.000000 14.064343 0.000000
-41.166994 41.635652 -15.448837 0.000000 29.000000 14.159746 0.000000
-40.270130 40.411687 -17.882380 0.000000 36.000000 14.303263 0.000000
-41.164101 41.641475 -15.781328 0.000000 33.000000 14.250923 0.000000
-41.184312 41.628876 -15.961724 0.000000 38.000000 14.324270 0.000000
-39.865582 38.480726 -17.599904 0.000000 44.000000 14.289347 0.000000
-40.104155 39.086417 -18.874432 0.000000 63.000000 14.737171 10.000000
-40.173003 37.954704 -16.294537 0.000000 55.000000 14.322299 0.000000
-41.038996 41.814655 -16.483119 0.000000 45.000000 14.295740 0.000000
-41.003370 41.867937 -16.612019 0.000000 40.000000 14.287277 0.000000
-40.094572 38.120876 -17.439610 0.000000 70.000000 14.539070 8.000000
-39.886660 39.120222 -18.533114 0.000000 52.000000 14.429360 10.000000
-39.411223 36.923853 -17.950692 0.000000 57.000000 14.324545 0.000000
-40.200196 39.890445 -19.370361 0.000000 69.000000 14.783935 30.000000
-40.563622 38.951038 -15.333675 0.000000 32.000000 14.181803 0.000000
-40.716842 41.438271 -17.045561 0.000000 53.000000 14.243520 0.000000
-40.771717 42.386993 -17.777046 0.000000 38.000000 14.286222 0.000000
-39.661933 37.336240 -18.005781 0.000000 60.000000 14.478864 9.000000
-40.503650 40.629820 -17.583584 0.000000 64.000000 14.384855 26.000000
-40.921107 38.556569 -13.933423 0.000000 25.000000 14.203955 0.000000
-39.333881 36.887060 -18.102564 0.000000 48.000000 14.304533 0.000000
-39.476396 38.435339 -18.248241 0.000000 39.000000 14.123381 0.000000
-41.203727 39.719686 -14.068647 0.000000 29.000000 14.238559 0.000000
-40.720244 39.720359 -15.875703 0.000000 45.000000 14.306087 0.000000
-40.897843 38.514033 -14.398201 0.000000 30.000000 14.325162 0.000000
-41.569471 41.643788 -14.037176 0.000000 25.000000 14.128059 0.000000
-39.489104 37.225035 -18.056793 0.000000 52.000000 14.358230 9.000000
-40.712583 39.924432 -15.914138 0.000000 33.000000 14.263117 0.000000
-41.089035 40.239669 -15.053669 0.000000 50.000000 14.294548 0.000000
-40.769292 38.570359 -14.767157 0.000000 34.000000 14.298298 0.000000
-40.599838 40.429566 -16.724086 0.000000 39.000000 14.274196 0.000000
-40.435522 38.518643 -15.838794 0.000000 23.000000 14.306540 0.000000
-40.696022 38.621265 -15.171185 0.000000 32.000000 14.334142 0.000000
-40.004027 37.970335 -17.077799 0.000000 56.000000 14.385802 8.000000
-40.132303 39.651679 -17.719217 0.000000 50.000000 14.302807 0.000000
-40.984088 40.396943 -17.200185 0.000000 68.000000 14.775447 26.000000
-40.799912 39.942451 -15.299230 0.000000 28.000000 14.164145 0.000000
-39.405291 37.914987 -18.198525 0.000000 40.000000 14.162459 0.000000
-41.592987 41.101271 -14.499117 0.000000 38.000000 14.406749 20.000000
-39.653266 37.088258 -17.297709 0.000000 60.000000 14.324982 0.000000
-40.208561 37.498466 -15.404474 0.000000 28.000000 14.205254 0.000000
-39.266259 37.637313 -18.892517 0.000000 29.000000 14.295589 0.000000
-41.246170 42.068550 -15.887341 0.000000 44.000000 14.259578 0.000000
-39.911251 37.965806 -16.742818 0.000000 54.000000 14.204622 0.000000
-40.258420 39.509910 -18.029016 0.000000 63.000000 14.541377 25.000000
-40.717999 40.112033 -16.110125 0.000000 35.000000 14.281207 0.000000
-40.279344 39.666314 -16.863061 0.000000 47.000000 14.191078 0.000000
-40.191408 41.569255 -18.928736 0.000000 52.000000 14.263905 0.000000
-40.057827 41.776998 -19.570535 0.000000 49.000000 14.275725 0.000000
-40.507581 41.130685 -17.584273 0.000000 47.000000 14.273727 0.000000
-40.392554 39.072585 -16.532922 0.000000 45.000000 14.338158 0.000000
-39.610724 38.396098 -19.646022 0.000000 79.000000 14.657582 28.000000
-40.349461 39.141513 -16.637620 0.000000 40.000000 14.312228 0.000000
-40.651128 40.295073 -16.612124 0.000000 36.000000 14.320724 0.000000
-39.773203 39.068452 -19.200250 0.000000 38.000000 14.526731 27.000000
-40.631940 39.506753 -16.635641 0.000000 49.000000 14.490581 16.000000
-39.483664 38.493661 -18.857653 0.000000 47.000000 14.291251 0.000000
-40.994520 39.115907 -15.806364 0.000000 66.000000 14.680133 14.000000
-40.119699 39.710270 -17.678395 0.000000 50.000000 14.265943 0.000000
-39.757207 38.185698 -18.986549 0.000000 72.000000 14.653312 21.000000
-39.951121 40.570201 -18.919749 0.000000 44.000000 14.267162 0.000000
-41.463839 42.325804 -15.211403 0.000000 20.000000 14.209454 0.000000
-39.575417 36.651678 -18.732940 0.000000 45.000000 14.763751 1.000000
-40.042445 38.858884 -16.888172 0.000000 30.000000 14.163260 0.000000
-40.166244 39.876919 -17.901982 0.000000 47.000000 14.335004 0.000000
-39.360394 37.949743 -18.948187 0.000000 39.000000 14.327372 0.000000
-39.805907 38.877476 -18.124172 0.000000 29.000000 14.292873 0.000000
-39.968895 36.953616 -16.123829 0.000000 40.000000 14.313371 0.000000
-40.362454 39.906777 -16.954237 0.000000 43.000000 14.239293 0.000000
-39.901374 38.761176 -17.799733 0.000000 47.000000 14.315478 0.000000
-41.785633 42.174104 -13.922375 0.000000 29.000000 14.174522 0.000000
-40.418221 41.579982 -19.220038 0.000000 72.000000 14.555840 29.000000
-40.299086 41.451585 -18.226192 0.000000 41.000000 14.189918 0.000000
-40.020826 40.523529 -18.605437 0.000000 34.000000 14.252718 0.000000
-40.029990 38.664510 -17.182137 0.000000 35.000000 14.280470 0.000000
-39.645478 38.518126 -19.372905 0.000000 75.000000 14.583693 28.000000
-39.890463 38.876153 -17.829259 0.000000 54.000000 14.287387 0.000000
-39.474107 38.340355 -19.688408 0.000000 34.000000 14.555431 28.000000
-39.157158 37.650883 -19.615073 0.000000 61.000000 14.397881 28.000000
-40.659702 40.706589 -16.762917 0.000000 36.000000 14.277406 0.000000
-40.634393 41.776790 -17.669440 0.000000 46.000000 14.267752 0.000000
-40.295590 42.256059 -19.177027 0.000000 44.000000 14.274245 0.000000
-41.004501 42.207061 -16.713632 0.000000 25.000000 14.239573 0.000000
-39.792922 38.340675 -18.825128 0.000000 59.000000 14.604737 21.000000
-40.862982 41.122848 -18.831058 0.000000 50.000000 14.963129 23.000000
-40.319130 42.655777 -19.577809 0.000000 45.000000 14.319139 0.000000
-39.991526 37.959236 -17.134192 0.000000 45.000000 14.392869 8.000000
-41.183235 39.025811 -14.588966 0.000000 54.000000 14.527776 4.000000
-40.449881 41.881486 -19.327535 0.000000 60.000000 14.546855 29.000000
-40.499837 36.719877 -13.961724 0.000000 27.000000 14.241830 0.000000
-40.589474 39.741351 -16.354906 0.000000 39.000000 14.316838 0.000000
-39.338398 37.548840 -18.283325 0.000000 33.000000 14.208570 0.000000
-40.731171 37.805104 -14.100348 0.000000 26.000000 14.247581 0.000000
-40.474045 38.707814 -15.899710 0.000000 40.000000 14.316390 0.000000
-41.470472 41.122258 -14.182762 0.000000 47.000000 14.197381 0.000000
-40.630937 40.768638 -18.817296 0.000000 51.000000 14.824650 23.000000
-39.249426 36.861523 -18.172493 0.000000 55.000000 14.251857 0.000000
-40.532384 37.561248 -14.703914 0.000000 28.000000 14.291471 0.000000
-40.816604 40.596978 -16.114815 0.000000 52.000000 14.262946 0.000000
-40.477258 41.333026 -18.942541 0.000000 77.000000 14.587992 23.000000
-40.355592 37.471244 -15.215632 0.000000 27.000000 14.294202 0.000000
-40.622767 41.362663 -17.392105 0.000000 49.000000 14.272595 0.000000
-40.424779 38.614329 -15.448463 0.000000 32.000000 14.162814 0.000000
-39.421897 36.665557 -18.886891 0.000000 36.000000 14.661840 1.000000
-40.854215 38.611481 -14.543625 0.000000 33.000000 14.303848 0.000000
-40.089732 37.799990 -17.177467 0.000000 29.000000 14.533172 8.000000
-40.619109 41.328973 -17.461422 0.000000 42.000000 14.296775 0.000000
-39.516187 36.666617 -17.451211 0.000000 44.000000 14.338217 0.000000
-41.304572 42.170786 -16.640140 0.000000 64.000000 14.505989 19.000000
-39.535510 36.587811 -16.861085 0.000000 35.000000 14.205308 0.000000
-40.557316 41.236089 -18.548137 0.000000 68.000000 14.571785 23.000000
-40.454993 41.406421 -19.457235 0.000000 64.000000 14.697808 29.000000
-40.652080 41.149073 -19.502190 0.000000 64.000000 14.953094 29.000000
-39.637051 37.852105 -18.210515 0.000000 55.000000 14.395916 9.000000
-40.511951 41.416540 -17.840548 0.000000 47.000000 14.285550 0.000000
-39.567102 38.493953 -19.554432 0.000000 49.000000 14.568313 28.000000
-39.474039 36.903471 -17.665414 0.000000 30.000000 14.305971 0.000000
-40.651555 39.463344 -15.777918 0.000000 40.000000 14.273194 0.000000
-39.202674 37.138309 -18.249102 0.000000 37.000000 14.166763 0.000000
-39.438036 37.028985 -17.872896 0.000000 34.000000 14.303076 0.000000
-39.425934 37.090999 -17.979112 0.000000 34.000000 14.307996 0.000000
-40.412027 40.986279 -19.400266 0.000000 51.000000 14.737978 29.000000
-40.276666 38.157978 -15.357811 0.000000 32.000000 14.103842 0.000000
-40.605330 40.516643 -16.677029 0.000000 40.000000 14.245841 0.000000
-40.175407 37.910933 -16.184719 0.000000 43.000000 14.303138 0.000000
-40.575368 37.950006 -14.859864 0.000000 35.000000 14.286864 0.000000
-39.614289 37.980281 -19.446232 0.000000 42.000000 14.699149 28.000000
-39.943278 37.972000 -16.851266 0.000000 47.000000 14.264045 0.000000
-38.819422 37.093529 -19.538883 0.000000 27.000000 14.189847 0.000000
-40.226705 39.183115 -18.073229 0.000000 69.000000 14.599556 25.000000
-41.251078 40.697733 -14.632664 0.000000 29.000000 14.219577 0.000000
-40.828315 41.285936 -16.968042 0.000000 48.000000 14.359989 26.000000
-39.613277 38.916941 -18.834128 0.000000 38.000000 14.307912 0.000000
-41.018575 39.542691 -14.644586 0.000000 29.000000 14.271873 0.000000
-41.086328 40.691167 -15.314544 0.000000 38.000000 14.263079 0.000000
-40.316357 41.751768 -19.158632 0.000000 51.000000 14.404064 29.000000
-39.581576 39.098374 -19.005903 0.000000 37.000000 14.285957 0.000000
-39.285208 38.055035 -19.130697 0.000000 29.000000 14.285520 0.000000
-40.778260 41.202681 -18.921015 0.000000 73.000000 14.891750 23.000000
-39.442339 36.652285 -17.640497 0.000000 57.000000 14.327012 0.000000
-40.431227 40.907383 -19.538235 0.000000 65.000000 14.813457 29.000000
-40.861825 41.179709 -17.316718 0.000000 66.000000 14.515386 26.000000
-40.191948 37.555035 -15.976896 0.000000 52.000000 14.340719 11.000000
-41.119345 42.509408 -16.689892 0.000000 37.000000 14.270197 0.000000
-41.093479 42.129835 -16.454531 0.000000 32.000000 14.265881 0.000000
-39.417756 37.888418 -18.209879 0.000000 43.000000 14.183404 0.000000
-40.698238 40.728065 -19.559947 0.000000 50.000000 15.109218 29.000000
-41.093428 41.714089 -16.265260 0.000000 33.000000 14.307079 0.000000
-41.573395 41.942146 -14.649056 0.000000 46.000000 14.238420 0.000000
-39.754820 38.607681 -18.099398 0.000000 53.000000 14.300193 0.000000
-39.995450 38.885794 -17.506605 0.000000 59.000000 14.290447 0.000000
-40.182378 41.690780 -19.123640 0.000000 42.000000 14.283415 0.000000
-41.061429 39.633216 -14.580188 0.000000 40.000000 14.272515 0.000000
-41.011795 41.216413 -15.988472 0.000000 31.000000 14.266138 0.000000
-40.153335 39.139154 -16.890644 0.000000 38.000000 14.202779 0.000000
-40.471770 39.299405 -16.111214 0.000000 47.000000 14.239025 0.000000
-40.942355 40.214695 -17.398443 0.000000 49.000000 14.835234 26.000000
-39.982840 38.078550 -18.884964 0.000000 47.000000 14.858711 21.000000
-40.858796 39.104739 -15.818254 0.000000 38.000000 14.559848 14.000000
-39.874354 37.868647 -18.151418 0.000000 70.000000 14.595940 9.000000
-39.539888 38.671870 -18.407423 0.000000 32.000000 14.173723 0.000000
-41.193733 41.635230 -15.631073 0.000000 36.000000 14.236897 0.000000
-41.119338 41.548014 -15.541417 0.000000 35.000000 14.162043 0.000000
-41.501823 40.733413 -14.465091 0.000000 42.000000 14.396652 20.000000
-41.090709 41.419740 -15.494639 0.000000 32.000000 14.151465 0.000000
-40.801157 40.346684 -15.562448 0.000000 28.000000 14.147874 0.000000
-40.330967 40.747809 -19.391426 0.000000 74.000000 14.714789 29.000000
-40.775193 40.215965 -15.518491 0.000000 27.000000 14.141143 0.000000
-39.793555 39.059352 -18.391821 0.000000 56.000000 14.316268 0.000000
-39.512252 38.719416 -19.064845 0.000000 36.000000 14.325345 0.000000
-40.997755 41.031118 -15.366185 0.000000 28.000000 14.117432 0.000000
-39.448300 37.066785 -17.910463 0.000000 46.000000 14.314703 0.000000
-40.191869 36.403830 -14.708429 0.000000 31.000000 14.241716 0.000000
-41.332647 40.929229 -14.659144 0.000000 32.000000 14.249893 0.000000
-39.471271 38.663681 -19.126946 0.000000 47.000000 14.317801 0.000000
-39.518882 38.459159 -18.865685 0.000000 50.000000 14.334231 0.000000
-40.849307 38.448446 -14.014672 0.000000 39.000000 14.185251 0.000000
-41.536567 42.255107 -15.112153 0.000000 39.000000 14.264918 0.000000
-39.584507 38.630620 -19.573171 0.000000 57.000000 14.558496 28.000000
-40.199577 39.955275 -19.558226 0.000000 71.000000 14.822268 30.000000
-40.951417 40.294990 -15.306428 0.000000 33.000000 14.226208 0.000000
-39.859041 38.123024 -18.915322 0.000000 62.000000 14.742033 21.000000
-40.915089 40.171001 -15.281274 0.000000 32.000000 14.213676 0.000000
-39.119876 36.910319 -18.252721 0.000000 42.000000 14.143117 0.000000
-40.880774 40.043258 -15.260905 0.000000 32.000000 14.205249 0.000000
-40.460775 40.198542 -17.279075 0.000000 48.000000 14.356787 26.000000
-40.143684 39.176847 -17.152145 0.000000 49.000000 14.260026 0.000000
-40.885026 40.752587 -15.460616 0.000000 29.000000 14.103550 0.000000
-39.588088 36.736944 -17.213482 0.000000 33.000000 14.320885 0.000000
-39.791123 38.246446 -19.549192 0.000000 53.000000 14.832022 28.000000
-40.860578 39.604162 -15.290372 0.000000 32.000000 14.295701 0.000000
-41.153528 42.064675 -16.145715 0.000000 54.000000 14.248272 0.000000
-40.836264 39.471196 -15.292223 0.000000 29.000000 14.304139 0.000000
-40.482131 38.445622 -15.256757 0.000000 24.000000 14.200001 0.000000
-39.990037 36.691459 -15.679415 0.000000 41.000000 14.265967 0.000000
-41.247803 39.299875 -14.549641 0.000000 69.000000 14.513661 4.000000
-40.708697 39.264073 -15.239072 0.000000 26.000000 14.217804 0.000000
-40.416642 38.189576 -15.247693 0.000000 22.000000 14.195266 0.000000
-40.657833 39.151565 -15.228391 0.000000 26.000000 14.193258 0.000000
-40.658995 39.875038 -16.095741 0.000000 52.000000 14.276608 0.000000
-41.618086 40.868416 -14.512900 0.000000 43.000000 14.487499 20.000000
-40.336977 37.945481 -15.242874 0.000000 20.000000 14.175817 0.000000
-40.834247 41.269723 -16.705357 0.000000 30.000000 14.294013 0.000000
-40.307042 37.817698 -15.252388 0.000000 20.000000 14.180030 0.000000
-39.509583 38.771605 -18.927446 0.000000 41.000000 14.271539 0.000000
-39.997882 40.419620 -18.265342 0.000000 41.000000 14.157847 0.000000
-40.158297 40.956229 -19.635972 0.000000 63.000000 14.576344 29.000000
-40.640385 42.506733 -18.979236 0.000000 60.000000 14.480798 22.000000
-40.353094 41.269766 -18.106129 0.000000 41.000000 14.247519 0.000000
-39.239747 37.972030 -19.580120 0.000000 57.000000 14.390974 28.000000
-40.711071 37.019056 -14.379682 0.000000 44.000000 14.489319 5.000000
-40.732412 39.435448 -15.346643 0.000000 33.000000 14.231323 0.000000
-40.505497 40.951539 -19.280328 0.000000 58.000000 14.798559 29.000000
-40.883886 39.533787 -15.247455 0.000000 36.000000 14.321250 0.000000
-39.458755 38.073331 -18.399360 0.000000 40.000000 14.233347 0.000000
-41.769002 41.553746 -13.944202 0.000000 29.000000 14.307715 0.000000
-39.427879 38.526434 -19.162943 0.000000 29.000000 14.319251 0.000000
-41.417214 39.738730 -14.638556 0.000000 44.000000 14.595964 4.000000
-40.382881 40.738573 -17.712316 0.000000 30.000000 14.284408 0.000000
-40.224162 39.950866 -19.906145 0.000000 67.000000 14.945773 30.000000
-41.474102 42.437987 -16.527024 0.000000 68.000000 14.569959 19.000000
-39.821763 39.677797 -18.231902 0.000000 37.000000 14.154742 0.000000
-39.942835 38.763348 -17.644531 0.000000 33.000000 14.309107 0.000000
-40.780380 41.030494 -16.895238 0.000000 43.000000 14.353194 26.000000
-39.257601 38.828118 -19.593838 0.000000 27.000000 14.214979 0.000000
-40.195632 40.158152 -18.669028 0.000000 62.000000 14.517414 10.000000
-39.095324 37.250151 -19.175913 0.000000 50.000000 14.306608 0.000000
-39.865377 40.541284 -19.633994 0.000000 50.000000 14.398555 30.000000
-39.869246 39.935386 -19.685575 0.000000 53.000000 14.556019 30.000000
-39.328619 37.107645 -18.222368 0.000000 51.000000 14.283304 0.000000
-39.469993 37.026540 -17.824379 0.000000 31.000000 14.319472 0.000000
-40.826739 40.878425 -16.260713 0.000000 39.000000 14.249540 0.000000
-39.900771 36.691997 -16.211836 0.000000 38.000000 14.335259 0.000000
-41.664331 42.318418 -14.700564 0.000000 36.000000 14.251378 0.000000
-40.481872 42.587404 -18.890433 0.000000 33.000000 14.289399 0.000000
-40.503681 36.818918 -14.315173 0.000000 32.000000 14.323875 0.000000
-40.745132 39.077165 -15.195805 0.000000 23.000000 14.282215 0.000000
-40.565442 42.446755 -18.337627 0.000000 41.000000 14.241137 0.000000
-40.511186 42.336459 -18.270511 0.000000 40.000000 14.196769 0.000000
-39.840777 36.579809 -16.710670 0.000000 40.000000 14.448041 2.000000
-41.277968 39.877182 -14.959089 0.000000 35.000000 14.526431 18.000000
-40.161786 41.061730 -18.213936 0.000000 40.000000 14.148188 0.000000
-40.743264 41.865878 -17.469826 0.000000 52.000000 14.291417 0.000000
-40.681962 42.274779 -18.501750 0.000000 40.000000 14.436001 23.000000
-39.472303 38.565996 -18.961214 0.000000 31.000000 14.293730 0.000000
-39.539277 38.558492 -18.218991 0.000000 38.000000 14.145227 0.000000
-40.220347 40.673514 -18.148572 0.000000 33.000000 14.273067 0.000000
-41.207217 39.890485 -15.232827 0.000000 56.000000 14.535944 18.000000
-40.849161 38.771194 -14.647558 0.000000 27.000000 14.292242 0.000000
-39.966826 39.590329 -18.952745 0.000000 34.000000 14.516167 10.000000
-40.369196 37.437786 -16.639244 0.000000 42.000000 14.722171 7.000000
-39.499690 38.250893 -18.944723 0.000000 45.000000 14.386822 21.000000
-40.165006 40.252407 -18.050706 0.000000 30.000000 14.290239 0.000000
-40.333365 40.949263 -18.946571 0.000000 59.000000 14.543394 23.000000
-40.406222 41.448142 -19.587186 0.000000 48.000000 14.680072 29.000000
-39.887557 37.049738 -16.345031 0.000000 26.000000 14.278980 0.000000
-40.646341 40.936289 -18.698172 0.000000 49.000000 14.766383 23.000000
-40.662194 41.355793 -17.342929 0.000000 37.000000 14.296767 0.000000
-40.828359 41.065253 -16.552236 0.000000 36.000000 14.291631 0.000000
-40.154040 39.927061 -17.855615 0.000000 41.000000 14.298864 0.000000
-41.471723 41.006573 -14.283643 0.000000 38.000000 14.253988 0.000000
-39.585731 38.409940 -19.603345 0.000000 56.000000 14.618935 28.000000
-39.806304 40.150107 -19.017297 0.000000 41.000000 14.256823 0.000000
-40.539939 38.599264 -15.270408 0.000000 43.000000 14.222413 0.000000
-39.506810 37.777249 -19.494074 0.000000 77.000000 14.659479 28.000000
-40.789993 41.403339 -17.298207 0.000000 41.000000 14.391928 26.000000
-39.885092 38.756201 -17.873409 0.000000 40.000000 14.322570 0.000000
-39.347477 36.733726 -18.084970 0.000000 52.000000 14.347343 6.000000
-40.014571 40.271478 -18.627746 0.000000 58.000000 14.311151 0.000000
-39.990173 37.383117 -16.193349 0.000000 36.000000 14.254470 0.000000
-39.492833 37.206466 -17.889188 0.000000 33.000000 14.317971 0.000000
-40.515050 38.681066 -15.381116 0.000000 25.000000 14.212181 0.000000
-39.418253 38.450231 -19.041613 0.000000 39.000000 14.293049 0.000000
-39.477813 38.576144 -19.099081 0.000000 48.000000 14.336003 0.000000
-40.148063 40.198889 -19.455860 0.000000 72.000000 14.689112 30.000000
-39.299238 37.215902 -18.182000 0.000000 30.000000 14.219562 0.000000
-39.234476 37.128025 -18.208006 0.000000 36.000000 14.186939 0.000000
-39.174312 37.041741 -18.237090 0.000000 32.000000 14.159109 0.000000
-39.141196 36.944325 -18.284561 0.000000 30.000000 14.164260 0.000000
-40.598835 39.228190 -15.447201 0.000000 21.000000 14.183440 0.000000
-40.776479 38.749573 -14.850881 0.000000 28.000000 14.287815 0.000000
-41.494692 41.091947 -13.951304 0.000000 26.000000 14.160594 0.000000
-41.052128 41.392633 -15.583228 0.000000 29.000000 14.147166 0.000000
-40.141088 37.022916 -16.490924 0.000000 68.000000 14.562752 7.000000
-39.724436 37.208780 -16.954302 0.000000 38.000000 14.265188 0.000000
-40.205676 40.304167 -19.424289 0.000000 68.000000 14.709496 30.000000
-41.383948 41.104209 -14.706607 0.000000 40.000000 14.271034 0.000000
-39.901237 41.863071 -19.699775 0.000000 41.000000 14.147309 0.000000
-40.373286 41.129856 -18.064586 0.000000 52.000000 14.286525 0.000000
-40.817559 38.662027 -14.595479 0.000000 45.000000 14.272994 0.000000
-40.822542 40.144871 -15.334322 0.000000 29.000000 14.148775 0.000000
-40.775695 39.004513 -15.648288 0.000000 41.000000 14.456887 14.000000
-39.815565 37.887462 -18.803318 0.000000 70.000000 14.723597 21.000000
-40.845019 41.959549 -17.380809 0.000000 52.000000 14.339079 0.000000
-40.324340 40.854785 -18.167391 0.000000 38.000000 14.333579 0.000000
-41.086655 41.387512 -15.572853 0.000000 32.000000 14.177488 0.000000
-40.820537 40.198838 -15.798493 0.000000 31.000000 14.267430 0.000000
-41.065123 41.420982 -15.710088 0.000000 27.000000 14.189071 0.000000
-40.821327 40.221797 -15.949872 0.000000 36.000000 14.306240 0.000000
-41.687825 41.334812 -15.216811 0.000000 69.000000 14.646859 3.000000
-40.300641 41.950261 -18.936763 0.000000 49.000000 14.280348 0.000000
-40.322398 41.945634 -19.556122 0.000000 42.000000 14.478995 29.000000
-40.331223 40.953912 -18.441494 0.000000 39.000000 14.395711 23.000000
-41.080870 41.472571 -16.172466 0.000000 52.000000 14.324272 0.000000
-40.402432 38.853349 -16.146508 0.000000 42.000000 14.287031 0.000000
-41.172077 41.031196 -15.324141 0.000000 46.000000 14.267532 0.000000
-39.141537 37.369246 -19.113915 0.000000 45.000000 14.304504 0.000000
-40.987630 41.611452 -16.393031 0.000000 41.000000 14.268812 0.000000
-40.701716 40.466885 -16.587931 0.000000 46.000000 14.321412 0.000000
-39.753255 38.156097 -17.725713 0.000000 53.000000 14.295406 0.000000
-40.420111 37.962716 -15.203571 0.000000 34.000000 14.237939 0.000000
-40.951897 41.713541 -16.653010 0.000000 40.000000 14.286578 0.000000
-41.498375 40.734248 -14.502959 0.000000 54.000000 14.404096 20.000000
-40.579346 40.782336 -16.885133 0.000000 58.000000 14.220264 0.000000
-39.801888 37.948074 -18.086172 0.000000 62.000000 14.491614 9.000000
-40.251261 37.791136 -15.309091 0.000000 31.000000 14.150475 0.000000
-39.475985 38.148781 -18.234840 0.000000 46.000000 14.184947 0.000000
-40.418967 41.322183 -19.207924 0.000000 74.000000 14.612247 29.000000
-39.750655 38.379152 -17.785190 0.000000 42.000000 14.258812 0.000000
-40.078292 40.250551 -18.688660 0.000000 57.000000 14.392671 10.000000
-40.472023 41.093249 -17.642998 0.000000 42.000000 14.266059 0.000000
-40.176051 39.172725 -17.228563 0.000000 33.000000 14.312962 0.000000
-39.976557 37.978132 -16.728748 0.000000 49.000000 14.258513 0.000000
-40.346892 42.005858 -18.935871 0.000000 52.000000 14.310352 0.000000
-40.454283 41.233981 -17.885720 0.000000 44.000000 14.286750 0.000000
-39.885020 39.996002 -18.272148 0.000000 33.000000 14.152059 0.000000
-39.711821 37.315317 -18.033923 0.000000 57.000000 14.538132 9.000000
-40.381338 41.430417 -18.086532 0.000000 35.000000 14.231300 0.000000
-40.775063 42.416413 -19.444198 0.000000 64.000000 14.759949 17.000000
-40.339348 41.535700 -18.183186 0.000000 35.000000 14.195746 0.000000
-41.902174 41.672436 -15.341687 0.000000 49.000000 14.804500 3.000000
-41.059817 39.624856 -15.146706 0.000000 43.000000 14.435151 18.000000
-40.873186 41.036816 -17.483101 0.000000 43.000000 14.606400 26.000000
-39.450681 37.984930 -18.454699 0.000000 26.000000 14.261976 0.000000
-39.731998 39.494639 -18.255339 0.000000 41.000000 14.119999 0.000000
-40.302204 42.318264 -19.192935 0.000000 43.000000 14.270672 0.000000
-40.311407 42.405668 -19.304873 0.000000 43.000000 14.291220 0.000000
-39.972384 38.198856 -18.860565 0.000000 53.000000 14.814379 21.000000
-41.488893 41.080046 -13.923629 0.000000 28.000000 14.150008 0.000000
-40.164835 39.703052 -19.617459 0.000000 71.000000 14.864814 30.000000
-38.968004 36.757354 -19.201179 0.000000 34.000000 14.308538 0.000000
-40.970217 40.216969 -15.240603 0.000000 29.000000 14.242758 0.000000
-39.714733 38.661246 -18.890451 0.000000 57.000000 14.477116 21.000000
-40.850392 38.472484 -14.199659 0.000000 40.000000 14.233711 0.000000
-40.644263 42.129588 -18.597304 0.000000 52.000000 14.461624 23.000000
-41.636125 41.303899 -13.941799 0.000000 41.000000 14.240779 0.000000
-40.716128 37.788373 -13.890020 0.000000 32.000000 14.177204 0.000000
-40.061581 40.060166 -18.177933 0.000000 43.000000 14.274592 0.000000
-39.382767 37.914706 -18.312173 0.000000 39.000000 14.174112 0.000000
-40.162270 37.647414 -16.037449 0.000000 47.000000 14.309244 0.000000
-41.053772 40.633102 -15.224707 0.000000 35.000000 14.220401 0.000000
-40.682359 39.970708 -15.526183 0.000000 33.000000 14.113293 0.000000
-39.849008 38.037345 -17.560769 0.000000 40.000000 14.364510 8.000000
-40.394392 40.543668 -17.578280 0.000000 36.000000 14.301480 0.000000
-40.057253 39.960223 -19.695949 0.000000 56.000000 14.728176 30.000000
-40.271614 40.178201 -18.776129 0.000000 60.000000 14.614158 10.000000
-39.811539 40.604439 -19.643855 0.000000 57.000000 14.336800 0.000000
-40.726657 40.853177 -17.183572 0.000000 37.000000 14.426487 26.000000
-39.142793 37.488991 -19.441875 0.000000 72.000000 14.372091 28.000000
-40.225615 37.372960 -15.637168 0.000000 24.000000 14.316559 0.000000
-40.382026 38.619457 -15.543170 0.000000 29.000000 14.148985 0.000000
-40.335223 38.496623 -16.006928 0.000000 53.000000 14.266438 0.000000
-39.550768 37.962127 -19.384658 0.000000 52.000000 14.626597 28.000000
-40.535133 36.837677 -13.967283 0.000000 49.000000 14.249212 0.000000
-40.226083 37.387960 -15.479727 0.000000 57.000000 14.268469 0.000000
-40.105769 37.509024 -16.098432 0.000000 28.000000 14.305917 0.000000
-39.745591 39.400113 -18.266496 0.000000 38.000000 14.157538 0.000000
-40.673140 37.896562 -14.588356 0.000000 56.000000 14.312339 0.000000
-40.524552 37.169995 -14.587958 0.000000 41.000000 14.340802 5.000000
-40.712808 39.520841 -15.390340 0.000000 28.000000 14.205995 0.000000
-41.518384 41.633033 -14.664173 0.000000 35.000000 14.262538 0.000000
-40.300951 38.841236 -16.552067 0.000000 39.000000 14.311540 0.000000
-40.728242 39.751155 -15.696777 0.000000 32.000000 14.255224 0.000000
-41.236986 42.118371 -16.047049 0.000000 38.000000 14.285327 0.000000
-40.313838 39.086070 -16.614587 0.000000 30.000000 14.285223 0.000000
-39.178557 37.152831 -18.479128 0.000000 42.000000 14.206860 0.000000
-41.015541 42.215166 -17.290744 0.000000 54.000000 14.413231 15.000000
-40.124362 39.107245 -17.168682 0.000000 24.000000 14.262766 0.000000
-40.880840 39.012308 -14.683788 0.000000 36.000000 14.276732 0.000000
-40.203986 38.394780 -16.467877 0.000000 45.000000 14.299726 0.000000
-40.137709 39.360245 -17.540141 0.000000 50.000000 14.323464 0.000000
-39.566338 38.544328 -19.597291 0.000000 56.000000 14.568311 28.000000
-40.098777 39.445702 -17.628226 0.000000 41.000000 14.292852 0.000000
-39.985231 39.027714 -17.714980 0.000000 52.000000 14.308027 0.000000
-41.356242 42.426572 -16.631781 0.000000 49.000000 14.492940 19.000000
-40.646324 42.587375 -18.071816 0.000000 38.000000 14.207981 0.000000
-39.089140 37.405232 -19.624884 0.000000 60.000000 14.393812 28.000000
-40.771257 39.583064 -15.281580 0.000000 36.000000 14.214939 0.000000
-39.673834 38.726233 -18.135432 0.000000 29.000000 14.207961 0.000000
-40.252064 37.502872 -15.239721 0.000000 23.000000 14.197535 0.000000
-41.698150 40.889359 -14.326626 0.000000 34.000000 14.503831 20.000000
-40.174841 40.686661 -18.167669 0.000000 43.000000 14.233187 0.000000
-39.642064 38.900807 -18.331790 0.000000 32.000000 14.194555 0.000000
-39.899992 38.260159 -17.524296 0.000000 44.000000 14.350342 8.000000
-39.707085 38.943041 -18.472972 0.000000 29.000000 14.285770 0.000000
-39.228634 37.167929 -18.231412 0.000000 25.000000 14.179046 0.000000
-41.744325 41.635201 -13.911547 0.000000 42.000000 14.256710 0.000000
-39.965634 40.447264 -18.817523 0.000000 40.000000 14.279614 0.000000
-40.650153 40.472601 -16.630208 0.000000 45.000000 14.284240 0.000000
-39.785752 38.368360 -17.971396 0.000000 39.000000 14.347255 9.000000
-40.372602 39.571525 -18.789624 0.000000 74.000000 14.851237 10.000000
-39.677036 39.594759 -19.145208 0.000000 39.000000 14.300691 0.000000
-40.635263 40.929651 -18.662503 0.000000 73.000000 14.747388 23.000000
-40.803730 40.848085 -17.391035 0.000000 65.000000 14.558755 26.000000
-41.468277 42.528204 -15.237797 0.000000 30.000000 14.174675 0.000000
-40.819612 41.246498 -17.198718 0.000000 36.000000 14.426999 26.000000
-40.663891 41.936463 -18.879213 0.000000 73.000000 14.604939 23.000000
-41.275324 40.496168 -14.647172 0.000000 37.000000 14.292559 0.000000
-41.720466 42.190796 -14.067991 0.000000 48.000000 14.151766 0.000000
-41.448167 41.438538 -14.726312 0.000000 28.000000 14.259663 0.000000
-40.919959 37.882481 -14.280980 0.000000 41.000000 14.457154 5.000000
-41.447570 41.292072 -14.678324 0.000000 36.000000 14.278991 0.000000
-40.476446 41.858008 -19.396618 0.000000 68.000000 14.596737 29.000000
-41.430784 41.162456 -14.618317 0.000000 36.000000 14.275950 0.000000
-41.716881 42.133164 -14.432743 0.000000 40.000000 14.266102 0.000000
-41.185897 41.635090 -15.629576 0.000000 31.000000 14.229212 0.000000
-39.468388 37.692459 -19.355578 0.000000 54.000000 14.603546 28.000000
-40.844379 38.793855 -14.620296 0.000000 49.000000 14.274785 0.000000
-40.392130 42.296189 -18.923689 0.000000 39.000000 14.282295 0.000000
-40.393719 39.285430 -16.689700 0.000000 48.000000 14.335271 0.000000
-40.463392 41.516639 -17.914041 0.000000 43.000000 14.238444 0.000000
-39.855468 36.498205 -16.060121 0.000000 29.000000 14.294164 0.000000
-40.602113 42.714526 -19.829529 0.000000 65.000000 14.640965 17.000000
-41.351140 40.486647 -14.381574 0.000000 28.000000 14.289219 0.000000
-40.709925 40.309241 -17.330111 0.000000 60.000000 14.577752 26.000000
-39.833102 38.741869 -18.048062 0.000000 52.000000 14.327509 0.000000
-41.485815 41.420296 -14.071753 0.000000 25.000000 14.111447 0.000000
-41.507327 41.245834 -14.083136 0.000000 26.000000 14.174768 0.000000
-41.545169 41.054763 -14.117890 0.000000 32.000000 14.263785 0.000000
-39.746258 39.605404 -18.914588 0.000000 41.000000 14.296603 0.000000
-41.342407 42.170816 -15.867224 0.000000 42.000000 14.319862 0.000000
-40.600628 41.044321 -16.896949 0.000000 33.000000 14.183300 0.000000
-40.072244 39.291743 -18.106819 0.000000 58.000000 14.440554 25.000000
-40.520527 40.581068 -16.831208 0.000000 44.000000 14.196313 0.000000
-39.525826 38.525715 -18.251111 0.000000 42.000000 14.149436 0.000000
-40.666288 40.148515 -16.250243 0.000000 42.000000 14.264851 0.000000
-40.313233 38.264157 -15.569972 0.000000 38.000000 14.174232 0.000000
-39.819626 39.190371 -18.393156 0.000000 35.000000 14.310825 0.000000
-39.548459 37.830862 -19.391592 0.000000 71.000000 14.656569 28.000000
-39.131117 37.123436 -18.884066 0.000000 61.000000 14.285427 0.000000
-40.110109 39.969839 -18.866077 0.000000 62.000000 14.537512 10.000000
-41.677866 41.452210 -15.058489 0.000000 44.000000 14.565311 3.000000
-40.321456 38.371487 -16.034780 0.000000 33.000000 14.290334 0.000000
-41.200086 39.797890 -13.932369 0.000000 31.000000 14.178198 0.000000
-40.599887 40.023429 -16.371463 0.000000 58.000000 14.266508 0.000000
-40.534364 39.461551 -16.079031 0.000000 44.000000 14.250813 0.000000
-40.666975 37.665518 -14.018297 0.000000 35.000000 14.196415 0.000000
-40.576754 40.948467 -17.399271 0.000000 47.000000 14.326931 0.000000
-40.803021 40.927389 -17.262281 0.000000 56.000000 14.503023 26.000000
-41.096962 39.429475 -13.948666 0.000000 26.000000 14.171512 0.000000
-40.592802 42.455092 -19.400074 0.000000 72.000000 14.568892 17.000000
-40.615463 39.830090 -16.593957 0.000000 53.000000 14.389091 16.000000
-40.335033 38.821406 -16.239265 0.000000 46.000000 14.258228 0.000000
-40.546924 41.645198 -17.954099 0.000000 29.000000 14.298104 0.000000
-40.560404 41.704235 -18.686803 0.000000 61.000000 14.506891 23.000000
-39.137811 37.013331 -18.517241 0.000000 37.000000 14.211895 0.000000
-41.015929 41.015945 -15.636039 0.000000 21.000000 14.215090 0.000000
-39.844784 38.209856 -18.849729 0.000000 72.000000 14.690056 21.000000
-39.930550 40.623516 -19.546686 0.000000 42.000000 14.415303 30.000000
-40.701355 40.454491 -17.015366 0.000000 55.000000 14.446312 26.000000
-40.448599 39.909489 -18.044660 0.000000 57.000000 14.631034 24.000000
-40.592374 37.598897 -14.109653 0.000000 21.000000 14.168472 0.000000
-40.441902 37.437449 -14.949603 0.000000 52.000000 14.306073 0.000000
-40.579772 37.476059 -14.157436 0.000000 22.000000 14.198631 0.000000
-40.638973 41.859201 -18.863812 0.000000 54.000000 14.595087 23.000000
-40.256822 38.672375 -16.380656 0.000000 42.000000 14.260173 0.000000
-41.211879 42.507369 -16.262310 0.000000 44.000000 14.234309 0.000000
-40.226787 40.283775 -17.878341 0.000000 53.000000 14.291152 0.000000
-40.094183 40.458759 -19.556002 0.000000 70.000000 14.608009 30.000000
-40.314558 36.531531 -14.615356 0.000000 23.000000 14.299878 0.000000
-40.339208 37.497416 -16.747668 0.000000 52.000000 14.711632 7.000000
-40.266946 36.448974 -14.664895 0.000000 22.000000 14.288725 0.000000
-41.179748 41.923423 -16.007993 0.000000 36.000000 14.265654 0.000000
-40.475927 37.453518 -14.783344 0.000000 38.000000 14.286429 0.000000
-40.775208 42.405361 -17.724489 0.000000 38.000000 14.270204 0.000000
-41.013561 42.526768 -18.986974 0.000000 73.000000 14.825551 22.000000
-40.725806 42.000941 -18.647415 0.000000 71.000000 14.581358 23.000000
-39.373751 37.135861 -18.233532 0.000000 57.000000 14.322005 0.000000
-40.071822 36.937240 -15.402240 0.000000 27.000000 14.206256 0.000000
-39.897197 39.566716 -19.560674 0.000000 54.000000 14.630890 30.000000
-40.643513 37.500488 -14.516688 0.000000 42.000000 14.355184 5.000000
-40.788919 42.254677 -17.625225 0.000000 46.000000 14.289127 0.000000
-40.439591 42.353138 -18.393529 0.000000 32.000000 14.161566 0.000000
-39.961451 36.677383 -16.002256 0.000000 39.000000 14.335049 0.000000
-41.143844 42.121208 -16.218691 0.000000 26.000000 14.247182 0.000000
-40.794391 41.054980 -16.993332 0.000000 63.000000 14.388694 26.000000
-39.665596 36.608660 -16.730594 0.000000 34.000000 14.284166 0.000000
-40.417516 41.769599 -19.207920 0.000000 49.000000 14.508184 29.000000
-39.854934 38.711917 -17.941826 0.000000 38.000000 14.324273 0.000000
-39.971540 38.079386 -17.951495 0.000000 36.000000 14.580720 9.000000
-40.744615 41.421190 -18.771468 0.000000 60.000000 14.767469 23.000000
-40.529066 41.260546 -19.119723 0.000000 32.000000 14.703558 29.000000
-39.555649 38.914558 -18.934910 0.000000 39.000000 14.283710 0.000000
-40.490332 42.429497 -18.390953 0.000000 32.000000 14.190498 0.000000
-40.148064 40.351001 -18.138816 0.000000 45.000000 14.277074 0.000000
-39.356882 36.908432 -18.019140 0.000000 34.000000 14.297136 0.000000
-39.330233 36.956053 -18.112125 0.000000 34.000000 14.288039 0.000000
-39.256291 37.029234 -18.177901 0.000000 31.000000 14.221291 0.000000
-39.618796 37.473170 -18.139809 0.000000 43.000000 14.445679 9.000000
-40.482701 37.125528 -14.963271 0.000000 35.000000 14.419546 12.000000
-41.268799 40.670012 -14.780927 0.000000 40.000000 14.284879 0.000000
-39.792234 37.608616 -18.099659 0.000000 69.000000 14.564424 9.000000
-40.813886 41.795481 -17.199681 0.000000 53.000000 14.295919 0.000000
-41.154610 41.560649 -15.789081 0.000000 28.000000 14.262869 0.000000
-40.132820 39.027977 -17.013362 0.000000 54.000000 14.244357 0.000000
-41.201049 41.399700 -15.271550 0.000000 25.000000 14.194828 0.000000
-39.891341 38.163408 -17.437376 0.000000 55.000000 14.339616 0.000000
-38.794719 36.813289 -19.496158 0.000000 25.000000 14.218968 0.000000
-40.542261 39.352541 -16.089558 0.000000 41.000000 14.286198 0.000000
-40.687917 38.927785 -15.760655 0.000000 39.000000 14.425023 14.000000
-41.018523 41.112921 -15.790478 0.000000 39.000000 14.239462 0.000000
-41.280121 42.254377 -15.345960 0.000000 30.000000 14.093482 0.000000
-39.633249 37.842400 -19.384422 0.000000 69.000000 14.730741 28.000000
-39.025432 38.235581 -19.699485 0.000000 37.000000 14.165289 0.000000
-39.895199 39.647678 -19.718238 0.000000 58.000000 14.655562 30.000000
-39.274502 36.847488 -18.155032 0.000000 39.000000 14.273405 0.000000
-40.733442 38.009967 -15.097235 0.000000 40.000000 14.488111 12.000000
-40.674988 42.152830 -18.838929 0.000000 68.000000 14.554056 23.000000
-40.454615 37.554335 -15.259025 0.000000 44.000000 14.379665 12.000000
-40.794423 37.557635 -14.557514 0.000000 44.000000 14.494134 5.000000
-40.002767 36.756001 -15.564337 0.000000 30.000000 14.230042 0.000000
-40.683059 41.633896 -17.431619 0.000000 47.000000 14.277729 0.000000
-39.511954 39.299077 -19.338366 0.000000 28.000000 14.270316 0.000000
-40.650711 41.070196 -17.230684 0.000000 42.000000 14.319509 0.000000
-39.887407 38.755594 -17.848851 0.000000 52.000000 14.317831 0.000000
-39.797975 39.259736 -19.041557 0.000000 48.000000 14.460422 10.000000
-40.112436 40.148929 -19.908551 0.000000 55.000000 14.797063 30.000000
-40.729296 39.851336 -15.971686 0.000000 50.000000 14.311924 0.000000
-40.354337 38.163260 -16.574565 0.000000 64.000000 14.523284 7.000000
-41.268412 40.642415 -14.702096 0.000000 29.000000 14.268282 0.000000
-39.530699 37.909368 -19.356617 0.000000 65.000000 14.612011 28.000000
-41.559719 42.031828 -14.853159 0.000000 41.000000 14.263552 0.000000
-40.414530 40.042439 -16.836537 0.000000 40.000000 14.222890 0.000000
-41.624742 41.726538 -14.240308 0.000000 30.000000 14.218640 0.000000
-40.183404 37.730219 -17.343213 0.000000 72.000000 14.683783 8.000000
-40.368062 39.618169 -16.759618 0.000000 32.000000 14.255038 0.000000
-40.587310 40.539758 -16.702039 0.000000 34.000000 14.230933 0.000000
-39.802500 41.146947 -19.633575 0.000000 44.000000 14.200906 0.000000
-40.543389 42.291425 -18.197904 0.000000 39.000000 14.216273 0.000000
-39.847679 38.168290 -17.540163 0.000000 45.000000 14.327313 0.000000
-40.568329 40.249458 -16.685317 0.000000 36.000000 14.275132 0.000000
-39.854091 38.670499 -18.849034 0.000000 60.000000 14.592765 21.000000
-40.229056 40.857079 -18.461223 0.000000 39.000000 14.328552 0.000000
-41.054216 42.533999 -16.840157 0.000000 32.000000 14.246994 0.000000
-39.546818 36.642228 -16.948358 0.000000 48.000000 14.228325 0.000000
-39.739090 37.782119 -18.171528 0.000000 67.000000 14.495737 9.000000
-40.102306 40.058673 -18.111079 0.000000 47.000000 14.293676 0.000000
-39.548610 38.246862 -18.916381 0.000000 63.000000 14.425138 21.000000
-40.306472 39.691610 -16.994111 0.000000 36.000000 14.248031 0.000000
-40.611534 39.340596 -15.620692 0.000000 27.000000 14.219125 0.000000
-41.862748 42.458690 -13.934765 0.000000 32.000000 14.184471 0.000000
-40.168712 38.390020 -16.644850 0.000000 32.000000 14.318680 0.000000
-40.409829 39.300244 -16.652931 0.000000 40.000000 14.336328 0.000000
-40.153588 38.251635 -16.650732 0.000000 32.000000 14.338064 0.000000
-40.548178 41.749876 -19.369343 0.000000 72.000000 14.680478 29.000000
-39.603697 37.524140 -17.730529 0.000000 41.000000 14.302741 0.000000
-40.996542 42.203902 -17.316115 0.000000 61.000000 14.405408 15.000000
-41.017509 39.544047 -14.694792 0.000000 37.000000 14.284946 0.000000
-40.201060 38.710443 -16.643561 0.000000 33.000000 14.274843 0.000000
-40.169494 38.589994 -16.653766 0.000000 31.000000 14.276053 0.000000
-39.742949 38.821648 -18.162578 0.000000 39.000000 14.258121 0.000000
