51.450593 -24.956444 -8.075392 0.000000 75.000000 14.628700 23.000000
51.922687 -25.469426 -6.384548 0.000000 30.000000 14.175890 0.000000
53.373653 -27.169598 -5.679864 0.000000 68.000000 15.004456 7.000000
53.249028 -25.141949 -8.968845 0.000000 62.000000 14.838401 24.000000
52.406671 -26.024906 -6.549289 0.000000 71.000000 14.630459 5.000000
51.450246 -26.154344 -5.412887 0.000000 47.000000 14.403407 13.000000
53.710045 -25.548004 -7.959307 0.000000 74.000000 14.616795 18.000000
53.357228 -25.833820 -6.390143 0.000000 44.000000 14.196052 0.000000
53.485645 -25.863960 -6.367714 0.000000 38.000000 14.184938 0.000000
50.507196 -23.587924 -9.605426 0.000000 58.000000 14.368734 30.000000
53.740402 -25.934990 -6.338163 0.000000 35.000000 14.179563 0.000000
50.179991 -24.591460 -8.555537 0.000000 72.000000 14.802927 26.000000
51.860727 -24.337234 -10.197208 0.000000 56.000000 15.011717 29.000000
50.233779 -23.915434 -9.684332 0.000000 85.000000 14.743122 30.000000
50.461714 -24.310722 -9.009383 0.000000 70.000000 14.717709 26.000000
53.330014 -25.886652 -6.286208 0.000000 32.000000 14.198061 0.000000
53.459366 -25.927417 -6.295840 0.000000 35.000000 14.210961 0.000000
51.090184 -23.912834 -10.457434 0.000000 77.000000 14.928583 11.000000
48.735671 -22.886736 -10.484474 0.000000 59.000000 14.545303 10.000000
52.433520 -24.276277 -10.643863 0.000000 65.000000 15.051805 11.000000
50.611152 -24.402068 -9.038823 0.000000 75.000000 14.779197 26.000000
52.751182 -24.011547 -10.245969 0.000000 39.000000 14.572043 29.000000
52.049279 -25.320156 -7.505372 0.000000 67.000000 14.549309 22.000000
53.420706 -26.030398 -7.110402 0.000000 59.000000 14.690658 19.000000
52.321162 -24.670591 -9.306309 0.000000 71.000000 14.783697 27.000000
48.950574 -23.525360 -9.963081 0.000000 72.000000 14.803624 10.000000
48.546226 -24.700998 -6.902475 0.000000 59.000000 14.454970 3.000000
51.662379 -24.583913 -9.534638 0.000000 71.000000 14.952321 28.000000
48.665137 -23.554925 -9.211758 0.000000 60.000000 14.534089 9.000000
53.947714 -26.611460 -6.233597 0.000000 46.000000 14.668104 17.000000
51.172998 -23.755646 -9.230858 0.000000 26.000000 14.199372 0.000000
53.673287 -24.949181 -9.560080 0.000000 60.000000 14.864003 27.000000
50.198417 -23.954918 -8.587325 0.000000 25.000000 14.267949 0.000000
51.960114 -25.146910 -7.870761 0.000000 69.000000 14.590985 22.000000
50.027093 -25.322741 -6.159668 0.000000 32.000000 14.334158 13.000000
48.844447 -22.965333 -10.080692 0.000000 66.000000 14.400314 10.000000
50.968772 -24.272787 -8.042584 0.000000 29.000000 14.125807 0.000000
49.783416 -23.942832 -8.014270 0.000000 25.000000 14.073236 0.000000
52.180734 -24.448261 -9.897054 0.000000 72.000000 14.899872 29.000000
53.263020 -24.862221 -9.451559 0.000000 72.000000 14.822716 27.000000
50.837264 -24.340176 -7.896296 0.000000 29.000000 14.141828 0.000000
53.759147 -25.792466 -7.217128 0.000000 66.000000 14.467121 19.000000
49.256662 -24.774994 -7.452763 0.000000 71.000000 14.631308 3.000000
52.293143 -24.415814 -9.506404 0.000000 48.000000 14.665042 27.000000
52.587509 -24.700694 -10.186559 0.000000 72.000000 15.169035 29.000000
48.327234 -25.575556 -5.231269 0.000000 46.000000 14.463804 1.000000
53.904698 -25.130522 -8.704574 0.000000 69.000000 14.569327 18.000000
50.287402 -24.839256 -6.872103 0.000000 31.000000 14.201099 0.000000
50.592298 -24.641723 -8.512478 0.000000 60.000000 14.740964 26.000000
48.353870 -24.302943 -8.062099 0.000000 76.000000 14.698811 8.000000
50.248903 -24.945423 -6.607030 0.000000 35.000000 14.175350 0.000000
52.664423 -24.604710 -9.523582 0.000000 39.000000 14.758817 27.000000
49.767671 -25.510896 -5.750469 0.000000 29.000000 14.356366 2.000000
50.272278 -23.382612 -9.728637 0.000000 53.000000 14.298898 30.000000
48.987177 -24.896775 -6.349936 0.000000 26.000000 14.272169 0.000000
49.008542 -24.960557 -6.152835 0.000000 35.000000 14.229730 0.000000
53.253420 -25.046998 -9.598202 0.000000 67.000000 15.052248 27.000000
52.308731 -24.809165 -9.537103 0.000000 72.000000 15.013776 27.000000
53.183811 -24.150184 -10.142530 0.000000 50.000000 14.553306 29.000000
51.331260 -26.260668 -5.885215 0.000000 63.000000 14.741419 13.000000
50.972338 -23.875241 -10.182300 0.000000 37.000000 14.791076 30.000000
50.330024 -26.285383 -5.678585 0.000000 62.000000 14.871348 13.000000
50.989073 -23.782559 -10.627198 0.000000 79.000000 14.917512 11.000000
49.366164 -25.483910 -5.267429 0.000000 24.000000 14.188460 0.000000
49.399899 -25.598032 -5.260294 0.000000 21.000000 14.276078 0.000000
54.390190 -25.149990 -8.016897 0.000000 38.000000 14.162487 0.000000
51.652203 -24.630997 -8.892974 0.000000 45.000000 14.692802 25.000000
50.082887 -25.218065 -6.545295 0.000000 81.000000 14.414371 13.000000
53.510630 -25.258744 -7.484856 0.000000 38.000000 14.186328 0.000000
51.934127 -24.297410 -9.907426 0.000000 42.000000 14.826058 29.000000
53.306830 -25.296741 -7.341711 0.000000 37.000000 14.193483 0.000000
52.867542 -24.816423 -10.110067 0.000000 67.000000 15.174718 29.000000
52.369671 -25.113114 -7.978374 0.000000 70.000000 14.528383 22.000000
53.228412 -25.132892 -9.662970 0.000000 58.000000 15.161573 27.000000
52.210080 -24.938135 -8.843850 0.000000 72.000000 14.818435 24.000000
54.059696 -25.486790 -8.772230 0.000000 62.000000 14.874959 18.000000
49.476258 -23.567250 -9.991283 0.000000 70.000000 14.744694 10.000000
50.603451 -26.370453 -5.602361 0.000000 71.000000 14.852211 13.000000
51.175756 -25.274501 -6.483036 0.000000 30.000000 14.208661 0.000000
51.294256 -24.651098 -8.383134 0.000000 51.000000 14.543721 25.000000
51.006281 -24.878547 -8.855568 0.000000 66.000000 15.020473 25.000000
50.549781 -23.607137 -10.557145 0.000000 44.000000 14.824402 11.000000
50.802815 -24.080869 -9.135217 0.000000 37.000000 14.509550 26.000000
52.056769 -25.677647 -6.113376 0.000000 30.000000 14.199326 0.000000
52.551689 -25.341857 -7.633943 0.000000 37.000000 14.525085 22.000000
51.926239 -25.746402 -5.933221 0.000000 31.000000 14.200377 0.000000
53.649000 -26.249116 -5.738508 0.000000 35.000000 14.185646 0.000000
51.873780 -23.814816 -10.126013 0.000000 44.000000 14.527292 29.000000
48.693223 -24.081758 -8.626142 0.000000 68.000000 14.704699 4.000000
53.435453 -26.284554 -5.374900 0.000000 33.000000 14.088845 0.000000
52.020997 -24.457962 -9.231187 0.000000 37.000000 14.627656 28.000000
53.960831 -25.229232 -8.808060 0.000000 64.000000 14.691179 18.000000
53.834297 -25.724598 -7.996168 0.000000 70.000000 14.760100 18.000000
48.589632 -23.761933 -8.372107 0.000000 65.000000 14.332037 4.000000
51.006206 -23.731847 -10.851901 0.000000 68.000000 14.976236 11.000000
50.196156 -25.608227 -5.725959 0.000000 26.000000 14.340190 13.000000
49.481730 -23.268961 -10.302813 0.000000 71.000000 14.634266 11.000000
49.333758 -23.850251 -9.324155 0.000000 79.000000 14.702827 9.000000
54.513991 -24.413220 -10.177306 0.000000 54.000000 14.521709 15.000000
51.875381 -26.679018 -5.460070 0.000000 63.000000 14.788321 6.000000
50.560936 -23.729828 -9.011427 0.000000 31.000000 14.199856 0.000000
50.910407 -24.284296 -8.695617 0.000000 33.000000 14.455049 25.000000
52.954501 -25.292275 -8.213999 0.000000 43.000000 14.672690 24.000000
51.061129 -25.222007 -7.612843 0.000000 74.000000 14.718966 21.000000
49.828405 -23.904623 -8.456157 0.000000 32.000000 14.239180 0.000000
50.636354 -26.040855 -6.158647 0.000000 62.000000 14.824475 13.000000
48.744766 -23.300324 -9.949198 0.000000 72.000000 14.646351 10.000000
49.867041 -25.081392 -7.027731 0.000000 43.000000 14.568577 3.000000
49.848709 -24.934246 -7.447917 0.000000 60.000000 14.643866 3.000000
54.355249 -24.525770 -10.743633 0.000000 73.000000 14.917483 12.000000
50.427357 -24.493048 -8.817889 0.000000 70.000000 14.791081 26.000000
49.766356 -24.468647 -8.161173 0.000000 36.000000 14.597033 23.000000
48.999306 -24.248309 -7.912968 0.000000 36.000000 14.448963 8.000000
53.318242 -25.265506 -7.390457 0.000000 38.000000 14.187278 0.000000
53.434824 -25.310041 -7.368255 0.000000 35.000000 14.191055 0.000000
52.140902 -25.443115 -7.086496 0.000000 41.000000 14.438807 20.000000
50.724727 -25.189485 -7.287355 0.000000 79.000000 14.607071 21.000000
48.318970 -25.145807 -5.732747 0.000000 54.000000 14.332812 2.000000
52.111128 -24.457026 -10.203068 0.000000 69.000000 15.065742 29.000000
53.798897 -25.432107 -7.301573 0.000000 39.000000 14.189504 0.000000
48.465727 -24.946046 -7.198702 0.000000 77.000000 14.821204 3.000000
54.389422 -24.573145 -10.602512 0.000000 72.000000 14.884680 12.000000
52.837812 -24.750629 -10.203447 0.000000 82.000000 15.168335 29.000000
51.954720 -23.519388 -9.998277 0.000000 35.000000 14.197044 0.000000
49.561097 -23.779431 -8.760342 0.000000 44.000000 14.329928 9.000000
53.766616 -25.235338 -7.882450 0.000000 42.000000 14.300719 18.000000
50.004616 -23.297522 -9.427312 0.000000 24.000000 14.139132 0.000000
49.905619 -23.373095 -9.388110 0.000000 35.000000 14.205887 0.000000
50.721664 -26.295602 -5.905814 0.000000 61.000000 14.906495 13.000000
50.815760 -24.995056 -8.070926 0.000000 63.000000 14.790326 23.000000
49.004047 -23.782201 -7.974427 0.000000 23.000000 14.076997 0.000000
49.178754 -24.360122 -7.927631 0.000000 31.000000 14.514883 23.000000
48.920095 -22.977175 -10.062962 0.000000 68.000000 14.386567 10.000000
52.906591 -24.889333 -9.245516 0.000000 69.000000 14.822326 27.000000
50.304249 -24.860581 -7.925717 0.000000 59.000000 14.711832 23.000000
50.200804 -23.840433 -9.226117 0.000000 49.000000 14.469889 9.000000
50.533834 -24.261724 -8.791360 0.000000 45.000000 14.558216 26.000000
54.364604 -24.320498 -10.025139 0.000000 60.000000 14.401266 15.000000
48.983128 -23.207023 -10.050842 0.000000 55.000000 14.565103 10.000000
49.042139 -23.094180 -10.160903 0.000000 66.000000 14.507946 10.000000
52.356299 -24.584300 -9.373445 0.000000 60.000000 14.734029 27.000000
50.993557 -23.815967 -10.515509 0.000000 51.000000 14.892684 11.000000
49.913735 -23.309404 -10.723951 0.000000 46.000000 14.778307 11.000000
51.158092 -26.198706 -6.000230 0.000000 44.000000 14.778014 13.000000
50.257321 -24.835921 -6.829319 0.000000 34.000000 14.184289 0.000000
52.378415 -24.591519 -9.412973 0.000000 61.000000 14.754278 27.000000
53.229041 -24.316933 -10.503779 0.000000 79.000000 14.857099 11.000000
49.402298 -23.568457 -10.003353 0.000000 59.000000 14.766626 10.000000
49.160252 -24.630145 -6.523825 0.000000 20.000000 14.089641 0.000000
48.712479 -23.545510 -9.097518 0.000000 68.000000 14.462502 9.000000
49.196329 -24.713458 -6.478924 0.000000 20.000000 14.132568 0.000000
54.283107 -24.934657 -9.362897 0.000000 71.000000 14.633280 16.000000
53.376193 -24.150746 -10.580597 0.000000 78.000000 14.720394 11.000000
50.658596 -25.099323 -7.131274 0.000000 67.000000 14.469856 21.000000
48.909201 -23.461976 -9.816114 0.000000 37.000000 14.688580 10.000000
51.847695 -24.081746 -10.738236 0.000000 70.000000 15.049835 11.000000
49.457597 -25.023638 -6.187143 0.000000 24.000000 14.207620 0.000000
53.624567 -24.939765 -9.291770 0.000000 80.000000 14.739662 27.000000
49.593163 -25.126329 -6.060109 0.000000 23.000000 14.208048 0.000000
49.664399 -25.181505 -6.003426 0.000000 23.000000 14.214055 0.000000
49.741340 -25.228581 -5.940442 0.000000 24.000000 14.208973 0.000000
49.491429 -24.060729 -9.211587 0.000000 63.000000 14.797997 9.000000
49.898729 -25.330353 -5.831981 0.000000 24.000000 14.212865 0.000000
49.323571 -23.474122 -9.779487 0.000000 48.000000 14.596517 10.000000
54.114191 -25.447533 -8.486461 0.000000 52.000000 14.695564 18.000000
50.136972 -25.542050 -5.739260 0.000000 34.000000 14.301847 0.000000
53.991470 -24.838060 -9.248688 0.000000 62.000000 14.556643 16.000000
52.634027 -25.697773 -7.045839 0.000000 50.000000 14.536718 20.000000
52.100262 -26.071262 -5.372573 0.000000 31.000000 14.179426 0.000000
49.942978 -23.359525 -10.492339 0.000000 68.000000 14.706284 11.000000
52.302635 -26.178530 -5.330457 0.000000 31.000000 14.210005 0.000000
51.318233 -25.955263 -5.234365 0.000000 23.000000 14.175730 0.000000
53.959662 -25.738313 -8.280447 0.000000 67.000000 14.879877 18.000000
53.314220 -25.043368 -9.026909 0.000000 42.000000 14.767737 24.000000
49.104089 -23.840186 -9.287853 0.000000 55.000000 14.724354 9.000000
52.602313 -25.385471 -7.972688 0.000000 70.000000 14.711528 22.000000
54.101647 -25.775193 -7.874097 0.000000 68.000000 14.691055 18.000000
52.861839 -26.391144 -5.219036 0.000000 33.000000 14.224943 0.000000
54.180633 -25.042305 -9.279558 0.000000 70.000000 14.707497 16.000000
51.907251 -24.309145 -9.528000 0.000000 56.000000 14.663072 28.000000
49.783209 -24.745906 -7.570664 0.000000 48.000000 14.553520 3.000000
50.329800 -26.468003 -5.291079 0.000000 55.000000 14.845694 13.000000
53.059687 -26.483579 -5.093667 0.000000 26.000000 14.204543 0.000000
49.489313 -24.713784 -7.508843 0.000000 52.000000 14.557323 3.000000
52.886365 -24.119666 -10.548253 0.000000 51.000000 14.779274 11.000000
53.040089 -24.233991 -10.425832 0.000000 72.000000 14.788120 11.000000
50.563672 -24.328619 -9.064213 0.000000 66.000000 14.737896 26.000000
50.899650 -24.263669 -9.162414 0.000000 70.000000 14.659271 26.000000
51.838446 -26.829607 -5.447838 0.000000 64.000000 14.919366 6.000000
51.630521 -24.402168 -7.977424 0.000000 28.000000 14.070009 0.000000
51.517028 -24.448542 -7.928560 0.000000 30.000000 14.110148 0.000000
51.765775 -25.026294 -7.196452 0.000000 32.000000 14.210103 0.000000
49.075025 -23.136225 -10.002793 0.000000 36.000000 14.462838 10.000000
50.508306 -24.794338 -7.141464 0.000000 29.000000 14.243895 0.000000
50.883083 -25.479723 -7.351856 0.000000 73.000000 14.853874 21.000000
53.832381 -25.610133 -8.469687 0.000000 42.000000 14.885153 18.000000
48.196083 -25.260659 -5.785863 0.000000 67.000000 14.481635 2.000000
52.141746 -24.062306 -10.472601 0.000000 61.000000 14.847638 11.000000
53.728494 -26.789546 -6.195327 0.000000 46.000000 14.847986 17.000000
49.593055 -25.421285 -6.083186 0.000000 65.000000 14.472002 2.000000
49.008646 -25.945835 -5.494893 0.000000 37.000000 14.765398 1.000000
54.136404 -26.251413 -8.254262 0.000000 42.000000 15.271429 18.000000
49.296338 -25.297150 -6.022479 0.000000 65.000000 14.397964 2.000000
50.636227 -25.983126 -5.762280 0.000000 47.000000 14.588413 13.000000
50.341041 -23.985535 -9.367688 0.000000 62.000000 14.632168 30.000000
49.182251 -23.809186 -9.367413 0.000000 69.000000 14.719122 9.000000
48.493358 -24.943231 -7.164097 0.000000 81.000000 14.796817 3.000000
49.889904 -25.117499 -6.244201 0.000000 24.000000 14.226072 0.000000
50.343572 -26.602724 -5.388389 0.000000 43.000000 15.004251 13.000000
49.835580 -25.177725 -6.173795 0.000000 23.000000 14.255783 0.000000
52.221132 -24.882893 -8.242850 0.000000 43.000000 14.485893 24.000000
50.726044 -24.891545 -7.766371 0.000000 38.000000 14.576627 23.000000
48.946615 -25.040666 -6.923100 0.000000 64.000000 14.673741 3.000000
52.538480 -25.431399 -7.940772 0.000000 66.000000 14.749043 22.000000
48.801613 -23.785982 -8.675786 0.000000 46.000000 14.451993 4.000000
49.550930 -25.640804 -5.272875 0.000000 21.000000 14.287627 0.000000
53.984618 -26.491656 -6.205026 0.000000 40.000000 14.544273 17.000000
52.397128 -24.704208 -10.113799 0.000000 73.000000 15.176970 29.000000
53.345781 -25.585629 -6.555556 0.000000 30.000000 14.063315 0.000000
50.876235 -23.972139 -9.711795 0.000000 63.000000 14.672533 30.000000
52.670221 -25.457950 -8.785141 0.000000 76.000000 15.142138 24.000000
50.177765 -24.253376 -8.656698 0.000000 50.000000 14.560924 26.000000
50.544411 -23.785200 -9.660738 0.000000 66.000000 14.556374 30.000000
52.809509 -25.804137 -6.208602 0.000000 28.000000 14.197817 0.000000
49.366211 -24.248786 -8.629601 0.000000 55.000000 14.711187 4.000000
50.115722 -23.412965 -10.184139 0.000000 51.000000 14.571537 11.000000
52.377533 -25.208461 -8.533071 0.000000 55.000000 14.869650 24.000000
50.772587 -24.429838 -8.392565 0.000000 47.000000 14.465640 26.000000
50.396825 -23.913100 -9.189016 0.000000 56.000000 14.474448 30.000000
52.361221 -25.987066 -5.779524 0.000000 32.000000 14.245039 0.000000
53.510722 -26.196119 -5.549487 0.000000 27.000000 14.079656 0.000000
50.000347 -23.372815 -10.685709 0.000000 68.000000 14.796897 11.000000
50.592695 -23.965769 -9.866532 0.000000 73.000000 14.798228 30.000000
53.315780 -24.417448 -10.180334 0.000000 66.000000 14.773260 29.000000
53.216234 -26.415209 -5.387396 0.000000 39.000000 14.251926 0.000000
51.482788 -26.228843 -6.062749 0.000000 47.000000 14.766501 13.000000
53.126731 -26.487064 -5.327818 0.000000 45.000000 14.303948 0.000000
51.226442 -24.211189 -10.140878 0.000000 42.000000 15.007546 30.000000
48.751665 -23.494533 -8.939887 0.000000 64.000000 14.336511 9.000000
51.056992 -24.447013 -8.240678 0.000000 53.000000 14.350379 25.000000
49.150743 -23.847273 -9.201394 0.000000 78.000000 14.680143 9.000000
52.652866 -24.644695 -9.464653 0.000000 65.000000 14.767766 27.000000
54.173835 -24.504073 -10.739953 0.000000 64.000000 14.934456 12.000000
50.920703 -25.244079 -8.060131 0.000000 50.000000 14.977316 23.000000
52.459993 -25.799053 -7.319979 0.000000 64.000000 14.788447 20.000000
52.552699 -24.330531 -8.777803 0.000000 35.000000 14.195544 0.000000
53.431189 -24.832957 -8.049954 0.000000 35.000000 14.103323 0.000000
53.580608 -24.839113 -8.001399 0.000000 31.000000 14.055012 0.000000
51.895569 -24.064621 -9.550450 0.000000 48.000000 14.466242 29.000000
49.602104 -25.490579 -6.026236 0.000000 50.000000 14.502790 2.000000
52.608151 -25.443814 -8.885322 0.000000 61.000000 15.189931 24.000000
49.429690 -23.555898 -10.051132 0.000000 69.000000 14.772703 10.000000
48.971653 -22.942016 -10.034155 0.000000 67.000000 14.332235 10.000000
50.781301 -25.258347 -7.417184 0.000000 42.000000 14.715622 21.000000
51.861994 -25.016233 -8.020811 0.000000 53.000000 14.569674 22.000000
50.126477 -25.981620 -5.054381 0.000000 36.000000 14.358803 13.000000
52.845140 -26.466104 -6.058652 0.000000 75.000000 14.687873 14.000000
51.459651 -23.827203 -10.342069 0.000000 72.000000 14.724806 11.000000
50.417092 -24.188833 -7.905249 0.000000 28.000000 14.102629 0.000000
49.396101 -25.499971 -6.070549 0.000000 67.000000 14.574083 2.000000
50.086002 -24.702739 -6.909337 0.000000 25.000000 14.142926 0.000000
53.123736 -24.357118 -10.382961 0.000000 69.000000 14.856376 11.000000
51.178990 -24.835567 -8.845027 0.000000 70.000000 14.943105 25.000000
54.378944 -25.159883 -8.291743 0.000000 62.000000 14.302650 18.000000
49.990231 -23.574311 -10.449247 0.000000 68.000000 14.860565 11.000000
53.178501 -25.126141 -8.092413 0.000000 21.000000 14.426839 24.000000
48.432666 -25.690952 -6.074836 0.000000 70.000000 14.938162 2.000000
51.322062 -25.423134 -7.157712 0.000000 47.000000 14.623636 21.000000
49.076053 -23.825055 -9.004438 0.000000 66.000000 14.583745 9.000000
48.787679 -22.798589 -10.496004 0.000000 66.000000 14.464401 10.000000
51.964220 -25.334703 -6.571499 0.000000 29.000000 14.139745 0.000000
48.684765 -23.144529 -9.936839 0.000000 23.000000 14.519206 10.000000
50.883114 -23.723529 -10.653117 0.000000 74.000000 14.900861 11.000000
51.427259 -24.284928 -8.822758 0.000000 51.000000 14.409105 25.000000
52.743732 -25.595325 -8.011268 0.000000 73.000000 14.880646 22.000000
51.130505 -25.284336 -6.441242 0.000000 34.000000 14.206737 0.000000
50.648895 -24.371454 -9.076855 0.000000 78.000000 14.763065 26.000000
53.463148 -24.247954 -10.067471 0.000000 64.000000 14.544398 29.000000
49.641376 -24.059318 -9.360061 0.000000 67.000000 14.835821 9.000000
53.373897 -24.578369 -10.202328 0.000000 77.000000 14.909725 29.000000
51.587228 -25.448548 -6.298572 0.000000 32.000000 14.186522 0.000000
53.941672 -24.306053 -10.792866 0.000000 72.000000 14.837222 12.000000
52.033747 -24.571007 -8.756722 0.000000 51.000000 14.498709 24.000000
53.010542 -25.365018 -9.020353 0.000000 76.000000 15.103098 24.000000
49.039106 -23.104803 -10.660327 0.000000 79.000000 14.752747 10.000000
51.940912 -25.576143 -6.223315 0.000000 27.000000 14.187815 0.000000
50.817880 -24.972174 -7.858934 0.000000 54.000000 14.670480 23.000000
49.443484 -23.996019 -9.279772 0.000000 45.000000 14.784432 9.000000
54.113204 -26.058119 -7.056014 0.000000 45.000000 14.546381 19.000000
51.574975 -25.272218 -7.344236 0.000000 65.000000 14.529912 21.000000
50.796696 -24.710308 -7.995807 0.000000 65.000000 14.514581 23.000000
53.212295 -25.015841 -9.460315 0.000000 56.000000 14.969077 27.000000
53.626661 -26.005433 -6.174799 0.000000 35.000000 14.186511 0.000000
50.354889 -23.405252 -10.636827 0.000000 75.000000 14.728783 11.000000
53.926509 -25.024680 -9.222746 0.000000 56.000000 14.717915 16.000000
52.814045 -25.853298 -6.113458 0.000000 37.000000 14.194283 0.000000
52.945734 -25.884300 -6.100209 0.000000 34.000000 14.187555 0.000000
53.078499 -25.913337 -6.089188 0.000000 31.000000 14.179968 0.000000
53.127983 -25.149141 -9.552484 0.000000 67.000000 15.144173 27.000000
49.676256 -23.377626 -10.237340 0.000000 65.000000 14.656665 11.000000
49.025654 -23.291987 -10.500097 0.000000 67.000000 14.840702 10.000000
52.921142 -24.871200 -9.501786 0.000000 44.000000 14.924392 27.000000
49.489184 -24.379338 -8.088407 0.000000 64.000000 14.543179 23.000000
54.157258 -24.000638 -10.069072 0.000000 43.000000 14.190163 0.000000
50.655113 -25.004231 -7.135415 0.000000 42.000000 14.390933 21.000000
52.475705 -24.615029 -8.963291 0.000000 56.000000 14.542784 24.000000
53.287133 -24.336458 -10.850390 0.000000 42.000000 15.025038 11.000000
49.375811 -24.200841 -8.812805 0.000000 72.000000 14.754303 4.000000
53.848869 -24.165045 -9.583778 0.000000 33.000000 14.166253 0.000000
53.765362 -24.102344 -9.501187 0.000000 32.000000 14.090762 0.000000
53.658760 -24.085425 -9.443203 0.000000 32.000000 14.070885 0.000000
52.212818 -23.805062 -9.339855 0.000000 33.000000 14.079156 0.000000
50.092270 -23.477853 -10.319290 0.000000 58.000000 14.695647 11.000000
53.949329 -25.381751 -8.513574 0.000000 69.000000 14.685801 18.000000
53.388220 -27.318473 -5.521171 0.000000 50.000000 15.054501 7.000000
50.758652 -23.956434 -10.185154 0.000000 76.000000 14.906042 30.000000
51.110363 -26.273884 -6.040456 0.000000 67.000000 14.871269 13.000000
50.186223 -24.106308 -7.913607 0.000000 22.000000 14.083253 0.000000
51.048697 -23.571567 -10.741417 0.000000 61.000000 14.777975 11.000000
51.118551 -24.279915 -10.211607 0.000000 71.000000 15.121998 30.000000
52.251103 -25.773674 -6.360680 0.000000 66.000000 14.358135 5.000000
49.356952 -24.762345 -6.501963 0.000000 21.000000 14.152312 0.000000
49.329064 -24.846918 -6.450913 0.000000 22.000000 14.206586 0.000000
51.917088 -24.127272 -10.576215 0.000000 65.000000 14.998362 11.000000
49.306568 -24.936386 -6.273307 0.000000 24.000000 14.204383 0.000000
50.414774 -24.338928 -8.916668 0.000000 52.000000 14.707928 26.000000
52.599216 -26.201122 -6.002132 0.000000 30.000000 14.484511 14.000000
49.301748 -25.077201 -6.016104 0.000000 20.000000 14.205136 0.000000
51.828828 -24.395109 -9.983136 0.000000 72.000000 14.967179 29.000000
54.272397 -24.622188 -10.051953 0.000000 79.000000 14.691703 15.000000
54.041384 -24.658978 -10.087671 0.000000 76.000000 14.787605 15.000000
52.171391 -26.277390 -5.853756 0.000000 50.000000 14.568126 14.000000
51.590925 -24.352013 -10.085880 0.000000 67.000000 15.027503 29.000000
49.436170 -24.556774 -8.031722 0.000000 78.000000 14.679645 23.000000
48.841427 -25.058245 -6.950386 0.000000 69.000000 14.723306 3.000000
52.732362 -25.296210 -8.297829 0.000000 56.000000 14.761221 24.000000
48.627377 -23.483721 -10.057883 0.000000 43.000000 14.879008 10.000000
52.051565 -25.328784 -7.408631 0.000000 37.000000 14.510708 22.000000
49.359739 -25.094183 -7.084521 0.000000 75.000000 14.710644 3.000000
54.303349 -25.472138 -8.057193 0.000000 44.000000 14.475718 18.000000
54.104369 -25.410978 -8.170429 0.000000 33.000000 14.517475 18.000000
52.600183 -25.194775 -7.290800 0.000000 32.000000 14.227407 0.000000
53.806897 -25.763830 -8.311757 0.000000 66.000000 14.947935 18.000000
53.376869 -25.507836 -6.896537 0.000000 33.000000 14.150663 0.000000
52.305792 -24.277234 -10.826391 0.000000 73.000000 15.164813 11.000000
50.711402 -23.798973 -10.334363 0.000000 75.000000 14.850890 30.000000
51.225331 -23.930038 -10.621260 0.000000 71.000000 14.992649 11.000000
48.765075 -24.175370 -8.052850 0.000000 41.000000 14.500407 8.000000
53.010388 -26.089243 -6.142506 0.000000 54.000000 14.370002 14.000000
51.990179 -25.226634 -6.624542 0.000000 22.000000 14.066648 0.000000
51.729016 -23.795951 -10.681912 0.000000 50.000000 14.802531 11.000000
49.190102 -25.298030 -5.899271 0.000000 51.000000 14.362584 2.000000
51.927948 -24.910919 -8.532914 0.000000 71.000000 14.706777 24.000000
51.795323 -25.317523 -6.484165 0.000000 29.000000 14.118646 0.000000
51.216303 -25.276687 -7.485776 0.000000 67.000000 14.674152 21.000000
50.261437 -23.338678 -9.864033 0.000000 46.000000 14.327160 30.000000
50.389555 -25.541723 -6.003747 0.000000 44.000000 14.374089 13.000000
50.675642 -23.588232 -10.541651 0.000000 70.000000 14.774996 11.000000
51.448131 -25.493494 -6.183435 0.000000 36.000000 14.199509 0.000000
50.717563 -23.586527 -10.591978 0.000000 42.000000 14.788596 11.000000
49.497778 -24.564136 -8.107317 0.000000 71.000000 14.708867 23.000000
51.299977 -25.557911 -5.999721 0.000000 24.000000 14.198789 0.000000
51.209480 -23.950388 -9.524242 0.000000 48.000000 14.497040 30.000000
54.268495 -25.198322 -8.912820 0.000000 79.000000 14.650672 18.000000
51.011922 -24.759587 -8.861374 0.000000 77.000000 14.919979 25.000000
50.972608 -24.745911 -8.506279 0.000000 55.000000 14.749200 25.000000
48.932868 -24.182002 -8.594328 0.000000 48.000000 14.726434 4.000000
53.697924 -24.095031 -9.416225 0.000000 34.000000 14.058373 0.000000
53.766451 -25.770541 -8.189840 0.000000 46.000000 14.904630 18.000000
51.842241 -24.215615 -9.554365 0.000000 63.000000 14.608607 28.000000
52.230132 -24.473468 -9.635195 0.000000 54.000000 14.788089 27.000000
54.113072 -24.324048 -9.249110 0.000000 37.000000 14.090807 0.000000
50.196924 -23.859040 -9.408344 0.000000 64.000000 14.572420 30.000000
48.594294 -23.169149 -9.656331 0.000000 49.000000 14.426916 10.000000
49.782129 -25.606052 -5.907195 0.000000 50.000000 14.508801 2.000000
50.710516 -23.828356 -8.996029 0.000000 32.000000 14.246373 0.000000
49.643019 -23.686179 -8.750198 0.000000 26.000000 14.228290 0.000000
49.701080 -23.721935 -8.667355 0.000000 26.000000 14.208032 0.000000
49.744777 -23.822596 -8.628792 0.000000 30.000000 14.267259 0.000000
48.202511 -24.418341 -7.922909 0.000000 56.000000 14.763447 8.000000
53.277700 -25.117192 -8.363559 0.000000 63.000000 14.526373 24.000000
54.396870 -25.073915 -8.910459 0.000000 70.000000 14.516412 18.000000
51.611637 -24.373694 -7.986335 0.000000 34.000000 14.053658 0.000000
54.453367 -24.740143 -10.139480 0.000000 64.000000 14.796874 15.000000
53.184158 -24.623442 -9.736538 0.000000 53.000000 14.768199 29.000000
48.825808 -23.627210 -9.216121 0.000000 77.000000 14.565109 9.000000
50.127396 -24.361604 -8.478123 0.000000 73.000000 14.580095 26.000000
48.550622 -24.713815 -6.924973 0.000000 73.000000 14.475652 3.000000
52.883840 -25.169965 -7.438709 0.000000 35.000000 14.217382 0.000000
53.000354 -25.569167 -8.050349 0.000000 62.000000 14.823803 22.000000
52.631881 -26.592666 -5.332791 0.000000 52.000000 14.498696 6.000000
53.767077 -25.980165 -6.979122 0.000000 48.000000 14.514513 19.000000
52.162237 -24.575845 -9.396269 0.000000 76.000000 14.777441 27.000000
54.380824 -24.826730 -9.944619 0.000000 53.000000 14.794374 15.000000
49.241424 -23.120548 -10.605183 0.000000 61.000000 14.698680 10.000000
48.776539 -23.774939 -9.176197 0.000000 71.000000 14.683204 9.000000
49.048224 -23.776528 -9.001672 0.000000 56.000000 14.546532 9.000000
49.652611 -23.763335 -8.598029 0.000000 26.000000 14.220895 0.000000
51.785816 -24.730286 -8.258988 0.000000 46.000000 14.452108 25.000000
51.221566 -24.793727 -8.482149 0.000000 62.000000 14.727653 25.000000
50.619975 -24.257096 -8.252768 0.000000 34.000000 14.283026 0.000000
52.603424 -24.576844 -8.904627 0.000000 45.000000 14.456135 24.000000
51.936676 -26.594328 -5.465853 0.000000 50.000000 14.705770 6.000000
48.219289 -24.372417 -7.984557 0.000000 40.000000 14.749609 8.000000
54.240512 -24.486810 -9.471209 0.000000 40.000000 14.308773 16.000000
50.934716 -24.875244 -8.204551 0.000000 73.000000 14.725949 23.000000
50.428490 -24.672904 -7.260104 0.000000 41.000000 14.211965 0.000000
52.063261 -24.183269 -10.605178 0.000000 67.000000 15.029968 11.000000
51.657908 -26.440739 -5.561172 0.000000 61.000000 14.676204 6.000000
52.556435 -26.415670 -5.970274 0.000000 49.000000 14.662398 14.000000
52.810718 -25.755612 -7.425240 0.000000 67.000000 14.728566 20.000000
51.047464 -24.161618 -9.365462 0.000000 77.000000 14.636871 26.000000
52.434433 -24.723896 -10.031505 0.000000 71.000000 15.147455 29.000000
49.792494 -23.349056 -10.460464 0.000000 75.000000 14.713256 11.000000
52.391841 -24.757489 -9.309680 0.000000 62.000000 14.845300 27.000000
52.267427 -25.390423 -7.229300 0.000000 56.000000 14.434781 20.000000
51.682343 -24.191191 -10.847449 0.000000 44.000000 15.229158 11.000000
48.969861 -22.858853 -10.161948 0.000000 83.000000 14.321399 10.000000
51.350697 -26.170328 -6.061625 0.000000 51.000000 14.742940 13.000000
49.360978 -24.206867 -8.825288 0.000000 63.000000 14.768401 4.000000
52.752598 -25.511313 -8.758833 0.000000 61.000000 15.158594 24.000000
49.783721 -25.203781 -5.981486 0.000000 22.000000 14.198294 0.000000
53.632326 -24.206696 -10.695974 0.000000 73.000000 14.770011 11.000000
48.640142 -24.665758 -7.904395 0.000000 69.000000 14.876984 8.000000
53.967639 -24.972384 -9.152401 0.000000 71.000000 14.631475 16.000000
49.662437 -25.222410 -7.295352 0.000000 67.000000 14.857622 3.000000
49.942528 -24.938629 -7.412224 0.000000 56.000000 14.611526 3.000000
51.531719 -23.839221 -10.431416 0.000000 70.000000 14.762345 11.000000
52.006145 -26.121330 -5.380517 0.000000 38.000000 14.245484 0.000000
52.699975 -24.723837 -9.072569 0.000000 66.000000 14.641437 27.000000
51.176153 -24.909081 -8.244635 0.000000 58.000000 14.724178 23.000000
51.189628 -25.992286 -5.204793 0.000000 25.000000 14.220034 0.000000
49.058725 -25.389296 -5.869191 0.000000 58.000000 14.453759 2.000000
54.097305 -24.306173 -10.488318 0.000000 57.000000 14.661968 12.000000
49.079274 -23.404503 -9.265439 0.000000 58.000000 14.345096 9.000000
48.301697 -25.599244 -6.034582 0.000000 40.000000 14.867475 2.000000
52.856463 -26.446512 -5.102035 0.000000 33.000000 14.218486 0.000000
53.219407 -24.676080 -9.555980 0.000000 72.000000 14.721128 27.000000
52.111374 -25.235045 -7.190325 0.000000 79.000000 14.315228 22.000000
51.645372 -24.588501 -9.345838 0.000000 40.000000 14.870894 28.000000
53.920545 -26.089046 -6.546793 0.000000 62.000000 14.372877 17.000000
53.064253 -25.400917 -7.642456 0.000000 49.000000 14.474319 22.000000
50.879163 -23.966437 -9.570171 0.000000 61.000000 14.600380 30.000000
48.275833 -23.972090 -7.902258 0.000000 53.000000 14.355763 8.000000
51.421223 -23.765856 -10.236684 0.000000 63.000000 14.630475 11.000000
54.015105 -25.347990 -8.426204 0.000000 50.000000 14.602180 18.000000
52.127082 -25.161124 -7.009514 0.000000 28.000000 14.163471 0.000000
50.648096 -23.542752 -10.329436 0.000000 83.000000 14.641759 11.000000
51.444507 -24.775065 -8.056605 0.000000 42.000000 14.465487 23.000000
53.001175 -24.605162 -9.650774 0.000000 69.000000 14.749793 29.000000
51.889229 -25.200669 -6.612561 0.000000 31.000000 14.059499 0.000000
52.854696 -25.527774 -7.604129 0.000000 68.000000 14.608233 20.000000
48.698230 -23.399716 -9.938907 0.000000 75.000000 14.736358 10.000000
51.649824 -24.631762 -8.289266 0.000000 34.000000 14.409802 25.000000
49.371749 -24.789536 -7.523925 0.000000 70.000000 14.653602 3.000000
52.858988 -25.724412 -7.373026 0.000000 70.000000 14.667291 20.000000
49.165201 -23.261653 -10.081544 0.000000 64.000000 14.588968 10.000000
53.865410 -25.717590 -8.082349 0.000000 71.000000 14.788248 18.000000
51.466635 -25.534148 -6.083483 0.000000 34.000000 14.183539 0.000000
51.248519 -24.115582 -10.113404 0.000000 49.000000 14.908042 30.000000
50.165474 -25.357344 -5.890394 0.000000 30.000000 14.208641 0.000000
52.729775 -24.793506 -10.025753 0.000000 68.000000 15.143714 29.000000
53.450142 -25.125185 -8.586834 0.000000 44.000000 14.602844 24.000000
52.211295 -24.359149 -10.845589 0.000000 67.000000 15.263572 11.000000
51.495305 -24.077198 -9.300406 0.000000 51.000000 14.441689 28.000000
49.998676 -25.589385 -5.440881 0.000000 22.000000 14.230473 0.000000
49.974305 -25.641192 -5.353034 0.000000 22.000000 14.238590 0.000000
53.523545 -24.682144 -10.111343 0.000000 62.000000 14.925154 29.000000
49.944858 -25.723218 -5.153878 0.000000 22.000000 14.221290 0.000000
51.967986 -24.153663 -10.523243 0.000000 45.000000 14.985603 11.000000
49.961950 -24.226318 -8.297742 0.000000 68.000000 14.413158 26.000000
51.134973 -26.094905 -5.055943 0.000000 32.000000 14.249266 0.000000
51.684227 -25.254591 -7.317416 0.000000 56.000000 14.479689 21.000000
53.587817 -25.831243 -6.446726 0.000000 29.000000 14.173035 0.000000
53.482386 -25.870923 -6.373843 0.000000 36.000000 14.194466 0.000000
50.926660 -23.587348 -10.719685 0.000000 76.000000 14.806393 11.000000
54.045091 -25.382133 -8.472896 0.000000 65.000000 14.647282 18.000000
53.846704 -24.687405 -9.350635 0.000000 64.000000 14.505146 27.000000
48.247996 -25.460135 -5.912559 0.000000 65.000000 14.701736 2.000000
48.615018 -23.284132 -9.992591 0.000000 68.000000 14.679573 10.000000
51.073842 -25.125694 -8.194017 0.000000 71.000000 14.907254 23.000000
51.756925 -26.686274 -5.221966 0.000000 58.000000 14.706848 6.000000
50.440705 -25.924444 -5.664007 0.000000 49.000000 14.532033 13.000000
48.261236 -25.556677 -5.950651 0.000000 73.000000 14.799772 2.000000
51.858594 -24.135522 -10.787861 0.000000 76.000000 15.117089 11.000000
51.152620 -24.348960 -9.020883 0.000000 72.000000 14.613794 26.000000
50.624143 -26.277348 -5.631028 0.000000 67.000000 14.781563 13.000000
53.873942 -23.986034 -9.925251 0.000000 33.000000 14.168225 0.000000
51.339557 -25.399219 -7.162200 0.000000 56.000000 14.601630 21.000000
50.887233 -26.233815 -5.655284 0.000000 37.000000 14.701505 13.000000
50.401082 -24.083805 -9.359804 0.000000 35.000000 14.700421 30.000000
53.717095 -26.317147 -6.474524 0.000000 30.000000 14.576426 17.000000
52.661292 -25.513368 -7.808961 0.000000 55.000000 14.732068 22.000000
53.186006 -25.093938 -8.265883 0.000000 39.000000 14.479312 24.000000
54.376552 -25.023366 -8.034812 0.000000 38.000000 14.065082 0.000000
53.413266 -24.866021 -7.967000 0.000000 36.000000 14.096334 0.000000
52.298954 -24.666359 -9.898465 0.000000 67.000000 15.063342 29.000000
50.677920 -23.956647 -10.348647 0.000000 55.000000 14.999784 30.000000
48.915622 -24.169327 -8.595936 0.000000 59.000000 14.719863 4.000000
50.961162 -25.187168 -8.210286 0.000000 64.000000 14.990836 23.000000
50.576438 -23.713605 -9.051910 0.000000 34.000000 14.201801 0.000000
50.205737 -23.889473 -9.397028 0.000000 70.000000 14.591392 30.000000
51.615779 -24.618042 -9.528408 0.000000 62.000000 14.988258 28.000000
52.717504 -26.318004 -6.204919 0.000000 38.000000 14.655905 14.000000
53.045222 -25.617274 -7.525058 0.000000 55.000000 14.608611 20.000000
52.247445 -26.104874 -6.059286 0.000000 53.000000 14.501198 14.000000
50.246610 -23.659682 -10.169482 0.000000 65.000000 14.749394 30.000000
52.504053 -26.419699 -5.987330 0.000000 65.000000 14.684658 14.000000
50.955897 -24.051922 -9.663144 0.000000 77.000000 14.701700 30.000000
50.735320 -24.081111 -9.702839 0.000000 77.000000 14.790804 30.000000
53.279079 -25.234786 -8.827852 0.000000 76.000000 14.845512 24.000000
52.827638 -25.559313 -7.206193 0.000000 48.000000 14.453564 20.000000
52.782186 -24.572844 -9.459872 0.000000 67.000000 14.677264 27.000000
50.318997 -23.726978 -9.841803 0.000000 53.000000 14.638014 30.000000
51.823579 -25.236736 -6.564590 0.000000 32.000000 14.081372 0.000000
51.899798 -25.314162 -6.543611 0.000000 33.000000 14.122249 0.000000
48.896439 -25.086766 -7.264525 0.000000 46.000000 14.884314 3.000000
49.267759 -24.171990 -8.795579 0.000000 47.000000 14.743671 4.000000
52.150756 -25.514794 -6.463948 0.000000 47.000000 14.205267 0.000000
51.930571 -24.156830 -10.592611 0.000000 69.000000 15.028667 11.000000
48.896200 -24.193397 -8.624294 0.000000 62.000000 14.757858 4.000000
53.087131 -25.513377 -8.896402 0.000000 75.000000 15.156293 24.000000
51.413433 -24.659055 -8.320517 0.000000 42.000000 14.496559 25.000000
52.146839 -24.669595 -9.618264 0.000000 79.000000 14.965531 27.000000
49.331320 -23.877898 -9.102161 0.000000 64.000000 14.622564 9.000000
54.499870 -24.690921 -9.736827 0.000000 69.000000 14.555560 15.000000
52.779237 -25.763692 -6.224615 0.000000 31.000000 14.176881 0.000000
48.319865 -24.524868 -7.821386 0.000000 59.000000 14.782921 8.000000
50.330877 -23.932413 -10.003319 0.000000 70.000000 14.887852 30.000000
49.241930 -23.216618 -10.583155 0.000000 70.000000 14.770635 10.000000
50.786663 -24.956923 -7.688236 0.000000 76.000000 14.583475 23.000000
50.739119 -25.039706 -8.103266 0.000000 58.000000 14.859624 23.000000
50.267657 -24.123748 -8.848040 0.000000 50.000000 14.521269 26.000000
52.148023 -25.698028 -6.061199 0.000000 26.000000 14.173482 0.000000
51.673125 -26.355286 -5.854120 0.000000 63.000000 14.737636 13.000000
52.187666 -24.973824 -8.832585 0.000000 49.000000 14.848365 24.000000
51.933550 -25.137250 -7.688858 0.000000 45.000000 14.502546 22.000000
49.673477 -24.066003 -9.360449 0.000000 61.000000 14.835135 9.000000
49.573846 -24.795914 -7.974564 0.000000 66.000000 14.829599 23.000000
49.066108 -23.265315 -10.455189 0.000000 48.000000 14.788358 10.000000
50.241262 -23.668426 -10.040755 0.000000 39.000000 14.697409 30.000000
53.702342 -26.306022 -7.351908 0.000000 48.000000 14.982871 19.000000
50.265507 -23.850677 -9.478386 0.000000 74.000000 14.584102 30.000000
50.323751 -24.269775 -8.691130 0.000000 84.000000 14.561167 26.000000
50.632580 -23.919066 -9.719340 0.000000 46.000000 14.680673 30.000000
52.597997 -25.453254 -8.042054 0.000000 64.000000 14.803221 22.000000
50.043308 -23.599749 -10.499064 0.000000 59.000000 14.894919 11.000000
50.432490 -24.475178 -8.752431 0.000000 72.000000 14.743884 26.000000
50.326370 -26.267985 -5.337116 0.000000 81.000000 14.696454 13.000000
54.444111 -24.307542 -9.557866 0.000000 36.000000 14.153864 0.000000
48.488503 -24.759417 -8.057873 0.000000 69.000000 15.060776 8.000000
54.236801 -24.240400 -9.428752 0.000000 37.000000 14.078134 0.000000
49.168581 -23.043460 -10.707641 0.000000 45.000000 14.695748 10.000000
51.971605 -24.239581 -9.755275 0.000000 65.000000 14.697118 29.000000
52.159494 -24.291013 -9.445487 0.000000 65.000000 14.556787 27.000000
54.323263 -25.070819 -8.875230 0.000000 58.000000 14.512316 18.000000
52.976102 -24.666053 -9.521277 0.000000 53.000000 14.746245 27.000000
49.587700 -23.513395 -9.521234 0.000000 51.000000 14.454324 10.000000
51.864400 -24.493994 -7.932506 0.000000 30.000000 14.079540 0.000000
51.779942 -24.544843 -7.875752 0.000000 32.000000 14.113830 0.000000
50.394512 -23.958316 -10.151031 0.000000 68.000000 14.966508 30.000000
51.367681 -24.828226 -8.561377 0.000000 51.000000 14.764484 25.000000
50.106981 -24.531233 -7.362893 0.000000 22.000000 14.204934 0.000000
50.546133 -23.602584 -10.572823 0.000000 76.000000 14.828625 11.000000
49.491055 -23.077021 -10.528115 0.000000 57.000000 14.573706 10.000000
50.952530 -25.154304 -6.761240 0.000000 23.000000 14.282397 0.000000
52.739523 -25.885872 -6.472433 0.000000 32.000000 14.406520 5.000000
52.749737 -24.319625 -10.221711 0.000000 72.000000 14.825252 29.000000
51.918278 -24.087817 -9.568328 0.000000 54.000000 14.489886 29.000000
48.580087 -25.545943 -6.053227 0.000000 38.000000 14.773247 2.000000
49.697265 -24.905584 -6.481254 0.000000 22.000000 14.195454 0.000000
52.408302 -24.724586 -9.549295 0.000000 39.000000 14.926462 27.000000
52.615167 -25.902553 -6.457205 0.000000 58.000000 14.439248 5.000000
53.213405 -24.016599 -10.551557 0.000000 57.000000 14.625119 11.000000
52.320270 -25.429369 -7.923491 0.000000 75.000000 14.784059 22.000000
54.201793 -25.026758 -8.737852 0.000000 53.000000 14.434842 18.000000
52.872663 -25.761518 -7.397314 0.000000 71.000000 14.707746 20.000000
53.194699 -24.806813 -9.062550 0.000000 54.000000 14.606138 27.000000
49.591598 -25.696972 -5.299635 0.000000 45.000000 14.340047 1.000000
53.994902 -25.867374 -7.841313 0.000000 42.000000 14.776675 18.000000
52.598418 -24.121992 -10.198971 0.000000 47.000000 14.676111 29.000000
53.513932 -24.171682 -10.736191 0.000000 61.000000 14.783254 11.000000
48.939714 -23.797541 -9.069141 0.000000 51.000000 14.618639 9.000000
49.885673 -25.785428 -4.994245 0.000000 23.000000 14.211707 0.000000
49.328103 -23.114002 -10.679546 0.000000 72.000000 14.710232 10.000000
49.197718 -23.977135 -8.716602 0.000000 39.000000 14.553724 4.000000
50.468550 -24.192852 -9.726393 0.000000 61.000000 14.952644 30.000000
49.350132 -23.274769 -10.393375 0.000000 41.000000 14.708946 10.000000
52.885201 -25.346901 -8.426727 0.000000 64.000000 14.833939 24.000000
51.744554 -24.599817 -9.577345 0.000000 69.000000 14.969161 28.000000
53.689395 -25.634063 -6.582858 0.000000 34.000000 14.047033 0.000000
52.053393 -24.247264 -9.710567 0.000000 60.000000 14.665842 29.000000
51.598837 -26.700500 -5.494131 0.000000 55.000000 14.879675 6.000000
54.176794 -25.676566 -7.684063 0.000000 73.000000 14.501532 18.000000
52.903668 -25.313744 -7.390512 0.000000 56.000000 14.313979 20.000000
51.052621 -24.224809 -9.143027 0.000000 79.000000 14.585335 26.000000
52.203998 -25.565698 -6.481943 0.000000 47.000000 14.246459 0.000000
48.699192 -24.239336 -8.575119 0.000000 54.000000 14.814657 4.000000
52.114775 -25.603535 -6.402662 0.000000 35.000000 14.259962 0.000000
52.868128 -25.583761 -8.170504 0.000000 53.000000 14.920080 22.000000
51.936614 -25.143974 -7.762308 0.000000 51.000000 14.542256 22.000000
50.967524 -24.043923 -9.451175 0.000000 64.000000 14.592678 30.000000
51.649397 -23.975613 -9.395396 0.000000 40.000000 14.367538 28.000000
53.914038 -26.832562 -5.869457 0.000000 67.000000 14.693347 17.000000
50.996691 -25.317968 -7.606418 0.000000 67.000000 14.811532 21.000000
52.961158 -26.005943 -6.033164 0.000000 38.000000 14.257194 0.000000
50.820482 -23.601087 -10.659352 0.000000 62.000000 14.811627 11.000000
52.823614 -24.955862 -9.143407 0.000000 70.000000 14.848418 27.000000
53.751342 -25.604884 -8.390795 0.000000 66.000000 14.860189 18.000000
49.442104 -23.816000 -8.826160 0.000000 42.000000 14.416760 9.000000
54.294833 -25.225417 -8.142775 0.000000 68.000000 14.306067 18.000000
51.236378 -26.042308 -5.164924 0.000000 26.000000 14.234571 0.000000
52.855481 -24.685169 -10.179270 0.000000 68.000000 15.097156 29.000000
51.514991 -23.446620 -9.973231 0.000000 26.000000 14.213284 0.000000
53.261836 -25.308860 -8.364996 0.000000 57.000000 14.694763 24.000000
49.286030 -23.664556 -9.877209 0.000000 66.000000 14.813626 10.000000
49.143210 -23.695422 -9.386455 0.000000 59.000000 14.638508 9.000000
52.916619 -25.052578 -8.851301 0.000000 67.000000 14.774781 24.000000
51.273225 -23.874869 -10.481714 0.000000 73.000000 14.869781 11.000000
51.797759 -24.038814 -10.493229 0.000000 71.000000 14.907956 11.000000
51.936493 -24.024481 -9.523222 0.000000 43.000000 14.410568 29.000000
49.456883 -24.074163 -9.297951 0.000000 53.000000 14.857279 9.000000
49.569952 -23.327873 -9.246126 0.000000 22.000000 14.169315 0.000000
49.207598 -24.570962 -7.868432 0.000000 68.000000 14.661985 23.000000
52.569773 -24.490446 -10.159611 0.000000 68.000000 14.979609 29.000000
49.859637 -23.816281 -8.579946 0.000000 28.000000 14.215221 0.000000
53.104008 -24.936546 -9.047244 0.000000 49.000000 14.728901 24.000000
53.089335 -24.820231 -10.070239 0.000000 75.000000 15.113612 29.000000
52.902014 -24.321503 -9.570478 0.000000 52.000000 14.489023 29.000000
50.120316 -24.182729 -8.460527 0.000000 76.000000 14.419796 26.000000
49.588965 -23.285451 -10.620310 0.000000 73.000000 14.775788 10.000000
50.088788 -24.639257 -8.461874 0.000000 68.000000 14.818614 26.000000
52.546311 -25.070417 -7.441955 0.000000 32.000000 14.202936 0.000000
49.619039 -23.877024 -8.867197 0.000000 58.000000 14.452034 9.000000
50.890293 -24.976648 -7.753518 0.000000 54.000000 14.609805 23.000000
51.002198 -24.422359 -8.767467 0.000000 70.000000 14.588441 25.000000
50.147373 -24.149984 -8.475976 0.000000 75.000000 14.393407 26.000000
52.279683 -25.259961 -7.137745 0.000000 28.000000 14.277232 0.000000
53.380946 -25.447643 -7.158838 0.000000 34.000000 14.221635 0.000000
53.182801 -25.452284 -6.886901 0.000000 26.000000 14.138388 0.000000
48.514918 -23.111531 -9.906251 0.000000 77.000000 14.511438 10.000000
51.979312 -24.370371 -10.057096 0.000000 51.000000 14.949806 29.000000
50.112409 -24.626862 -8.713195 0.000000 72.000000 14.921409 26.000000
53.135671 -24.254988 -10.198508 0.000000 60.000000 14.679478 29.000000
48.553612 -23.139446 -9.701478 0.000000 74.000000 14.431049 10.000000
50.205469 -25.320019 -6.715443 0.000000 58.000000 14.556711 13.000000
52.041680 -24.460425 -10.163465 0.000000 83.000000 15.064306 29.000000
48.415645 -24.490134 -7.629563 0.000000 59.000000 14.643131 8.000000
50.597663 -23.762608 -9.093092 0.000000 29.000000 14.258862 0.000000
50.274444 -23.613279 -10.594599 0.000000 71.000000 14.903943 11.000000
52.093796 -25.335317 -7.547924 0.000000 68.000000 14.573187 22.000000
52.285363 -24.213472 -10.652467 0.000000 65.000000 15.032448 11.000000
52.238293 -24.287556 -10.814573 0.000000 54.000000 15.181993 11.000000
52.760793 -25.869834 -6.613652 0.000000 70.000000 14.454850 5.000000
50.166463 -23.867611 -8.615435 0.000000 24.000000 14.212845 0.000000
53.416307 -24.283664 -10.180479 0.000000 53.000000 14.637862 29.000000
50.337685 -23.893092 -9.765263 0.000000 80.000000 14.740669 30.000000
53.262491 -24.868942 -9.095824 0.000000 67.000000 14.661159 27.000000
51.634798 -23.899414 -10.276304 0.000000 70.000000 14.719777 11.000000
48.731922 -25.235050 -6.126663 0.000000 54.000000 14.509832 2.000000
54.213859 -24.870535 -9.481467 0.000000 43.000000 14.648317 16.000000
50.770340 -25.118731 -6.771790 0.000000 31.000000 14.294322 0.000000
53.913577 -24.283508 -10.549893 0.000000 69.000000 14.709299 12.000000
50.595306 -26.357560 -5.549126 0.000000 44.000000 14.817768 13.000000
50.570088 -24.762134 -7.538644 0.000000 50.000000 14.390493 23.000000
50.849530 -25.221933 -6.513153 0.000000 35.000000 14.244845 0.000000
49.661629 -24.956570 -6.396311 0.000000 23.000000 14.206551 0.000000
50.349159 -23.285605 -9.982780 0.000000 51.000000 14.319467 30.000000
49.796547 -23.451718 -10.565759 0.000000 60.000000 14.850065 11.000000
52.555565 -25.348466 -8.511234 0.000000 54.000000 14.942870 24.000000
50.958891 -25.334281 -6.264892 0.000000 32.000000 14.201893 0.000000
49.776986 -25.103882 -6.166451 0.000000 25.000000 14.201024 0.000000
52.585343 -25.377486 -7.801031 0.000000 73.000000 14.627373 22.000000
48.420461 -24.202488 -8.010347 0.000000 77.000000 14.574564 8.000000
49.904951 -24.903371 -7.982990 0.000000 42.000000 14.857647 23.000000
49.611857 -24.802858 -8.082052 0.000000 68.000000 14.878328 23.000000
52.374914 -23.977780 -10.411503 0.000000 69.000000 14.698390 11.000000
53.450525 -25.293902 -8.853963 0.000000 72.000000 14.873252 24.000000
52.774689 -24.959807 -9.507468 0.000000 76.000000 15.033219 27.000000
48.974628 -23.762055 -9.316649 0.000000 70.000000 14.697504 9.000000
50.249250 -24.504382 -8.617392 0.000000 26.000000 14.743079 26.000000
48.275267 -24.517344 -7.775857 0.000000 51.000000 14.764211 8.000000
50.243701 -26.112901 -5.428004 0.000000 67.000000 14.623178 13.000000
51.189639 -26.091512 -5.123612 0.000000 28.000000 14.266958 0.000000
51.133738 -23.806791 -10.390843 0.000000 67.000000 14.797297 11.000000
54.189744 -24.761256 -8.831622 0.000000 36.000000 14.253657 0.000000
54.098132 -24.710791 -8.744304 0.000000 30.000000 14.188107 0.000000
