-33.803894 37.141177 -7.394692 0.000000 46.000000 14.158804 0.000000
-35.482315 31.508666 -8.838341 0.000000 74.000000 14.999951 13.000000
-35.949237 31.322018 -8.723254 0.000000 76.000000 14.883822 26.000000
-33.246970 32.738498 -7.958674 0.000000 50.000000 14.176133 0.000000
-32.606401 34.330184 -7.805212 0.000000 63.000000 14.183795 0.000000
-33.594061 37.667716 -7.905113 0.000000 72.000000 14.718192 17.000000
-36.539303 35.881543 -7.318950 0.000000 40.000000 14.052681 0.000000
-35.898931 31.191380 -8.759085 0.000000 71.000000 14.901834 26.000000
-32.384397 35.204285 -7.771775 0.000000 49.000000 14.244007 0.000000
-32.124449 35.757491 -8.064762 0.000000 59.000000 14.588665 21.000000
-35.556118 35.628944 -7.948930 0.000000 64.000000 14.605791 27.000000
-33.774805 36.701279 -7.287896 0.000000 32.000000 13.999813 0.000000
-33.409692 38.071413 -7.337297 0.000000 40.000000 14.194471 0.000000
-36.195477 31.712386 -8.335143 0.000000 58.000000 14.555288 26.000000
-35.154645 35.491640 -7.864966 0.000000 58.000000 14.489105 27.000000
-36.537481 35.356319 -7.385441 0.000000 41.000000 14.056736 0.000000
-34.396488 35.149533 -7.628065 0.000000 46.000000 14.181279 0.000000
-35.582026 31.741883 -8.153971 0.000000 40.000000 14.352707 13.000000
-35.215417 34.682053 -7.775637 0.000000 61.000000 14.307775 27.000000
-32.451226 35.089367 -7.791903 0.000000 54.000000 14.253313 0.000000
-34.765659 31.619350 -8.451205 0.000000 66.000000 14.598160 11.000000
-33.074721 34.861726 -7.604113 0.000000 33.000000 14.066944 0.000000
-32.714690 34.792052 -7.796373 0.000000 67.000000 14.234045 0.000000
-35.202650 33.146305 -7.825633 0.000000 49.000000 14.176027 0.000000
-35.714739 36.809471 -8.115748 0.000000 68.000000 14.917079 23.000000
-32.991768 34.625178 -7.622097 0.000000 38.000000 14.053380 0.000000
-35.518820 37.296882 -7.671688 0.000000 63.000000 14.525499 23.000000
-34.730529 33.284476 -8.273425 0.000000 77.000000 14.616308 4.000000
-34.711497 36.997477 -7.405394 0.000000 60.000000 14.191430 0.000000
-33.451578 33.846476 -7.836328 0.000000 50.000000 14.193967 0.000000
-33.565408 33.685123 -7.843757 0.000000 61.000000 14.187224 0.000000
-35.081972 33.274522 -7.803908 0.000000 47.000000 14.164392 0.000000
-35.965441 31.560133 -8.302601 0.000000 77.000000 14.495212 26.000000
-36.066071 32.904522 -8.224466 0.000000 70.000000 14.580283 14.000000
-31.172082 34.839091 -8.121798 0.000000 57.000000 14.496283 30.000000
-34.464484 32.436333 -7.939328 0.000000 27.000000 14.173583 0.000000
-35.382671 36.206011 -7.956721 0.000000 56.000000 14.674019 23.000000
-36.163886 35.019704 -7.766238 0.000000 44.000000 14.378879 27.000000
-37.434619 35.298777 -7.820593 0.000000 65.000000 14.520161 22.000000
-35.502265 30.959511 -8.068886 0.000000 42.000000 14.172764 0.000000
-35.664916 34.196674 -7.822388 0.000000 73.000000 14.316292 28.000000
-36.041909 33.601194 -7.962217 0.000000 71.000000 14.401083 24.000000
-34.803278 32.488681 -7.947172 0.000000 52.000000 14.202058 0.000000
-37.642645 35.950483 -7.365282 0.000000 44.000000 14.154084 0.000000
-30.632487 32.731224 -8.352092 0.000000 54.000000 14.453463 1.000000
-34.737426 33.173684 -7.835599 0.000000 48.000000 14.169185 0.000000
-32.948406 32.309476 -8.298185 0.000000 70.000000 14.449655 19.000000
-35.154889 35.255201 -8.234533 0.000000 66.000000 14.827934 27.000000
-37.302653 36.224089 -7.753135 0.000000 44.000000 14.556510 18.000000
-32.018628 34.680655 -7.926107 0.000000 58.000000 14.319789 7.000000
-32.757757 35.693954 -7.804280 0.000000 48.000000 14.349917 5.000000
-34.987460 31.762298 -7.887302 0.000000 41.000000 14.065043 0.000000
-30.953071 33.985864 -7.841896 0.000000 28.000000 14.108745 0.000000
-36.572749 34.228608 -8.348767 0.000000 72.000000 14.881218 24.000000
-34.540161 35.386210 -7.577914 0.000000 35.000000 14.165549 0.000000
-34.644564 35.438721 -7.482862 0.000000 38.000000 14.081906 0.000000
-34.188693 33.918046 -7.698757 0.000000 40.000000 14.097520 0.000000
-32.635893 35.097013 -7.965927 0.000000 64.000000 14.434786 5.000000
-34.182801 34.137081 -7.698872 0.000000 42.000000 14.123168 0.000000
-33.373286 35.839298 -7.505113 0.000000 42.000000 14.096618 0.000000
-32.636093 35.581415 -8.119130 0.000000 44.000000 14.643819 5.000000
-33.897919 36.659561 -7.317874 0.000000 32.000000 14.029924 0.000000
-30.603293 33.075923 -8.001048 0.000000 45.000000 14.144515 0.000000
-31.063597 33.069600 -8.221847 0.000000 71.000000 14.382571 6.000000
-36.837668 35.839022 -7.687379 0.000000 52.000000 14.425997 18.000000
-33.436595 37.476501 -7.924456 0.000000 55.000000 14.708118 17.000000
-35.335809 37.295001 -7.785934 0.000000 62.000000 14.630774 23.000000
-36.347630 36.201507 -7.408169 0.000000 48.000000 14.170645 0.000000
-32.139969 35.647920 -7.859169 0.000000 73.000000 14.372458 21.000000
-36.084107 32.858128 -8.189553 0.000000 52.000000 14.540956 14.000000
-31.935174 36.537316 -7.720688 0.000000 30.000000 14.330993 29.000000
-31.799063 35.189735 -7.775782 0.000000 45.000000 14.221166 0.000000
-35.219785 36.283216 -7.804462 0.000000 41.000000 14.525063 23.000000
-34.261741 36.180888 -7.462946 0.000000 41.000000 14.133103 0.000000
-34.283734 36.456254 -7.425488 0.000000 42.000000 14.129302 0.000000
-37.481991 36.601423 -7.506157 0.000000 65.000000 14.363594 16.000000
-34.332991 37.001112 -7.375395 0.000000 42.000000 14.145862 0.000000
-33.864034 33.844369 -7.781046 0.000000 48.000000 14.156563 0.000000
-30.869980 33.774839 -7.834012 0.000000 34.000000 14.072515 0.000000
-32.498802 38.215165 -7.793745 0.000000 58.000000 14.625179 20.000000
-37.558809 35.188556 -8.033173 0.000000 54.000000 14.723415 22.000000
-37.526099 35.402215 -7.910883 0.000000 76.000000 14.625840 22.000000
-35.249002 33.337363 -7.801888 0.000000 45.000000 14.176950 0.000000
-35.109135 31.368585 -8.565591 0.000000 71.000000 14.696854 13.000000
-31.794156 34.013417 -7.914705 0.000000 36.000000 14.220296 0.000000
-33.358520 32.521088 -8.200601 0.000000 72.000000 14.395342 19.000000
-34.501293 35.105186 -7.624972 0.000000 20.000000 14.177484 0.000000
-32.517710 32.731765 -7.928350 0.000000 39.000000 14.113978 0.000000
-36.712936 35.201711 -7.739254 0.000000 58.000000 14.397083 18.000000
-33.439421 34.483606 -7.790022 0.000000 49.000000 14.222514 0.000000
-30.303845 33.318554 -8.506236 0.000000 62.000000 14.661443 1.000000
-37.000300 34.570435 -7.611391 0.000000 50.000000 14.208233 0.000000
-33.886080 32.261847 -7.894187 0.000000 30.000000 14.083449 0.000000
-35.099119 34.624572 -7.969589 0.000000 73.000000 14.488443 27.000000
-33.989690 32.044650 -8.341904 0.000000 53.000000 14.506511 10.000000
-35.580961 36.774309 -8.015109 0.000000 56.000000 14.807356 23.000000
-37.106635 36.043306 -7.816111 0.000000 74.000000 14.589300 18.000000
-34.362244 35.085656 -7.612871 0.000000 44.000000 14.157216 0.000000
-31.389002 32.678404 -8.621152 0.000000 70.000000 14.746630 6.000000
-33.478505 32.123318 -9.179233 0.000000 3.000000 15.324578 19.000000
-33.949773 33.149197 -7.808080 0.000000 39.000000 14.105219 0.000000
-35.044568 36.936248 -8.149298 0.000000 73.000000 14.936548 23.000000
-30.491979 33.142139 -8.373865 0.000000 73.000000 14.517415 1.000000
-37.011958 34.263206 -8.030340 0.000000 65.000000 14.588211 25.000000
-34.059571 32.718287 -7.893093 0.000000 43.000000 14.143540 0.000000
-35.634960 32.922561 -8.048088 0.000000 67.000000 14.388929 14.000000
-35.319001 31.613620 -8.314381 0.000000 39.000000 14.485472 13.000000
-34.220617 34.131768 -7.628022 0.000000 40.000000 14.053873 0.000000
-35.026001 31.834053 -7.939754 0.000000 46.000000 14.127182 0.000000
-33.230879 32.428348 -8.851987 0.000000 37.000000 15.025202 19.000000
-37.944749 36.377874 -7.405863 0.000000 63.000000 14.257619 22.000000
-36.351733 36.810718 -7.328123 0.000000 51.000000 14.163128 0.000000
-37.230383 35.985736 -7.810146 0.000000 76.000000 14.581912 18.000000
-35.875328 36.720870 -8.262148 0.000000 64.000000 15.058782 23.000000
-30.525749 33.244160 -8.586159 0.000000 44.000000 14.741495 1.000000
-37.493789 35.411352 -7.888737 0.000000 46.000000 14.603559 22.000000
-37.547483 36.597882 -7.478839 0.000000 74.000000 14.338883 16.000000
-35.949095 34.258317 -7.515166 0.000000 39.000000 14.030937 0.000000
-35.349470 33.649048 -7.743212 0.000000 45.000000 14.159740 0.000000
-37.113688 34.612184 -7.804142 0.000000 44.000000 14.409243 25.000000
-30.784796 32.730918 -8.170833 0.000000 29.000000 14.280129 6.000000
-34.197875 35.076820 -7.644431 0.000000 38.000000 14.180437 0.000000
-35.863041 36.550279 -8.228036 0.000000 61.000000 15.004328 23.000000
-36.933175 34.403701 -7.747629 0.000000 56.000000 14.320889 25.000000
-37.024431 34.906476 -7.512895 0.000000 40.000000 14.151110 0.000000
-36.277529 36.863811 -7.280283 0.000000 45.000000 14.118733 0.000000
-36.565951 36.065531 -7.327525 0.000000 38.000000 14.083992 0.000000
-31.948417 36.976677 -8.104498 0.000000 77.000000 14.764071 20.000000
-34.960988 33.711620 -7.897619 0.000000 36.000000 14.303635 4.000000
-34.615785 36.688962 -7.427691 0.000000 51.000000 14.173125 0.000000
-36.218821 36.461175 -7.335027 0.000000 43.000000 14.123126 0.000000
-35.502492 32.846561 -8.664305 0.000000 1.000000 14.985661 12.000000
-36.422302 37.011977 -7.256685 0.000000 44.000000 14.118973 0.000000
-34.022159 36.789676 -7.310324 0.000000 26.000000 14.043080 0.000000
-36.544904 33.318108 -7.732508 0.000000 41.000000 14.161429 0.000000
-35.376249 32.784804 -8.162578 0.000000 71.000000 14.475203 12.000000
-37.466469 35.579745 -7.711500 0.000000 44.000000 14.446371 22.000000
-34.073418 37.006976 -7.287080 0.000000 33.000000 14.047800 0.000000
-35.317931 31.018886 -8.798233 0.000000 66.000000 14.895447 13.000000
-33.775367 33.170460 -7.813864 0.000000 31.000000 14.105981 0.000000
-34.958428 35.992999 -7.353373 0.000000 34.000000 14.032153 0.000000
-37.368202 34.498543 -7.988166 0.000000 79.000000 14.589354 25.000000
-35.006984 34.088669 -7.778294 0.000000 54.000000 14.231613 0.000000
-34.561074 31.639139 -8.279214 0.000000 62.000000 14.421080 11.000000
-30.351970 32.986540 -9.196837 0.000000 2.000000 15.309578 1.000000
-36.862345 35.926015 -7.321580 0.000000 48.000000 14.074380 0.000000
-32.395841 35.884412 -8.333002 0.000000 49.000000 14.881373 21.000000
-30.814352 33.244275 -7.921977 0.000000 40.000000 14.094939 0.000000
-34.911780 32.435693 -8.260888 0.000000 73.000000 14.511717 12.000000
-35.968973 32.856856 -8.199780 0.000000 56.000000 14.546015 14.000000
-33.127905 31.986995 -8.773390 0.000000 71.000000 14.890848 19.000000
-34.701847 34.132669 -7.979773 0.000000 40.000000 14.423597 4.000000
-32.251325 35.840265 -8.336953 0.000000 73.000000 14.873897 21.000000
-36.475553 33.417566 -7.728709 0.000000 45.000000 14.166395 0.000000
-32.501762 33.089493 -7.953448 0.000000 45.000000 14.180310 0.000000
-35.055726 37.570987 -7.717918 0.000000 31.000000 14.583773 23.000000
-36.453963 33.359942 -7.763925 0.000000 38.000000 14.193623 0.000000
-32.633068 33.565147 -7.739461 0.000000 25.000000 14.029639 0.000000
-36.599912 33.628067 -7.653137 0.000000 40.000000 14.121534 0.000000
-33.625713 36.593772 -7.317363 0.000000 41.000000 14.009997 0.000000
-31.866500 32.965105 -8.032576 0.000000 56.000000 14.216925 0.000000
-33.734511 34.543954 -7.784167 0.000000 38.000000 14.236466 0.000000
-32.037313 35.764933 -8.133376 0.000000 58.000000 14.653877 21.000000
-36.448457 33.046367 -7.780068 0.000000 42.000000 14.172486 0.000000
-36.839637 36.727600 -7.206813 0.000000 41.000000 14.053914 0.000000
-34.900705 33.620565 -8.035624 0.000000 37.000000 14.427247 4.000000
-36.914526 36.030538 -7.456740 0.000000 61.000000 14.223019 0.000000
-31.058346 33.485526 -7.909399 0.000000 39.000000 14.121326 0.000000
-36.606455 36.633153 -7.318961 0.000000 56.000000 14.144058 0.000000
-35.183681 32.590278 -8.188493 0.000000 69.000000 14.469753 12.000000
-34.812191 32.984868 -7.879354 0.000000 34.000000 14.193573 0.000000
-36.413686 32.930778 -7.786017 0.000000 41.000000 14.163289 0.000000
-30.998364 34.057572 -7.809533 0.000000 44.000000 14.087021 0.000000
-36.063391 35.599268 -7.454425 0.000000 41.000000 14.133445 0.000000
-30.464319 33.208390 -8.672390 0.000000 66.000000 14.820201 1.000000
-32.794818 36.017836 -7.828597 0.000000 56.000000 14.413762 21.000000
-36.295911 33.645252 -8.251452 0.000000 79.000000 14.704119 24.000000
-34.350242 35.113233 -7.640207 0.000000 54.000000 14.187068 0.000000
-30.940172 34.731226 -8.203521 0.000000 57.000000 14.554717 30.000000
-33.375190 31.940739 -8.658601 0.000000 53.000000 14.782124 19.000000
-37.210704 36.596944 -7.389515 0.000000 52.000000 14.235708 0.000000
-34.949599 31.013596 -8.013078 0.000000 43.000000 14.100060 0.000000
-35.888330 31.909095 -7.934953 0.000000 51.000000 14.168238 0.000000
-36.004546 32.039550 -7.977383 0.000000 62.000000 14.230676 0.000000
-33.020710 31.865456 -8.906679 0.000000 69.000000 15.004181 19.000000
-31.853679 36.861004 -7.986538 0.000000 65.000000 14.629360 29.000000
-33.758831 32.746964 -7.820844 0.000000 38.000000 14.062339 0.000000
-37.243710 36.295112 -7.434825 0.000000 56.000000 14.246543 18.000000
-33.237879 33.515792 -7.871205 0.000000 44.000000 14.180473 0.000000
-31.763870 36.010797 -7.697420 0.000000 23.000000 14.238575 0.000000
-32.773403 36.549414 -8.158328 0.000000 70.000000 14.802558 21.000000
-35.591480 36.177986 -8.034847 0.000000 68.000000 14.757185 23.000000
-34.594514 33.451443 -8.310810 0.000000 67.000000 14.667222 4.000000
-34.284797 35.684775 -7.531955 0.000000 34.000000 14.144150 0.000000
-35.128955 36.166076 -7.297298 0.000000 37.000000 14.004210 0.000000
-34.711329 37.390022 -7.304444 0.000000 41.000000 14.137482 0.000000
-37.014291 36.695974 -7.630533 0.000000 65.000000 14.478062 16.000000
-32.809600 37.012832 -8.033338 0.000000 72.000000 14.734663 21.000000
-32.176951 37.841692 -7.862717 0.000000 71.000000 14.635835 20.000000
-36.057808 33.265418 -8.334617 0.000000 61.000000 14.731699 14.000000
-36.030417 34.764103 -7.537226 0.000000 26.000000 14.115856 0.000000
-37.298388 34.478716 -7.904168 0.000000 76.000000 14.500689 25.000000
-33.301509 32.597995 -8.657898 0.000000 32.000000 14.855644 19.000000
-33.205495 32.377292 -8.732262 0.000000 55.000000 14.899321 19.000000
-33.282848 34.618184 -7.713844 0.000000 37.000000 14.156065 0.000000
-32.684149 32.822687 -7.946562 0.000000 44.000000 14.149889 0.000000
-31.815264 34.975024 -7.832770 0.000000 58.000000 14.253122 0.000000
-35.897177 31.737112 -7.973607 0.000000 43.000000 14.186719 0.000000
-36.699302 35.087760 -7.769337 0.000000 44.000000 14.412929 18.000000
-35.645720 36.815457 -7.897909 0.000000 69.000000 14.698702 23.000000
-34.424674 36.312393 -7.442104 0.000000 53.000000 14.134895 0.000000
-32.985372 35.547794 -8.158238 0.000000 80.000000 14.693640 5.000000
-30.515619 32.803527 -8.856290 0.000000 61.000000 14.957187 1.000000
-34.037268 33.586402 -7.723804 0.000000 33.000000 14.076831 0.000000
-32.082588 34.317275 -7.872174 0.000000 60.000000 14.226244 0.000000
-35.678476 36.148098 -7.894831 0.000000 36.000000 14.618485 23.000000
-35.349081 36.702688 -7.473238 0.000000 49.000000 14.251379 23.000000
-34.221546 32.200931 -8.479255 0.000000 51.000000 14.671122 10.000000
-32.917770 36.996840 -7.840637 0.000000 69.000000 14.546238 21.000000
-32.882364 36.889061 -7.849382 0.000000 70.000000 14.540706 21.000000
-35.432219 33.469595 -7.752158 0.000000 38.000000 14.151037 0.000000
-33.068013 33.456521 -7.894108 0.000000 48.000000 14.188933 0.000000
-32.798808 36.543093 -8.007557 0.000000 63.000000 14.653321 21.000000
-33.721132 32.843660 -7.840645 0.000000 40.000000 14.091751 0.000000
-35.321228 33.643630 -7.762111 0.000000 43.000000 14.176641 0.000000
-35.253250 34.958341 -7.846547 0.000000 43.000000 14.412276 27.000000
-33.182609 37.532592 -7.787950 0.000000 52.000000 14.568398 21.000000
-35.049857 34.831940 -7.943787 0.000000 72.000000 14.485145 27.000000
-30.980502 32.597651 -8.776417 0.000000 45.000000 14.873644 6.000000
-35.277045 35.742158 -7.963449 0.000000 75.000000 14.621555 27.000000
-33.903040 32.993884 -7.846121 0.000000 39.000000 14.122671 0.000000
-37.177395 34.247411 -8.044434 0.000000 55.000000 14.607429 25.000000
-36.266152 33.984022 -8.268727 0.000000 72.000000 14.759865 24.000000
-34.083132 36.578174 -7.401652 0.000000 36.000000 14.111403 0.000000
-34.604060 32.442130 -7.947646 0.000000 48.000000 14.188504 0.000000
-35.513387 31.496358 -8.722723 0.000000 74.000000 14.885127 13.000000
-36.479942 35.826737 -7.364006 0.000000 49.000000 14.088384 0.000000
-34.250946 34.046496 -7.659244 0.000000 41.000000 14.076111 0.000000
-37.679015 36.489470 -7.295036 0.000000 58.000000 14.149406 0.000000
-34.223164 34.223138 -7.693141 0.000000 39.000000 14.129345 0.000000
-37.141754 34.611503 -7.662876 0.000000 64.000000 14.270214 25.000000
-34.153348 34.440526 -7.685358 0.000000 45.000000 14.144222 0.000000
-31.865727 35.817627 -7.605667 0.000000 42.000000 14.129171 0.000000
-34.109031 34.658664 -7.681116 0.000000 45.000000 14.163794 0.000000
-35.070874 31.415207 -8.299007 0.000000 59.000000 14.436218 13.000000
-31.688123 32.441800 -8.631567 0.000000 50.000000 14.741937 3.000000
-34.638948 33.867051 -7.766598 0.000000 42.000000 14.178134 0.000000
-37.037909 34.653130 -7.554604 0.000000 51.000000 14.163242 0.000000
-37.493610 35.039124 -7.929433 0.000000 73.000000 14.600104 22.000000
-34.954007 31.927736 -7.899714 0.000000 40.000000 14.095399 0.000000
-33.557278 33.897080 -7.804210 0.000000 45.000000 14.172594 0.000000
-33.474673 37.962932 -7.328944 0.000000 46.000000 14.176199 0.000000
-32.483042 35.266041 -7.932007 0.000000 58.000000 14.414478 5.000000
-34.588465 37.378091 -7.346430 0.000000 46.000000 14.172463 0.000000
-33.886765 36.855663 -7.241251 0.000000 33.000000 13.976513 0.000000
-33.129777 35.148648 -7.580996 0.000000 24.000000 14.080150 0.000000
-33.842133 37.005739 -7.354970 0.000000 49.000000 14.105090 0.000000
-37.012409 36.104020 -7.811001 0.000000 72.000000 14.587337 18.000000
-37.254351 35.858331 -7.600628 0.000000 29.000000 14.360073 18.000000
-31.926178 32.577380 -8.280314 0.000000 41.000000 14.419623 3.000000
-35.197282 34.752071 -7.827358 0.000000 57.000000 14.366553 27.000000
-33.364416 36.190105 -7.449232 0.000000 48.000000 14.082097 0.000000
-33.345761 36.408678 -7.471920 0.000000 38.000000 14.129539 0.000000
-33.377279 34.340562 -7.801094 0.000000 34.000000 14.213993 0.000000
-31.701799 32.501094 -8.506376 0.000000 57.000000 14.625299 3.000000
-32.872684 36.623283 -7.497069 0.000000 33.000000 14.159465 0.000000
-32.859003 37.548168 -8.093315 0.000000 51.000000 14.859311 21.000000
-33.714758 36.697256 -7.319459 0.000000 40.000000 14.028079 0.000000
-32.225494 35.004970 -7.757319 0.000000 38.000000 14.199385 0.000000
-36.394858 35.781769 -7.351595 0.000000 41.000000 14.067127 0.000000
-32.470585 36.013658 -8.361181 0.000000 45.000000 14.927751 21.000000
-34.094827 32.334863 -8.272551 0.000000 69.000000 14.476380 10.000000
-32.901911 38.048042 -7.474755 0.000000 38.000000 14.306316 21.000000
-37.317849 34.687512 -7.514573 0.000000 31.000000 14.139581 0.000000
-32.109420 37.557622 -7.968838 0.000000 68.000000 14.704780 20.000000
-33.219563 36.818423 -7.915663 0.000000 47.000000 14.612611 15.000000
-31.598829 35.625032 -7.707196 0.000000 40.000000 14.195779 0.000000
-31.877422 36.514930 -7.896180 0.000000 42.000000 14.499989 29.000000
-32.522236 35.758021 -7.838444 0.000000 42.000000 14.381253 21.000000
-32.897368 36.071671 -7.610144 0.000000 40.000000 14.207767 0.000000
-32.155077 34.942645 -7.786757 0.000000 44.000000 14.218233 0.000000
-32.749168 37.817758 -7.859473 0.000000 56.000000 14.654340 21.000000
-35.554420 32.476132 -7.926377 0.000000 46.000000 14.212165 0.000000
-32.773432 33.570878 -7.797014 0.000000 30.000000 14.093433 0.000000
-36.620279 34.592812 -8.182233 0.000000 51.000000 14.760912 24.000000
-33.700827 35.010804 -7.664587 0.000000 45.000000 14.171345 0.000000
-36.038586 33.794401 -7.995246 0.000000 77.000000 14.456455 24.000000
-31.494740 33.183371 -7.975860 0.000000 54.000000 14.170408 0.000000
-33.878518 34.568173 -7.759000 0.000000 54.000000 14.220524 0.000000
-37.050557 35.910518 -7.809249 0.000000 54.000000 14.564454 18.000000
-36.130343 31.531525 -8.540432 0.000000 73.000000 14.734873 26.000000
-33.020230 35.391730 -7.588931 0.000000 29.000000 14.111942 0.000000
-34.210988 36.253250 -7.444825 0.000000 24.000000 14.121467 0.000000
-33.729558 32.473501 -7.822962 0.000000 36.000000 14.030990 0.000000
-34.237812 33.878029 -7.696508 0.000000 47.000000 14.092684 0.000000
-37.272679 35.166362 -7.702977 0.000000 62.000000 14.380937 22.000000
-34.686230 31.229173 -8.438671 0.000000 72.000000 14.536383 11.000000
-36.320684 31.742845 -8.508607 0.000000 60.000000 14.736341 26.000000
-37.220611 36.293634 -7.599729 0.000000 73.000000 14.408982 18.000000
-32.897752 36.195355 -7.709784 0.000000 45.000000 14.321199 21.000000
-36.631894 34.065879 -8.184828 0.000000 69.000000 14.701950 24.000000
-35.036887 31.321203 -7.977803 0.000000 45.000000 14.105021 0.000000
-31.939826 32.558548 -8.262162 0.000000 58.000000 14.399982 3.000000
-36.259513 32.654262 -7.834504 0.000000 44.000000 14.172227 0.000000
-35.111032 31.725338 -7.871981 0.000000 43.000000 14.050791 0.000000
-34.930348 37.563430 -7.323228 0.000000 36.000000 14.185927 0.000000
-37.375433 34.848570 -7.878048 0.000000 65.000000 14.521622 22.000000
-35.081854 32.299911 -7.903582 0.000000 41.000000 14.148536 0.000000
-34.313034 31.425352 -8.287412 0.000000 63.000000 14.393406 11.000000
-35.112572 33.427239 -7.778694 0.000000 42.000000 14.158669 0.000000
-33.960656 37.615830 -7.833751 0.000000 78.000000 14.657007 17.000000
-36.691676 35.007128 -8.027337 0.000000 71.000000 14.659076 24.000000
-34.680029 32.507442 -7.921585 0.000000 42.000000 14.173596 0.000000
-34.545029 33.444591 -8.085465 0.000000 52.000000 14.440724 4.000000
-34.622670 34.015006 -8.077061 0.000000 47.000000 14.502870 4.000000
-31.434185 35.507618 -8.314078 0.000000 59.000000 14.776994 29.000000
-36.235635 37.208162 -7.750799 0.000000 55.000000 14.624284 23.000000
-32.687377 33.679371 -7.766092 0.000000 24.000000 14.071836 0.000000
-36.615460 35.875705 -7.319646 0.000000 45.000000 14.055950 0.000000
-37.319326 34.566814 -7.936379 0.000000 49.000000 14.543916 25.000000
-35.278265 31.120787 -8.846953 0.000000 74.000000 14.954079 13.000000
-31.967517 36.628622 -7.511059 0.000000 39.000000 14.135152 0.000000
-30.399251 33.043916 -9.186064 0.000000 5.000000 15.307673 1.000000
-33.323093 32.805971 -7.961551 0.000000 53.000000 14.190195 0.000000
-33.257059 31.825307 -8.993389 0.000000 70.000000 15.095617 19.000000
-35.991626 32.009995 -7.979687 0.000000 49.000000 14.228928 0.000000
-34.593870 31.351871 -8.597206 0.000000 73.000000 14.704153 11.000000
-37.266482 36.553941 -7.408357 0.000000 55.000000 14.251731 16.000000
-35.712902 31.062092 -8.554115 0.000000 48.000000 14.675280 26.000000
-32.825087 36.546898 -7.582554 0.000000 41.000000 14.233242 0.000000
-30.442142 33.366038 -8.073735 0.000000 54.000000 14.243872 0.000000
-35.835243 31.344165 -8.375690 0.000000 61.000000 14.536716 26.000000
-34.239132 34.974477 -7.652177 0.000000 47.000000 14.177843 0.000000
-38.052228 36.372683 -7.251251 0.000000 30.000000 14.108224 0.000000
-37.026032 36.814629 -7.155544 0.000000 47.000000 14.021289 0.000000
-37.485804 35.442733 -7.910578 0.000000 45.000000 14.628579 22.000000
-33.911093 35.902593 -7.553130 0.000000 37.000000 14.174774 0.000000
-34.940196 34.413220 -7.917485 0.000000 73.000000 14.405051 27.000000
-34.132225 31.908691 -8.182122 0.000000 57.000000 14.338095 10.000000
-36.170792 31.323349 -8.804378 0.000000 77.000000 14.973966 26.000000
-35.004683 35.733616 -7.446592 0.000000 37.000000 14.096084 0.000000
-34.818813 35.931762 -7.431818 0.000000 37.000000 14.096782 0.000000
-32.831650 34.946055 -7.776815 0.000000 42.000000 14.237788 0.000000
-35.436855 36.262935 -7.827483 0.000000 35.000000 14.554825 23.000000
-36.975017 36.119225 -7.642432 0.000000 55.000000 14.420283 18.000000
-36.422878 33.854792 -8.190220 0.000000 69.000000 14.673484 24.000000
-36.047274 34.393672 -7.671090 0.000000 36.000000 14.205778 0.000000
-34.171440 36.164541 -7.495143 0.000000 37.000000 14.159249 0.000000
-35.162645 33.503558 -7.770679 0.000000 47.000000 14.161849 0.000000
-35.247689 31.317242 -8.745361 0.000000 75.000000 14.875105 13.000000
-31.479652 33.487276 -8.019535 0.000000 55.000000 14.248870 0.000000
-35.195225 32.022501 -7.824281 0.000000 44.000000 14.042063 0.000000
-35.540279 30.851372 -8.089747 0.000000 44.000000 14.182360 0.000000
-35.410456 31.591452 -8.727675 0.000000 62.000000 14.896821 13.000000
-34.604812 36.112038 -7.478182 0.000000 37.000000 14.154827 0.000000
-35.044777 31.129979 -8.041150 0.000000 37.000000 14.145695 0.000000
-33.016883 33.422672 -7.889260 0.000000 31.000000 14.177945 0.000000
-36.881901 33.296644 -8.183217 0.000000 64.000000 14.620513 25.000000
-32.396792 38.367500 -7.413572 0.000000 50.000000 14.261561 0.000000
-37.416412 36.602379 -7.426680 0.000000 75.000000 14.282043 16.000000
-36.694400 36.904158 -7.232314 0.000000 40.000000 14.093771 0.000000
-37.232500 36.372219 -7.362002 0.000000 54.000000 14.182890 0.000000
-36.401860 34.836938 -7.540152 0.000000 57.000000 14.143265 0.000000
-36.636712 34.910912 -8.072578 0.000000 68.000000 14.690276 24.000000
-32.833029 36.386596 -7.907283 0.000000 64.000000 14.536881 21.000000
-36.035642 34.134232 -7.517028 0.000000 41.000000 14.021887 0.000000
-35.924822 35.600454 -7.475445 0.000000 46.000000 14.148496 0.000000
-35.070872 31.113778 -8.569945 0.000000 50.000000 14.669534 13.000000
-35.592695 32.756660 -7.904031 0.000000 59.000000 14.224663 0.000000
-34.210715 33.776001 -7.727206 0.000000 44.000000 14.109967 0.000000
-35.883786 33.119470 -8.258157 0.000000 75.000000 14.631196 14.000000
-31.167878 32.779357 -8.765844 0.000000 58.000000 14.892583 6.000000
-36.488798 35.346667 -7.383987 0.000000 53.000000 14.052069 0.000000
-32.277745 34.553805 -7.823779 0.000000 44.000000 14.214447 0.000000
-36.564916 35.527400 -7.442087 0.000000 50.000000 14.134253 0.000000
-33.339077 32.998738 -7.960585 0.000000 31.000000 14.212617 0.000000
-36.051250 35.621708 -7.475558 0.000000 47.000000 14.156533 0.000000
-36.807686 36.121032 -7.278652 0.000000 46.000000 14.052406 0.000000
-31.341055 33.084031 -8.276413 0.000000 67.000000 14.450305 6.000000
-31.464022 35.363423 -8.176700 0.000000 39.000000 14.625003 29.000000
-37.120108 36.807121 -7.302850 0.000000 41.000000 14.170585 0.000000
-35.864564 36.182373 -7.476927 0.000000 47.000000 14.215891 0.000000
-37.039981 36.829732 -7.607669 0.000000 67.000000 14.472227 16.000000
-35.191552 31.175569 -8.900367 0.000000 55.000000 15.009802 13.000000
-34.826801 36.208454 -7.428069 0.000000 44.000000 14.125980 0.000000
-32.614600 38.247295 -7.368805 0.000000 32.000000 14.212336 0.000000
-35.481490 36.548440 -8.017112 0.000000 46.000000 14.778486 23.000000
-37.537313 35.861507 -7.396523 0.000000 33.000000 14.170087 0.000000
-34.848452 33.446819 -8.191378 0.000000 58.000000 14.559078 4.000000
-36.208484 35.050004 -7.444630 0.000000 55.000000 14.065286 0.000000
-35.780177 31.879493 -7.949815 0.000000 29.000000 14.174859 0.000000
-37.600196 35.998675 -7.345788 0.000000 47.000000 14.138597 0.000000
-36.374347 34.223101 -8.295966 0.000000 77.000000 14.819676 24.000000
-34.928635 31.752822 -7.880136 0.000000 36.000000 14.054295 0.000000
-32.598931 32.742782 -8.452138 0.000000 39.000000 14.638419 19.000000
-33.854488 35.512137 -7.862060 0.000000 72.000000 14.432873 2.000000
-34.637493 37.618462 -7.283211 0.000000 45.000000 14.140144 0.000000
-35.322570 35.222426 -8.034057 0.000000 48.000000 14.632371 27.000000
-35.360704 32.199421 -7.793380 0.000000 43.000000 14.039331 0.000000
-30.612989 33.133970 -8.368056 0.000000 59.000000 14.515880 1.000000
-31.269724 35.606283 -8.077792 0.000000 35.000000 14.547133 29.000000
-35.884089 31.868261 -7.963032 0.000000 45.000000 14.191106 0.000000
-35.511583 35.746461 -8.004481 0.000000 78.000000 14.672829 27.000000
-37.022919 35.339598 -7.872125 0.000000 70.000000 14.558435 18.000000
-32.821334 32.627967 -8.279389 0.000000 56.000000 14.463053 19.000000
-37.316038 36.030121 -7.577293 0.000000 51.000000 14.359793 18.000000
-37.227788 34.385042 -8.066077 0.000000 61.000000 14.647266 25.000000
-37.675360 36.044741 -7.335081 0.000000 43.000000 14.136621 0.000000
-36.446793 33.935121 -8.058944 0.000000 71.000000 14.553725 24.000000
-34.877621 36.834744 -7.749906 0.000000 71.000000 14.521193 23.000000
-35.866839 31.034790 -8.838534 0.000000 46.000000 14.960845 26.000000
-36.186678 33.886329 -8.301480 0.000000 68.000000 14.777450 24.000000
-33.012792 35.783948 -7.603419 0.000000 42.000000 14.172172 0.000000
-32.679242 33.523011 -7.749845 0.000000 36.000000 14.036961 0.000000
-34.567520 31.298382 -8.655846 0.000000 50.000000 14.754903 11.000000
-31.608342 32.939164 -8.326770 0.000000 44.000000 14.494674 6.000000
-35.195668 34.913859 -8.005957 0.000000 59.000000 14.562723 27.000000
-36.536799 32.325346 -8.232575 0.000000 39.000000 14.540331 26.000000
-36.004320 33.459398 -7.934735 0.000000 55.000000 14.355512 24.000000
-35.741406 30.842968 -8.620139 0.000000 68.000000 14.716208 26.000000
-32.237402 32.344440 -8.259245 0.000000 47.000000 14.384644 19.000000
-31.020437 33.979551 -7.799428 0.000000 39.000000 14.068757 0.000000
-35.578797 35.616413 -7.939115 0.000000 60.000000 14.595550 27.000000
-31.551269 35.959238 -8.354162 0.000000 67.000000 14.874953 29.000000
-30.710160 34.432483 -7.898420 0.000000 54.000000 14.206985 0.000000
-37.793728 36.305722 -7.336326 0.000000 42.000000 14.173658 0.000000
-31.600659 35.650633 -8.002332 0.000000 46.000000 14.491682 29.000000
-34.749209 33.734394 -8.255113 0.000000 61.000000 14.651910 4.000000
-34.147690 32.934978 -7.809996 0.000000 39.000000 14.090388 0.000000
-35.692572 34.526587 -7.844533 0.000000 71.000000 14.378289 28.000000
-36.039635 32.032329 -7.975414 0.000000 50.000000 14.229377 0.000000
-34.223538 35.488695 -7.572868 0.000000 40.000000 14.159029 0.000000
-35.952051 31.869407 -7.953595 0.000000 55.000000 14.184793 0.000000
-33.530650 32.639106 -8.006091 0.000000 25.000000 14.223641 0.000000
-35.847694 31.674579 -7.977892 0.000000 50.000000 14.181486 0.000000
-36.319852 31.704796 -8.471585 0.000000 76.000000 14.695096 26.000000
-36.296562 35.983642 -7.395611 0.000000 28.000000 14.130347 0.000000
-33.354457 32.833404 -7.936499 0.000000 49.000000 14.169916 0.000000
-31.052042 33.975473 -7.815904 0.000000 30.000000 14.085979 0.000000
-30.801472 34.094935 -7.880521 0.000000 43.000000 14.153404 0.000000
-35.300295 32.734751 -8.048680 0.000000 70.000000 14.353052 12.000000
-32.303519 37.139923 -7.567747 0.000000 44.000000 14.265999 0.000000
-33.053241 37.653697 -7.957021 0.000000 62.000000 14.744846 21.000000
-35.160772 31.467098 -8.582920 0.000000 69.000000 14.727858 13.000000
-36.573343 34.356121 -8.210001 0.000000 69.000000 14.758583 24.000000
-36.212777 34.667558 -7.751634 0.000000 47.000000 14.325029 24.000000
-33.530064 32.408579 -8.020777 0.000000 37.000000 14.211047 0.000000
-33.695912 32.435850 -7.818387 0.000000 40.000000 14.020575 0.000000
-30.922611 32.614888 -8.547031 0.000000 42.000000 14.645613 6.000000
-34.190659 31.826433 -8.071963 0.000000 46.000000 14.221626 0.000000
-34.960149 31.202115 -7.937690 0.000000 42.000000 14.047913 0.000000
-35.817428 31.715574 -7.956421 0.000000 51.000000 14.163713 0.000000
-35.736513 34.976498 -7.849349 0.000000 49.000000 14.437919 27.000000
-35.856810 35.737161 -7.468110 0.000000 50.000000 14.154396 0.000000
-34.490543 32.008422 -8.052017 0.000000 44.000000 14.236124 0.000000
-34.943820 31.669711 -7.880659 0.000000 34.000000 14.045681 0.000000
-34.333785 32.384627 -7.977618 0.000000 48.000000 14.199878 0.000000
-31.167946 34.474990 -8.103971 0.000000 70.000000 14.435554 30.000000
-34.120599 33.023346 -7.790498 0.000000 40.000000 14.080286 0.000000
-33.873147 36.047474 -7.499705 0.000000 33.000000 14.137199 0.000000
-35.092855 32.091229 -7.817491 0.000000 23.000000 14.039027 0.000000
-33.881392 33.538916 -7.821399 0.000000 44.000000 14.161381 0.000000
-36.764320 36.928058 -7.253096 0.000000 36.000000 14.120201 0.000000
-34.792927 33.262412 -8.014557 0.000000 48.000000 14.359559 4.000000
-33.664822 34.141133 -7.771127 0.000000 59.000000 14.173116 0.000000
-34.822850 31.821437 -8.481636 0.000000 68.000000 14.654596 11.000000
-33.149834 32.970373 -7.935269 0.000000 58.000000 14.176045 0.000000
-37.028933 36.756618 -7.412386 0.000000 58.000000 14.269402 16.000000
-33.768334 32.637163 -7.838284 0.000000 34.000000 14.067122 0.000000
-32.249800 37.219522 -7.418084 0.000000 48.000000 14.124583 0.000000
-32.968087 37.506718 -7.800003 0.000000 62.000000 14.568109 21.000000
-31.544517 35.781990 -8.268039 0.000000 53.000000 14.768352 29.000000
-33.348692 37.969031 -7.391813 0.000000 51.000000 14.233887 0.000000
-31.319361 33.559534 -7.936849 0.000000 28.000000 14.168468 0.000000
-33.273986 35.492553 -7.602867 0.000000 54.000000 14.148521 0.000000
-32.858520 34.138460 -7.652568 0.000000 38.000000 14.020595 0.000000
-33.382021 33.346307 -7.906318 0.000000 54.000000 14.201538 0.000000
-32.794058 34.313234 -7.690516 0.000000 55.000000 14.076056 0.000000
-33.152813 35.949489 -7.572457 0.000000 40.000000 14.166948 0.000000
-32.731453 34.472436 -7.749175 0.000000 53.000000 14.150310 0.000000
-34.911165 33.992680 -7.880866 0.000000 63.000000 14.317966 4.000000
-32.293390 35.723737 -7.819234 0.000000 72.000000 14.348344 21.000000
-35.989631 36.138028 -7.423327 0.000000 38.000000 14.162856 0.000000
-34.927026 36.036786 -7.406177 0.000000 26.000000 14.088349 0.000000
-32.472945 35.589089 -7.676291 0.000000 42.000000 14.198376 0.000000
-33.390266 35.493175 -7.508230 0.000000 31.000000 14.059690 0.000000
-35.240137 34.867280 -8.019080 0.000000 79.000000 14.572166 27.000000
-33.947730 35.503843 -7.949007 0.000000 62.000000 14.522158 2.000000
-31.391274 34.574187 -7.784932 0.000000 39.000000 14.140286 0.000000
-32.599888 36.653549 -7.929906 0.000000 52.000000 14.580754 21.000000
-31.535251 36.301954 -8.163174 0.000000 52.000000 14.725131 29.000000
-37.001594 33.658125 -8.147898 0.000000 69.000000 14.633162 25.000000
-31.794032 34.101604 -7.889376 0.000000 37.000000 14.205544 0.000000
-35.346428 36.341102 -7.912254 0.000000 69.000000 14.644252 23.000000
-33.940755 34.948538 -7.661956 0.000000 41.000000 14.171694 0.000000
-33.605929 37.885645 -7.329805 0.000000 51.000000 14.173584 0.000000
-37.478703 34.999719 -7.950786 0.000000 35.000000 14.616010 22.000000
-36.758929 35.670060 -7.889214 0.000000 68.000000 14.602972 18.000000
-33.034989 34.893201 -7.593321 0.000000 39.000000 14.058239 0.000000
-36.189518 36.651834 -7.595890 0.000000 62.000000 14.403122 23.000000
-35.694151 33.459990 -7.680445 0.000000 47.000000 14.089993 0.000000
-35.268998 31.850215 -7.905548 0.000000 42.000000 14.105570 0.000000
-35.829865 34.343625 -7.952368 0.000000 47.000000 14.469623 28.000000
-34.828522 31.927115 -8.355823 0.000000 64.000000 14.542459 11.000000
-32.494927 35.330206 -7.772714 0.000000 56.000000 14.264504 5.000000
-33.804539 33.609623 -7.826596 0.000000 47.000000 14.171566 0.000000
-33.358633 36.270601 -7.420206 0.000000 39.000000 14.062528 0.000000
-34.078828 35.680649 -7.822848 0.000000 37.000000 14.423431 2.000000
-36.187328 37.082643 -7.732987 0.000000 69.000000 14.589764 23.000000
-36.362972 33.884329 -8.294182 0.000000 76.000000 14.777534 24.000000
-34.104260 37.849865 -7.211466 0.000000 42.000000 14.073337 0.000000
-35.553468 35.633491 -8.000298 0.000000 67.000000 14.657175 27.000000
-34.920876 31.330718 -8.076929 0.000000 50.000000 14.199510 0.000000
-35.021488 31.250935 -7.939537 0.000000 42.000000 14.058124 0.000000
-37.815795 35.673636 -7.524802 0.000000 71.000000 14.287180 22.000000
-35.610209 37.145971 -7.826355 0.000000 68.000000 14.665100 23.000000
-35.892356 36.711745 -8.378337 0.000000 53.000000 15.173711 23.000000
-34.778781 31.636120 -8.453620 0.000000 69.000000 14.603093 11.000000
-35.129035 34.619460 -7.870251 0.000000 74.000000 14.390569 27.000000
-33.947669 32.415737 -7.877700 0.000000 28.000000 14.087850 0.000000
-35.951042 33.303938 -8.366254 0.000000 55.000000 14.763043 14.000000
-36.673836 34.179800 -8.140945 0.000000 72.000000 14.673623 24.000000
-35.909767 36.841235 -7.744197 0.000000 64.000000 14.560560 23.000000
-36.562598 34.572512 -8.259361 0.000000 40.000000 14.832569 24.000000
-36.446589 34.287753 -8.351526 0.000000 76.000000 14.885507 24.000000
-34.997910 32.738523 -8.096099 0.000000 62.000000 14.387573 12.000000
-33.011065 31.835146 -8.884923 0.000000 66.000000 14.978614 19.000000
-34.467452 34.411709 -7.586670 0.000000 42.000000 14.056391 0.000000
-33.333707 32.444244 -8.797405 0.000000 62.000000 14.977332 19.000000
-34.458854 36.449870 -7.444562 0.000000 42.000000 14.154984 0.000000
-34.502755 32.528137 -7.914636 0.000000 34.000000 14.161535 0.000000
-34.227693 33.930519 -7.713951 0.000000 40.000000 14.115736 0.000000
-31.189059 34.727715 -8.107424 0.000000 38.000000 14.469639 30.000000
-31.639442 36.089829 -8.160697 0.000000 67.000000 14.702168 29.000000
-34.671679 35.897718 -7.497546 0.000000 44.000000 14.151674 0.000000
-32.980657 37.906035 -7.958295 0.000000 65.000000 14.772704 21.000000
-35.009473 34.673573 -8.053520 0.000000 63.000000 14.573637 27.000000
-32.441180 36.504979 -8.208018 0.000000 66.000000 14.832377 21.000000
-37.480027 35.426748 -7.865599 0.000000 74.000000 14.581825 22.000000
-34.106654 34.833394 -7.660343 0.000000 44.000000 14.163653 0.000000
-32.479654 33.225575 -7.900259 0.000000 26.000000 14.142612 0.000000
-33.756723 37.376490 -7.858843 0.000000 73.000000 14.644977 17.000000
-34.163939 35.724756 -7.953773 0.000000 70.000000 14.562167 2.000000
-36.460815 35.177238 -7.434830 0.000000 45.000000 14.081364 0.000000
-36.169296 37.030674 -7.788061 0.000000 44.000000 14.637512 23.000000
-35.858337 37.218568 -7.812260 0.000000 74.000000 14.670304 23.000000
-34.113098 37.388797 -7.192306 0.000000 46.000000 14.000426 0.000000
-31.101944 34.708715 -8.149647 0.000000 46.000000 14.505556 30.000000
-33.393968 37.575477 -7.813927 0.000000 60.000000 14.608284 17.000000
-37.058685 34.679450 -7.546704 0.000000 48.000000 14.159394 0.000000
-30.992130 34.751012 -8.142947 0.000000 64.000000 14.499178 30.000000
-34.390862 36.955465 -7.412201 0.000000 41.000000 14.179485 0.000000
-35.803716 33.284435 -8.033299 0.000000 61.000000 14.424097 14.000000
-34.469799 34.420581 -7.532834 0.000000 42.000000 14.004124 0.000000
-33.146025 33.251961 -7.889642 0.000000 29.000000 14.163765 0.000000
-36.512910 32.895861 -7.832674 0.000000 52.000000 14.209723 0.000000
-35.553570 31.658709 -8.488226 0.000000 81.000000 14.673315 13.000000
-35.465746 31.625650 -8.518090 0.000000 79.000000 14.695285 13.000000
-35.176768 35.228798 -8.027578 0.000000 83.000000 14.620440 27.000000
-36.463263 32.656770 -7.959458 0.000000 35.000000 14.305230 26.000000
-36.076615 32.660593 -7.962156 0.000000 50.000000 14.291775 14.000000
-33.985201 36.702262 -7.420956 0.000000 38.000000 14.140964 0.000000
-33.496381 34.729645 -7.745534 0.000000 45.000000 14.209785 0.000000
-37.790980 36.021595 -7.655503 0.000000 84.000000 14.456752 22.000000
-34.343741 36.805359 -7.449537 0.000000 50.000000 14.196835 0.000000
-34.202725 35.996430 -7.504980 0.000000 44.000000 14.150558 0.000000
-31.691202 36.843253 -8.104226 0.000000 41.000000 14.737062 29.000000
-34.775531 35.091424 -7.479972 0.000000 27.000000 14.043769 0.000000
-33.657012 35.785334 -7.501823 0.000000 40.000000 14.099169 0.000000
-34.706155 33.457946 -8.252169 0.000000 77.000000 14.614597 4.000000
-35.820660 34.617703 -7.743165 0.000000 59.000000 14.293941 28.000000
-34.394829 35.308288 -7.579940 0.000000 45.000000 14.152152 0.000000
-33.913809 33.567327 -7.780108 0.000000 39.000000 14.125151 0.000000
-35.238265 35.047642 -8.096838 0.000000 45.000000 14.670465 27.000000
-33.968219 33.346456 -7.827256 0.000000 58.000000 14.148258 0.000000
-34.526437 34.924893 -7.533080 0.000000 42.000000 14.066169 0.000000
-35.348271 33.273532 -7.798531 0.000000 46.000000 14.170362 0.000000
-35.022162 31.188225 -8.287184 0.000000 61.000000 14.395677 13.000000
-30.573735 32.900397 -8.638746 0.000000 74.000000 14.755255 1.000000
-35.588274 37.095561 -7.885981 0.000000 65.000000 14.717380 23.000000
-36.516131 34.231480 -8.291054 0.000000 72.000000 14.821870 24.000000
-37.104960 33.778531 -8.342965 0.000000 50.000000 14.845300 25.000000
-33.722290 33.187738 -7.902595 0.000000 32.000000 14.193770 0.000000
-33.048971 37.213676 -7.430144 0.000000 32.000000 14.170135 0.000000
-36.308402 33.084133 -7.887955 0.000000 47.000000 14.277962 14.000000
-31.859650 34.648566 -8.157484 0.000000 65.000000 14.538747 7.000000
-35.639033 35.677573 -7.622328 0.000000 53.000000 14.291044 27.000000
-37.280148 35.687125 -7.398820 0.000000 49.000000 14.140806 0.000000
-36.678749 34.191423 -8.205875 0.000000 64.000000 14.739621 24.000000
-36.563713 33.122704 -7.778779 0.000000 36.000000 14.185137 0.000000
-32.657710 34.116985 -7.796803 0.000000 49.000000 14.152553 0.000000
-36.722281 36.850093 -7.295642 0.000000 49.000000 14.151431 0.000000
-33.007454 33.522820 -7.885192 0.000000 27.000000 14.185295 0.000000
-33.801624 36.131671 -7.439296 0.000000 36.000000 14.084111 0.000000
-33.172011 37.481892 -7.735066 0.000000 62.000000 14.509507 21.000000
-33.995123 37.347208 -7.199023 0.000000 37.000000 13.997134 0.000000
-35.492147 31.469576 -8.779735 0.000000 71.000000 14.937626 13.000000
-34.237046 35.080360 -7.625156 0.000000 36.000000 14.163411 0.000000
-31.943541 36.666261 -7.786070 0.000000 56.000000 14.411399 29.000000
-35.128920 32.589302 -8.129836 0.000000 55.000000 14.409095 12.000000
-35.498348 34.267365 -7.742754 0.000000 81.000000 14.238464 0.000000
-35.441576 34.944603 -7.652304 0.000000 48.000000 14.226023 0.000000
-35.408264 35.716986 -8.226896 0.000000 66.000000 14.885590 27.000000
-36.196310 35.360329 -7.939754 0.000000 64.000000 14.592520 27.000000
-36.601556 35.078825 -8.018931 0.000000 61.000000 14.655312 24.000000
-32.899723 36.804765 -7.585014 0.000000 52.000000 14.269242 21.000000
-33.430226 32.840794 -7.987311 0.000000 44.000000 14.224447 0.000000
-37.239691 35.415294 -7.409953 0.000000 42.000000 14.118114 0.000000
-36.097544 36.081372 -7.411108 0.000000 52.000000 14.148692 0.000000
-35.064203 37.016060 -7.672458 0.000000 63.000000 14.473704 23.000000
-35.435945 32.426704 -7.903400 0.000000 49.000000 14.178469 0.000000
-34.058433 34.676770 -7.689127 0.000000 41.000000 14.171703 0.000000
-37.795368 35.928905 -7.534032 0.000000 53.000000 14.325514 22.000000
-37.601377 35.644212 -7.978884 0.000000 84.000000 14.725024 22.000000
-33.350169 35.791028 -7.536673 0.000000 36.000000 14.121255 0.000000
-35.007242 36.365740 -7.328702 0.000000 39.000000 14.053652 0.000000
-33.012338 33.064461 -7.939161 0.000000 55.000000 14.185086 0.000000
-33.298580 32.500277 -8.280622 0.000000 70.000000 14.469712 19.000000
-36.045085 36.704222 -7.842196 0.000000 64.000000 14.647460 23.000000
-35.631810 35.099271 -7.549192 0.000000 44.000000 14.150091 0.000000
-36.853449 34.183462 -8.008431 0.000000 69.000000 14.550288 25.000000
-34.867290 33.158958 -7.832717 0.000000 40.000000 14.170162 0.000000
-33.263888 36.397350 -7.760309 0.000000 39.000000 14.410810 15.000000
-36.584081 33.896516 -7.968634 0.000000 58.000000 14.465470 24.000000
-35.165319 33.009989 -8.331840 0.000000 70.000000 14.660595 12.000000
-36.905404 35.415101 -8.007212 0.000000 78.000000 14.696306 18.000000
-35.334376 32.320395 -7.802577 0.000000 62.000000 14.061569 0.000000
-35.796774 35.134362 -7.826807 0.000000 42.000000 14.436725 27.000000
-35.909277 34.974734 -7.871390 0.000000 71.000000 14.466989 27.000000
-32.481944 38.016038 -7.381667 0.000000 41.000000 14.192182 0.000000
-31.330301 33.087344 -8.271086 0.000000 79.000000 14.444949 6.000000
-33.589190 34.542306 -7.784025 0.000000 48.000000 14.229898 0.000000
-34.168507 36.736345 -7.344179 0.000000 35.000000 14.076666 0.000000
-33.403530 37.304654 -7.919103 0.000000 70.000000 14.681157 17.000000
-36.753786 33.527004 -7.906975 0.000000 60.000000 14.368073 25.000000
-35.761306 36.948620 -8.033589 0.000000 84.000000 14.853947 23.000000
-35.937658 36.659517 -8.103542 0.000000 30.000000 14.896876 23.000000
-35.926321 36.101767 -7.791680 0.000000 64.000000 14.521322 23.000000
-36.216048 34.020702 -8.110135 0.000000 65.000000 14.604692 24.000000
-37.404212 36.796048 -7.896031 0.000000 74.000000 14.769972 16.000000
-35.589748 35.539811 -7.881113 0.000000 53.000000 14.529457 27.000000
-32.342363 32.992556 -7.880286 0.000000 41.000000 14.089476 0.000000
-31.586321 35.161699 -7.740380 0.000000 38.000000 14.173618 0.000000
-32.065825 33.126267 -8.037235 0.000000 65.000000 14.249069 0.000000
-36.237018 32.979166 -8.151359 0.000000 48.000000 14.523871 14.000000
-33.497473 31.861269 -7.976109 0.000000 36.000000 14.100899 0.000000
-31.160257 34.270135 -7.748091 0.000000 43.000000 14.058032 0.000000
-36.765686 34.868087 -7.967621 0.000000 61.000000 14.586636 24.000000
-37.364839 35.088510 -7.746872 0.000000 73.000000 14.419273 22.000000
-30.572926 33.586921 -8.003758 0.000000 45.000000 14.206060 0.000000
-31.335691 33.230843 -8.521301 0.000000 64.000000 14.710317 6.000000
-31.297670 35.458257 -8.047505 0.000000 61.000000 14.500856 29.000000
-33.410003 36.966287 -8.032130 0.000000 58.000000 14.753736 15.000000
-37.545718 35.659408 -7.832674 0.000000 72.000000 14.579368 22.000000
-33.314916 37.658907 -7.933160 0.000000 80.000000 14.733009 21.000000
-36.784148 35.550538 -7.867623 0.000000 70.000000 14.568562 18.000000
-34.226794 32.749661 -7.924190 0.000000 43.000000 14.185258 0.000000
-35.441288 35.841889 -7.462881 0.000000 20.000000 14.143717 0.000000
-32.697379 36.111599 -8.105785 0.000000 55.000000 14.695625 21.000000
-33.471790 33.929651 -7.861163 0.000000 38.000000 14.229266 0.000000
-31.602635 33.963982 -8.279372 0.000000 45.000000 14.568056 8.000000
-33.933873 32.769495 -7.792729 0.000000 44.000000 14.044605 0.000000
-36.139070 32.869451 -8.199305 0.000000 66.000000 14.554322 14.000000
-34.076481 33.238384 -7.801210 0.000000 41.000000 14.114337 0.000000
-33.822980 37.155187 -7.321576 0.000000 40.000000 14.088732 0.000000
-35.394517 35.296838 -8.043873 0.000000 70.000000 14.653956 27.000000
-33.329513 33.695927 -7.847360 0.000000 47.000000 14.181953 0.000000
-33.226857 33.823370 -7.906190 0.000000 66.000000 14.250921 0.000000
-35.468861 35.189668 -7.993746 0.000000 68.000000 14.594795 27.000000
-34.750027 32.037198 -8.008953 0.000000 45.000000 14.207916 0.000000
-34.605842 36.777696 -7.456261 0.000000 51.000000 14.211490 0.000000
-35.992262 31.423685 -8.690689 0.000000 72.000000 14.865328 26.000000
-37.107683 33.776682 -8.438175 0.000000 75.000000 14.939659 25.000000
-37.206627 34.294754 -8.097996 0.000000 56.000000 14.667397 25.000000
-36.054640 32.700711 -8.164509 0.000000 71.000000 14.496313 14.000000
-35.376395 32.842479 -8.358582 0.000000 52.000000 14.676458 12.000000
-36.755787 33.170404 -7.787129 0.000000 39.000000 14.207275 0.000000
-32.217679 32.874862 -7.934165 0.000000 38.000000 14.123726 0.000000
-36.891236 35.624653 -7.945966 0.000000 72.000000 14.659606 18.000000
-33.734664 32.239111 -7.853406 0.000000 29.000000 14.033818 0.000000
-36.357561 36.719337 -7.328863 0.000000 51.000000 14.153354 0.000000
-34.273711 37.641154 -7.197120 0.000000 39.000000 14.041801 0.000000
-35.552371 36.964874 -7.658383 0.000000 59.000000 14.474650 23.000000
-31.581484 32.792710 -8.306375 0.000000 43.000000 14.456046 6.000000
-33.387495 33.840449 -7.858507 0.000000 47.000000 14.212514 0.000000
-35.161292 31.465542 -8.186284 0.000000 25.000000 14.334187 13.000000
-30.567373 33.975302 -7.970521 0.000000 37.000000 14.218571 0.000000
-35.843195 31.138749 -8.807464 0.000000 66.000000 14.941245 26.000000
-36.348779 37.007422 -7.329441 0.000000 35.000000 14.187467 0.000000
-35.851651 35.416893 -7.533743 0.000000 35.000000 14.181586 0.000000
-31.577059 35.153432 -7.766296 0.000000 55.000000 14.197959 0.000000
