-45.852131 -37.641106 4.966297 0.000000 57.000000 14.626454 13.000000
-43.235813 -37.837407 5.780163 0.000000 27.000000 14.345399 0.000000
-43.099839 -39.308284 6.504982 0.000000 38.000000 14.639070 20.000000
-43.352437 -37.939589 5.789001 0.000000 26.000000 14.375269 0.000000
-45.280697 -35.969702 5.012646 0.000000 43.000000 14.808339 19.000000
-43.438317 -38.039807 5.778361 0.000000 24.000000 14.376496 0.000000
-44.752072 -35.185382 5.010358 0.000000 63.000000 14.774898 12.000000
-44.119678 -34.216201 5.132227 0.000000 57.000000 14.854014 12.000000
-45.141069 -39.354728 5.564789 0.000000 46.000000 14.540394 23.000000
-43.035232 -37.225236 5.747550 0.000000 33.000000 14.370454 0.000000
-43.706034 -38.322259 5.728080 0.000000 28.000000 14.371184 0.000000
-45.113401 -38.963377 5.564342 0.000000 51.000000 14.612323 23.000000
-43.240820 -37.389679 5.708070 0.000000 33.000000 14.376670 0.000000
-44.683015 -34.838755 5.034832 0.000000 48.000000 14.844477 12.000000
-43.348901 -37.466005 5.688369 0.000000 33.000000 14.383028 0.000000
-43.945293 -38.578120 5.633066 0.000000 27.000000 14.320461 0.000000
-45.300368 -37.997625 5.661958 0.000000 59.000000 14.974150 23.000000
-44.043680 -38.652849 5.607948 0.000000 25.000000 14.318649 0.000000
-44.132457 -38.725609 5.573301 0.000000 24.000000 14.305061 0.000000
-44.205652 -38.797390 5.526227 0.000000 23.000000 14.274643 0.000000
-44.333493 -38.856525 5.512416 0.000000 25.000000 14.297318 0.000000
-43.635350 -40.879678 6.737334 0.000000 58.000000 14.716756 22.000000
-44.505715 -38.049348 5.300751 0.000000 32.000000 14.340692 0.000000
-45.870813 -38.094628 4.839224 0.000000 56.000000 14.422818 0.000000
-46.255553 -38.517703 4.765546 0.000000 53.000000 14.410279 0.000000
-45.688249 -39.272962 5.083771 0.000000 29.000000 14.326923 0.000000
-45.834528 -39.272848 5.065473 0.000000 31.000000 14.364927 0.000000
-45.931378 -39.279098 5.010707 0.000000 26.000000 14.350212 0.000000
-42.919030 -34.732208 5.875675 0.000000 52.000000 14.969392 3.000000
-41.233649 -35.816961 6.687534 0.000000 51.000000 14.845836 16.000000
-46.039599 -39.298827 4.823653 0.000000 22.000000 14.217352 0.000000
-43.146080 -37.957356 5.912969 0.000000 37.000000 14.406634 0.000000
-42.404333 -36.840443 5.967170 0.000000 44.000000 14.415048 0.000000
-45.966551 -38.106299 4.720692 0.000000 29.000000 14.348925 0.000000
-46.078112 -38.084092 4.674167 0.000000 29.000000 14.353149 0.000000
-44.812882 -37.115053 5.158169 0.000000 50.000000 14.523625 0.000000
-41.729726 -36.006422 6.281045 0.000000 31.000000 14.623390 17.000000
-46.307384 -38.027627 4.589152 0.000000 29.000000 14.373695 0.000000
-46.920401 -39.127813 4.577546 0.000000 32.000000 14.359328 0.000000
-46.129379 -37.509985 5.167759 0.000000 49.000000 14.939510 13.000000
-44.447542 -34.532045 5.149196 0.000000 45.000000 14.924834 12.000000
-43.834377 -36.917824 5.971276 0.000000 50.000000 14.935352 27.000000
-44.731409 -34.451095 4.368921 0.000000 44.000000 14.342648 0.000000
-45.489543 -37.910675 5.582798 0.000000 53.000000 14.991482 23.000000
-45.382943 -35.891182 4.408045 0.000000 29.000000 14.316697 0.000000
-44.091188 -34.688574 5.130032 0.000000 45.000000 14.741660 12.000000
-45.459286 -36.169247 4.455726 0.000000 30.000000 14.329513 0.000000
-44.613095 -34.753441 5.201079 0.000000 54.000000 14.986659 12.000000
-45.534041 -36.446587 4.489556 0.000000 29.000000 14.329374 0.000000
-41.233888 -35.267192 6.581939 0.000000 60.000000 14.866606 16.000000
-45.528551 -39.333754 5.414348 0.000000 60.000000 14.553285 23.000000
-45.050222 -35.701274 4.518331 0.000000 33.000000 14.332462 0.000000
-45.691177 -37.171941 5.004913 0.000000 42.000000 14.700441 19.000000
-44.719885 -34.894382 5.060959 0.000000 56.000000 14.870079 12.000000
-45.684719 -36.848967 4.548726 0.000000 33.000000 14.354021 0.000000
-43.983830 -36.440811 5.467830 0.000000 65.000000 14.636860 27.000000
-45.729599 -36.980674 4.558143 0.000000 34.000000 14.351443 0.000000
-45.204749 -36.091472 4.549181 0.000000 33.000000 14.335526 0.000000
-42.922655 -34.676890 5.722298 0.000000 74.000000 14.843831 3.000000
-44.792830 -34.924559 5.144404 0.000000 54.000000 14.966293 12.000000
-45.805907 -37.240921 4.554307 0.000000 33.000000 14.321456 0.000000
-42.259555 -37.232235 6.512250 0.000000 38.000000 14.770900 15.000000
-45.373661 -36.465301 4.561349 0.000000 38.000000 14.330526 0.000000
-45.446067 -36.585866 4.572392 0.000000 33.000000 14.342028 0.000000
-45.505799 -36.703185 4.571488 0.000000 33.000000 14.338696 0.000000
-45.582092 -36.818237 4.578467 0.000000 34.000000 14.349139 0.000000
-46.140856 -37.852489 4.606166 0.000000 32.000000 14.363994 0.000000
-46.627644 -38.139891 4.508127 0.000000 52.000000 14.396123 0.000000
-44.366062 -36.735254 5.955829 0.000000 70.000000 15.158091 27.000000
-45.714625 -37.042848 4.570779 0.000000 29.000000 14.344150 0.000000
-46.240697 -38.088659 4.575284 0.000000 28.000000 14.323423 0.000000
-45.776825 -37.151399 4.559016 0.000000 30.000000 14.333778 0.000000
-46.318921 -38.198911 4.580789 0.000000 32.000000 14.334266 0.000000
-45.850784 -37.256268 4.554176 0.000000 34.000000 14.334821 0.000000
-42.828925 -34.603797 5.964331 0.000000 54.000000 15.043040 3.000000
-44.225819 -39.111702 6.025655 0.000000 55.000000 14.667075 2.000000
-41.516289 -36.298875 6.508112 0.000000 62.000000 14.687271 17.000000
-46.527731 -38.520053 4.554450 0.000000 29.000000 14.320466 0.000000
-46.611125 -38.620822 4.550198 0.000000 30.000000 14.326422 0.000000
-46.708492 -38.715499 4.556781 0.000000 26.000000 14.348663 0.000000
-43.880285 -39.088601 6.113067 0.000000 44.000000 14.622170 2.000000
-46.845314 -38.907177 4.511673 0.000000 28.000000 14.318414 0.000000
-46.979821 -38.986391 4.541667 0.000000 26.000000 14.378916 0.000000
-47.060770 -39.070857 4.523692 0.000000 32.000000 14.375004 0.000000
-43.640056 -37.971427 5.744042 0.000000 39.000000 14.435107 0.000000
-46.974686 -38.347872 4.394237 0.000000 34.000000 14.378622 0.000000
-39.793794 -36.043063 6.736947 0.000000 29.000000 14.306149 0.000000
-45.262122 -35.872411 4.866918 0.000000 56.000000 14.690280 19.000000
-43.603896 -37.461253 5.775141 0.000000 30.000000 14.557469 0.000000
-40.216152 -36.177292 6.553250 0.000000 27.000000 14.269212 0.000000
-40.474729 -36.211308 6.548011 0.000000 29.000000 14.353658 0.000000
-41.720539 -36.346363 6.067044 0.000000 28.000000 14.354804 0.000000
-44.695813 -36.371832 5.538408 0.000000 58.000000 14.980537 27.000000
-45.058612 -37.336852 5.950631 0.000000 50.000000 15.284444 26.000000
-43.203207 -34.089576 5.590589 0.000000 51.000000 14.953396 4.000000
-43.652905 -38.511140 5.871161 0.000000 40.000000 14.440788 0.000000
-42.219518 -38.839731 7.007137 0.000000 29.000000 14.863704 9.000000
-41.791836 -35.166797 5.741453 0.000000 40.000000 14.336261 0.000000
-41.964210 -35.149573 5.685993 0.000000 32.000000 14.354022 0.000000
-43.103627 -37.826755 6.223515 0.000000 53.000000 14.699007 10.000000
-42.158864 -35.098884 5.487122 0.000000 28.000000 14.257565 0.000000
-45.823937 -37.941448 5.161684 0.000000 48.000000 14.729076 23.000000
-44.646363 -37.971661 5.855643 0.000000 61.000000 14.910922 25.000000
-42.982495 -34.929522 5.208374 0.000000 28.000000 14.348392 0.000000
-43.404638 -34.792898 5.017642 0.000000 42.000000 14.362215 0.000000
-45.601138 -38.658394 5.545590 0.000000 53.000000 14.841548 23.000000
-41.783877 -37.822118 6.512653 0.000000 64.000000 14.469425 0.000000
-42.836690 -39.451064 7.197295 0.000000 48.000000 15.136436 20.000000
-44.235003 -35.762158 4.689952 0.000000 24.000000 14.170877 0.000000
-45.600193 -36.683418 5.186841 0.000000 56.000000 14.934092 19.000000
-44.871858 -35.510548 4.537830 0.000000 28.000000 14.323888 0.000000
-45.236891 -35.029216 4.819813 0.000000 77.000000 14.816374 6.000000
-44.398947 -34.315856 4.478580 0.000000 45.000000 14.346398 0.000000
-44.157713 -36.310364 5.543749 0.000000 67.000000 14.797810 27.000000
-44.091288 -35.956887 5.081116 0.000000 33.000000 14.429659 0.000000
-43.732531 -36.161547 5.797128 0.000000 50.000000 14.899741 24.000000
-44.374681 -36.285072 5.614065 0.000000 57.000000 14.947547 27.000000
-41.981332 -37.552892 6.174961 0.000000 24.000000 14.294720 0.000000
-42.086409 -37.639606 6.154818 0.000000 21.000000 14.297366 0.000000
-42.182267 -37.012724 6.010243 0.000000 41.000000 14.334831 0.000000
-42.299713 -37.067932 5.966624 0.000000 27.000000 14.327526 0.000000
-42.429172 -37.116583 5.932883 0.000000 29.000000 14.335009 0.000000
-45.230079 -36.160118 5.441396 0.000000 57.000000 15.136689 19.000000
-43.095565 -39.957642 6.870581 0.000000 39.000000 14.830710 22.000000
-43.249129 -38.286551 5.850529 0.000000 28.000000 14.319097 0.000000
-42.688402 -37.202159 5.855239 0.000000 32.000000 14.343384 0.000000
-41.653572 -36.270633 6.653311 0.000000 51.000000 14.875600 17.000000
-43.146975 -37.580490 5.980402 0.000000 51.000000 14.547486 10.000000
-44.181532 -36.416246 5.894517 0.000000 69.000000 15.101287 27.000000
-42.537710 -34.520253 5.858467 0.000000 50.000000 14.856496 3.000000
-44.380862 -34.410678 4.818114 0.000000 47.000000 14.626443 12.000000
-44.943716 -35.419064 4.693175 0.000000 58.000000 14.510358 12.000000
-43.439995 -35.872397 5.434049 0.000000 43.000000 14.523700 24.000000
-43.212888 -37.321775 5.690732 0.000000 38.000000 14.364933 0.000000
-43.889772 -38.441955 5.656497 0.000000 33.000000 14.349698 0.000000
-43.304493 -37.344274 5.623773 0.000000 31.000000 14.333815 0.000000
-43.954206 -38.470027 5.572551 0.000000 28.000000 14.291927 0.000000
-40.982698 -35.810211 6.637881 0.000000 39.000000 14.708873 16.000000
-43.019758 -37.637446 6.393696 0.000000 58.000000 14.861507 10.000000
-44.587832 -34.727239 4.843809 0.000000 58.000000 14.659943 12.000000
-43.271637 -34.980882 5.270377 0.000000 25.000000 14.501327 0.000000
-44.846131 -38.481607 5.248464 0.000000 24.000000 14.329025 0.000000
-42.874357 -39.391963 6.737816 0.000000 60.000000 14.747762 20.000000
-44.027290 -39.282098 6.013720 0.000000 37.000000 14.546321 0.000000
-46.134640 -38.135901 4.652280 0.000000 29.000000 14.343497 0.000000
-44.647426 -40.458203 6.692942 0.000000 4.000000 15.142818 8.000000
-46.228901 -38.086245 4.582727 0.000000 27.000000 14.326262 0.000000
-44.772279 -38.974957 5.606719 0.000000 45.000000 14.521044 30.000000
-43.997009 -33.906911 4.891336 0.000000 65.000000 14.655940 5.000000
-45.884839 -36.854031 4.432334 0.000000 36.000000 14.322356 0.000000
-45.985908 -36.795549 4.373954 0.000000 36.000000 14.319619 0.000000
-44.481580 -36.868601 6.059042 0.000000 53.000000 15.266247 27.000000
-45.168218 -34.877195 4.774198 0.000000 48.000000 14.781667 6.000000
-43.370770 -37.734012 6.238506 0.000000 56.000000 14.831694 10.000000
-44.265356 -34.272278 4.979494 0.000000 65.000000 14.758450 12.000000
-44.674655 -36.571704 5.263286 0.000000 54.000000 14.681839 27.000000
-44.794375 -35.101067 4.746412 0.000000 39.000000 14.569963 0.000000
-43.237001 -39.518908 6.620922 0.000000 62.000000 14.750473 20.000000
-41.366072 -36.563680 6.711235 0.000000 48.000000 14.758914 17.000000
-43.315335 -35.622528 5.577802 0.000000 66.000000 14.659906 24.000000
-44.745308 -36.507977 5.305257 0.000000 56.000000 14.759553 27.000000
-41.096210 -39.004191 7.121451 0.000000 46.000000 14.513646 28.000000
-44.041047 -35.697053 5.578255 0.000000 52.000000 14.915029 11.000000
-45.078322 -37.360838 5.407418 0.000000 40.000000 14.795868 26.000000
-44.088009 -35.907626 4.994552 0.000000 35.000000 14.360619 0.000000
-43.107522 -34.364761 5.512141 0.000000 49.000000 14.788738 4.000000
-44.586326 -39.047690 5.641233 0.000000 65.000000 14.467573 0.000000
-43.382737 -35.726513 5.969387 0.000000 45.000000 15.016908 24.000000
-46.018404 -39.197487 4.828152 0.000000 22.000000 14.234919 0.000000
-46.126929 -39.255716 4.811237 0.000000 23.000000 14.247782 0.000000
-45.268339 -39.869376 5.543785 0.000000 45.000000 14.460163 0.000000
-44.210944 -34.898766 5.098963 0.000000 56.000000 14.713827 12.000000
-44.320146 -37.183695 5.534596 0.000000 45.000000 14.665647 27.000000
-42.321650 -38.317097 6.848246 0.000000 61.000000 14.868556 9.000000
-44.833503 -36.565546 5.504784 0.000000 55.000000 14.960559 27.000000
-45.235882 -37.673491 5.080105 0.000000 53.000000 14.492796 0.000000
-42.923930 -36.261390 5.985369 0.000000 64.000000 14.747413 18.000000
-41.606831 -36.432523 6.600413 0.000000 51.000000 14.776195 17.000000
-46.958857 -38.519247 4.418854 0.000000 35.000000 14.358777 0.000000
-41.691153 -34.946565 5.736020 0.000000 29.000000 14.340338 0.000000
-44.714943 -38.491172 5.557136 0.000000 52.000000 14.557037 0.000000
-42.579853 -38.736685 6.625318 0.000000 43.000000 14.674733 9.000000
-42.544030 -37.811551 6.597578 0.000000 53.000000 14.831682 14.000000
-43.088315 -34.690440 5.117436 0.000000 30.000000 14.356143 0.000000
-42.641210 -39.309917 6.759978 0.000000 60.000000 14.698227 20.000000
-45.557857 -36.403079 5.121446 0.000000 52.000000 14.918423 19.000000
-43.113297 -39.989488 6.775361 0.000000 40.000000 14.744551 22.000000
-45.395274 -35.632647 4.440924 0.000000 31.000000 14.405599 0.000000
-44.304072 -34.218201 4.491574 0.000000 38.000000 14.343405 0.000000
-42.319317 -38.383793 6.648861 0.000000 52.000000 14.673435 9.000000
-39.825566 -36.081081 6.720784 0.000000 34.000000 14.295356 0.000000
-46.103372 -38.221660 5.321786 0.000000 65.000000 14.918710 23.000000
-42.844255 -39.648731 6.993530 0.000000 48.000000 14.913387 20.000000
-44.435747 -40.385786 6.338422 0.000000 56.000000 14.758875 8.000000
-44.161159 -33.707757 4.984629 0.000000 64.000000 14.843472 5.000000
-40.373311 -36.591118 6.636748 0.000000 20.000000 14.315840 0.000000
-40.538698 -36.677437 6.639173 0.000000 24.000000 14.361438 0.000000
-45.352643 -37.822795 5.365271 0.000000 77.000000 14.762461 23.000000
-41.864542 -36.068655 6.272873 0.000000 38.000000 14.653106 17.000000
-43.116192 -35.455308 5.800665 0.000000 51.000000 14.822387 24.000000
-40.122229 -35.866166 6.571437 0.000000 37.000000 14.316346 0.000000
-41.041294 -36.995389 6.529587 0.000000 34.000000 14.382573 0.000000
-41.157822 -37.064192 6.491109 0.000000 35.000000 14.376701 0.000000
-41.282938 -37.129216 6.453680 0.000000 29.000000 14.375775 0.000000
-42.087556 -37.422441 6.211106 0.000000 25.000000 14.394516 0.000000
-44.811700 -35.985168 4.949967 0.000000 44.000000 14.573654 19.000000
-41.961962 -36.436472 5.987978 0.000000 34.000000 14.354301 0.000000
-46.268804 -38.803505 5.018649 0.000000 41.000000 14.583571 23.000000
-42.243945 -36.462498 5.877515 0.000000 34.000000 14.354076 0.000000
-43.105410 -37.582970 5.761413 0.000000 26.000000 14.333590 0.000000
-41.207539 -35.665795 6.481884 0.000000 62.000000 14.682200 16.000000
-40.630589 -37.256406 7.185051 0.000000 39.000000 14.766683 1.000000
-42.894487 -36.458056 5.566598 0.000000 29.000000 14.316502 0.000000
-42.715101 -35.715035 6.159402 0.000000 49.000000 14.942225 18.000000
-45.180605 -35.395864 4.480683 0.000000 40.000000 14.411528 0.000000
-45.413515 -36.178241 5.031713 0.000000 50.000000 14.831027 19.000000
-45.738554 -36.867129 4.524105 0.000000 35.000000 14.348000 0.000000
-45.157788 -35.756522 4.492538 0.000000 34.000000 14.337575 0.000000
-44.444197 -36.759491 5.948649 0.000000 60.000000 15.175604 27.000000
-44.445554 -36.887734 5.634921 0.000000 49.000000 14.865538 27.000000
-43.292120 -35.451898 5.588092 0.000000 52.000000 14.696586 24.000000
-45.070859 -39.224501 5.571855 0.000000 45.000000 14.548115 23.000000
-46.053139 -36.662679 4.342130 0.000000 35.000000 14.343976 0.000000
-44.809533 -35.170027 4.920504 0.000000 53.000000 14.718361 12.000000
-44.024878 -34.168136 4.967925 0.000000 48.000000 14.680369 12.000000
-41.966210 -34.824117 5.588820 0.000000 35.000000 14.335689 0.000000
-45.708554 -38.301606 5.504701 0.000000 56.000000 14.919976 23.000000
-42.072713 -35.102059 5.627727 0.000000 35.000000 14.351842 0.000000
-42.112493 -35.236258 5.632560 0.000000 39.000000 14.342694 0.000000
-42.155219 -35.368940 5.637357 0.000000 30.000000 14.334933 0.000000
-44.676686 -37.094295 5.839502 0.000000 46.000000 15.092916 27.000000
-43.443108 -36.068930 5.953939 0.000000 38.000000 14.953137 24.000000
-42.891774 -36.560071 5.587254 0.000000 29.000000 14.312613 0.000000
-45.212330 -38.946066 5.648650 0.000000 66.000000 14.729029 23.000000
-42.960029 -36.687371 5.605918 0.000000 33.000000 14.328032 0.000000
-44.655724 -34.895701 4.683407 0.000000 54.000000 14.504727 12.000000
-43.308838 -37.298106 5.645350 0.000000 29.000000 14.364681 0.000000
-43.347408 -37.414723 5.623582 0.000000 29.000000 14.334759 0.000000
-43.415832 -37.527763 5.615425 0.000000 27.000000 14.329016 0.000000
-43.512215 -37.635485 5.623385 0.000000 27.000000 14.349380 0.000000
-42.914143 -36.669000 5.624476 0.000000 33.000000 14.331580 0.000000
-42.992582 -36.770713 5.608048 0.000000 33.000000 14.324488 0.000000
-43.816592 -38.046376 5.564122 0.000000 28.000000 14.322491 0.000000
-43.908571 -38.138705 5.553732 0.000000 25.000000 14.327882 0.000000
-43.965321 -38.233043 5.513886 0.000000 27.000000 14.293104 0.000000
-44.028169 -38.324697 5.476385 0.000000 27.000000 14.263284 0.000000
-42.985048 -34.719721 5.954345 0.000000 74.000000 15.067719 3.000000
-44.220358 -38.484241 5.437215 0.000000 24.000000 14.265821 0.000000
-44.712160 -38.739710 5.402604 0.000000 29.000000 14.363876 0.000000
-44.780787 -38.804088 5.348517 0.000000 28.000000 14.326983 0.000000
-42.969786 -34.470240 5.315145 0.000000 29.000000 14.537125 4.000000
-46.122514 -39.191396 4.805409 0.000000 25.000000 14.254453 0.000000
-45.568330 -38.081142 4.707579 0.000000 22.000000 14.193983 0.000000
-41.913796 -36.274851 6.365197 0.000000 52.000000 14.711342 17.000000
-44.383209 -34.489995 5.194800 0.000000 53.000000 14.950947 12.000000
-41.858280 -37.329831 6.479924 0.000000 45.000000 14.571537 0.000000
-46.157214 -38.019594 4.647731 0.000000 32.000000 14.372360 0.000000
-43.079970 -39.359912 6.689448 0.000000 41.000000 14.787450 20.000000
-42.876664 -34.885047 5.654999 0.000000 61.000000 14.721921 3.000000
-46.829753 -39.113524 4.570527 0.000000 28.000000 14.322221 0.000000
-45.588619 -37.878956 5.381068 0.000000 60.000000 14.852817 23.000000
-45.458127 -36.528982 5.406730 0.000000 65.000000 15.112456 19.000000
-45.729036 -36.080804 4.324506 0.000000 28.000000 14.330145 0.000000
-45.788176 -36.216502 4.358022 0.000000 32.000000 14.353814 0.000000
-44.072249 -36.321901 5.984368 0.000000 61.000000 15.161674 27.000000
-46.138016 -38.675470 5.377258 0.000000 54.000000 14.885913 23.000000
-45.839132 -36.485582 4.358924 0.000000 34.000000 14.316796 0.000000
-45.404021 -35.608481 4.417431 0.000000 44.000000 14.392733 0.000000
-42.675627 -35.955268 6.172051 0.000000 52.000000 14.888213 18.000000
-40.665202 -37.068286 7.261278 0.000000 50.000000 14.888188 1.000000
-44.236749 -38.844148 6.122597 0.000000 55.000000 14.815248 2.000000
-46.000607 -38.618355 4.886363 0.000000 28.000000 14.403185 0.000000
-45.984893 -36.876606 4.394345 0.000000 29.000000 14.320549 0.000000
-42.061645 -37.833569 6.421864 0.000000 49.000000 14.488484 14.000000
-46.039483 -37.003913 4.405526 0.000000 31.000000 14.324112 0.000000
-45.545684 -36.113115 4.389341 0.000000 32.000000 14.313578 0.000000
-46.086580 -37.130680 4.407515 0.000000 31.000000 14.316691 0.000000
-44.683245 -38.732774 5.626395 0.000000 37.000000 14.556786 0.000000
-44.660588 -36.771671 5.769909 0.000000 60.000000 15.092161 27.000000
-45.681498 -36.351617 4.411404 0.000000 35.000000 14.333762 0.000000
-46.241843 -37.371626 4.450664 0.000000 43.000000 14.362661 0.000000
-42.955388 -39.115023 6.554094 0.000000 49.000000 14.670428 20.000000
-45.794651 -36.583649 4.400434 0.000000 39.000000 14.317019 0.000000
-44.734116 -35.103113 5.159149 0.000000 41.000000 14.920029 12.000000
-46.761513 -38.150971 4.534881 0.000000 57.000000 14.467847 0.000000
-43.109016 -37.874817 6.393538 0.000000 54.000000 14.844501 10.000000
-43.395509 -34.862402 5.213619 0.000000 62.000000 14.521223 11.000000
-46.665058 -38.045296 4.495704 0.000000 55.000000 14.418816 0.000000
-46.072708 -37.018926 4.388282 0.000000 33.000000 14.317742 0.000000
-42.913146 -34.545904 5.558765 0.000000 49.000000 14.720177 3.000000
-46.218664 -37.221291 4.370273 0.000000 37.000000 14.313128 0.000000
-46.311134 -37.316258 4.374794 0.000000 38.000000 14.331618 0.000000
-46.858987 -38.366988 4.431123 0.000000 33.000000 14.364798 0.000000
-46.406251 -37.408506 4.377423 0.000000 34.000000 14.349961 0.000000
-46.930647 -38.464728 4.416760 0.000000 28.000000 14.357885 0.000000
-47.274705 -38.821157 4.384840 0.000000 34.000000 14.381992 0.000000
-45.032340 -35.371927 4.533094 0.000000 41.000000 14.408688 0.000000
-44.873065 -36.537757 5.405152 0.000000 53.000000 14.891142 27.000000
-40.236944 -36.116808 6.552332 0.000000 29.000000 14.288903 0.000000
-41.969217 -36.394179 5.979547 0.000000 29.000000 14.358318 0.000000
-43.973184 -36.453706 5.763945 0.000000 55.000000 14.897744 27.000000
-41.035140 -36.705346 6.573844 0.000000 41.000000 14.481521 0.000000
-42.274529 -36.393354 5.862563 0.000000 30.000000 14.366564 0.000000
-41.595468 -35.276448 5.853486 0.000000 27.000000 14.341160 0.000000
-41.748334 -35.268989 5.789832 0.000000 28.000000 14.342185 0.000000
-43.024296 -37.767596 6.370046 0.000000 54.000000 14.814343 10.000000
-45.739583 -37.162386 4.961876 0.000000 51.000000 14.681610 19.000000
-42.186865 -35.227655 5.590687 0.000000 32.000000 14.334390 0.000000
-42.229814 -35.207667 5.459789 0.000000 29.000000 14.236335 0.000000
-43.413458 -35.715072 5.463249 0.000000 71.000000 14.573419 24.000000
-44.154686 -34.427624 5.315240 0.000000 68.000000 14.987787 12.000000
-42.783885 -35.128573 5.340096 0.000000 37.000000 14.351367 0.000000
-41.060204 -39.190809 7.058235 0.000000 37.000000 14.403696 28.000000
-42.928000 -35.095039 5.277472 0.000000 38.000000 14.355568 0.000000
-43.117274 -35.059715 5.244769 0.000000 28.000000 14.404013 0.000000
-43.812724 -36.138304 5.152992 0.000000 27.000000 14.352484 0.000000
-44.077883 -36.051657 5.023664 0.000000 39.000000 14.352735 0.000000
-45.690610 -38.166495 5.169411 0.000000 54.000000 14.638847 23.000000
-43.601384 -34.886369 4.944121 0.000000 33.000000 14.349363 0.000000
-44.935039 -35.663542 4.557056 0.000000 32.000000 14.332498 0.000000
-44.350067 -34.551301 4.549756 0.000000 30.000000 14.342778 0.000000
-42.377681 -36.886641 6.192165 0.000000 38.000000 14.598669 15.000000
-43.259115 -38.119004 5.908464 0.000000 59.000000 14.410552 0.000000
-45.219854 -35.532280 4.468922 0.000000 37.000000 14.386719 0.000000
-44.583693 -34.420208 4.419213 0.000000 34.000000 14.339566 0.000000
-45.598575 -38.405677 5.543170 0.000000 48.000000 14.891774 23.000000
-43.918154 -35.417880 5.469082 0.000000 62.000000 14.829534 11.000000
-45.551071 -36.413944 4.935317 0.000000 51.000000 14.745410 19.000000
-41.764900 -36.617716 6.304284 0.000000 45.000000 14.528407 0.000000
-41.208075 -35.748896 6.028263 0.000000 26.000000 14.254952 0.000000
-46.957723 -38.296394 4.438635 0.000000 47.000000 14.423289 0.000000
-44.300987 -37.687944 5.854933 0.000000 59.000000 14.841484 25.000000
-43.150261 -35.123742 5.342065 0.000000 34.000000 14.490704 0.000000
-41.269842 -35.410604 6.354534 0.000000 56.000000 14.644233 16.000000
-41.854522 -36.556443 6.013194 0.000000 36.000000 14.311712 0.000000
-42.223788 -36.773715 6.311172 0.000000 48.000000 14.672702 15.000000
-42.113166 -36.711269 5.987064 0.000000 34.000000 14.351794 0.000000
-42.316524 -36.917244 6.176363 0.000000 46.000000 14.555136 15.000000
-42.305152 -36.852934 5.911871 0.000000 36.000000 14.325480 0.000000
-42.415363 -36.916385 5.879971 0.000000 33.000000 14.324327 0.000000
-44.638557 -39.040661 5.632744 0.000000 58.000000 14.480852 0.000000
-46.112298 -37.736775 4.926577 0.000000 64.000000 14.667315 13.000000
-42.525980 -41.305751 6.970333 0.000000 31.000000 14.423893 0.000000
-43.337740 -38.135528 5.797937 0.000000 24.000000 14.336489 0.000000
-42.757874 -37.081940 5.779545 0.000000 32.000000 14.326263 0.000000
-42.879052 -37.129948 5.742412 0.000000 33.000000 14.327730 0.000000
-45.235830 -36.056137 4.913747 0.000000 60.000000 14.683998 19.000000
-43.728402 -38.272390 5.723836 0.000000 27.000000 14.386217 0.000000
-42.402301 -38.379914 6.648655 0.000000 49.000000 14.704993 9.000000
-45.297337 -35.905316 5.009628 0.000000 45.000000 14.825410 19.000000
-43.929259 -38.352346 5.625726 0.000000 31.000000 14.355531 0.000000
-43.989163 -38.394246 5.543824 0.000000 26.000000 14.294999 0.000000
-43.541188 -37.298796 5.581756 0.000000 28.000000 14.393661 0.000000
-43.959921 -33.880034 5.274933 0.000000 58.000000 14.994419 5.000000
-44.008615 -34.131339 4.892244 0.000000 46.000000 14.613692 12.000000
-44.845295 -38.490526 5.240398 0.000000 25.000000 14.319542 0.000000
-44.484573 -37.480771 6.221885 0.000000 55.000000 15.285234 25.000000
-44.310069 -36.786218 5.734795 0.000000 51.000000 14.926732 27.000000
-41.173139 -35.272806 6.563371 0.000000 37.000000 14.826003 16.000000
-46.348910 -38.166620 4.571097 0.000000 27.000000 14.343503 0.000000
-44.138271 -35.631622 5.292456 0.000000 45.000000 14.706826 11.000000
-45.680601 -37.555648 4.970298 0.000000 48.000000 14.584192 13.000000
-44.053219 -36.696973 5.569638 0.000000 59.000000 14.700619 27.000000
-46.114447 -36.902553 4.348836 0.000000 34.000000 14.322227 0.000000
-43.054826 -39.009135 6.404197 0.000000 45.000000 14.594398 20.000000
-44.316211 -34.004169 4.461848 0.000000 36.000000 14.366267 0.000000
-40.832743 -36.289655 6.595379 0.000000 32.000000 14.513336 0.000000
-45.103764 -34.647241 4.895996 0.000000 57.000000 14.916266 6.000000
-44.294007 -34.438942 4.549889 0.000000 37.000000 14.345734 0.000000
-44.296191 -34.583763 4.580649 0.000000 34.000000 14.343760 0.000000
-45.646472 -37.580700 4.957073 0.000000 25.000000 14.554232 13.000000
-45.343243 -37.998387 5.645977 0.000000 55.000000 14.975527 23.000000
-43.804537 -35.260096 4.765837 0.000000 23.000000 14.185049 0.000000
-43.891506 -35.393239 4.811044 0.000000 31.000000 14.230193 0.000000
-43.976500 -35.523945 4.852226 0.000000 36.000000 14.271479 0.000000
-42.435765 -38.769883 6.563773 0.000000 41.000000 14.558412 9.000000
-44.075535 -35.783147 4.870103 0.000000 31.000000 14.269803 0.000000
-44.088010 -35.909918 4.847601 0.000000 28.000000 14.227348 0.000000
-44.658907 -36.942824 4.824684 0.000000 27.000000 14.201271 0.000000
-44.752973 -36.466572 5.315265 0.000000 57.000000 14.780196 27.000000
-43.132761 -39.978985 6.989379 0.000000 44.000000 14.947413 22.000000
-41.634444 -36.414193 6.786662 0.000000 43.000000 14.958654 17.000000
-42.950673 -39.982009 6.824867 0.000000 40.000000 14.730260 22.000000
-43.986975 -36.372788 5.846599 0.000000 57.000000 14.994659 27.000000
-45.110563 -37.658263 4.918855 0.000000 25.000000 14.303601 0.000000
-44.666484 -36.943486 4.836217 0.000000 29.000000 14.214377 0.000000
-44.746408 -37.044852 4.830028 0.000000 29.000000 14.217163 0.000000
-45.338652 -37.577869 4.824809 0.000000 29.000000 14.320599 0.000000
-45.553043 -36.761155 5.318792 0.000000 65.000000 15.019337 19.000000
-46.114419 -38.462909 5.085181 0.000000 61.000000 14.658081 23.000000
-46.125049 -38.898490 4.767167 0.000000 27.000000 14.282696 0.000000
-46.206760 -38.972235 4.739277 0.000000 26.000000 14.272372 0.000000
-46.314468 -39.036244 4.730104 0.000000 22.000000 14.290706 0.000000
-44.492111 -36.539677 5.774172 0.000000 63.000000 15.082218 27.000000
-43.841380 -34.849709 5.005310 0.000000 29.000000 14.501835 0.000000
-46.185830 -38.153884 4.628760 0.000000 30.000000 14.337523 0.000000
-46.262168 -38.202544 4.581871 0.000000 33.000000 14.313327 0.000000
-45.038908 -37.142009 5.491068 0.000000 57.000000 14.902978 26.000000
-46.486590 -38.276934 4.545509 0.000000 33.000000 14.348395 0.000000
-44.103949 -33.720506 4.991022 0.000000 42.000000 14.825236 5.000000
-46.687469 -38.341741 4.481502 0.000000 29.000000 14.351733 0.000000
-46.901919 -38.386757 4.428008 0.000000 31.000000 14.373808 0.000000
-47.006752 -38.403740 4.397935 0.000000 35.000000 14.382115 0.000000
-41.682723 -34.962299 5.754352 0.000000 29.000000 14.350438 0.000000
-43.356690 -35.592674 5.613616 0.000000 62.000000 14.713984 24.000000
-43.029190 -34.235830 5.542522 0.000000 46.000000 14.814226 4.000000
-43.248310 -40.058564 6.741330 0.000000 45.000000 14.749528 22.000000
-42.459297 -35.891434 6.012315 0.000000 48.000000 14.676733 18.000000
-43.323929 -34.656751 5.000847 0.000000 34.000000 14.345711 0.000000
-44.142704 -34.353710 4.597078 0.000000 33.000000 14.349987 0.000000
-44.270626 -34.294026 4.530576 0.000000 34.000000 14.350172 0.000000
-44.407342 -34.232888 4.470585 0.000000 35.000000 14.359824 0.000000
-45.910078 -38.075131 4.806451 0.000000 25.000000 14.411954 0.000000
-44.687172 -37.540789 6.122783 0.000000 21.000000 15.258512 25.000000
-40.371486 -36.154686 6.541804 0.000000 25.000000 14.321531 0.000000
-40.542862 -36.251140 6.564644 0.000000 29.000000 14.385668 0.000000
-40.622870 -36.349520 6.533567 0.000000 27.000000 14.366627 0.000000
-41.917434 -36.275183 5.968437 0.000000 32.000000 14.354110 0.000000
-42.777480 -37.411784 5.868562 0.000000 26.000000 14.344352 0.000000
-42.893133 -37.431161 5.810737 0.000000 25.000000 14.331109 0.000000
-43.021060 -37.445989 5.757122 0.000000 32.000000 14.327205 0.000000
-40.624511 -37.437215 7.065230 0.000000 39.000000 14.617963 1.000000
-44.144423 -38.933379 6.084870 0.000000 51.000000 14.727906 2.000000
-44.436503 -36.261309 5.334290 0.000000 56.000000 14.722795 27.000000
-43.443365 -37.477785 5.473534 0.000000 23.000000 14.221616 0.000000
-45.574303 -39.110584 5.519453 0.000000 59.000000 14.712438 23.000000
-46.128644 -37.497949 4.797615 0.000000 57.000000 14.607309 13.000000
-44.228359 -36.134354 4.919815 0.000000 30.000000 14.297510 0.000000
-45.527541 -36.958654 4.622326 0.000000 37.000000 14.338788 0.000000
-44.999822 -35.849248 4.612632 0.000000 38.000000 14.367643 0.000000
-40.945369 -35.795200 6.752332 0.000000 55.000000 14.801551 16.000000
-44.159977 -36.217908 5.520914 0.000000 52.000000 14.797544 27.000000
-45.755591 -36.840398 4.504879 0.000000 33.000000 14.342621 0.000000
-45.193253 -35.733948 4.470308 0.000000 33.000000 14.335471 0.000000
-41.805422 -36.967272 6.405822 0.000000 48.000000 14.561442 0.000000
-45.967033 -36.713090 4.381909 0.000000 33.000000 14.337186 0.000000
-45.455270 -35.606758 4.388639 0.000000 44.000000 14.386179 0.000000
-42.856849 -34.654922 5.206418 0.000000 27.000000 14.357789 0.000000
-42.165558 -39.031600 6.603868 0.000000 32.000000 14.438676 0.000000
-42.913643 -35.089012 5.289793 0.000000 33.000000 14.362624 0.000000
-42.922551 -35.232414 5.304809 0.000000 30.000000 14.349229 0.000000
-42.978583 -35.374059 5.346816 0.000000 32.000000 14.378157 0.000000
-44.790572 -36.713191 5.669199 0.000000 71.000000 15.061949 27.000000
-42.414897 -35.283347 5.389290 0.000000 25.000000 14.225624 0.000000
-43.152696 -35.676985 5.956626 0.000000 57.000000 14.930107 24.000000
-44.403840 -38.174476 5.336438 0.000000 23.000000 14.308550 0.000000
-43.725573 -35.200689 5.436162 0.000000 56.000000 14.773884 11.000000
-43.938484 -33.844653 5.140987 0.000000 55.000000 14.872866 5.000000
-42.914513 -37.682519 6.343367 0.000000 51.000000 14.767289 10.000000
-45.032703 -37.752986 5.007342 0.000000 30.000000 14.334540 0.000000
-44.093899 -36.398422 5.697237 0.000000 56.000000 14.894127 27.000000
-46.208813 -39.000514 4.743617 0.000000 25.000000 14.271087 0.000000
-44.304436 -38.925991 6.025074 0.000000 52.000000 14.735066 2.000000
-46.475314 -38.994786 4.701564 0.000000 24.000000 14.333614 0.000000
-46.699858 -38.983853 4.622776 0.000000 26.000000 14.348410 0.000000
-46.790509 -38.977834 4.564342 0.000000 29.000000 14.330662 0.000000
-46.894760 -38.963851 4.517984 0.000000 28.000000 14.330576 0.000000
-46.459616 -37.832806 4.501987 0.000000 37.000000 14.392805 0.000000
-44.017834 -36.768008 6.023325 0.000000 49.000000 15.082391 27.000000
-44.652299 -34.627127 5.211994 0.000000 51.000000 15.037807 12.000000
-44.553832 -37.961325 5.548904 0.000000 47.000000 14.601447 25.000000
-42.822990 -35.724924 6.065495 0.000000 56.000000 14.895488 18.000000
-40.365355 -35.915403 6.549290 0.000000 32.000000 14.376541 0.000000
-41.914535 -36.254886 5.949627 0.000000 29.000000 14.340318 0.000000
-41.412521 -35.152368 5.896207 0.000000 32.000000 14.337787 0.000000
-41.572378 -35.154506 5.838163 0.000000 30.000000 14.344460 0.000000
-41.710001 -35.151167 5.769917 0.000000 34.000000 14.334785 0.000000
-45.957536 -37.295170 5.002536 0.000000 71.000000 14.771534 13.000000
-44.882293 -36.740814 5.558197 0.000000 45.000000 14.989995 27.000000
-45.494840 -36.385362 5.123162 0.000000 45.000000 14.900230 19.000000
-45.652607 -38.820891 5.819372 0.000000 44.000000 15.073808 23.000000
-42.891911 -35.008348 5.281936 0.000000 47.000000 14.364459 0.000000
-44.320622 -36.199500 5.533866 0.000000 55.000000 14.873003 27.000000
-44.414034 -34.877153 5.174672 0.000000 63.000000 14.862489 12.000000
-43.076681 -34.388954 5.286682 0.000000 45.000000 14.568407 4.000000
-43.569809 -34.816582 4.966933 0.000000 32.000000 14.372946 0.000000
-44.113909 -35.889231 4.789876 0.000000 27.000000 14.189207 0.000000
-42.816946 -37.351923 6.414325 0.000000 43.000000 14.864861 10.000000
-45.980340 -38.684686 5.475700 0.000000 65.000000 14.914159 23.000000
-46.629012 -37.917023 4.499591 0.000000 38.000000 14.435984 0.000000
-45.197399 -34.793816 4.921233 0.000000 47.000000 14.943012 6.000000
-44.973303 -35.548835 4.507234 0.000000 26.000000 14.325961 0.000000
-44.403149 -34.439682 4.496433 0.000000 39.000000 14.337948 0.000000
-44.435876 -37.404990 5.853344 0.000000 35.000000 14.950070 25.000000
-44.506153 -34.375530 4.423134 0.000000 37.000000 14.323647 0.000000
-44.688706 -36.516669 5.739101 0.000000 52.000000 15.128652 27.000000
-41.377212 -35.120980 5.900962 0.000000 27.000000 14.335553 0.000000
-41.424222 -35.258351 5.920199 0.000000 32.000000 14.341446 0.000000
-41.490683 -35.395885 5.946516 0.000000 39.000000 14.360951 0.000000
-42.776593 -40.471718 6.778965 0.000000 25.000000 14.520493 0.000000
-42.122285 -36.710503 6.151822 0.000000 44.000000 14.504233 15.000000
-41.614038 -35.789896 5.957452 0.000000 32.000000 14.333598 0.000000
-45.060623 -34.730208 4.838111 0.000000 58.000000 14.830362 6.000000
-41.880036 -38.863185 6.740972 0.000000 29.000000 14.491725 0.000000
-44.172314 -39.082768 6.103345 0.000000 62.000000 14.723447 2.000000
-46.054791 -37.403258 4.914417 0.000000 74.000000 14.705327 13.000000
-46.084294 -38.492931 5.430418 0.000000 65.000000 14.952476 23.000000
-45.333889 -36.130679 5.426279 0.000000 31.000000 15.167933 19.000000
-41.297917 -35.436135 6.028861 0.000000 33.000000 14.355021 0.000000
-42.018915 -36.519565 5.965701 0.000000 33.000000 14.337849 0.000000
-40.988931 -36.137473 6.706664 0.000000 39.000000 14.704239 16.000000
-41.678941 -36.461240 6.683740 0.000000 69.000000 14.872299 17.000000
-41.408351 -35.656589 5.974797 0.000000 28.000000 14.300769 0.000000
-41.277401 -35.192397 6.408370 0.000000 42.000000 14.741777 16.000000
-42.161577 -37.572230 6.314686 0.000000 40.000000 14.484066 14.000000
-40.533964 -37.485873 7.069737 0.000000 37.000000 14.578016 1.000000
-44.750009 -36.673213 5.639010 0.000000 49.000000 15.027996 27.000000
-42.360564 -36.945364 5.938158 0.000000 32.000000 14.350365 0.000000
-41.535735 -36.089852 6.259623 0.000000 67.000000 14.514120 0.000000
-42.490760 -37.038171 5.950696 0.000000 31.000000 14.390615 0.000000
-44.922671 -36.562645 5.361746 0.000000 49.000000 14.865151 27.000000
-44.892354 -36.200475 4.843217 0.000000 55.000000 14.461783 19.000000
-41.953201 -36.134620 5.939250 0.000000 30.000000 14.370749 0.000000
-42.635904 -37.227255 5.894778 0.000000 27.000000 14.354248 0.000000
-43.540935 -38.051495 5.870858 0.000000 30.000000 14.495852 0.000000
-42.796298 -37.401888 5.833998 0.000000 24.000000 14.322222 0.000000
-42.233094 -36.381613 5.852739 0.000000 34.000000 14.344725 0.000000
-43.037495 -34.608373 5.618885 0.000000 41.000000 14.807652 3.000000
-43.052807 -37.548083 5.822284 0.000000 31.000000 14.376357 0.000000
-46.095317 -37.918093 4.707828 0.000000 53.000000 14.425032 0.000000
-43.203365 -37.696020 5.730326 0.000000 22.000000 14.318130 0.000000
-42.683148 -36.651219 5.748031 0.000000 34.000000 14.360896 0.000000
-43.350414 -37.752611 5.727090 0.000000 25.000000 14.358056 0.000000
-42.790982 -36.710296 5.711182 0.000000 39.000000 14.355310 0.000000
-43.469184 -37.809777 5.703716 0.000000 27.000000 14.369125 0.000000
-42.874339 -36.765458 5.660764 0.000000 31.000000 14.329167 0.000000
-44.135737 -39.277890 5.961109 0.000000 46.000000 14.540085 2.000000
-44.170027 -36.735202 5.893991 0.000000 51.000000 15.029168 27.000000
-44.438275 -38.159277 5.325194 0.000000 24.000000 14.314432 0.000000
-44.564604 -38.175371 5.286306 0.000000 29.000000 14.322972 0.000000
-44.738723 -38.175354 5.283644 0.000000 30.000000 14.385460 0.000000
-43.098477 -39.882712 6.728309 0.000000 48.000000 14.719060 22.000000
-45.628295 -38.136652 4.720757 0.000000 20.000000 14.216516 0.000000
-45.960741 -38.058231 4.703366 0.000000 26.000000 14.341254 0.000000
-42.427048 -39.757876 6.831863 0.000000 40.000000 14.588773 0.000000
-42.465306 -37.896187 6.365625 0.000000 36.000000 14.574874 14.000000
-46.163185 -37.989653 4.584928 0.000000 25.000000 14.324159 0.000000
-45.662270 -36.870137 4.554465 0.000000 33.000000 14.346370 0.000000
-43.647982 -35.446344 5.462005 0.000000 45.000000 14.716444 11.000000
-44.474460 -35.347836 4.940650 0.000000 41.000000 14.574145 0.000000
-41.498650 -36.331156 6.687917 0.000000 53.000000 14.836355 17.000000
-45.968699 -36.741044 4.384919 0.000000 38.000000 14.334624 0.000000
-46.074790 -36.692502 4.332227 0.000000 38.000000 14.336798 0.000000
-43.505789 -40.519939 6.790569 0.000000 51.000000 14.792545 22.000000
-44.377881 -34.244421 4.463904 0.000000 38.000000 14.340371 0.000000
-42.144539 -37.829880 6.714428 0.000000 37.000000 14.784520 14.000000
-42.939768 -36.131365 5.786185 0.000000 59.000000 14.600788 18.000000
-44.406889 -34.674978 4.539595 0.000000 28.000000 14.328655 0.000000
-41.753609 -36.579550 6.358540 0.000000 50.000000 14.581285 0.000000
-45.716362 -38.866672 5.391695 0.000000 39.000000 14.701444 23.000000
-44.711976 -35.919211 4.758925 0.000000 25.000000 14.377790 0.000000
-44.561063 -36.223711 5.575506 0.000000 55.000000 14.995122 27.000000
-44.286856 -35.797753 4.668153 0.000000 22.000000 14.162986 0.000000
-45.346685 -37.512918 4.744522 0.000000 24.000000 14.264760 0.000000
-45.755378 -38.007202 4.724494 0.000000 23.000000 14.294589 0.000000
-43.539965 -40.652441 6.802949 0.000000 53.000000 14.788487 22.000000
-46.231438 -38.417781 4.686922 0.000000 27.000000 14.351347 0.000000
-46.305890 -38.495174 4.653989 0.000000 29.000000 14.332991 0.000000
-46.171011 -37.597021 4.728449 0.000000 35.000000 14.539677 13.000000
-46.485676 -38.629476 4.609454 0.000000 36.000000 14.331388 0.000000
-44.810497 -35.815351 4.829437 0.000000 55.000000 14.500154 19.000000
-43.031078 -40.352894 6.804989 0.000000 50.000000 14.663940 22.000000
-46.763231 -38.806150 4.530058 0.000000 28.000000 14.325772 0.000000
-46.846139 -38.859851 4.491778 0.000000 27.000000 14.310738 0.000000
-46.435255 -37.787910 4.455595 0.000000 41.000000 14.351286 0.000000
-46.971611 -38.899853 4.486925 0.000000 24.000000 14.344665 0.000000
-45.219012 -36.067689 5.365758 0.000000 53.000000 15.083736 19.000000
-47.097565 -38.932895 4.484337 0.000000 28.000000 14.382288 0.000000
-47.180342 -38.976521 4.438084 0.000000 30.000000 14.362129 0.000000
-44.370716 -37.535266 5.399944 0.000000 51.000000 14.488576 25.000000
-45.191795 -36.527804 5.293160 0.000000 51.000000 14.910827 19.000000
-41.030291 -35.537965 6.567193 0.000000 53.000000 14.720226 16.000000
-44.012246 -34.071209 4.582600 0.000000 32.000000 14.347944 0.000000
-42.382592 -38.706404 6.494194 0.000000 25.000000 14.489128 9.000000
-44.287280 -33.952562 4.465216 0.000000 35.000000 14.369426 0.000000
-42.912272 -34.790827 5.609930 0.000000 63.000000 14.714363 3.000000
-45.192415 -37.987486 5.345887 0.000000 30.000000 14.650454 23.000000
-44.541730 -36.545695 5.705642 0.000000 51.000000 15.037515 27.000000
-41.521741 -35.831506 5.946502 0.000000 24.000000 14.280520 0.000000
-42.349269 -36.943521 5.951325 0.000000 29.000000 14.358442 0.000000
-44.119465 -34.112310 5.079438 0.000000 46.000000 14.828173 12.000000
-43.644849 -35.056155 5.488810 0.000000 59.000000 14.821896 11.000000
-43.441764 -34.877332 5.332811 0.000000 69.000000 14.643012 11.000000
-43.027841 -34.857219 5.672615 0.000000 59.000000 14.800055 3.000000
-42.709117 -37.039723 5.798654 0.000000 26.000000 14.334276 0.000000
-42.841563 -37.060890 5.753275 0.000000 27.000000 14.338159 0.000000
-41.634950 -36.752680 6.442024 0.000000 36.000000 14.575942 0.000000
-43.147644 -37.086973 5.686107 0.000000 34.000000 14.386024 0.000000
-42.892461 -34.518919 5.947098 0.000000 56.000000 15.069071 3.000000
-43.126718 -39.522485 6.426508 0.000000 34.000000 14.532943 20.000000
-44.668317 -36.930947 4.885442 0.000000 24.000000 14.262188 0.000000
-44.095414 -35.810599 4.844288 0.000000 29.000000 14.248087 0.000000
-44.480023 -36.239980 5.750106 0.000000 49.000000 15.119256 27.000000
-44.277649 -35.735098 4.683025 0.000000 22.000000 14.186225 0.000000
-43.091775 -34.708833 5.695978 0.000000 52.000000 14.876328 3.000000
-45.545220 -36.594449 4.525023 0.000000 30.000000 14.334363 0.000000
-44.998279 -35.481006 4.500137 0.000000 30.000000 14.343180 0.000000
-43.678273 -40.135826 6.358582 0.000000 57.000000 14.547589 22.000000
-41.243245 -35.683135 6.397111 0.000000 49.000000 14.615243 16.000000
-45.871309 -36.410971 4.348833 0.000000 31.000000 14.335425 0.000000
-42.936973 -34.592744 5.191773 0.000000 27.000000 14.387545 0.000000
-46.776751 -39.021799 4.798370 0.000000 52.000000 14.527722 7.000000
-43.146986 -39.386114 6.622503 0.000000 39.000000 14.746398 20.000000
-45.651579 -37.934759 5.336447 0.000000 41.000000 14.824175 23.000000
-43.979415 -37.287121 5.748156 0.000000 41.000000 14.709802 27.000000
-42.846169 -39.709490 6.866875 0.000000 58.000000 14.786823 20.000000
-45.270961 -36.192983 5.433641 0.000000 62.000000 15.137977 19.000000
-45.862108 -38.686576 5.566926 0.000000 49.000000 14.952132 23.000000
-45.311683 -39.372864 5.452453 0.000000 44.000000 14.498638 23.000000
-44.828569 -37.977046 5.169768 0.000000 25.000000 14.357920 0.000000
-45.166795 -35.707836 4.843268 0.000000 58.000000 14.668138 19.000000
-43.649302 -35.049466 5.099415 0.000000 48.000000 14.473104 11.000000
-42.961435 -36.270311 5.659730 0.000000 51.000000 14.465254 0.000000
-43.868962 -40.817243 6.656203 0.000000 60.000000 14.743690 21.000000
-42.685833 -35.636606 6.104002 0.000000 47.000000 14.897820 18.000000
-45.996647 -37.404339 4.550937 0.000000 40.000000 14.354984 0.000000
-43.127011 -34.389754 5.160496 0.000000 55.000000 14.472971 4.000000
-46.091186 -37.402054 4.496944 0.000000 38.000000 14.341909 0.000000
-46.679115 -38.516219 4.511758 0.000000 29.000000 14.339115 0.000000
-45.846215 -37.365792 4.813468 0.000000 37.000000 14.544290 13.000000
-46.791033 -38.505455 4.472993 0.000000 26.000000 14.348067 0.000000
-42.745469 -37.886598 6.244572 0.000000 52.000000 14.571922 10.000000
-46.923863 -38.483831 4.453689 0.000000 28.000000 14.384692 0.000000
-44.873934 -35.892390 5.327841 0.000000 65.000000 14.957892 19.000000
-41.197859 -35.728101 6.053522 0.000000 25.000000 14.278360 0.000000
-41.334453 -35.746695 5.992776 0.000000 28.000000 14.270447 0.000000
-41.522093 -35.758353 5.959406 0.000000 24.000000 14.307759 0.000000
-45.120439 -39.439975 5.602287 0.000000 49.000000 14.548588 0.000000
-41.882244 -35.771259 5.884066 0.000000 26.000000 14.371173 0.000000
-43.173718 -34.352308 4.975677 0.000000 32.000000 14.331280 0.000000
-43.922105 -35.434641 4.936268 0.000000 34.000000 14.346008 0.000000
-43.228534 -34.306830 4.858715 0.000000 37.000000 14.255623 0.000000
-43.935097 -35.391632 4.790190 0.000000 28.000000 14.227934 0.000000
-43.378868 -34.259749 4.808357 0.000000 30.000000 14.276086 0.000000
-46.050703 -37.348185 5.030748 0.000000 63.000000 14.820552 13.000000
-43.859630 -40.509360 6.389609 0.000000 47.000000 14.564331 21.000000
-43.954388 -34.046469 4.611208 0.000000 37.000000 14.357458 0.000000
-44.072884 -33.985404 4.546425 0.000000 37.000000 14.355974 0.000000
-44.187706 -33.923759 4.482060 0.000000 33.000000 14.353621 0.000000
-45.608486 -37.932888 5.205148 0.000000 46.000000 14.689867 23.000000
-41.477447 -35.203041 5.895720 0.000000 30.000000 14.350842 0.000000
-41.536195 -35.334383 5.901201 0.000000 27.000000 14.349952 0.000000
-41.603327 -35.459554 5.909455 0.000000 30.000000 14.355995 0.000000
-41.681159 -35.583164 5.918675 0.000000 30.000000 14.367229 0.000000
-45.968576 -37.658389 5.135721 0.000000 64.000000 14.819294 13.000000
-45.581276 -39.185665 5.490932 0.000000 55.000000 14.673409 23.000000
-42.076490 -37.072387 6.616652 0.000000 59.000000 14.830773 15.000000
-43.585940 -40.201142 6.559706 0.000000 62.000000 14.681125 22.000000
-45.671911 -38.878987 5.694623 0.000000 45.000000 14.956008 23.000000
-44.972751 -37.718497 5.520678 0.000000 58.000000 14.783340 26.000000
-41.581639 -35.377193 5.891202 0.000000 28.000000 14.348812 0.000000
-42.302473 -36.475909 5.857249 0.000000 33.000000 14.354742 0.000000
-41.689387 -35.471308 5.880624 0.000000 36.000000 14.359533 0.000000
-41.770668 -35.562715 5.851661 0.000000 35.000000 14.344350 0.000000
-42.498499 -36.662425 5.832708 0.000000 27.000000 14.366232 0.000000
-46.027682 -38.461680 5.335399 0.000000 40.000000 14.852118 23.000000
-43.338025 -34.374675 5.058409 0.000000 51.000000 14.462546 0.000000
-42.661205 -36.839528 5.775291 0.000000 28.000000 14.337585 0.000000
-42.548028 -34.916368 5.761319 0.000000 54.000000 14.688907 3.000000
-42.867924 -36.997276 5.732951 0.000000 28.000000 14.343052 0.000000
-44.034277 -36.431281 6.086852 0.000000 62.000000 15.217031 27.000000
-43.113240 -37.132995 5.704536 0.000000 31.000000 14.380137 0.000000
-45.596970 -37.681043 5.221484 0.000000 35.000000 14.753520 23.000000
-46.795453 -39.181832 4.757550 0.000000 42.000000 14.464011 7.000000
-43.504795 -37.440385 5.442028 0.000000 21.000000 14.223938 0.000000
-44.997142 -37.666174 5.002245 0.000000 27.000000 14.335014 0.000000
-42.907601 -39.522973 6.586648 0.000000 42.000000 14.595887 20.000000
-45.354752 -37.632234 4.863952 0.000000 25.000000 14.350488 0.000000
-45.379010 -36.377722 4.550982 0.000000 37.000000 14.341646 0.000000
-45.485468 -36.342188 4.497143 0.000000 30.000000 14.340174 0.000000
-43.001227 -37.432924 5.910990 0.000000 61.000000 14.461610 10.000000
-44.753715 -36.409200 5.442590 0.000000 67.000000 14.907642 27.000000
-45.718230 -39.216363 5.236512 0.000000 34.000000 14.488068 0.000000
-46.421122 -37.294516 4.323284 0.000000 28.000000 14.330654 0.000000
-42.658689 -39.548075 7.062321 0.000000 47.000000 14.927650 20.000000
-44.252649 -34.008635 4.481825 0.000000 30.000000 14.359687 0.000000
-44.260738 -34.153101 4.497766 0.000000 32.000000 14.346599 0.000000
-41.196609 -35.973130 6.527998 0.000000 42.000000 14.654894 16.000000
-45.585041 -38.874590 5.773700 0.000000 43.000000 14.996018 23.000000
-44.337684 -34.578250 4.565559 0.000000 32.000000 14.346752 0.000000
-43.887267 -34.108662 4.648966 0.000000 36.000000 14.353428 0.000000
-44.661678 -35.662233 4.691952 0.000000 28.000000 14.352795 0.000000
-44.626209 -35.700366 4.689224 0.000000 31.000000 14.329058 0.000000
-45.468815 -36.617742 4.597323 0.000000 32.000000 14.366302 0.000000
-44.290521 -34.393528 5.182591 0.000000 63.000000 14.925744 12.000000
-46.198314 -38.632379 5.547201 0.000000 50.000000 15.071047 23.000000
-46.191134 -37.858344 4.587718 0.000000 25.000000 14.364825 0.000000
-42.509154 -36.102014 5.934251 0.000000 54.000000 14.580304 18.000000
-42.389643 -38.485231 6.599545 0.000000 39.000000 14.633659 9.000000
-42.661760 -39.435611 6.672328 0.000000 55.000000 14.600140 20.000000
-43.069222 -39.928854 6.883303 0.000000 52.000000 14.838468 22.000000
-45.046187 -37.760458 5.516329 0.000000 43.000000 14.797916 26.000000
