16.097148 -17.644620 -0.546666 0.000000 55.000000 15.120448 22.000000
18.238053 -17.030101 0.639155 0.000000 81.000000 14.753267 18.000000
20.546101 -17.674861 0.468271 0.000000 43.000000 14.294824 0.000000
19.476218 -17.184930 0.446084 0.000000 38.000000 14.311793 0.000000
15.648456 -18.383247 -2.109296 0.000000 73.000000 14.751252 26.000000
15.000424 -18.728772 -3.153488 0.000000 73.000000 14.522505 6.000000
18.198771 -16.961344 0.550670 0.000000 51.000000 14.662245 18.000000
18.726884 -18.827142 -0.828251 0.000000 47.000000 14.844388 20.000000
20.078480 -16.832719 1.198948 0.000000 41.000000 14.361158 0.000000
17.650622 -19.188381 -2.735470 0.000000 44.000000 14.207559 0.000000
15.267723 -18.429383 -3.029716 0.000000 27.000000 14.310132 0.000000
18.407516 -18.738859 -1.190519 0.000000 59.000000 14.656257 11.000000
18.650486 -17.819396 -0.634600 0.000000 29.000000 14.314991 0.000000
15.948965 -16.811540 -0.400743 0.000000 72.000000 14.702398 21.000000
19.063789 -20.925595 -3.174354 0.000000 72.000000 14.616758 13.000000
16.831948 -18.086699 -1.137063 0.000000 71.000000 14.784451 27.000000
18.828825 -18.709067 -0.977731 0.000000 63.000000 14.632224 20.000000
16.045842 -16.474741 -0.023138 0.000000 34.000000 14.688412 21.000000
15.746560 -18.190420 -2.281475 0.000000 49.000000 14.474976 26.000000
19.907022 -19.879517 -1.557951 0.000000 62.000000 14.679212 25.000000
15.135368 -17.756965 -2.537335 0.000000 43.000000 14.221835 0.000000
14.837963 -18.382853 -2.483259 0.000000 81.000000 14.781566 7.000000
19.459236 -21.087772 -3.423484 0.000000 42.000000 14.429522 16.000000
20.298213 -19.547307 -0.730693 0.000000 68.000000 14.862336 24.000000
15.369236 -17.754776 -2.450046 0.000000 25.000000 14.198056 0.000000
16.355553 -18.329013 -2.474930 0.000000 41.000000 14.235719 0.000000
14.951207 -18.768369 -3.263987 0.000000 55.000000 14.493783 6.000000
19.206200 -18.860807 -0.713968 0.000000 68.000000 14.779239 20.000000
16.487927 -18.245401 -1.792488 0.000000 60.000000 14.580219 26.000000
15.900648 -17.312222 -0.864945 0.000000 47.000000 14.754204 22.000000
20.218650 -19.299833 -1.528860 0.000000 37.000000 14.200270 0.000000
20.370389 -19.343714 -1.532210 0.000000 40.000000 14.176292 0.000000
18.458611 -19.525999 -1.935621 0.000000 71.000000 14.684591 4.000000
16.272768 -18.878224 -2.862490 0.000000 54.000000 14.382142 7.000000
17.450148 -15.923609 1.490641 0.000000 51.000000 14.828345 23.000000
15.077161 -18.614801 -2.585304 0.000000 64.000000 14.790670 7.000000
16.565847 -19.636932 -3.233787 0.000000 54.000000 14.553427 14.000000
16.855387 -15.957452 0.848427 0.000000 48.000000 14.633330 23.000000
17.448325 -18.646935 -1.846394 0.000000 47.000000 14.490854 26.000000
18.923556 -17.841808 -0.004548 0.000000 61.000000 14.649260 29.000000
16.301058 -16.744259 -0.689144 0.000000 42.000000 14.348949 0.000000
17.239412 -19.134285 -2.698993 0.000000 35.000000 14.334302 0.000000
16.739586 -16.798952 -0.542599 0.000000 45.000000 14.332948 0.000000
16.124544 -16.759449 -0.459851 0.000000 68.000000 14.568957 21.000000
16.958244 -16.846505 -0.469306 0.000000 36.000000 14.338840 0.000000
19.097504 -19.272540 -1.641663 0.000000 49.000000 14.488447 17.000000
15.889319 -16.455829 -0.351057 0.000000 44.000000 14.514420 21.000000
19.262815 -18.216543 -0.082367 0.000000 55.000000 14.736862 29.000000
20.595015 -18.831018 -0.682361 0.000000 43.000000 14.308567 0.000000
16.406981 -16.736709 -0.178432 0.000000 55.000000 14.641660 8.000000
15.902146 -18.107580 -1.834318 0.000000 65.000000 14.658362 26.000000
18.420427 -17.199043 -0.215767 0.000000 37.000000 14.247005 0.000000
17.611473 -16.700509 -0.164519 0.000000 31.000000 14.217621 0.000000
18.572266 -17.214255 -0.223333 0.000000 39.000000 14.200840 0.000000
21.008421 -18.048023 0.291913 0.000000 38.000000 14.275216 0.000000
19.552880 -19.666847 -1.203727 0.000000 53.000000 14.886950 25.000000
16.672078 -16.116073 0.088410 0.000000 25.000000 14.306167 0.000000
18.797095 -17.333017 -0.178248 0.000000 33.000000 14.234386 0.000000
14.530725 -18.050641 -2.997859 0.000000 31.000000 14.324719 0.000000
14.949321 -17.415274 -1.925660 0.000000 55.000000 14.453492 10.000000
18.564852 -18.490615 -0.873987 0.000000 73.000000 14.641767 20.000000
19.216215 -18.212833 -0.151762 0.000000 50.000000 14.704811 29.000000
19.155240 -17.122461 0.642960 0.000000 58.000000 14.507081 18.000000
17.353268 -19.471420 -2.626551 0.000000 55.000000 14.571131 28.000000
14.847270 -17.810956 -1.961854 0.000000 66.000000 14.732190 10.000000
15.791948 -19.053133 -2.582840 0.000000 74.000000 14.846369 7.000000
16.678246 -19.437283 -3.003363 0.000000 27.000000 14.530792 14.000000
14.926676 -18.409605 -2.348262 0.000000 72.000000 14.857792 7.000000
15.488180 -18.053616 -1.862472 0.000000 70.000000 14.743892 26.000000
16.117074 -18.654660 -2.420731 0.000000 41.000000 14.572388 7.000000
17.827702 -18.765984 -1.565824 0.000000 35.000000 14.626053 11.000000
18.021040 -19.194544 -1.882958 0.000000 64.000000 14.643186 26.000000
16.801772 -16.922618 0.009653 0.000000 57.000000 14.756430 8.000000
20.160495 -17.974876 -0.131035 0.000000 36.000000 14.236990 0.000000
19.472996 -16.698463 0.774274 0.000000 28.000000 14.198205 0.000000
20.397068 -18.124796 -0.131087 0.000000 49.000000 14.258136 0.000000
20.528421 -18.191395 -0.144043 0.000000 45.000000 14.250169 0.000000
16.502437 -17.931424 -1.283914 0.000000 53.000000 14.695209 27.000000
15.101412 -16.791201 -0.411142 0.000000 79.000000 14.969382 21.000000
20.900146 -18.413614 -0.173728 0.000000 37.000000 14.255018 0.000000
20.047641 -18.000734 -0.142094 0.000000 33.000000 14.285547 0.000000
21.052408 -18.470403 -0.206855 0.000000 41.000000 14.220137 0.000000
20.222236 -18.035956 -0.196701 0.000000 32.000000 14.214459 0.000000
15.918291 -17.987190 -1.291202 0.000000 66.000000 14.926358 27.000000
19.583975 -19.081163 -0.662342 0.000000 76.000000 14.833912 20.000000
19.148452 -19.551689 -2.028991 0.000000 62.000000 14.406919 4.000000
20.951352 -18.526966 -0.327971 0.000000 32.000000 14.213543 0.000000
17.362227 -17.512437 -0.274220 0.000000 51.000000 14.779863 3.000000
19.446495 -20.859583 -3.466362 0.000000 38.000000 14.251425 0.000000
14.913583 -18.919721 -3.053891 0.000000 76.000000 14.746256 6.000000
18.552540 -20.411998 -3.556231 0.000000 30.000000 14.193130 0.000000
19.558375 -18.943595 -1.300589 0.000000 66.000000 14.332413 0.000000
17.888978 -20.107200 -3.515947 0.000000 30.000000 14.238342 0.000000
19.776035 -18.840860 -1.352112 0.000000 34.000000 14.155385 0.000000
15.664441 -18.518008 -2.443953 0.000000 63.000000 14.618310 7.000000
16.260388 -16.352728 -0.313409 0.000000 33.000000 14.343373 0.000000
16.097848 -19.230295 -3.657321 0.000000 38.000000 14.160276 0.000000
17.936713 -19.077862 -2.442163 0.000000 52.000000 14.227398 0.000000
19.484038 -20.645760 -3.181061 0.000000 38.000000 14.280457 0.000000
15.959333 -18.845267 -2.354963 0.000000 65.000000 14.797853 7.000000
18.636573 -20.697443 -3.338509 0.000000 39.000000 14.500045 13.000000
16.243706 -19.136166 -3.256748 0.000000 35.000000 14.308880 0.000000
16.140380 -19.061477 -3.231780 0.000000 35.000000 14.309715 0.000000
16.043311 -18.979524 -3.210575 0.000000 35.000000 14.301053 0.000000
15.932917 -18.910997 -3.170706 0.000000 34.000000 14.318193 0.000000
15.431568 -17.722164 -1.020922 0.000000 76.000000 15.088791 27.000000
18.559704 -19.225388 -1.533460 0.000000 73.000000 14.709709 17.000000
16.743484 -19.206368 -3.085117 0.000000 41.000000 14.298989 0.000000
16.588446 -18.431804 -2.592834 0.000000 37.000000 14.149207 0.000000
15.437595 -16.657767 -0.150208 0.000000 62.000000 14.935566 21.000000
19.202640 -18.077018 -0.119898 0.000000 32.000000 14.638344 29.000000
15.411706 -17.548928 -1.463092 0.000000 72.000000 14.689350 27.000000
15.548939 -18.595701 -3.046122 0.000000 35.000000 14.316540 0.000000
15.340819 -17.573564 -1.254818 0.000000 62.000000 14.866178 27.000000
15.459367 -18.512777 -3.014243 0.000000 31.000000 14.311654 0.000000
19.285614 -19.674356 -2.342917 0.000000 21.000000 14.238231 0.000000
18.260331 -17.348649 -0.100718 0.000000 43.000000 14.477732 3.000000
19.586449 -18.732962 -0.442034 0.000000 54.000000 14.741443 20.000000
15.561771 -17.873176 -2.499109 0.000000 32.000000 14.180785 0.000000
19.412980 -19.590179 -2.132916 0.000000 41.000000 14.275302 0.000000
19.526326 -20.897735 -2.369426 0.000000 42.000000 14.967015 19.000000
17.338241 -17.214623 -0.699796 0.000000 42.000000 14.308373 0.000000
17.527049 -17.959887 -0.642670 0.000000 79.000000 14.785917 15.000000
15.214876 -17.579863 -2.123154 0.000000 36.000000 14.345700 0.000000
17.372262 -18.993220 -1.797430 0.000000 67.000000 14.782963 26.000000
15.002284 -18.898744 -2.943788 0.000000 68.000000 14.773923 6.000000
15.090540 -17.340277 -1.963054 0.000000 39.000000 14.330399 0.000000
20.424566 -17.791181 0.319993 0.000000 32.000000 14.317860 0.000000
18.774897 -18.358568 -0.538164 0.000000 61.000000 14.700624 20.000000
16.685128 -18.339995 -1.193715 0.000000 75.000000 14.968625 27.000000
15.952687 -15.198967 0.684256 0.000000 35.000000 14.319082 0.000000
17.127008 -17.942571 -0.724389 0.000000 53.000000 14.856514 15.000000
18.279481 -20.159531 -2.794611 0.000000 54.000000 14.612669 5.000000
19.969725 -20.293992 -1.811217 0.000000 78.000000 14.772873 19.000000
18.126847 -19.075108 -2.296043 0.000000 29.000000 14.256520 0.000000
19.185176 -19.134505 -0.633450 0.000000 73.000000 15.024182 20.000000
19.233192 -17.449021 0.367294 0.000000 56.000000 14.521444 30.000000
17.336812 -19.722152 -3.297004 0.000000 43.000000 14.308218 0.000000
15.106206 -16.804715 -0.212718 0.000000 55.000000 15.106572 21.000000
16.845640 -15.183246 1.187413 0.000000 45.000000 14.334319 0.000000
16.366638 -18.179727 -1.430654 0.000000 64.000000 14.813393 27.000000
19.842484 -19.677984 -1.285000 0.000000 42.000000 14.743121 25.000000
20.000248 -17.548438 0.614138 0.000000 44.000000 14.489794 1.000000
17.533086 -18.188312 -0.921983 0.000000 82.000000 14.755893 15.000000
19.473174 -19.778330 -2.301941 0.000000 39.000000 14.271729 0.000000
17.711782 -19.586809 -2.972698 0.000000 39.000000 14.301366 0.000000
19.885317 -19.264592 -1.010632 0.000000 38.000000 14.628180 24.000000
17.607979 -17.949938 -0.639610 0.000000 60.000000 14.753728 15.000000
19.766407 -19.771134 -2.114964 0.000000 41.000000 14.289569 0.000000
19.657876 -19.684459 -2.090164 0.000000 41.000000 14.283949 0.000000
19.542285 -19.604374 -2.056606 0.000000 40.000000 14.290908 0.000000
19.908422 -18.570826 -0.790555 0.000000 22.000000 14.294742 0.000000
17.738437 -18.494742 -1.192313 0.000000 69.000000 14.716900 11.000000
15.074427 -18.952533 -3.036211 0.000000 75.000000 14.725444 6.000000
19.226821 -19.354323 -1.963295 0.000000 49.000000 14.289721 0.000000
20.116110 -19.589390 -1.359152 0.000000 45.000000 14.541886 25.000000
18.495922 -20.689636 -2.990422 0.000000 43.000000 14.769959 13.000000
15.504188 -16.738796 -0.647678 0.000000 45.000000 14.642698 21.000000
17.331217 -18.472724 -1.767836 0.000000 48.000000 14.464046 11.000000
17.126333 -17.122561 -0.706357 0.000000 37.000000 14.313686 0.000000
15.950575 -18.814256 -2.313797 0.000000 61.000000 14.806744 7.000000
19.121567 -18.073371 -0.353965 0.000000 50.000000 14.510416 29.000000
19.217509 -20.981211 -3.251574 0.000000 49.000000 14.551773 13.000000
17.172638 -17.644965 -1.016692 0.000000 76.000000 14.448642 15.000000
16.171106 -17.163023 -0.618336 0.000000 67.000000 14.722658 22.000000
16.984432 -18.242213 -1.644618 0.000000 38.000000 14.506251 27.000000
15.430238 -17.732671 -1.063690 0.000000 73.000000 15.068402 27.000000
17.050998 -17.718540 -0.762233 0.000000 79.000000 14.705985 15.000000
18.822133 -16.973514 0.310981 0.000000 23.000000 14.302358 0.000000
15.647767 -16.611865 -0.341214 0.000000 37.000000 14.708380 21.000000
18.958668 -18.963006 -0.909293 0.000000 74.000000 14.804721 20.000000
17.458552 -18.527845 -1.289042 0.000000 70.000000 14.771040 11.000000
18.790161 -18.995930 -1.240443 0.000000 53.000000 14.667756 17.000000
16.528421 -15.400582 0.745836 0.000000 29.000000 14.300418 0.000000
16.646226 -17.167829 0.070809 0.000000 65.000000 15.015083 8.000000
16.569957 -15.201142 0.865767 0.000000 33.000000 14.229757 0.000000
19.013482 -18.203819 -0.410433 0.000000 34.000000 14.598447 29.000000
15.226391 -18.467993 -2.489243 0.000000 51.000000 14.703485 7.000000
16.544245 -15.071694 1.139572 0.000000 27.000000 14.329826 0.000000
19.371533 -19.700128 -2.245326 0.000000 33.000000 14.290297 0.000000
16.664902 -16.850854 0.060401 0.000000 39.000000 14.787471 8.000000
18.839128 -20.780432 -2.968757 0.000000 75.000000 14.729115 13.000000
19.302680 -20.538785 -3.166842 0.000000 40.000000 14.278894 0.000000
15.813413 -17.601424 -1.860147 0.000000 46.000000 14.329106 0.000000
17.267348 -19.129632 -2.714379 0.000000 39.000000 14.311621 0.000000
17.062666 -18.360122 -1.457953 0.000000 61.000000 14.681477 11.000000
20.145395 -19.663036 -0.899052 0.000000 74.000000 14.882462 24.000000
18.043526 -19.152311 -1.781878 0.000000 41.000000 14.673038 11.000000
17.834496 -16.716982 1.101311 0.000000 77.000000 14.980337 18.000000
19.310391 -17.567013 0.432482 0.000000 40.000000 14.617691 30.000000
16.337791 -18.330623 -2.549650 0.000000 34.000000 14.194004 0.000000
16.894696 -16.756381 0.297456 0.000000 57.000000 14.800506 8.000000
16.713640 -15.222512 1.024533 0.000000 40.000000 14.299225 0.000000
19.868424 -17.783410 -0.071676 0.000000 36.000000 14.245319 0.000000
20.322843 -18.533980 -0.560939 0.000000 41.000000 14.279270 0.000000
17.623535 -18.579034 -1.128547 0.000000 50.000000 14.854589 11.000000
18.251478 -17.050731 0.578620 0.000000 60.000000 14.723112 18.000000
15.643739 -17.746015 -1.108224 0.000000 50.000000 14.975894 27.000000
16.581830 -19.153137 -2.670995 0.000000 60.000000 14.588447 12.000000
16.814634 -16.997678 -0.732430 0.000000 31.000000 14.317895 0.000000
14.665830 -17.643855 -1.952500 0.000000 74.000000 14.686794 10.000000
18.810115 -17.328345 -0.194693 0.000000 31.000000 14.216060 0.000000
21.183010 -18.206999 0.684141 0.000000 53.000000 14.579878 9.000000
17.336005 -19.044502 -1.895669 0.000000 73.000000 14.765763 26.000000
18.640830 -17.178950 -0.027997 0.000000 34.000000 14.281345 0.000000
18.148376 -16.515735 0.910036 0.000000 50.000000 14.612680 18.000000
18.010572 -18.813607 -1.258842 0.000000 75.000000 14.796852 11.000000
19.236280 -20.886029 -3.317621 0.000000 31.000000 14.437840 13.000000
19.173886 -16.445927 0.859667 0.000000 27.000000 14.184614 0.000000
18.193748 -19.182826 -1.713479 0.000000 61.000000 14.687420 11.000000
16.896600 -18.407888 -1.904037 0.000000 57.000000 14.478617 26.000000
18.747184 -16.989681 0.770949 0.000000 62.000000 14.639318 18.000000
17.962433 -18.967141 -1.754206 0.000000 43.000000 14.593343 11.000000
18.021900 -15.901601 0.907793 0.000000 26.000000 14.238583 0.000000
19.078446 -16.301074 0.985689 0.000000 34.000000 14.201338 0.000000
15.542946 -18.356369 -2.374868 0.000000 78.000000 14.595306 7.000000
19.112359 -20.701131 -3.021701 0.000000 53.000000 14.548162 13.000000
18.880654 -20.499010 -2.535027 0.000000 64.000000 14.808056 5.000000
14.984254 -18.696406 -3.598982 0.000000 27.000000 14.214956 0.000000
16.131108 -19.226689 -3.603461 0.000000 30.000000 14.181750 0.000000
16.194621 -19.264583 -3.487605 0.000000 30.000000 14.261556 0.000000
16.288781 -19.272086 -3.414591 0.000000 35.000000 14.282403 0.000000
20.425186 -19.156024 -0.300668 0.000000 38.000000 14.835531 2.000000
16.482040 -19.290644 -3.274336 0.000000 44.000000 14.321053 0.000000
19.392604 -19.470743 -2.015263 0.000000 46.000000 14.278289 0.000000
20.193296 -17.719912 0.886337 0.000000 57.000000 14.718210 1.000000
14.974535 -17.212185 -1.591074 0.000000 42.000000 14.526178 10.000000
18.918738 -17.157451 0.705252 0.000000 44.000000 14.651701 18.000000
16.490722 -17.435490 -0.707650 0.000000 51.000000 14.740215 22.000000
20.404992 -17.507939 0.689559 0.000000 54.000000 14.374366 1.000000
14.827974 -18.349846 -2.391726 0.000000 84.000000 14.822439 7.000000
19.528025 -20.916201 -3.154973 0.000000 59.000000 14.465570 16.000000
17.170373 -19.304778 -2.979530 0.000000 46.000000 14.289750 0.000000
21.107600 -18.181963 0.569403 0.000000 63.000000 14.513539 9.000000
19.301210 -19.315897 -1.603699 0.000000 52.000000 14.473483 25.000000
18.178620 -20.213332 -2.685956 0.000000 61.000000 14.754298 5.000000
16.753616 -18.867427 -2.646705 0.000000 30.000000 14.352721 0.000000
16.150019 -17.911763 -1.914336 0.000000 52.000000 14.389480 26.000000
16.255099 -18.816211 -2.562415 0.000000 61.000000 14.542278 7.000000
16.995890 -19.231676 -2.970251 0.000000 32.000000 14.305547 0.000000
17.164253 -18.251288 -1.318012 0.000000 51.000000 14.664826 11.000000
17.502635 -17.390418 -0.574451 0.000000 44.000000 14.453462 3.000000
18.739040 -16.214072 1.047734 0.000000 33.000000 14.298164 0.000000
15.583819 -18.458252 -2.337258 0.000000 49.000000 14.674955 7.000000
18.551759 -19.371509 -1.414464 0.000000 65.000000 14.889039 17.000000
17.485105 -18.872014 -2.566780 0.000000 32.000000 14.159890 0.000000
20.687316 -18.912691 -0.742815 0.000000 30.000000 14.293007 0.000000
17.575557 -18.933903 -2.485163 0.000000 38.000000 14.224417 0.000000
19.323765 -19.166680 -0.949828 0.000000 58.000000 14.792179 20.000000
14.815421 -17.557124 -1.767117 0.000000 74.000000 14.698508 10.000000
17.430200 -18.471987 -1.865927 0.000000 23.000000 14.365863 0.000000
16.875154 -19.748695 -3.484401 0.000000 42.000000 14.360335 0.000000
17.583949 -19.557039 -2.769301 0.000000 68.000000 14.457514 28.000000
19.200426 -19.627290 -2.376235 0.000000 38.000000 14.213512 0.000000
19.260685 -19.843592 -2.632201 0.000000 23.000000 14.172148 0.000000
16.162181 -16.302622 -0.229257 0.000000 47.000000 14.397782 21.000000
19.627004 -21.281170 -3.111213 0.000000 47.000000 14.707536 16.000000
20.083790 -18.477400 -0.582914 0.000000 33.000000 14.307728 0.000000
15.440948 -16.544216 -0.034472 0.000000 71.000000 14.933231 21.000000
19.689260 -19.815361 -2.215251 0.000000 42.000000 14.280128 0.000000
18.163154 -17.476544 -0.076489 0.000000 55.000000 14.613072 3.000000
18.544494 -16.980215 0.156265 0.000000 35.000000 14.299975 0.000000
18.461594 -19.506627 -2.526930 0.000000 41.000000 14.284045 0.000000
14.790443 -17.254096 -1.139636 0.000000 80.000000 14.912011 10.000000
19.384032 -19.504155 -2.039062 0.000000 40.000000 14.288252 0.000000
20.436017 -19.620989 -1.359548 0.000000 69.000000 14.454476 24.000000
19.789304 -19.658582 -1.979318 0.000000 40.000000 14.294291 0.000000
19.236154 -19.084444 -0.820636 0.000000 52.000000 14.850687 20.000000
20.068442 -19.764829 -1.951724 0.000000 41.000000 14.289513 0.000000
16.947865 -15.860565 0.827374 0.000000 51.000000 14.522641 23.000000
16.843309 -18.791865 -1.739814 0.000000 79.000000 14.863827 26.000000
21.146686 -18.227596 0.196602 0.000000 41.000000 14.287526 0.000000
16.594247 -17.656553 -1.195642 0.000000 40.000000 14.535763 27.000000
19.733387 -20.962935 -2.645265 0.000000 68.000000 14.760620 19.000000
15.306926 -17.363639 -1.639845 0.000000 53.000000 14.484016 27.000000
20.934217 -17.814891 0.516021 0.000000 39.000000 14.289104 0.000000
18.167615 -17.700498 -0.396243 0.000000 72.000000 14.554130 3.000000
17.709855 -16.365416 1.012310 0.000000 60.000000 14.726581 18.000000
18.313278 -18.475425 -0.759583 0.000000 49.000000 14.791603 15.000000
20.809328 -17.352589 0.813742 0.000000 41.000000 14.213231 0.000000
14.824331 -18.259978 -2.603350 0.000000 71.000000 14.624569 7.000000
15.497012 -18.757777 -3.179973 0.000000 35.000000 14.356350 0.000000
14.722284 -17.733345 -2.537857 0.000000 32.000000 14.345655 0.000000
14.813771 -17.688981 -2.499032 0.000000 42.000000 14.309972 0.000000
15.336469 -18.539319 -2.842254 0.000000 56.000000 14.483704 7.000000
15.034578 -17.566181 -2.468436 0.000000 31.000000 14.171966 0.000000
19.019664 -16.420386 0.831512 0.000000 31.000000 14.201254 0.000000
18.606699 -19.348585 -1.363844 0.000000 63.000000 14.887970 17.000000
18.566321 -19.460036 -2.568614 0.000000 58.000000 14.189749 0.000000
21.261309 -17.655374 0.703953 0.000000 33.000000 14.193016 0.000000
15.142941 -18.583626 -2.740652 0.000000 49.000000 14.645738 7.000000
18.331042 -20.166921 -2.528344 0.000000 63.000000 14.774185 5.000000
15.590453 -17.597014 -1.972906 0.000000 36.000000 14.328075 0.000000
16.649568 -17.182321 -0.982875 0.000000 48.000000 14.335161 0.000000
15.177072 -17.059015 -1.616779 0.000000 29.000000 14.337027 0.000000
15.292929 -17.058948 -1.579669 0.000000 34.000000 14.321928 0.000000
16.642831 -19.682029 -3.105618 0.000000 71.000000 14.641584 14.000000
17.256878 -17.664220 -1.385898 0.000000 35.000000 14.191811 0.000000
19.972453 -20.222446 -2.009698 0.000000 70.000000 14.593828 19.000000
17.990614 -19.039895 -1.523803 0.000000 67.000000 14.783580 11.000000
18.547793 -19.892259 -2.551724 0.000000 64.000000 14.499527 5.000000
19.220622 -17.129979 0.688602 0.000000 57.000000 14.519814 18.000000
20.944430 -17.909871 0.424341 0.000000 32.000000 14.289991 0.000000
16.955158 -17.359200 -1.080457 0.000000 31.000000 14.287397 0.000000
17.242665 -19.035054 -2.022160 0.000000 57.000000 14.708373 26.000000
19.487828 -20.855629 -3.224366 0.000000 36.000000 14.392873 16.000000
17.404731 -17.970370 -1.150769 0.000000 37.000000 14.502459 11.000000
19.625086 -21.293558 -3.056280 0.000000 55.000000 14.752468 16.000000
20.254348 -18.030502 -0.046459 0.000000 24.000000 14.298059 0.000000
16.048025 -16.825808 -0.604637 0.000000 62.000000 14.545197 21.000000
20.446907 -18.869369 -0.868450 0.000000 41.000000 14.263152 0.000000
20.580700 -18.930045 -0.871712 0.000000 41.000000 14.256684 0.000000
20.708101 -18.999853 -0.872356 0.000000 42.000000 14.260276 0.000000
19.860808 -18.562746 -0.817665 0.000000 39.000000 14.287712 0.000000
18.312643 -19.079942 -1.639152 0.000000 49.000000 14.626043 11.000000
16.710412 -18.761614 -2.131943 0.000000 63.000000 14.632185 26.000000
20.125277 -18.692546 -0.837565 0.000000 36.000000 14.272809 0.000000
20.258315 -18.762840 -0.849077 0.000000 41.000000 14.267714 0.000000
15.543840 -17.700814 -1.566343 0.000000 61.000000 14.679817 27.000000
17.923958 -18.741476 -1.498753 0.000000 62.000000 14.620646 11.000000
18.863666 -20.365644 -2.685281 0.000000 63.000000 14.625388 5.000000
14.685099 -18.283527 -3.193774 0.000000 47.000000 14.301891 0.000000
19.276203 -20.832806 -3.471390 0.000000 35.000000 14.287794 0.000000
18.463858 -20.688588 -3.161989 0.000000 76.000000 14.668006 13.000000
15.627062 -18.023452 -1.780431 0.000000 56.000000 14.729980 26.000000
14.895945 -18.346203 -3.132221 0.000000 35.000000 14.312992 0.000000
16.089733 -15.268338 0.728145 0.000000 44.000000 14.348207 0.000000
14.784503 -18.216444 -3.000032 0.000000 44.000000 14.349389 0.000000
15.196073 -19.029903 -3.337567 0.000000 42.000000 14.539585 6.000000
14.696055 -18.068380 -2.886119 0.000000 35.000000 14.353655 0.000000
16.816370 -19.051207 -2.528591 0.000000 42.000000 14.532971 12.000000
19.740121 -20.736632 -3.096234 0.000000 30.000000 14.310499 0.000000
15.748841 -18.729546 -3.085311 0.000000 27.000000 14.313675 0.000000
18.933039 -19.711553 -2.269137 0.000000 55.000000 14.431231 4.000000
16.209066 -18.549787 -1.677256 0.000000 78.000000 14.956087 26.000000
15.715314 -15.449215 0.312095 0.000000 30.000000 14.325727 0.000000
16.746265 -16.003406 0.250851 0.000000 34.000000 14.310923 0.000000
15.820978 -15.468476 0.354158 0.000000 30.000000 14.330400 0.000000
16.833438 -18.267937 -1.272609 0.000000 73.000000 14.817995 27.000000
16.281872 -17.509435 -0.660872 0.000000 58.000000 14.891674 22.000000
17.938803 -16.627141 1.038470 0.000000 36.000000 14.843094 18.000000
19.783187 -20.901495 -2.174589 0.000000 68.000000 15.009744 19.000000
19.085408 -20.920345 -2.994923 0.000000 64.000000 14.723131 13.000000
16.677756 -18.123722 -1.049074 0.000000 79.000000 14.919315 27.000000
17.038461 -19.578325 -3.154820 0.000000 61.000000 14.405039 14.000000
17.998152 -19.077915 -1.770258 0.000000 59.000000 14.645687 11.000000
17.716051 -16.207955 0.556820 0.000000 38.000000 14.320269 0.000000
17.742898 -15.926328 0.723431 0.000000 24.000000 14.229486 0.000000
17.679203 -19.788223 -3.170621 0.000000 56.000000 14.319356 0.000000
14.988187 -17.455192 -1.815279 0.000000 56.000000 14.539451 10.000000
18.113220 -18.330579 -0.575273 0.000000 64.000000 14.881916 15.000000
19.675588 -16.876515 0.730896 0.000000 36.000000 14.221601 0.000000
19.833551 -16.901659 0.706626 0.000000 28.000000 14.169162 0.000000
14.564536 -18.138609 -3.080044 0.000000 38.000000 14.319061 0.000000
16.741002 -16.146647 0.641038 0.000000 67.000000 14.664620 23.000000
16.361078 -16.821332 -0.011115 0.000000 60.000000 14.823835 8.000000
15.144185 -17.444996 -2.041262 0.000000 49.000000 14.331946 0.000000
19.605973 -19.113830 -0.708986 0.000000 73.000000 14.818069 24.000000
19.693137 -19.109847 -1.061596 0.000000 64.000000 14.555368 24.000000
16.416484 -18.048151 -1.659925 0.000000 32.000000 14.557623 27.000000
18.982964 -20.621141 -3.601790 0.000000 37.000000 14.158842 0.000000
19.662625 -17.523949 0.186014 0.000000 37.000000 14.307984 0.000000
15.402385 -17.288413 -1.072017 0.000000 83.000000 14.771813 27.000000
20.859200 -17.570707 0.668781 0.000000 39.000000 14.249163 0.000000
19.988440 -20.315903 -2.017912 0.000000 77.000000 14.646272 19.000000
17.607890 -17.637673 -0.419965 0.000000 42.000000 14.686011 3.000000
17.628699 -18.761062 -1.775521 0.000000 61.000000 14.553198 11.000000
20.317927 -19.131332 -0.081818 0.000000 71.000000 14.998234 2.000000
15.658684 -18.332252 -2.133951 0.000000 77.000000 14.697165 26.000000
18.174880 -17.597734 -0.674369 0.000000 29.000000 14.300373 0.000000
19.726796 -19.984972 -1.489034 0.000000 41.000000 14.856748 25.000000
16.203258 -18.491097 -1.738093 0.000000 75.000000 14.878589 26.000000
21.131962 -18.025381 0.438968 0.000000 55.000000 14.314085 0.000000
17.365718 -18.447916 -1.190046 0.000000 69.000000 14.813147 11.000000
19.476815 -20.401648 -2.907010 0.000000 38.000000 14.296829 0.000000
19.598019 -20.356697 -2.802827 0.000000 47.000000 14.293379 0.000000
14.841931 -17.512796 -1.875474 0.000000 41.000000 14.588708 10.000000
17.699067 -17.827430 -0.696686 0.000000 60.000000 14.602633 15.000000
17.484589 -19.140471 -1.839463 0.000000 54.000000 14.817020 26.000000
15.201495 -19.102030 -3.096322 0.000000 79.000000 14.744205 6.000000
16.910503 -16.929644 -0.684326 0.000000 37.000000 14.270773 0.000000
18.808899 -20.838446 -2.995479 0.000000 66.000000 14.761162 13.000000
19.748985 -17.733425 -0.046205 0.000000 38.000000 14.268665 0.000000
20.308042 -19.680337 -1.142677 0.000000 58.000000 14.679777 24.000000
19.027674 -20.582650 -2.681205 0.000000 38.000000 14.719242 5.000000
17.505303 -17.930685 -0.685068 0.000000 80.000000 14.745827 15.000000
18.492345 -19.556713 -2.596034 0.000000 38.000000 14.262341 0.000000
18.614280 -16.761287 1.073805 0.000000 60.000000 14.727789 18.000000
16.434567 -18.034948 -1.225373 0.000000 76.000000 14.826539 27.000000
16.996901 -18.660216 -2.535531 0.000000 38.000000 14.202632 0.000000
16.507543 -16.062349 0.539158 0.000000 85.000000 14.620206 23.000000
20.299194 -17.922354 0.056893 0.000000 41.000000 14.277211 0.000000
16.565017 -16.692585 0.302589 0.000000 51.000000 14.872542 8.000000
15.754711 -18.832685 -2.692872 0.000000 73.000000 14.637932 7.000000
19.694892 -19.170162 -1.060848 0.000000 57.000000 14.596073 24.000000
19.988810 -20.066467 -2.523708 0.000000 19.000000 14.146827 0.000000
18.025704 -19.115173 -2.477718 0.000000 38.000000 14.199217 0.000000
18.882801 -18.758570 -0.737591 0.000000 49.000000 14.804341 20.000000
18.072955 -17.564002 -0.704095 0.000000 38.000000 14.292703 0.000000
20.023012 -20.281880 -2.058795 0.000000 78.000000 14.584805 19.000000
15.909703 -17.708011 -1.924793 0.000000 32.000000 14.326312 0.000000
15.820868 -18.395453 -1.758072 0.000000 56.000000 14.930547 26.000000
19.263262 -19.728917 -1.698086 0.000000 58.000000 14.704136 25.000000
15.336918 -19.020421 -3.353708 0.000000 61.000000 14.474837 6.000000
15.204392 -16.603324 -1.306344 0.000000 33.000000 14.222298 0.000000
18.843907 -19.735084 -1.945305 0.000000 59.000000 14.689019 4.000000
16.746458 -16.058887 0.435585 0.000000 52.000000 14.469122 23.000000
15.768346 -16.823682 -0.522322 0.000000 47.000000 14.692437 21.000000
18.385408 -19.836766 -2.518107 0.000000 65.000000 14.539038 5.000000
17.253019 -18.846154 -2.182550 0.000000 28.000000 14.472229 26.000000
15.871048 -15.572849 0.258622 0.000000 35.000000 14.321602 0.000000
19.895471 -20.605595 -2.522395 0.000000 54.000000 14.544141 19.000000
15.907312 -15.455681 0.405410 0.000000 33.000000 14.325947 0.000000
15.827364 -18.473065 -2.435419 0.000000 53.000000 14.538204 7.000000
15.178850 -16.760447 -0.300445 0.000000 72.000000 14.994643 21.000000
15.549686 -18.930202 -3.550254 0.000000 36.000000 14.213164 0.000000
16.016894 -15.238517 0.694620 0.000000 36.000000 14.330832 0.000000
19.538709 -20.569327 -2.814626 0.000000 56.000000 14.449661 19.000000
16.775085 -18.864783 -1.963381 0.000000 55.000000 14.790208 26.000000
16.183909 -15.012638 0.856867 0.000000 33.000000 14.227365 0.000000
14.792373 -17.404242 -1.726999 0.000000 52.000000 14.629101 10.000000
17.420979 -17.781534 -0.599488 0.000000 64.000000 14.729443 15.000000
20.229166 -19.756091 -1.848019 0.000000 40.000000 14.296845 0.000000
19.920900 -19.846375 -1.509974 0.000000 54.000000 14.683433 25.000000
20.884090 -17.452086 0.873093 0.000000 52.000000 14.293977 0.000000
15.737191 -18.782092 -2.570381 0.000000 67.000000 14.689694 7.000000
15.449094 -17.556304 -1.652658 0.000000 64.000000 14.557773 27.000000
17.416066 -18.336200 -1.236395 0.000000 72.000000 14.690187 11.000000
17.340851 -18.807409 -1.862126 0.000000 78.000000 14.625615 26.000000
18.441444 -20.709375 -3.036166 0.000000 65.000000 14.771902 13.000000
17.023613 -18.828777 -1.773276 0.000000 77.000000 14.805765 26.000000
17.506373 -18.545241 -1.493900 0.000000 61.000000 14.632710 11.000000
20.307572 -17.621798 0.880786 0.000000 71.000000 14.609426 1.000000
17.957876 -16.798580 0.636692 0.000000 49.000000 14.690057 18.000000
16.409451 -17.855687 -1.072479 0.000000 64.000000 14.813684 27.000000
15.888449 -16.251868 0.026082 0.000000 64.000000 14.623174 21.000000
16.076028 -15.736247 0.216221 0.000000 26.000000 14.334909 0.000000
17.423946 -19.446879 -2.994040 0.000000 33.000000 14.290390 0.000000
18.701176 -17.578363 -0.441523 0.000000 36.000000 14.260882 0.000000
17.956346 -19.185910 -1.951125 0.000000 54.000000 14.614744 26.000000
20.066049 -19.268600 -1.146881 0.000000 83.000000 14.480536 24.000000
19.090433 -19.575426 -1.967483 0.000000 51.000000 14.482860 4.000000
15.771635 -17.338261 -0.584618 0.000000 81.000000 14.998788 22.000000
20.769572 -18.384536 -0.164849 0.000000 38.000000 14.285444 0.000000
20.369758 -19.437699 -0.732073 0.000000 70.000000 14.762998 24.000000
17.378606 -17.948250 -1.077302 0.000000 42.000000 14.544367 15.000000
17.298176 -18.603363 -1.537520 0.000000 66.000000 14.714164 11.000000
18.301372 -16.963717 0.038598 0.000000 34.000000 14.294398 0.000000
16.773217 -19.243887 -3.099391 0.000000 35.000000 14.304959 0.000000
19.217824 -16.680834 0.897229 0.000000 30.000000 14.353199 0.000000
18.801914 -17.256145 -0.032125 0.000000 40.000000 14.276230 0.000000
17.102292 -16.191722 0.246413 0.000000 33.000000 14.314656 0.000000
19.295188 -19.412735 -1.999506 0.000000 42.000000 14.282386 0.000000
17.850559 -18.342540 -0.778205 0.000000 57.000000 14.846502 15.000000
19.122825 -19.066623 -1.285391 0.000000 37.000000 14.573354 20.000000
15.603232 -18.737517 -2.467023 0.000000 46.000000 14.772526 7.000000
16.867367 -15.431470 0.839188 0.000000 29.000000 14.267334 0.000000
16.467861 -18.261114 -1.225784 0.000000 52.000000 14.968006 27.000000
15.151482 -17.640543 -2.462874 0.000000 40.000000 14.186255 0.000000
19.512976 -18.244561 -0.202611 0.000000 66.000000 14.592369 29.000000
20.508837 -18.911060 -0.828001 0.000000 34.000000 14.296785 0.000000
16.704498 -18.424737 -2.515588 0.000000 38.000000 14.155534 0.000000
16.791597 -15.197709 1.099846 0.000000 23.000000 14.305213 0.000000
18.997096 -19.385067 -1.572701 0.000000 57.000000 14.643717 17.000000
21.119054 -18.157033 0.251223 0.000000 37.000000 14.284851 0.000000
16.850375 -19.683694 -3.491543 0.000000 36.000000 14.320093 0.000000
17.893415 -20.187502 -3.616325 0.000000 39.000000 14.225574 0.000000
18.026065 -16.207711 1.206012 0.000000 67.000000 14.639182 18.000000
18.879377 -20.513940 -2.503840 0.000000 72.000000 14.838972 5.000000
15.388616 -18.669135 -2.599434 0.000000 71.000000 14.712535 7.000000
19.165665 -20.403742 -2.502117 0.000000 71.000000 14.668409 5.000000
18.835836 -19.594691 -2.504757 0.000000 36.000000 14.231155 0.000000
15.559381 -18.903810 -3.295773 0.000000 27.000000 14.358324 0.000000
19.790818 -20.850769 -2.217582 0.000000 56.000000 14.944736 19.000000
16.839659 -16.069240 0.460140 0.000000 50.000000 14.460555 23.000000
15.990214 -18.941461 -3.192491 0.000000 23.000000 14.305130 0.000000
17.987022 -19.801479 -3.074128 0.000000 43.000000 14.286954 0.000000
15.979092 -17.140394 -0.736836 0.000000 67.000000 14.695048 22.000000
15.084121 -18.043694 -2.522060 0.000000 62.000000 14.443212 7.000000
19.360337 -20.418373 -3.006952 0.000000 44.000000 14.282349 0.000000
16.815076 -19.612798 -3.561735 0.000000 39.000000 14.238227 0.000000
18.978956 -18.290142 -0.330723 0.000000 77.000000 14.720661 29.000000
19.959858 -17.409013 0.930078 0.000000 42.000000 14.615629 1.000000
19.641112 -20.123375 -2.678392 0.000000 35.000000 14.202206 0.000000
16.790771 -19.897459 -2.849341 0.000000 52.000000 14.904639 14.000000
17.200753 -20.346883 -3.188990 0.000000 49.000000 14.847677 14.000000
16.141130 -15.253317 0.787704 0.000000 35.000000 14.359529 0.000000
16.566054 -18.380518 -1.283217 0.000000 80.000000 14.977951 27.000000
20.001138 -20.508625 -1.645571 0.000000 72.000000 15.015694 19.000000
15.445066 -18.962682 -3.199368 0.000000 72.000000 14.499943 6.000000
21.161612 -18.361047 0.117638 0.000000 43.000000 14.321154 0.000000
14.914131 -18.983354 -3.184889 0.000000 54.000000 14.703518 6.000000
14.372991 -18.120405 -3.126509 0.000000 38.000000 14.341362 0.000000
20.046803 -17.754483 0.163869 0.000000 45.000000 14.319161 0.000000
17.977422 -18.795669 -1.531128 0.000000 62.000000 14.618019 11.000000
17.275731 -20.326803 -3.277217 0.000000 45.000000 14.750996 14.000000
17.468001 -17.528328 -0.022825 0.000000 60.000000 14.919020 3.000000
19.931477 -17.558844 0.313661 0.000000 46.000000 14.323802 0.000000
17.845765 -16.609561 0.534568 0.000000 56.000000 14.533458 18.000000
18.894767 -18.809031 -1.008010 0.000000 43.000000 14.657703 20.000000
19.871605 -20.835233 -2.143380 0.000000 68.000000 14.955308 19.000000
16.059440 -17.406686 -0.463611 0.000000 49.000000 15.026525 22.000000
16.121806 -15.269761 0.733809 0.000000 33.000000 14.341991 0.000000
18.391715 -19.512187 -2.604151 0.000000 49.000000 14.261049 0.000000
19.272722 -18.102007 0.156072 0.000000 58.000000 14.811826 29.000000
19.112895 -18.665345 -0.562952 0.000000 72.000000 14.777329 20.000000
18.913588 -19.763478 -2.148091 0.000000 77.000000 14.552068 4.000000
18.366777 -20.188052 -2.531346 0.000000 72.000000 14.774398 5.000000
19.688630 -16.917542 0.746846 0.000000 33.000000 14.255359 0.000000
20.272345 -19.157099 -0.822956 0.000000 47.000000 14.546791 24.000000
17.359687 -16.360815 1.048630 0.000000 68.000000 14.866002 23.000000
16.850445 -18.431275 -1.401164 0.000000 78.000000 14.838733 27.000000
16.167154 -16.468469 -0.280992 0.000000 39.000000 14.474502 21.000000
19.513646 -16.546652 1.095485 0.000000 29.000000 14.291609 0.000000
18.483271 -20.143661 -2.481303 0.000000 71.000000 14.737543 5.000000
16.854661 -19.902055 -3.054983 0.000000 59.000000 14.751684 14.000000
16.852850 -18.574457 -2.551398 0.000000 25.000000 14.183107 0.000000
16.161716 -16.313693 0.130143 0.000000 52.000000 14.640302 21.000000
18.977696 -17.087534 0.415829 0.000000 54.000000 14.395249 18.000000
15.260999 -17.403004 -1.936858 0.000000 47.000000 14.332131 0.000000
14.686279 -17.469315 -1.390763 0.000000 52.000000 14.928859 10.000000
19.435165 -20.968701 -3.323162 0.000000 64.000000 14.422684 16.000000
19.231488 -18.219072 -0.059621 0.000000 75.000000 14.764066 29.000000
15.465211 -17.857872 -2.555284 0.000000 26.000000 14.166478 0.000000
19.316852 -19.668386 -2.207763 0.000000 34.000000 14.311918 0.000000
17.623520 -18.288920 -1.070563 0.000000 44.000000 14.696188 11.000000
16.302317 -18.942647 -3.024767 0.000000 31.000000 14.309657 0.000000
15.600348 -17.994515 -2.330286 0.000000 30.000000 14.360127 0.000000
16.789980 -18.166495 -1.925187 0.000000 36.000000 14.337633 0.000000
17.519452 -15.875595 1.327785 0.000000 64.000000 14.665917 23.000000
20.055437 -19.820246 -1.414055 0.000000 62.000000 14.682794 25.000000
17.146690 -18.751706 -2.622334 0.000000 34.000000 14.156993 0.000000
16.502523 -18.699589 -1.869782 0.000000 60.000000 14.832070 26.000000
20.438860 -18.426684 -0.393477 0.000000 27.000000 14.276749 0.000000
18.096698 -17.639503 -0.214183 0.000000 69.000000 14.655896 3.000000
18.674629 -19.586579 -1.842788 0.000000 70.000000 14.712961 4.000000
15.914593 -16.602400 -0.100131 0.000000 56.000000 14.769002 21.000000
17.108621 -19.450687 -3.142618 0.000000 42.000000 14.302847 0.000000
19.929915 -19.733278 -1.256260 0.000000 67.000000 14.769655 25.000000
15.524566 -16.751705 -1.351812 0.000000 30.000000 14.184360 0.000000
19.990612 -20.330396 -1.965203 0.000000 65.000000 14.689787 19.000000
19.636909 -18.776132 -0.574196 0.000000 57.000000 14.667165 20.000000
14.935127 -17.904234 -2.528447 0.000000 44.000000 14.395224 7.000000
15.838024 -15.577597 0.244990 0.000000 36.000000 14.327109 0.000000
17.055363 -16.919522 -0.553874 0.000000 36.000000 14.300030 0.000000
19.745041 -21.044845 -3.618700 0.000000 31.000000 14.175938 0.000000
19.326278 -19.373776 -1.214257 0.000000 74.000000 14.758646 25.000000
19.496212 -18.472384 -0.275034 0.000000 61.000000 14.704879 29.000000
16.324584 -18.714278 -2.577699 0.000000 66.000000 14.439746 7.000000
16.886975 -18.906519 -1.922856 0.000000 72.000000 14.806971 26.000000
16.568439 -15.219779 0.946791 0.000000 40.000000 14.295832 0.000000
19.542303 -20.906645 -2.646030 0.000000 77.000000 14.786859 19.000000
17.563248 -16.695208 -0.235907 0.000000 31.000000 14.183743 0.000000
18.504682 -17.244225 -0.280856 0.000000 37.000000 14.206455 0.000000
17.673238 -16.754436 -0.208250 0.000000 29.000000 14.204577 0.000000
18.698136 -17.713562 -0.525848 0.000000 38.000000 14.298286 0.000000
18.145506 -19.906148 -2.856242 0.000000 50.000000 14.446399 5.000000
18.764999 -17.310601 -0.265104 0.000000 34.000000 14.173345 0.000000
18.314766 -17.332751 -0.258868 0.000000 50.000000 14.345155 0.000000
18.474599 -19.386356 -2.138464 0.000000 54.000000 14.452120 4.000000
17.387183 -18.380432 -1.873158 0.000000 34.000000 14.313783 0.000000
19.437803 -21.251745 -3.173307 0.000000 78.000000 14.711235 16.000000
16.038743 -19.183355 -3.403120 0.000000 59.000000 14.314690 0.000000
19.111434 -17.480567 -0.208499 0.000000 38.000000 14.207809 0.000000
20.781277 -19.122762 -0.372243 0.000000 58.000000 14.645443 2.000000
21.128740 -18.129921 0.776883 0.000000 72.000000 14.606744 9.000000
18.380164 -17.101065 -0.111210 0.000000 32.000000 14.262699 0.000000
17.694566 -16.637234 1.041148 0.000000 69.000000 14.934533 18.000000
16.525060 -19.188486 -3.180014 0.000000 35.000000 14.298975 0.000000
18.766459 -17.260362 -0.110449 0.000000 30.000000 14.239926 0.000000
18.842989 -17.152283 0.140323 0.000000 37.000000 14.304716 0.000000
20.326525 -19.774823 -0.944270 0.000000 66.000000 14.867099 24.000000
19.196307 -19.245740 -1.821115 0.000000 28.000000 14.319519 0.000000
18.595431 -19.170144 -1.301064 0.000000 51.000000 14.812081 17.000000
20.211700 -18.016911 -0.163947 0.000000 38.000000 14.226553 0.000000
15.801017 -16.797913 -0.397962 0.000000 78.000000 14.745188 21.000000
16.504616 -15.157633 0.884334 0.000000 27.000000 14.234619 0.000000
18.658143 -20.836862 -3.111368 0.000000 77.000000 14.735501 13.000000
19.695950 -19.873466 -1.403176 0.000000 50.000000 14.847874 25.000000
16.266448 -18.268616 -2.424228 0.000000 30.000000 14.258217 0.000000
19.722390 -16.648275 1.104749 0.000000 31.000000 14.295605 0.000000
15.453581 -18.660007 -2.837673 0.000000 44.000000 14.528627 7.000000
17.083019 -17.326557 -0.928991 0.000000 28.000000 14.320916 0.000000
17.989801 -20.138397 -2.608061 0.000000 51.000000 14.818559 5.000000
19.075854 -18.981225 -0.873496 0.000000 56.000000 14.800685 20.000000
19.608555 -18.528893 -0.431315 0.000000 61.000000 14.602869 29.000000
19.002957 -17.247328 0.866064 0.000000 54.000000 14.789034 18.000000
20.996127 -18.545534 -0.346019 0.000000 31.000000 14.199122 0.000000
17.128602 -15.946555 1.037190 0.000000 79.000000 14.656624 23.000000
19.071548 -20.581082 -3.104052 0.000000 53.000000 14.426961 13.000000
18.746804 -18.751957 -0.500151 0.000000 72.000000 15.001174 20.000000
19.160837 -19.709011 -2.506570 0.000000 24.000000 14.197062 0.000000
17.794837 -20.162901 -3.294220 0.000000 73.000000 14.452870 13.000000
18.649427 -20.498551 -3.635928 0.000000 32.000000 14.166742 0.000000
16.926328 -16.038782 0.409203 0.000000 56.000000 14.377255 23.000000
16.004662 -17.460563 -0.962231 0.000000 74.000000 14.755710 27.000000
19.364879 -20.838141 -3.593348 0.000000 38.000000 14.181619 0.000000
18.770705 -18.192402 -0.680101 0.000000 55.000000 14.496856 20.000000
18.265268 -20.297386 -3.616057 0.000000 30.000000 14.173944 0.000000
18.935444 -18.831898 -1.243342 0.000000 69.000000 14.505583 20.000000
18.355529 -19.037416 -1.745401 0.000000 65.000000 14.513285 11.000000
17.766247 -20.027559 -3.558636 0.000000 28.000000 14.198195 0.000000
18.471289 -20.373530 -3.457933 0.000000 37.000000 14.258905 0.000000
18.929638 -18.262294 -0.163443 0.000000 58.000000 14.827869 29.000000
17.891589 -19.163457 -2.234419 0.000000 47.000000 14.436386 26.000000
19.471231 -21.083917 -3.392804 0.000000 43.000000 14.442894 16.000000
15.165988 -18.366686 -2.981496 0.000000 38.000000 14.333737 0.000000
19.272277 -19.087065 -0.953032 0.000000 56.000000 14.753683 20.000000
16.370062 -17.782147 -1.067953 0.000000 31.000000 14.780247 27.000000
17.263010 -16.352876 0.996464 0.000000 81.000000 14.859338 23.000000
16.481793 -16.713457 -0.295990 0.000000 69.000000 14.523721 8.000000
16.297067 -19.092919 -3.209425 0.000000 32.000000 14.292441 0.000000
16.634446 -15.788569 0.683298 0.000000 55.000000 14.486102 23.000000
15.364138 -18.020064 -2.104702 0.000000 39.000000 14.604972 26.000000
16.683734 -17.049719 0.479675 0.000000 2.000000 15.189640 8.000000
16.350076 -19.356568 -3.447295 0.000000 46.000000 14.297399 0.000000
16.988880 -19.344306 -3.051944 0.000000 41.000000 14.330746 0.000000
18.064132 -18.809062 -1.563211 0.000000 67.000000 14.576697 11.000000
17.492805 -18.372568 -1.122148 0.000000 73.000000 14.763421 11.000000
18.410473 -17.032882 0.566498 0.000000 57.000000 14.649171 18.000000
19.231798 -18.147845 -0.447159 0.000000 50.000000 14.462507 29.000000
15.818054 -18.697423 -3.032166 0.000000 32.000000 14.303189 0.000000
16.734802 -19.094683 -2.955963 0.000000 41.000000 14.310768 0.000000
18.408546 -20.052900 -3.123896 0.000000 31.000000 14.281541 0.000000
20.576212 -18.771757 -0.698821 0.000000 42.000000 14.264091 0.000000
14.961427 -18.905939 -3.199674 0.000000 66.000000 14.625429 6.000000
15.011332 -17.480020 -2.351017 0.000000 36.000000 14.198288 0.000000
17.249407 -17.489746 -0.869429 0.000000 67.000000 14.413810 15.000000
16.046791 -18.382109 -2.554828 0.000000 39.000000 14.324182 0.000000
17.748230 -19.217913 -2.077149 0.000000 62.000000 14.624646 26.000000
19.135650 -17.281372 0.737686 0.000000 53.000000 14.683155 18.000000
16.388179 -17.610879 -1.105102 0.000000 61.000000 14.633939 27.000000
20.252053 -20.147418 -2.530489 0.000000 40.000000 14.107862 0.000000
19.145107 -19.032994 -0.562384 0.000000 68.000000 15.015533 20.000000
21.147878 -17.637790 0.866726 0.000000 23.000000 14.325975 0.000000
19.354230 -17.021302 0.491374 0.000000 40.000000 14.272062 0.000000
15.518301 -17.730328 -1.241307 0.000000 78.000000 14.920866 27.000000
15.395332 -17.364747 -1.833666 0.000000 40.000000 14.328109 0.000000
15.349956 -17.309198 -1.752627 0.000000 41.000000 14.358877 0.000000
15.131004 -19.072459 -2.701192 0.000000 48.000000 15.006333 6.000000
15.280593 -17.072046 -1.579449 0.000000 38.000000 14.335119 0.000000
19.788952 -16.782201 0.905829 0.000000 34.000000 14.233645 0.000000
16.782398 -18.933628 -2.568198 0.000000 28.000000 14.439055 12.000000
17.323981 -16.532073 0.065115 0.000000 54.000000 14.351256 0.000000
15.231910 -16.678514 -1.287162 0.000000 40.000000 14.276373 0.000000
14.942371 -18.618639 -2.396379 0.000000 52.000000 14.962460 7.000000
17.662849 -17.712186 -0.331759 0.000000 63.000000 14.775427 3.000000
19.502409 -20.898709 -2.425478 0.000000 72.000000 14.939158 19.000000
16.409026 -16.666572 0.100605 0.000000 68.000000 14.775864 8.000000
16.834351 -18.729261 -2.096149 0.000000 64.000000 14.591638 26.000000
15.683318 -15.629271 0.087350 0.000000 37.000000 14.311539 0.000000
15.260174 -18.476065 -2.698825 0.000000 58.000000 14.560521 7.000000
18.783563 -19.600542 -2.501132 0.000000 48.000000 14.255218 0.000000
15.353027 -17.325100 -1.141445 0.000000 77.000000 14.768009 27.000000
15.290849 -17.557494 -2.056072 0.000000 42.000000 14.348629 0.000000
19.685774 -18.157893 -0.376273 0.000000 31.000000 14.361614 0.000000
20.136870 -19.637588 -1.739197 0.000000 41.000000 14.319092 0.000000
16.153283 -18.876010 -3.058908 0.000000 37.000000 14.292819 0.000000
16.096556 -18.366100 -1.737419 0.000000 64.000000 14.830652 26.000000
16.262527 -15.416053 0.645207 0.000000 36.000000 14.335333 0.000000
15.565702 -17.752458 -1.092855 0.000000 54.000000 15.016773 27.000000
18.741847 -20.172036 -3.077334 0.000000 25.000000 14.279505 0.000000
21.256433 -18.270978 0.801556 0.000000 72.000000 14.674990 9.000000
15.303797 -17.505983 -1.547902 0.000000 77.000000 14.641477 27.000000
16.693801 -15.343331 0.897360 0.000000 31.000000 14.304596 0.000000
18.084404 -20.393934 -3.035219 0.000000 53.000000 14.680215 13.000000
17.779661 -19.212810 -2.072314 0.000000 65.000000 14.613689 26.000000
20.403812 -19.651883 -0.856608 0.000000 37.000000 14.814982 24.000000
19.389057 -19.536772 -1.620974 0.000000 65.000000 14.581841 25.000000
18.587230 -19.371177 -1.285107 0.000000 45.000000 14.961317 17.000000
19.927482 -17.806870 -0.098252 0.000000 47.000000 14.223789 0.000000
20.170691 -20.149043 -2.552043 0.000000 41.000000 14.122478 0.000000
15.629548 -18.188294 -1.737803 0.000000 67.000000 14.868531 26.000000
16.707858 -18.379848 -1.837418 0.000000 58.000000 14.567213 26.000000
19.183222 -17.554954 0.162453 0.000000 58.000000 14.476208 30.000000
17.115278 -16.751711 -0.286007 0.000000 48.000000 14.341212 0.000000
18.214359 -16.813470 0.437678 0.000000 53.000000 14.483060 18.000000
16.880262 -19.116575 -2.899252 0.000000 57.000000 14.313293 0.000000
19.919633 -20.433708 -1.641184 0.000000 54.000000 14.995522 19.000000
17.385140 -19.557558 -3.129468 0.000000 35.000000 14.289940 0.000000
19.894729 -19.888886 -2.151249 0.000000 46.000000 14.301996 0.000000
15.512024 -17.666939 -1.579825 0.000000 55.000000 14.658879 27.000000
16.689236 -18.293129 -1.704473 0.000000 48.000000 14.601735 27.000000
17.280722 -18.370508 -1.223334 0.000000 76.000000 14.767853 11.000000
16.744845 -18.774688 -2.015887 0.000000 55.000000 14.705193 26.000000
17.805364 -18.257736 -0.938686 0.000000 55.000000 14.699578 15.000000
19.388646 -19.445887 -1.991517 0.000000 40.000000 14.278331 0.000000
15.049973 -18.651568 -3.061634 0.000000 53.000000 14.513484 6.000000
18.408338 -20.570835 -3.122818 0.000000 73.000000 14.632766 13.000000
17.440023 -19.888572 -3.265795 0.000000 38.000000 14.406203 14.000000
18.966140 -19.134449 -1.795400 0.000000 40.000000 14.339108 0.000000
20.076378 -20.390939 -1.794252 0.000000 72.000000 14.813373 19.000000
