-17.677877 -47.897610 68.927393 0.000000 77.000000 14.753761 10.000000
-19.233157 -47.975582 67.620009 0.000000 32.000000 14.183310 0.000000
-16.482028 -45.997385 65.415318 0.000000 46.000000 14.304247 0.000000
-18.948444 -47.782525 67.801100 0.000000 26.000000 14.146675 0.000000
-18.858027 -47.671248 67.922830 0.000000 27.000000 14.084031 0.000000
-19.429456 -48.745061 68.635971 0.000000 76.000000 14.576322 8.000000
-18.423773 -47.500581 67.982157 0.000000 30.000000 14.162845 0.000000
-19.864750 -48.669976 67.678902 0.000000 44.000000 14.420741 14.000000
-18.043764 -47.312364 68.063540 0.000000 40.000000 14.195082 0.000000
-17.226256 -46.959579 67.746983 0.000000 43.000000 14.378762 9.000000
-18.257881 -47.764420 69.894473 0.000000 49.000000 14.196027 0.000000
-19.569902 -48.215233 67.026284 0.000000 31.000000 14.290722 15.000000
-17.492352 -47.940438 69.942064 0.000000 64.000000 14.741792 16.000000
-14.776052 -44.897904 65.934126 0.000000 46.000000 14.214132 0.000000
-15.524662 -45.850707 65.857191 0.000000 68.000000 14.625135 11.000000
-15.717875 -45.719979 65.345424 0.000000 61.000000 14.487175 17.000000
-15.540332 -45.394230 65.805152 0.000000 47.000000 14.242754 0.000000
-15.701545 -45.496146 65.789173 0.000000 49.000000 14.244856 0.000000
-18.416008 -47.823731 63.465817 0.000000 54.000000 15.087094 3.000000
-16.035394 -45.703078 65.769913 0.000000 41.000000 14.243771 0.000000
-17.332488 -47.678868 69.342258 0.000000 60.000000 14.694149 16.000000
-16.976949 -46.230288 65.814885 0.000000 39.000000 14.179276 0.000000
-15.786781 -46.823273 69.564646 0.000000 61.000000 14.765670 12.000000
-18.109717 -47.826460 68.523057 0.000000 35.000000 14.523746 10.000000
-17.272978 -47.508368 69.260323 0.000000 25.000000 14.594941 16.000000
-18.362183 -47.480862 63.383571 0.000000 64.000000 14.840836 3.000000
-17.953847 -46.812383 65.918056 0.000000 26.000000 14.133563 0.000000
-18.238572 -46.913983 66.000502 0.000000 24.000000 14.055813 0.000000
-18.388103 -47.056415 65.999176 0.000000 31.000000 14.095861 0.000000
-17.938432 -46.550656 64.772933 0.000000 30.000000 14.087762 0.000000
-18.679103 -47.340179 66.001495 0.000000 38.000000 14.178590 0.000000
-16.065694 -46.429535 68.510895 0.000000 54.000000 14.440472 24.000000
-16.796316 -47.468886 69.544766 0.000000 75.000000 14.773475 23.000000
-16.349603 -47.118573 70.281354 0.000000 61.000000 14.611247 23.000000
-16.075239 -45.945033 66.156548 0.000000 36.000000 14.369270 18.000000
-18.366507 -46.958574 64.795490 0.000000 38.000000 14.198754 0.000000
-15.506758 -46.268633 66.726076 0.000000 52.000000 14.858908 11.000000
-14.431200 -45.119154 65.669124 0.000000 51.000000 14.619875 7.000000
-19.785871 -48.017867 66.272375 0.000000 36.000000 14.119857 0.000000
-18.013610 -46.796325 64.607668 0.000000 45.000000 14.277083 0.000000
-15.610299 -46.767889 69.430422 0.000000 68.000000 14.832171 12.000000
-17.850556 -47.200735 68.258259 0.000000 32.000000 14.176084 0.000000
-14.680284 -44.985077 66.905874 0.000000 48.000000 14.197868 0.000000
-16.340957 -45.906478 64.540052 0.000000 61.000000 14.428953 4.000000
-17.801569 -47.517876 68.472833 0.000000 57.000000 14.436247 10.000000
-19.297750 -47.714406 63.875927 0.000000 44.000000 14.469647 6.000000
-16.809307 -46.472893 63.919084 0.000000 49.000000 14.743719 29.000000
-16.410730 -46.185821 67.435558 0.000000 59.000000 14.208762 0.000000
-17.234918 -46.963179 68.832266 0.000000 52.000000 14.220984 0.000000
-17.596625 -47.062275 69.041969 0.000000 39.000000 14.082050 0.000000
-17.682913 -47.235000 69.039770 0.000000 38.000000 14.181043 0.000000
-18.247962 -47.079651 63.816656 0.000000 43.000000 14.503632 3.000000
-16.279034 -47.063975 68.893388 0.000000 59.000000 14.802750 24.000000
-17.987948 -47.247518 68.162725 0.000000 43.000000 14.156166 0.000000
-18.187702 -47.391587 68.265851 0.000000 36.000000 14.155947 0.000000
-17.055850 -47.609932 69.191488 0.000000 62.000000 14.804752 16.000000
-18.602342 -47.678161 68.496397 0.000000 37.000000 14.142689 0.000000
-18.916446 -47.804839 68.692081 0.000000 38.000000 14.054043 0.000000
-19.060400 -48.006763 69.315181 0.000000 24.000000 14.056903 0.000000
-17.329969 -47.094667 69.033858 0.000000 55.000000 14.251535 16.000000
-19.395336 -48.293166 68.969630 0.000000 39.000000 14.168633 0.000000
-19.602628 -48.449620 69.104022 0.000000 38.000000 14.170274 0.000000
-16.238393 -47.061680 68.658394 0.000000 61.000000 14.856180 24.000000
-16.019661 -46.296142 66.765564 0.000000 72.000000 14.604548 30.000000
-14.332606 -45.138839 65.480287 0.000000 41.000000 14.715731 7.000000
-19.320366 -47.733775 63.872028 0.000000 46.000000 14.474421 6.000000
-15.561318 -46.313595 67.000015 0.000000 54.000000 14.828167 11.000000
-14.954599 -45.500710 67.112108 0.000000 67.000000 14.453905 22.000000
-15.562233 -45.356941 66.145284 0.000000 43.000000 14.151031 0.000000
-15.543653 -45.255371 66.324865 0.000000 33.000000 14.050123 0.000000
-15.434127 -45.185119 66.438968 0.000000 31.000000 14.032990 0.000000
-15.170095 -45.734304 67.545001 0.000000 58.000000 14.472720 22.000000
-14.843154 -45.071863 66.570345 0.000000 47.000000 14.232435 0.000000
-18.231074 -47.667352 68.558026 0.000000 44.000000 14.321435 10.000000
-17.206370 -47.810573 70.022371 0.000000 64.000000 14.773157 16.000000
-17.058942 -46.401069 64.489400 0.000000 45.000000 14.469373 29.000000
-20.355628 -48.514156 66.650616 0.000000 39.000000 14.178481 0.000000
-19.175862 -48.509163 68.149824 0.000000 43.000000 14.583426 8.000000
-18.544551 -47.843896 63.472774 0.000000 34.000000 15.034863 3.000000
-18.917222 -47.454123 65.532379 0.000000 36.000000 14.215227 0.000000
-18.787294 -47.390365 65.643251 0.000000 46.000000 14.214795 0.000000
-18.226882 -47.725351 69.081471 0.000000 34.000000 14.296799 10.000000
-19.750089 -48.162093 67.291544 0.000000 28.000000 14.112684 0.000000
-18.519089 -47.256810 65.855025 0.000000 36.000000 14.214738 0.000000
-19.552923 -48.098424 67.368294 0.000000 42.000000 14.152851 0.000000
-19.534533 -48.753398 68.998498 0.000000 71.000000 14.475457 28.000000
-15.415652 -45.802872 66.358047 0.000000 70.000000 14.570803 11.000000
-18.397535 -47.078876 66.153261 0.000000 21.000000 14.087463 0.000000
-19.226014 -47.951687 67.557951 0.000000 36.000000 14.176052 0.000000
-18.191538 -47.022260 66.211186 0.000000 24.000000 14.140911 0.000000
-15.639943 -46.268542 68.430755 0.000000 36.000000 14.542942 20.000000
-14.857630 -45.723922 67.247742 0.000000 75.000000 14.672329 22.000000
-18.963336 -47.785053 67.777309 0.000000 31.000000 14.144325 0.000000
-18.346934 -47.632676 63.468637 0.000000 47.000000 14.963572 3.000000
-18.436899 -47.416541 63.200419 0.000000 52.000000 14.773855 3.000000
-15.437548 -46.201417 68.505557 0.000000 62.000000 14.583269 20.000000
-15.302015 -46.158204 68.346647 0.000000 42.000000 14.641807 20.000000
-16.987960 -46.222450 64.611757 0.000000 40.000000 14.340052 0.000000
-19.070004 -48.209735 63.770738 0.000000 30.000000 15.019464 6.000000
-17.392422 -46.658535 66.600316 0.000000 45.000000 14.204139 0.000000
-16.242996 -47.039149 69.569761 0.000000 42.000000 14.703740 23.000000
-17.207207 -46.589040 66.653627 0.000000 49.000000 14.236480 0.000000
-18.127435 -47.364455 68.176584 0.000000 38.000000 14.178036 0.000000
-17.138217 -46.484276 66.783227 0.000000 44.000000 14.166797 0.000000
-17.974809 -47.271017 68.259732 0.000000 43.000000 14.168807 0.000000
-17.788977 -47.186686 68.315754 0.000000 44.000000 14.188682 0.000000
-17.757544 -47.059578 68.483745 0.000000 30.000000 14.074904 0.000000
-17.065936 -46.823893 68.516923 0.000000 56.000000 14.239446 0.000000
-15.106959 -45.100892 65.285035 0.000000 30.000000 14.301958 0.000000
-16.311687 -46.283036 67.104416 0.000000 53.000000 14.390145 0.000000
-14.719249 -45.568955 66.385110 0.000000 52.000000 14.740244 22.000000
-15.856700 -46.695670 70.167943 0.000000 50.000000 14.535143 26.000000
-15.979449 -46.323483 70.158260 0.000000 34.000000 14.160407 0.000000
-15.668013 -45.243191 64.718247 0.000000 37.000000 14.205304 0.000000
-15.804446 -47.028003 69.947505 0.000000 47.000000 14.872345 26.000000
-15.360526 -46.083131 66.222339 0.000000 70.000000 14.853802 11.000000
-16.512296 -46.882017 67.872176 0.000000 77.000000 14.674076 19.000000
-20.223293 -49.577130 68.005072 0.000000 51.000000 14.942176 13.000000
-16.326353 -47.429830 70.204682 0.000000 80.000000 14.894777 23.000000
-17.353238 -47.204643 69.063611 0.000000 54.000000 14.326857 16.000000
-18.039234 -47.133231 63.237906 0.000000 30.000000 14.742274 3.000000
-19.376565 -47.609970 65.200500 0.000000 22.000000 14.149964 0.000000
-14.843574 -45.158814 67.222477 0.000000 44.000000 14.211037 0.000000
-15.444566 -46.099602 66.092460 0.000000 66.000000 14.841750 11.000000
-16.165860 -46.877107 68.600572 0.000000 63.000000 14.748637 24.000000
-16.258584 -47.055720 69.531510 0.000000 67.000000 14.714840 23.000000
-15.450612 -46.320777 66.554108 0.000000 45.000000 14.956985 11.000000
-19.418330 -47.733643 64.735135 0.000000 30.000000 14.298198 6.000000
-18.064073 -46.808107 64.792338 0.000000 37.000000 14.233624 0.000000
-17.221401 -46.873345 67.773907 0.000000 23.000000 14.305376 9.000000
-16.072694 -46.243353 66.744339 0.000000 66.000000 14.535386 30.000000
-16.556692 -46.885019 70.317388 0.000000 41.000000 14.301143 23.000000
-16.319743 -47.392146 69.633628 0.000000 41.000000 14.948967 23.000000
-19.256954 -47.434527 63.734760 0.000000 36.000000 14.277622 6.000000
-16.625540 -47.355063 69.420332 0.000000 60.000000 14.786695 23.000000
-17.307315 -47.844906 70.093511 0.000000 38.000000 14.738149 16.000000
-17.497747 -46.678653 66.536470 0.000000 39.000000 14.174357 0.000000
-18.421296 -47.467286 67.933892 0.000000 32.000000 14.143272 0.000000
-17.676074 -46.811928 66.586158 0.000000 40.000000 14.184156 0.000000
-18.760686 -47.578795 68.094911 0.000000 27.000000 14.033542 0.000000
-16.499474 -46.825768 67.712241 0.000000 56.000000 14.656868 19.000000
-17.511292 -47.580453 68.794860 0.000000 62.000000 14.595959 10.000000
-16.097842 -46.067575 66.539346 0.000000 37.000000 14.404637 30.000000
-16.218180 -46.537401 66.642555 0.000000 52.000000 14.718770 30.000000
-17.971952 -47.720397 69.837112 0.000000 48.000000 14.318933 0.000000
-19.227119 -48.057216 68.215114 0.000000 41.000000 14.169096 0.000000
-19.321713 -48.249131 68.344355 0.000000 45.000000 14.260813 8.000000
-18.637784 -47.487558 66.930754 0.000000 40.000000 14.189926 0.000000
-18.085096 -47.796769 68.823647 0.000000 41.000000 14.468706 10.000000
-15.312600 -45.981630 68.500092 0.000000 38.000000 14.466517 20.000000
-17.128816 -47.928400 69.629571 0.000000 65.000000 14.969261 16.000000
-19.494687 -48.047867 67.311141 0.000000 37.000000 14.149662 0.000000
-19.750359 -48.187925 67.439962 0.000000 32.000000 14.112772 0.000000
-15.181439 -44.859935 65.021851 0.000000 36.000000 14.098970 0.000000
-15.130489 -44.798817 65.180174 0.000000 33.000000 14.052082 0.000000
-15.462419 -45.765852 68.644974 0.000000 39.000000 14.185941 0.000000
-16.256787 -46.623454 67.711004 0.000000 63.000000 14.616476 19.000000
-16.334266 -46.427219 69.150597 0.000000 61.000000 14.204211 0.000000
-19.522872 -47.610281 64.338038 0.000000 41.000000 14.196859 0.000000
-19.399333 -47.588762 64.463143 0.000000 41.000000 14.226300 0.000000
-15.397867 -45.865214 67.320908 0.000000 37.000000 14.493756 22.000000
-18.059939 -46.644108 63.893997 0.000000 41.000000 14.228020 0.000000
-18.782898 -47.582985 66.565693 0.000000 37.000000 14.245371 0.000000
-15.949600 -47.345654 69.858665 0.000000 3.000000 15.073771 23.000000
-16.201591 -46.731017 69.267041 0.000000 56.000000 14.511671 23.000000
-17.105935 -47.467710 69.795805 0.000000 55.000000 14.572364 16.000000
-20.238302 -49.194464 67.353614 0.000000 73.000000 14.708117 14.000000
-17.663707 -46.768491 65.243750 0.000000 21.000000 14.347603 1.000000
-15.807224 -46.869809 69.509907 0.000000 37.000000 14.801620 12.000000
-17.336808 -46.296406 64.774624 0.000000 37.000000 14.193656 0.000000
-17.925408 -46.817327 63.525831 0.000000 62.000000 14.497060 3.000000
-17.223674 -46.239706 64.891054 0.000000 36.000000 14.189427 0.000000
-20.417463 -49.385571 68.457372 0.000000 77.000000 14.614108 13.000000
-16.067794 -46.648675 66.572615 0.000000 49.000000 14.901506 30.000000
-17.927442 -46.896928 66.337469 0.000000 37.000000 14.157857 0.000000
-20.416963 -49.076819 67.540921 0.000000 59.000000 14.488187 14.000000
-16.566962 -46.869921 70.486617 0.000000 39.000000 14.258727 23.000000
-16.873515 -46.061076 65.223348 0.000000 34.000000 14.177755 0.000000
-17.645955 -46.777231 66.544996 0.000000 40.000000 14.177030 0.000000
-19.634621 -48.283763 67.019381 0.000000 43.000000 14.314720 15.000000
-17.477839 -46.721227 66.627090 0.000000 47.000000 14.207447 0.000000
-16.674391 -45.920843 65.459115 0.000000 35.000000 14.132073 0.000000
-15.903819 -45.865203 66.176512 0.000000 50.000000 14.390464 18.000000
-17.132434 -46.497107 66.969769 0.000000 45.000000 14.153737 0.000000
-20.242714 -49.163150 67.259171 0.000000 40.000000 14.693197 14.000000
-15.424683 -45.734455 66.620485 0.000000 47.000000 14.471058 11.000000
-16.280832 -46.391930 66.259661 0.000000 60.000000 14.619095 30.000000
-15.557114 -45.264527 66.308651 0.000000 32.000000 14.052981 0.000000
-16.077995 -45.979369 67.537654 0.000000 50.000000 14.197736 0.000000
-15.432469 -45.182789 66.394835 0.000000 30.000000 14.038273 0.000000
-15.763654 -46.314492 67.666701 0.000000 75.000000 14.625791 25.000000
-17.067247 -47.293114 69.702793 0.000000 34.000000 14.460297 16.000000
-15.787582 -45.964968 67.986884 0.000000 36.000000 14.274867 0.000000
-17.539662 -46.933252 67.173917 0.000000 55.000000 14.273231 9.000000
-15.607034 -46.002111 69.271534 0.000000 31.000000 14.216654 0.000000
-16.055242 -46.725630 68.246421 0.000000 60.000000 14.731579 25.000000
-18.330075 -47.710009 69.269850 0.000000 28.000000 14.202204 0.000000
-20.340828 -48.732620 67.493074 0.000000 35.000000 14.247684 0.000000
-17.940820 -47.052663 65.645548 0.000000 42.000000 14.380534 2.000000
-17.372287 -46.362728 64.037118 0.000000 38.000000 14.336448 0.000000
-15.252142 -45.590513 65.829470 0.000000 55.000000 14.555975 11.000000
-16.349844 -46.118433 64.159683 0.000000 48.000000 14.656163 4.000000
-14.921336 -45.587744 66.791830 0.000000 69.000000 14.590372 22.000000
-16.142943 -46.690324 69.322813 0.000000 50.000000 14.500694 23.000000
-19.079282 -47.916400 68.366039 0.000000 30.000000 14.107971 0.000000
-18.979662 -47.870261 67.834499 0.000000 31.000000 14.198672 0.000000
-19.453583 -48.524574 67.450016 0.000000 39.000000 14.549926 15.000000
-18.468015 -47.648512 68.480515 0.000000 40.000000 14.191341 0.000000
-18.064905 -47.039836 65.713419 0.000000 43.000000 14.294319 2.000000
-17.750928 -47.252070 68.657575 0.000000 40.000000 14.214294 0.000000
-17.727829 -47.109770 68.812146 0.000000 35.000000 14.085334 0.000000
-16.482918 -46.824057 67.781919 0.000000 59.000000 14.654179 19.000000
-15.918731 -46.575794 68.257819 0.000000 48.000000 14.676997 25.000000
-17.287422 -46.578723 65.242439 0.000000 50.000000 14.388473 1.000000
-15.977521 -46.105619 65.759753 0.000000 61.000000 14.612372 18.000000
-16.263085 -46.592841 70.534740 0.000000 43.000000 14.181145 0.000000
-16.089595 -46.470893 70.533434 0.000000 39.000000 14.171289 0.000000
-18.471450 -47.385751 67.272786 0.000000 28.000000 14.143701 0.000000
-16.059275 -46.615594 68.471887 0.000000 55.000000 14.605014 24.000000
-20.063445 -49.092136 67.523263 0.000000 65.000000 14.690781 14.000000
-15.015547 -45.986261 67.883945 0.000000 61.000000 14.716409 21.000000
-17.114166 -47.986924 69.653393 0.000000 19.000000 15.022512 16.000000
-15.337489 -45.178261 66.464358 0.000000 30.000000 14.074791 0.000000
-15.538880 -45.265131 66.475226 0.000000 35.000000 14.039169 0.000000
-19.150782 -48.246943 64.098950 0.000000 47.000000 14.960542 6.000000
-15.576069 -45.412003 66.373344 0.000000 38.000000 14.156905 0.000000
-15.389111 -45.217584 65.539794 0.000000 32.000000 14.213386 0.000000
-17.448685 -46.661526 65.472646 0.000000 55.000000 14.339139 1.000000
-15.325040 -45.114613 65.094610 0.000000 57.000000 14.225322 0.000000
-16.552080 -45.938975 64.904136 0.000000 38.000000 14.291890 0.000000
-18.744282 -47.483000 65.059811 0.000000 22.000000 14.398982 5.000000
-16.362263 -46.687269 67.315384 0.000000 66.000000 14.670891 19.000000
-17.107614 -46.402663 66.360501 0.000000 49.000000 14.175627 0.000000
-15.510039 -46.033457 67.765094 0.000000 46.000000 14.511046 21.000000
-16.636244 -46.783331 67.510342 0.000000 44.000000 14.578009 19.000000
-18.493208 -47.463483 63.985133 0.000000 90.000000 14.670328 3.000000
-17.199952 -46.961801 67.566006 0.000000 61.000000 14.420600 9.000000
-17.060809 -46.166948 65.173477 0.000000 39.000000 14.174226 0.000000
-19.271382 -48.371347 68.577545 0.000000 47.000000 14.356071 8.000000
-17.240711 -46.281994 65.193691 0.000000 44.000000 14.172195 0.000000
-20.417644 -49.051577 67.693683 0.000000 43.000000 14.444740 13.000000
-17.785062 -48.028426 68.946497 0.000000 44.000000 14.803587 10.000000
-18.362190 -47.778320 64.396355 0.000000 31.000000 14.943712 5.000000
-16.697031 -47.161722 70.327961 0.000000 65.000000 14.456584 23.000000
-17.947716 -46.596590 65.367329 0.000000 18.000000 14.035692 0.000000
-18.584979 -47.413005 66.538651 0.000000 45.000000 14.212010 0.000000
-18.083755 -46.731614 65.372606 0.000000 30.000000 14.075744 0.000000
-18.815415 -47.539157 66.598807 0.000000 38.000000 14.186747 0.000000
-16.438294 -45.954313 64.488841 0.000000 42.000000 14.424751 4.000000
-19.222382 -47.813258 66.691943 0.000000 40.000000 14.186903 0.000000
-17.472755 -47.877980 69.996892 0.000000 69.000000 14.692072 16.000000
-14.047417 -45.052738 65.788766 0.000000 47.000000 14.750418 7.000000
-16.297172 -46.707263 67.404511 0.000000 62.000000 14.709253 19.000000
-18.877118 -47.407521 65.498737 0.000000 42.000000 14.202357 0.000000
-15.394214 -46.161410 66.508345 0.000000 50.000000 14.860229 11.000000
-19.129415 -47.526180 65.585248 0.000000 30.000000 14.155458 0.000000
-19.456722 -47.634136 65.714319 0.000000 21.000000 14.053755 0.000000
-20.285622 -48.533069 67.000823 0.000000 36.000000 14.180967 0.000000
-19.575050 -47.788170 65.731502 0.000000 31.000000 14.117364 0.000000
-20.497658 -48.687403 67.069089 0.000000 45.000000 14.187840 0.000000
-17.434564 -46.805341 66.740565 0.000000 36.000000 14.284349 0.000000
-19.910170 -48.082608 65.825908 0.000000 35.000000 14.172394 0.000000
-18.683165 -47.042126 63.134403 0.000000 38.000000 14.339942 3.000000
-16.230541 -46.372203 68.927190 0.000000 40.000000 14.245318 0.000000
-15.094075 -46.037892 67.297455 0.000000 52.000000 14.802383 22.000000
-18.603172 -47.641891 63.606064 0.000000 43.000000 14.815772 3.000000
-19.224375 -48.012843 64.096008 0.000000 32.000000 14.726301 6.000000
-15.839415 -46.163735 68.365431 0.000000 47.000000 14.359080 0.000000
-15.874953 -46.109163 65.696374 0.000000 58.000000 14.678784 18.000000
-19.092671 -48.035199 69.387540 0.000000 25.000000 14.053165 0.000000
-15.491425 -46.909837 69.324625 0.000000 62.000000 15.029016 12.000000
-18.630183 -47.898568 64.744204 0.000000 21.000000 14.852215 5.000000
-17.963475 -46.583755 64.056741 0.000000 37.000000 14.205243 0.000000
-17.870189 -46.553962 64.194988 0.000000 37.000000 14.209853 0.000000
-16.037547 -46.648990 70.194972 0.000000 60.000000 14.396442 26.000000
-17.687912 -46.488656 64.471384 0.000000 38.000000 14.212031 0.000000
-16.653792 -47.235254 69.377700 0.000000 74.000000 14.677718 23.000000
-16.986067 -47.406001 69.615050 0.000000 44.000000 14.610287 16.000000
-15.987879 -47.000604 68.487205 0.000000 74.000000 14.962456 24.000000
-17.114240 -46.234943 65.278900 0.000000 46.000000 14.187590 0.000000
-17.020862 -46.184525 65.412580 0.000000 35.000000 14.175665 0.000000
-14.297111 -44.868267 65.545571 0.000000 64.000000 14.498964 7.000000
-14.196262 -45.057138 65.555952 0.000000 57.000000 14.708765 7.000000
-16.774002 -46.003374 65.831470 0.000000 39.000000 14.094707 0.000000
-16.212050 -46.729220 70.267849 0.000000 54.000000 14.360588 26.000000
-18.386714 -47.477183 64.522461 0.000000 26.000000 14.660852 5.000000
-15.530240 -45.200348 64.966003 0.000000 34.000000 14.206808 0.000000
-18.095771 -46.996171 64.986073 0.000000 39.000000 14.346154 0.000000
-18.104913 -46.823837 64.644867 0.000000 36.000000 14.246366 0.000000
-15.269561 -44.991631 65.331240 0.000000 34.000000 14.117851 0.000000
-15.696114 -45.454615 66.816396 0.000000 39.000000 14.065173 0.000000
-14.979954 -45.254072 67.040650 0.000000 43.000000 14.244595 0.000000
-14.861919 -45.175650 67.137517 0.000000 53.000000 14.227621 0.000000
-19.994473 -48.071155 65.518013 0.000000 34.000000 14.162481 0.000000
-19.879444 -48.013637 65.644062 0.000000 36.000000 14.157187 0.000000
-19.771589 -47.953876 65.774187 0.000000 34.000000 14.145633 0.000000
-17.731170 -47.155987 67.891907 0.000000 40.000000 14.254642 0.000000
-19.625062 -47.807139 66.072746 0.000000 24.000000 14.057617 0.000000
-17.438840 -46.526427 65.248851 0.000000 39.000000 14.263634 1.000000
-17.878985 -46.510359 64.864075 0.000000 23.000000 14.072447 0.000000
-19.063231 -47.641452 66.311233 0.000000 41.000000 14.182383 0.000000
-16.740500 -46.427061 64.085834 0.000000 62.000000 14.717854 29.000000
-18.885314 -47.579315 66.390258 0.000000 36.000000 14.213306 0.000000
-17.543861 -47.416632 68.868773 0.000000 42.000000 14.431133 10.000000
-18.769822 -47.503146 66.505859 0.000000 40.000000 14.194172 0.000000
-15.250908 -45.568729 65.859666 0.000000 62.000000 14.534073 11.000000
-18.631249 -47.428567 66.605781 0.000000 35.000000 14.190849 0.000000
-18.440600 -47.234212 63.889189 0.000000 46.000000 14.520355 3.000000
-15.958185 -45.745378 66.013036 0.000000 44.000000 14.285034 18.000000
-15.543101 -46.793720 69.282301 0.000000 67.000000 14.910674 12.000000
-16.901765 -46.876747 68.179926 0.000000 54.000000 14.419086 19.000000
-18.326616 -47.162423 66.962144 0.000000 24.000000 14.078445 0.000000
-17.672030 -46.875260 66.603574 0.000000 38.000000 14.236730 0.000000
-18.102539 -47.102893 66.997411 0.000000 33.000000 14.142296 0.000000
-19.330148 -48.038828 64.179481 0.000000 33.000000 14.679983 6.000000
-16.010888 -46.684819 69.633478 0.000000 43.000000 14.521326 12.000000
-14.576020 -45.248248 65.597678 0.000000 71.000000 14.661360 7.000000
-17.751034 -46.953401 67.121431 0.000000 37.000000 14.185669 0.000000
-15.995430 -46.192010 66.055588 0.000000 52.000000 14.632522 18.000000
-17.522485 -46.890762 67.145206 0.000000 48.000000 14.250944 0.000000
-18.456608 -47.688618 68.694486 0.000000 40.000000 14.200112 0.000000
-16.186712 -46.872636 68.452183 0.000000 58.000000 14.755211 24.000000
-14.989722 -47.203349 69.325850 0.000000 0.000000 15.539927 12.000000
-17.388217 -47.458986 69.186682 0.000000 40.000000 14.503222 16.000000
-16.293123 -46.786350 69.561206 0.000000 42.000000 14.467105 23.000000
-18.927972 -48.054333 63.631426 0.000000 66.000000 14.984844 6.000000
-16.157179 -46.461869 67.368546 0.000000 28.000000 14.583456 19.000000
-18.611828 -47.403354 66.273983 0.000000 26.000000 14.227813 0.000000
-15.983064 -46.474996 68.585866 0.000000 72.000000 14.511450 24.000000
-16.300353 -46.452012 66.203581 0.000000 52.000000 14.667048 30.000000
-15.339171 -45.114188 65.459027 0.000000 41.000000 14.165033 0.000000
-16.466422 -45.975807 65.437831 0.000000 27.000000 14.291236 0.000000
-15.610695 -45.309760 65.363410 0.000000 43.000000 14.198454 0.000000
-16.359665 -45.966781 64.504048 0.000000 49.000000 14.474633 4.000000
-15.879112 -45.515045 65.269495 0.000000 52.000000 14.241396 0.000000
-16.271460 -45.950545 64.273772 0.000000 58.000000 14.540923 4.000000
-19.150601 -47.932413 63.799752 0.000000 49.000000 14.740784 6.000000
-17.990692 -47.098877 66.955924 0.000000 35.000000 14.204152 0.000000
-17.270040 -46.305841 65.155175 0.000000 42.000000 14.182137 0.000000
-17.430626 -46.419411 65.140400 0.000000 40.000000 14.194139 0.000000
-16.005108 -46.457798 66.557172 0.000000 58.000000 14.777378 30.000000
-15.875852 -46.963988 69.965699 0.000000 74.000000 14.778394 26.000000
-16.013084 -46.248707 65.857064 0.000000 57.000000 14.699137 18.000000
-17.523781 -46.133178 64.008449 0.000000 20.000000 14.068450 0.000000
-19.942255 -48.722050 68.516308 0.000000 26.000000 14.302694 8.000000
-17.649424 -46.258163 63.984609 0.000000 30.000000 14.109807 0.000000
-18.329423 -46.993664 65.146463 0.000000 33.000000 14.197214 0.000000
-18.586536 -47.329419 64.426891 0.000000 47.000000 14.445251 5.000000
-18.504209 -47.117002 65.149340 0.000000 33.000000 14.207319 0.000000
-17.877182 -46.521376 63.932253 0.000000 36.000000 14.216725 0.000000
-18.038543 -46.640263 63.933727 0.000000 47.000000 14.230421 0.000000
-17.213290 -47.050352 68.382379 0.000000 42.000000 14.370058 0.000000
-18.254366 -47.682318 69.325335 0.000000 36.000000 14.211172 0.000000
-16.046080 -46.738997 68.071526 0.000000 61.000000 14.772777 25.000000
-16.022684 -46.108090 66.518755 0.000000 45.000000 14.481276 30.000000
-14.578152 -44.845551 66.554783 0.000000 39.000000 14.185865 0.000000
-18.457816 -47.264322 66.077869 0.000000 32.000000 14.221399 0.000000
-19.488719 -48.419258 68.733360 0.000000 46.000000 14.258576 8.000000
-19.006130 -48.043317 64.493822 0.000000 49.000000 14.810118 6.000000
-17.630753 -47.077438 67.165236 0.000000 41.000000 14.346757 0.000000
-15.697446 -45.431579 66.754566 0.000000 35.000000 14.054111 0.000000
-16.727095 -46.357926 64.202266 0.000000 39.000000 14.650407 29.000000
-17.113610 -47.942761 69.849173 0.000000 61.000000 14.957713 16.000000
-18.211134 -47.449894 63.671099 0.000000 48.000000 14.853574 3.000000
-18.710498 -47.690256 68.416120 0.000000 19.000000 14.107065 0.000000
-18.013263 -47.316531 68.381674 0.000000 45.000000 14.168933 0.000000
-18.175507 -47.464811 68.419388 0.000000 40.000000 14.201516 0.000000
-16.727788 -47.315675 69.568433 0.000000 74.000000 14.678297 23.000000
-18.649451 -47.736618 68.607893 0.000000 42.000000 14.150553 0.000000
-16.943954 -46.510614 64.193892 0.000000 52.000000 14.664379 29.000000
-18.959451 -47.860671 68.756049 0.000000 42.000000 14.068727 0.000000
-15.160847 -46.039472 68.241789 0.000000 59.000000 14.632424 21.000000
-19.123248 -48.017776 68.805621 0.000000 50.000000 14.106158 0.000000
-17.931671 -46.545476 63.785528 0.000000 26.000000 14.229125 0.000000
-19.290117 -48.181680 68.858439 0.000000 40.000000 14.147177 0.000000
-18.538305 -47.461049 67.497814 0.000000 38.000000 14.138844 0.000000
-17.654821 -47.491753 68.641894 0.000000 47.000000 14.467808 10.000000
-14.737797 -44.926503 66.241067 0.000000 30.000000 14.214125 0.000000
-19.698072 -48.493708 69.023251 0.000000 41.000000 14.168197 0.000000
-17.193354 -46.811355 67.750090 0.000000 32.000000 14.271842 0.000000
-19.105592 -47.891770 67.728299 0.000000 42.000000 14.165234 0.000000
-16.202585 -46.935185 68.213631 0.000000 38.000000 14.833421 24.000000
-16.494050 -46.820654 67.745598 0.000000 51.000000 14.650665 19.000000
-15.268323 -46.147854 68.023710 0.000000 61.000000 14.697480 21.000000
-20.329717 -48.605737 68.357232 0.000000 24.000000 14.023134 0.000000
-16.062368 -46.736660 68.332286 0.000000 60.000000 14.724667 24.000000
-17.644928 -47.621554 68.899318 0.000000 46.000000 14.544499 10.000000
-16.355945 -45.579839 64.360337 0.000000 40.000000 14.173842 0.000000
-15.771656 -45.384918 65.135987 0.000000 44.000000 14.208754 0.000000
-15.697018 -45.335617 65.277725 0.000000 37.000000 14.186678 0.000000
-15.580256 -45.299273 65.393902 0.000000 46.000000 14.201423 0.000000
-16.290575 -47.053208 69.512693 0.000000 50.000000 14.698504 23.000000
-15.866883 -46.243905 67.424420 0.000000 64.000000 14.546980 25.000000
-14.309516 -44.906615 65.641111 0.000000 41.000000 14.510698 7.000000
-17.022057 -47.078686 69.174291 0.000000 56.000000 14.381058 0.000000
-14.727244 -44.908601 66.333257 0.000000 39.000000 14.191481 0.000000
-16.115078 -46.456754 70.498631 0.000000 44.000000 14.150982 0.000000
-16.281312 -46.599663 70.590212 0.000000 46.000000 14.169209 0.000000
-19.589554 -49.203706 67.614636 0.000000 2.000000 15.021900 14.000000
-15.993999 -45.962987 66.175848 0.000000 46.000000 14.424531 18.000000
-19.823429 -47.986819 65.602726 0.000000 37.000000 14.170389 0.000000
-19.411903 -48.762140 68.440957 0.000000 60.000000 14.627963 8.000000
-18.567969 -47.032570 63.982970 0.000000 47.000000 14.270840 3.000000
-19.644313 -47.886991 65.897335 0.000000 38.000000 14.139415 0.000000
-19.608788 -47.820364 66.077955 0.000000 27.000000 14.076542 0.000000
-15.903157 -46.139332 66.428133 0.000000 77.000000 14.583745 30.000000
-17.578161 -46.964237 68.523310 0.000000 29.000000 14.084528 0.000000
-15.777501 -45.967328 65.307210 0.000000 63.000000 14.667852 17.000000
-19.283902 -47.733059 66.287126 0.000000 26.000000 14.145542 0.000000
-16.471734 -47.108065 69.375280 0.000000 61.000000 14.668180 23.000000
-17.466065 -47.758445 70.095838 0.000000 54.000000 14.581455 16.000000
-15.304883 -45.731133 66.181219 0.000000 72.000000 14.594958 11.000000
-16.329965 -46.991908 69.080125 0.000000 58.000000 14.688656 24.000000
-18.094395 -46.780560 65.324514 0.000000 32.000000 14.117943 0.000000
-20.104570 -48.862336 67.889565 0.000000 26.000000 14.424188 14.000000
-18.048998 -46.701462 65.483407 0.000000 18.000000 14.053001 0.000000
-18.298492 -47.413854 64.775420 0.000000 35.000000 14.618237 5.000000
-18.610086 -47.442643 66.864512 0.000000 40.000000 14.176587 0.000000
-16.390284 -47.224338 70.199355 0.000000 52.000000 14.689910 23.000000
-17.516184 -46.564724 65.714628 0.000000 39.000000 14.187642 0.000000
-15.687601 -46.093645 68.990414 0.000000 46.000000 14.290953 20.000000
-17.404995 -46.496176 65.827258 0.000000 34.000000 14.173027 0.000000
-15.416646 -46.384789 68.427344 0.000000 50.000000 14.758878 20.000000
-17.253782 -46.436865 65.914549 0.000000 34.000000 14.190979 0.000000
-15.649188 -46.381515 69.367302 0.000000 53.000000 14.497687 12.000000
-17.106168 -46.375529 66.001789 0.000000 37.000000 14.205339 0.000000
-17.864782 -46.755203 63.454190 0.000000 58.000000 14.487553 3.000000
-16.785191 -46.083894 65.646609 0.000000 35.000000 14.182694 0.000000
-16.942537 -46.205009 66.255669 0.000000 34.000000 14.112933 0.000000
-17.432670 -46.772144 67.820461 0.000000 39.000000 14.102178 0.000000
-15.586041 -46.943122 69.667554 0.000000 62.000000 14.957367 12.000000
-16.161130 -46.119374 68.372203 0.000000 42.000000 14.150620 0.000000
-15.095809 -45.337315 67.037269 0.000000 40.000000 14.253299 0.000000
-16.277818 -47.405913 70.309833 0.000000 84.000000 14.885359 23.000000
-15.528761 -46.888586 69.247030 0.000000 64.000000 15.002645 12.000000
-16.867917 -47.108506 70.297951 0.000000 58.000000 14.325906 23.000000
-20.650298 -49.037272 68.537756 0.000000 35.000000 14.188069 0.000000
-19.180926 -48.366522 68.736823 0.000000 75.000000 14.377026 0.000000
-16.808994 -46.355855 66.159497 0.000000 39.000000 14.323601 0.000000
-19.477025 -48.372703 69.068598 0.000000 40.000000 14.177606 0.000000
-15.859225 -45.983483 65.105168 0.000000 58.000000 14.667148 17.000000
-19.269446 -48.141324 69.286441 0.000000 26.000000 14.062792 0.000000
-19.116388 -48.032456 69.355066 0.000000 21.000000 14.042983 0.000000
-16.661943 -47.403988 70.045242 0.000000 65.000000 14.718369 23.000000
-16.763269 -47.014871 70.649693 0.000000 73.000000 14.252441 0.000000
-18.025980 -47.389646 69.585775 0.000000 26.000000 14.050014 0.000000
-17.440920 -46.096202 63.937249 0.000000 26.000000 14.091679 0.000000
-17.609250 -46.196682 63.912035 0.000000 31.000000 14.090138 0.000000
-17.650760 -46.338703 63.824489 0.000000 46.000000 14.199468 0.000000
-14.290002 -45.033569 65.415672 0.000000 69.000000 14.659602 7.000000
-17.963450 -46.553534 63.771759 0.000000 44.000000 14.221011 0.000000
-14.787678 -45.099690 66.969427 0.000000 60.000000 14.227642 0.000000
-14.969498 -45.185815 66.968745 0.000000 42.000000 14.203426 0.000000
-19.987322 -48.931168 68.015950 0.000000 40.000000 14.525638 14.000000
-14.822894 -45.456323 66.739817 0.000000 51.000000 14.540145 22.000000
-15.430920 -45.265877 65.668798 0.000000 47.000000 14.213042 0.000000
-15.594512 -45.366695 65.665697 0.000000 42.000000 14.211112 0.000000
-16.291449 -46.007505 66.897142 0.000000 47.000000 14.200380 0.000000
-15.745031 -45.472684 65.655301 0.000000 35.000000 14.221478 0.000000
-15.897183 -45.581382 65.648240 0.000000 40.000000 14.232764 0.000000
-16.577770 -46.232454 64.437953 0.000000 41.000000 14.590697 4.000000
-16.520438 -46.172472 64.163739 0.000000 58.000000 14.610391 4.000000
-16.767936 -46.120974 65.701104 0.000000 40.000000 14.214985 0.000000
-16.091570 -46.730123 68.373877 0.000000 63.000000 14.697748 24.000000
-17.690877 -46.952380 66.975455 0.000000 42.000000 14.237689 0.000000
-17.146587 -46.339092 65.758076 0.000000 39.000000 14.188549 0.000000
-17.937324 -47.061060 67.040599 0.000000 37.000000 14.188622 0.000000
-17.335564 -46.454480 65.786530 0.000000 36.000000 14.180811 0.000000
-14.825753 -46.061756 67.316354 0.000000 44.000000 14.961734 22.000000
-18.571486 -47.544063 63.785271 0.000000 52.000000 14.724989 3.000000
-18.458994 -47.287061 67.191056 0.000000 28.000000 14.079567 0.000000
-20.782247 -49.266786 68.110957 0.000000 59.000000 14.371456 13.000000
-15.369374 -45.714378 65.812778 0.000000 78.000000 14.599822 11.000000
-18.019378 -46.779034 65.954590 0.000000 21.000000 14.065718 0.000000
-18.590030 -47.436471 63.138810 0.000000 52.000000 14.718273 3.000000
-18.833358 -47.596366 64.269863 0.000000 61.000000 14.560257 5.000000
-18.924548 -47.717845 67.228461 0.000000 37.000000 14.187684 0.000000
-16.297936 -45.952002 64.429794 0.000000 45.000000 14.505661 4.000000
-19.129764 -47.855137 67.279068 0.000000 41.000000 14.186465 0.000000
-19.221333 -48.586489 68.434820 0.000000 64.000000 14.582959 8.000000
-18.634207 -47.323389 66.033938 0.000000 39.000000 14.183666 0.000000
-19.594649 -48.127061 67.417864 0.000000 39.000000 14.147553 0.000000
-18.799825 -47.459945 66.068802 0.000000 49.000000 14.205072 0.000000
-16.014551 -46.256284 66.497675 0.000000 55.000000 14.612493 30.000000
-18.409949 -47.080999 64.582239 0.000000 45.000000 14.308771 5.000000
-15.123032 -45.875365 67.957614 0.000000 53.000000 14.556176 21.000000
-19.728521 -47.975449 66.381111 0.000000 37.000000 14.099127 0.000000
-19.139999 -47.931786 63.913096 0.000000 33.000000 14.729562 6.000000
-17.167798 -48.055026 69.734118 0.000000 50.000000 15.039413 16.000000
-17.782039 -47.649416 69.985909 0.000000 45.000000 14.338776 16.000000
-15.127711 -45.445839 67.938840 0.000000 38.000000 14.197358 0.000000
-15.903770 -45.798646 65.827629 0.000000 73.000000 14.385067 18.000000
-14.412243 -45.065400 65.501074 0.000000 64.000000 14.609170 7.000000
-17.249706 -46.972932 68.800383 0.000000 45.000000 14.225893 0.000000
-17.630121 -47.728100 68.834205 0.000000 82.000000 14.650774 10.000000
-18.718795 -47.777785 63.698069 0.000000 32.000000 14.854882 3.000000
-19.217114 -47.265417 63.143495 0.000000 39.000000 14.242464 0.000000
-16.285972 -46.775429 69.492869 0.000000 60.000000 14.471599 23.000000
-18.556633 -47.076928 64.489862 0.000000 41.000000 14.240969 0.000000
-18.393649 -47.006441 64.783475 0.000000 42.000000 14.226119 0.000000
-16.003039 -46.673788 68.446496 0.000000 56.000000 14.687099 24.000000
-18.315551 -46.965051 64.931438 0.000000 36.000000 14.211592 0.000000
-17.608715 -46.208337 63.923395 0.000000 26.000000 14.098530 0.000000
-16.021278 -46.786707 68.409911 0.000000 69.000000 14.777093 24.000000
-16.926437 -47.132619 70.178005 0.000000 46.000000 14.332328 23.000000
-18.142355 -46.880927 65.217858 0.000000 37.000000 14.191787 0.000000
-14.430523 -45.349908 65.441569 0.000000 44.000000 14.845872 7.000000
-17.957053 -47.035678 65.372381 0.000000 53.000000 14.397055 2.000000
-17.137595 -47.275538 69.894278 0.000000 43.000000 14.380785 16.000000
-17.343155 -46.553641 66.088480 0.000000 38.000000 14.216220 0.000000
-16.540390 -45.840325 64.963313 0.000000 40.000000 14.207102 0.000000
-15.406927 -45.896892 67.608946 0.000000 33.000000 14.473980 21.000000
-15.995686 -46.588719 68.309837 0.000000 62.000000 14.639553 24.000000
-17.892917 -47.041841 66.809190 0.000000 27.000000 14.229384 0.000000
-15.680673 -45.451590 65.679324 0.000000 38.000000 14.234477 0.000000
-16.350240 -46.072483 66.964210 0.000000 47.000000 14.213902 0.000000
-17.784932 -46.973667 63.456059 0.000000 50.000000 14.712193 3.000000
-18.196835 -47.726396 69.889717 0.000000 33.000000 14.197261 0.000000
-15.702347 -46.493519 67.763914 0.000000 56.000000 14.793921 25.000000
-16.058722 -46.105417 67.391378 0.000000 55.000000 14.334361 0.000000
-15.957695 -45.745341 67.444960 0.000000 38.000000 14.079173 0.000000
-17.249247 -47.068003 69.139051 0.000000 46.000000 14.256863 16.000000
-17.761481 -47.132678 68.080934 0.000000 37.000000 14.191897 0.000000
-14.810542 -44.979303 66.315757 0.000000 40.000000 14.208979 0.000000
-19.497703 -48.343746 67.108198 0.000000 57.000000 14.424599 15.000000
-20.369508 -49.085011 67.800304 0.000000 54.000000 14.482838 13.000000
-17.737150 -46.938815 66.605401 0.000000 45.000000 14.255100 0.000000
-20.007853 -48.286204 66.718343 0.000000 39.000000 14.162396 0.000000
-16.034117 -46.975347 70.063132 0.000000 71.000000 14.690037 26.000000
-18.665161 -47.307400 65.402821 0.000000 33.000000 14.244739 0.000000
-19.623578 -48.168215 66.866615 0.000000 41.000000 14.245970 0.000000
-15.650472 -45.711426 64.757433 0.000000 73.000000 14.600353 17.000000
-15.299212 -45.985804 68.482283 0.000000 65.000000 14.479661 20.000000
-14.373977 -44.965320 65.565754 0.000000 54.000000 14.536473 7.000000
-17.375176 -46.761426 65.165447 0.000000 49.000000 14.505794 1.000000
-19.273941 -47.926144 67.213896 0.000000 46.000000 14.178833 0.000000
-17.190201 -47.380620 69.536028 0.000000 59.000000 14.492320 16.000000
-17.136713 -47.054521 68.819827 0.000000 41.000000 14.351144 0.000000
-16.231389 -47.001550 69.905080 0.000000 55.000000 14.630197 23.000000
-19.805737 -48.571941 69.050757 0.000000 51.000000 14.172606 0.000000
-18.486245 -47.134034 64.763864 0.000000 34.000000 14.286551 5.000000
-17.108497 -47.026741 69.282302 0.000000 42.000000 14.276307 16.000000
-17.281361 -47.114820 69.160153 0.000000 51.000000 14.275950 16.000000
-19.466025 -48.386339 69.212024 0.000000 48.000000 14.174188 0.000000
-18.378287 -47.425707 67.733818 0.000000 32.000000 14.160093 0.000000
-19.354944 -48.277673 69.332543 0.000000 44.000000 14.124845 0.000000
-16.989456 -47.104008 70.427819 0.000000 41.000000 14.239079 0.000000
-18.066649 -47.247618 67.882176 0.000000 38.000000 14.154942 0.000000
-18.747106 -48.001441 69.472967 0.000000 51.000000 14.195688 0.000000
-18.618405 -47.891874 69.566917 0.000000 42.000000 14.158749 0.000000
-15.362950 -47.094850 69.661917 0.000000 54.000000 15.203175 12.000000
-18.340083 -47.813367 69.546708 0.000000 40.000000 14.243453 0.000000
-16.644817 -46.021718 64.877640 0.000000 29.000000 14.315747 0.000000
-18.246176 -47.690762 69.663603 0.000000 53.000000 14.173884 0.000000
-18.112949 -47.576384 69.746545 0.000000 59.000000 14.136905 0.000000
-16.149082 -46.148630 66.003662 0.000000 66.000000 14.522349 18.000000
-19.239932 -47.747970 64.822769 0.000000 46.000000 14.392054 6.000000
-18.229412 -47.914410 64.502853 0.000000 10.000000 15.112471 5.000000
-17.304734 -47.276889 67.545668 0.000000 47.000000 14.631408 9.000000
-16.427167 -46.691891 67.908519 0.000000 45.000000 14.555010 19.000000
-15.245127 -45.136464 66.112889 0.000000 37.000000 14.139359 0.000000
-17.379063 -46.792995 66.797453 0.000000 34.000000 14.295238 0.000000
-16.251149 -46.755268 67.601627 0.000000 61.000000 14.745389 19.000000
-15.930736 -45.628909 65.872417 0.000000 43.000000 14.222455 0.000000
-16.643343 -45.999656 65.811348 0.000000 34.000000 14.163702 0.000000
-14.858285 -45.137010 66.879466 0.000000 37.000000 14.234387 0.000000
-16.983528 -47.656326 69.260889 0.000000 67.000000 14.871852 16.000000
-16.365459 -45.690368 64.521541 0.000000 39.000000 14.237992 0.000000
-16.320727 -47.099838 69.702624 0.000000 56.000000 14.694175 23.000000
-15.751866 -45.478313 64.655037 0.000000 54.000000 14.366526 17.000000
-16.759426 -46.105956 65.136951 0.000000 50.000000 14.288135 0.000000
-18.160256 -46.835842 65.806950 0.000000 30.000000 14.059834 0.000000
-17.755985 -46.529866 64.488447 0.000000 38.000000 14.207966 0.000000
-17.912335 -46.646044 64.485350 0.000000 41.000000 14.222711 0.000000
-18.328166 -47.285703 64.409044 0.000000 51.000000 14.548129 5.000000
-15.137530 -45.771100 67.496535 0.000000 53.000000 14.527702 22.000000
-15.380893 -45.901614 66.207520 0.000000 74.000000 14.693418 11.000000
-18.253804 -46.885376 64.495058 0.000000 50.000000 14.240504 0.000000
-16.223836 -46.401064 68.966358 0.000000 37.000000 14.267357 24.000000
-16.237442 -46.489201 67.479482 0.000000 45.000000 14.547823 19.000000
-14.761906 -45.595284 66.596040 0.000000 52.000000 14.709299 22.000000
-15.985992 -46.180350 66.054990 0.000000 34.000000 14.627861 18.000000
-19.743047 -48.001611 65.862819 0.000000 40.000000 14.187897 0.000000
-19.930970 -48.138476 65.887994 0.000000 38.000000 14.199141 0.000000
-20.135184 -48.277960 65.922569 0.000000 45.000000 14.202592 0.000000
-15.375000 -46.254182 68.272389 0.000000 34.000000 14.694064 20.000000
-15.720477 -46.424193 67.707446 0.000000 41.000000 14.734496 25.000000
-16.028662 -46.817155 68.386602 0.000000 72.000000 14.801988 24.000000
-16.947127 -46.675339 68.517201 0.000000 39.000000 14.178160 0.000000
-16.626896 -47.141801 69.250784 0.000000 41.000000 14.632113 23.000000
-15.780351 -46.260437 67.139102 0.000000 43.000000 14.647697 11.000000
-15.404966 -45.807349 68.489705 0.000000 50.000000 14.273407 20.000000
-16.781394 -47.533762 69.647288 0.000000 45.000000 14.820854 23.000000
-16.961367 -47.374321 69.473229 0.000000 47.000000 14.617300 16.000000
-17.083412 -47.213326 69.281953 0.000000 43.000000 14.445610 16.000000
-18.014056 -47.234314 67.702358 0.000000 41.000000 14.197559 0.000000
-17.597731 -46.735940 65.326942 0.000000 28.000000 14.343366 1.000000
-18.218426 -47.366428 67.781136 0.000000 38.000000 14.188405 0.000000
-19.288037 -48.177147 69.326792 0.000000 42.000000 14.077082 0.000000
-15.819912 -45.583141 65.132808 0.000000 34.000000 14.349346 17.000000
-18.239361 -46.839573 64.480660 0.000000 28.000000 14.211939 0.000000
-16.356773 -47.425210 69.645478 0.000000 32.000000 14.955286 23.000000
-16.552727 -46.673868 67.975471 0.000000 51.000000 14.463802 19.000000
-19.076170 -47.912801 68.149378 0.000000 37.000000 14.137794 0.000000
-19.118065 -48.584774 68.370261 0.000000 61.000000 14.645516 8.000000
-16.534216 -47.049306 68.925012 0.000000 61.000000 14.650773 24.000000
-17.571321 -46.137434 63.941510 0.000000 19.000000 14.056462 0.000000
-16.424730 -47.061230 69.342469 0.000000 58.000000 14.658650 23.000000
-15.674451 -46.384699 66.940112 0.000000 72.000000 14.836300 11.000000
-19.774031 -48.758363 67.430605 0.000000 50.000000 14.578411 15.000000
-15.441838 -45.591306 66.988834 0.000000 38.000000 14.289299 22.000000
-18.245100 -47.645762 63.415023 0.000000 17.000000 15.036166 3.000000
-14.815116 -45.040746 65.177413 0.000000 30.000000 14.421753 7.000000
-14.989696 -45.198892 66.849681 0.000000 43.000000 14.220795 0.000000
-19.454810 -48.843078 68.469613 0.000000 43.000000 14.668769 8.000000
-14.717674 -45.280740 65.497036 0.000000 53.000000 14.627975 7.000000
-16.050122 -46.519523 70.702604 0.000000 40.000000 14.208499 0.000000
-16.256863 -46.651178 70.834564 0.000000 47.000000 14.190052 0.000000
-15.778807 -46.176304 69.535099 0.000000 47.000000 14.233344 0.000000
-19.228638 -48.466247 67.216466 0.000000 55.000000 14.653931 15.000000
-20.164494 -48.347378 66.488101 0.000000 35.000000 14.163700 0.000000
-20.030305 -48.293850 66.611143 0.000000 42.000000 14.172323 0.000000
-18.459755 -47.461145 63.827605 0.000000 49.000000 14.708766 3.000000
-18.858995 -47.374584 65.477263 0.000000 38.000000 14.187514 0.000000
-14.995730 -45.698007 67.536783 0.000000 54.000000 14.535919 22.000000
-18.509315 -47.636699 63.665007 0.000000 57.000000 14.852663 3.000000
-15.973973 -46.191010 65.956946 0.000000 65.000000 14.657249 18.000000
-19.629026 -48.029475 67.172462 0.000000 31.000000 14.083092 0.000000
-18.437593 -47.212037 65.793164 0.000000 36.000000 14.229382 0.000000
-19.390901 -47.985547 67.223633 0.000000 41.000000 14.165136 0.000000
-18.362310 -47.135607 65.933263 0.000000 39.000000 14.185205 0.000000
-19.235792 -47.922946 67.326729 0.000000 39.000000 14.180127 0.000000
-19.731854 -48.462845 67.746670 0.000000 34.000000 14.308237 0.000000
-15.035330 -45.331786 67.119969 0.000000 28.000000 14.268810 22.000000
-16.002025 -46.292579 68.629017 0.000000 36.000000 14.342714 0.000000
-18.986381 -47.776399 67.559793 0.000000 46.000000 14.156191 0.000000
-18.001085 -46.931914 66.263664 0.000000 39.000000 14.158717 0.000000
-18.876107 -47.695233 67.686577 0.000000 36.000000 14.128506 0.000000
-17.845865 -46.867714 66.350831 0.000000 34.000000 14.174722 0.000000
-18.794482 -47.604595 67.830663 0.000000 26.000000 14.075239 0.000000
-17.682548 -46.804179 66.430762 0.000000 45.000000 14.196615 0.000000
-18.714655 -47.513265 67.972665 0.000000 28.000000 14.020741 0.000000
-16.458686 -47.050956 69.337230 0.000000 63.000000 14.632830 23.000000
-18.410250 -47.471984 67.962739 0.000000 35.000000 14.148898 0.000000
-18.347196 -47.802130 69.784352 0.000000 35.000000 14.196090 0.000000
-17.907404 -46.847008 66.005309 0.000000 17.000000 14.174548 0.000000
-15.942851 -46.025133 65.851519 0.000000 54.000000 14.550250 18.000000
-18.084413 -47.319144 68.123076 0.000000 41.000000 14.170650 0.000000
-15.797919 -46.495949 67.512207 0.000000 55.000000 14.781557 25.000000
-17.953936 -47.233045 68.221478 0.000000 42.000000 14.153628 0.000000
-16.320830 -46.056725 64.343308 0.000000 30.000000 14.593521 4.000000
-17.712771 -47.044420 68.433079 0.000000 40.000000 14.093239 0.000000
-17.502623 -46.971267 68.472755 0.000000 31.000000 14.137691 0.000000
-16.291819 -46.845048 69.534826 0.000000 69.000000 14.520658 23.000000
-17.082049 -46.827214 68.532840 0.000000 64.000000 14.231397 0.000000
-16.997131 -46.719513 68.650771 0.000000 44.000000 14.169375 0.000000
-16.073649 -46.560316 66.362133 0.000000 47.000000 14.854839 30.000000
-17.991135 -47.184311 65.317791 0.000000 50.000000 14.511101 2.000000
-16.019084 -46.714586 67.887984 0.000000 65.000000 14.793087 25.000000
-15.672422 -45.988709 69.032466 0.000000 49.000000 14.205224 0.000000
-15.576195 -46.178863 66.977391 0.000000 67.000000 14.710920 11.000000
-15.356272 -46.007667 68.167012 0.000000 59.000000 14.513088 21.000000
-14.776328 -45.371444 66.771922 0.000000 48.000000 14.489239 22.000000
-15.352382 -45.103881 65.029689 0.000000 49.000000 14.211212 0.000000
-15.498911 -45.182441 64.976608 0.000000 41.000000 14.206907 0.000000
-15.493401 -46.927259 69.624756 0.000000 64.000000 14.999336 12.000000
-15.792655 -45.347333 64.870410 0.000000 47.000000 14.204437 0.000000
-17.673399 -46.467111 64.416241 0.000000 39.000000 14.209645 0.000000
-16.125181 -46.605652 68.607792 0.000000 64.000000 14.542234 24.000000
-18.012502 -46.680459 64.373907 0.000000 41.000000 14.214461 0.000000
-18.191531 -46.786475 64.360210 0.000000 42.000000 14.210225 0.000000
-18.359890 -46.899949 64.341547 0.000000 37.000000 14.218588 0.000000
-16.407325 -46.223962 64.174506 0.000000 54.000000 14.711795 4.000000
-18.896224 -47.079225 64.412994 0.000000 22.000000 14.074080 0.000000
-19.017459 -47.208695 64.380037 0.000000 32.000000 14.122832 0.000000
-15.776209 -45.916308 65.204128 0.000000 35.000000 14.640724 17.000000
-19.483352 -47.589140 64.337684 0.000000 38.000000 14.200171 0.000000
-16.972831 -47.242850 69.307983 0.000000 58.000000 14.525115 16.000000
-16.347064 -46.881786 69.158214 0.000000 64.000000 14.576309 23.000000
-19.183575 -47.221108 63.138238 0.000000 35.000000 14.223946 0.000000
-14.686915 -44.889143 66.230417 0.000000 42.000000 14.211379 0.000000
-14.838858 -44.985288 66.212721 0.000000 45.000000 14.213813 0.000000
