-29.778479 -5.463511 35.061923 0.000000 71.000000 14.645872 19.000000
-29.485064 -6.550784 34.633457 0.000000 60.000000 14.780717 11.000000
-30.631174 -4.352821 35.699504 0.000000 71.000000 14.878757 21.000000
-30.392012 -2.619428 34.545392 0.000000 78.000000 14.982037 29.000000
-27.862789 -3.981227 30.720087 0.000000 81.000000 14.957625 9.000000
-28.277400 -4.695308 32.082697 0.000000 67.000000 14.739864 6.000000
-29.902364 -3.899769 34.298062 0.000000 37.000000 14.889311 23.000000
-28.040488 -4.285516 31.305720 0.000000 78.000000 14.863203 6.000000
-29.652869 -5.469879 35.246100 0.000000 45.000000 14.447697 19.000000
-30.372407 -5.598199 36.213748 0.000000 66.000000 14.595709 20.000000
-27.506527 -5.168827 31.301191 0.000000 61.000000 14.549058 4.000000
-29.289420 -6.657729 34.463144 0.000000 43.000000 14.716185 11.000000
-30.779458 -4.056990 36.054193 0.000000 70.000000 14.781092 21.000000
-28.700250 -5.347222 32.300168 0.000000 76.000000 15.092890 5.000000
-30.383231 -0.632345 34.161860 0.000000 68.000000 14.855853 1.000000
-29.078783 -6.087072 34.765724 0.000000 34.000000 14.296080 0.000000
-28.186246 -3.258369 32.195690 0.000000 45.000000 14.380933 0.000000
-30.868879 -2.798295 35.550613 0.000000 66.000000 14.912550 29.000000
-30.439801 -6.635995 36.213609 0.000000 68.000000 14.815467 10.000000
-28.116235 -6.311843 32.737904 0.000000 46.000000 14.527360 2.000000
-28.899411 -3.291407 32.197194 0.000000 66.000000 14.992471 24.000000
-28.977613 -5.717420 34.284409 0.000000 54.000000 14.393186 0.000000
-27.932754 -5.293762 32.384490 0.000000 51.000000 14.388923 0.000000
-29.365860 -1.976913 32.746076 0.000000 63.000000 14.909088 17.000000
-28.039562 -1.111864 31.282321 0.000000 36.000000 14.377763 0.000000
-28.178198 -6.001683 32.119699 0.000000 84.000000 14.841203 2.000000
-28.595104 -5.197995 32.903043 0.000000 51.000000 14.678113 5.000000
-27.718936 -5.138437 32.028743 0.000000 43.000000 14.360765 0.000000
-29.028941 -2.920242 32.710130 0.000000 39.000000 14.787807 24.000000
-28.204854 -0.557426 31.392880 0.000000 70.000000 14.376393 0.000000
-28.761937 -0.227033 32.277291 0.000000 48.000000 14.356047 0.000000
-29.916189 -1.784914 34.680448 0.000000 32.000000 14.378807 0.000000
-30.746063 -4.200153 35.953461 0.000000 76.000000 14.825501 21.000000
-30.227338 -5.254794 35.954146 0.000000 64.000000 14.548512 20.000000
-30.704558 -2.036062 36.172142 0.000000 46.000000 14.342179 0.000000
-30.214019 -2.144972 35.504966 0.000000 31.000000 14.275741 0.000000
-28.035446 -3.789809 30.787469 0.000000 74.000000 15.040926 9.000000
-27.679884 -5.550783 32.028512 0.000000 33.000000 14.392128 0.000000
-28.460406 -2.073923 31.715549 0.000000 52.000000 14.669537 7.000000
-28.857515 -2.648537 33.042044 0.000000 41.000000 14.433150 16.000000
-29.706791 -0.625548 33.663808 0.000000 37.000000 14.528358 1.000000
-30.840819 -2.758138 35.979980 0.000000 37.000000 14.667351 29.000000
-29.282618 -5.970580 34.828169 0.000000 35.000000 14.420114 0.000000
-30.764057 -2.720380 35.378525 0.000000 49.000000 14.897312 29.000000
-29.485443 -3.221876 32.756038 0.000000 45.000000 15.200617 24.000000
-29.024124 -5.620513 34.025024 0.000000 36.000000 14.547526 19.000000
-28.378621 -3.919950 32.197847 0.000000 69.000000 14.647097 12.000000
-30.462159 -2.880976 34.721230 0.000000 63.000000 14.994600 29.000000
-28.502912 -5.556870 32.715537 0.000000 69.000000 14.749664 5.000000
-29.323602 -1.899527 33.023983 0.000000 59.000000 14.721831 30.000000
-28.087713 -4.218715 31.883738 0.000000 52.000000 14.603481 6.000000
-29.279772 -6.138546 35.010640 0.000000 37.000000 14.352578 0.000000
-28.940626 -4.482940 32.749518 0.000000 72.000000 14.937309 6.000000
-30.216686 -5.419117 35.466832 0.000000 67.000000 14.809196 19.000000
-28.753954 -2.335357 32.929950 0.000000 43.000000 14.352142 0.000000
-28.607341 -2.397113 32.719462 0.000000 44.000000 14.342402 0.000000
-28.464088 -2.455473 32.507915 0.000000 41.000000 14.335522 0.000000
-30.373625 -3.066831 35.307137 0.000000 56.000000 14.654871 29.000000
-28.063146 -2.623045 31.814001 0.000000 46.000000 14.367924 0.000000
-27.924684 -2.669132 31.615312 0.000000 45.000000 14.356764 0.000000
-27.930479 -5.198977 32.361424 0.000000 36.000000 14.383713 0.000000
-27.712863 -4.422828 30.859360 0.000000 73.000000 14.829310 6.000000
-29.495867 -2.268608 32.991004 0.000000 57.000000 14.942724 16.000000
-29.359810 -4.949819 33.830309 0.000000 71.000000 14.825915 14.000000
-30.083971 -6.342563 36.243600 0.000000 38.000000 14.451632 10.000000
-30.844535 -2.289986 35.908279 0.000000 61.000000 14.633202 29.000000
-30.034586 -1.395893 33.223327 0.000000 48.000000 15.148495 18.000000
-28.424110 -2.323846 31.716294 0.000000 65.000000 14.677353 7.000000
-30.610231 -5.252996 35.908577 0.000000 72.000000 14.897012 20.000000
-28.440687 -5.967598 33.596223 0.000000 48.000000 14.319874 0.000000
-27.557458 -5.030221 31.043914 0.000000 58.000000 14.699584 4.000000
-29.017709 -3.475807 33.108965 0.000000 56.000000 14.665398 24.000000
-28.263182 -4.304976 31.626413 0.000000 71.000000 14.895222 6.000000
-30.644620 -1.467610 35.909766 0.000000 30.000000 14.333645 0.000000
-30.246503 -4.382751 35.464089 0.000000 72.000000 14.673862 21.000000
-26.921557 -6.131493 31.269565 0.000000 37.000000 14.217470 0.000000
-29.846572 -6.806236 35.723281 0.000000 58.000000 14.582632 11.000000
-30.813257 -0.700101 34.921005 0.000000 52.000000 14.852348 1.000000
-27.153108 -6.163259 31.729316 0.000000 35.000000 14.189313 0.000000
-28.485323 -4.127028 32.283686 0.000000 47.000000 14.727333 12.000000
-27.867203 -6.389519 32.871236 0.000000 44.000000 14.260732 0.000000
-30.738045 -2.833507 35.552095 0.000000 48.000000 14.805935 29.000000
-28.965481 -4.506832 32.490699 0.000000 72.000000 15.091824 6.000000
-30.765463 -3.668188 35.496850 0.000000 63.000000 14.987490 27.000000
-27.525289 -6.079863 32.140581 0.000000 47.000000 14.287145 0.000000
-29.950662 -5.681397 35.228777 0.000000 74.000000 14.742969 19.000000
-29.923259 -3.291088 35.210098 0.000000 46.000000 14.355143 0.000000
-28.691651 -5.197030 33.493766 0.000000 39.000000 14.464314 5.000000
-30.002293 -4.150563 34.691628 0.000000 68.000000 14.816504 22.000000
-28.174388 -1.602887 31.712463 0.000000 45.000000 14.353920 0.000000
-29.892638 -5.056978 34.731899 0.000000 49.000000 14.844752 13.000000
-29.755383 -1.072485 33.331632 0.000000 46.000000 14.805984 18.000000
-28.172248 -3.929698 31.251219 0.000000 62.000000 14.947015 9.000000
-29.183829 -4.144092 33.098099 0.000000 65.000000 14.916781 12.000000
-30.778405 -4.722739 36.021952 0.000000 49.000000 14.900467 21.000000
-28.960639 -4.537235 32.629222 0.000000 41.000000 15.023084 6.000000
-29.473152 -5.390204 34.143158 0.000000 68.000000 14.834605 19.000000
-28.393662 -5.778179 33.400628 0.000000 46.000000 14.348171 0.000000
-27.544609 -4.224414 31.287192 0.000000 48.000000 14.440779 6.000000
-28.754659 -3.452857 32.154166 0.000000 66.000000 14.916043 24.000000
-30.121967 -6.246311 35.176443 0.000000 73.000000 15.003366 11.000000
-27.690676 -5.889317 31.723821 0.000000 43.000000 14.606855 3.000000
-28.633188 -4.451405 32.232894 0.000000 63.000000 14.929382 6.000000
-30.263611 -0.952915 35.160623 0.000000 30.000000 14.303967 0.000000
-30.733758 -3.600650 35.800908 0.000000 51.000000 14.797661 27.000000
-30.507481 -4.358368 36.098909 0.000000 74.000000 14.574297 21.000000
-28.997885 -4.513373 32.713783 0.000000 67.000000 15.008711 6.000000
-30.940161 -0.946151 36.298334 0.000000 45.000000 14.309086 0.000000
-28.785262 -0.334015 32.458918 0.000000 40.000000 14.301676 0.000000
-28.207601 -1.010174 31.551125 0.000000 53.000000 14.370292 0.000000
-29.799806 -3.203936 33.133172 0.000000 50.000000 15.276559 24.000000
-27.483060 -2.990423 31.201986 0.000000 36.000000 14.238053 0.000000
-27.706242 -4.337700 30.917756 0.000000 76.000000 14.781114 6.000000
-29.347524 -5.175392 34.202212 0.000000 57.000000 14.664484 14.000000
-30.280387 -6.635908 35.915855 0.000000 65.000000 14.828860 10.000000
-28.253870 -3.739793 30.963590 0.000000 46.000000 15.130847 9.000000
-28.118985 -3.204165 31.902296 0.000000 51.000000 14.462130 24.000000
-28.257567 -4.580810 31.402132 0.000000 62.000000 15.045905 6.000000
-29.838954 -4.922685 33.807603 0.000000 55.000000 15.240943 14.000000
-29.654568 -4.415146 34.657233 0.000000 72.000000 14.579090 22.000000
-30.261662 -1.394572 35.255614 0.000000 42.000000 14.323812 0.000000
-28.363036 -1.779895 32.275684 0.000000 33.000000 14.260137 0.000000
-29.971238 -4.865430 35.340099 0.000000 82.000000 14.577115 20.000000
-30.256253 -0.768034 34.847468 0.000000 40.000000 14.425618 1.000000
-30.532520 -3.491941 35.518134 0.000000 73.000000 14.750959 27.000000
-29.393063 -5.612586 34.397891 0.000000 53.000000 14.673633 19.000000
-28.471000 -2.453073 32.485263 0.000000 42.000000 14.352376 0.000000
-28.332057 -2.519049 32.269163 0.000000 41.000000 14.352636 0.000000
-29.827831 -2.119744 34.021094 0.000000 61.000000 14.686166 15.000000
-28.455870 -4.458040 31.795273 0.000000 61.000000 14.998632 6.000000
-28.230008 -3.108772 31.230251 0.000000 71.000000 14.878292 24.000000
-29.123308 -6.658163 34.643654 0.000000 25.000000 14.484438 11.000000
-29.355949 -4.443939 34.626372 0.000000 44.000000 14.344831 0.000000
-27.491644 -4.726316 31.749027 0.000000 38.000000 14.242897 0.000000
-27.511554 -4.018052 30.882048 0.000000 33.000000 14.583263 9.000000
-29.645903 -5.549644 34.362187 0.000000 63.000000 14.896914 19.000000
-28.201957 -4.240321 31.712575 0.000000 80.000000 14.789838 6.000000
-31.185269 -3.010487 36.104912 0.000000 64.000000 14.937485 28.000000
-30.204290 -5.801267 35.562033 0.000000 70.000000 14.810735 19.000000
-28.700775 -3.527857 32.198314 0.000000 55.000000 14.859792 12.000000
-30.204055 -0.934207 33.986802 0.000000 56.000000 14.838201 1.000000
-28.592835 -5.816477 33.766346 0.000000 38.000000 14.340564 0.000000
-28.171950 -2.348170 31.481572 0.000000 67.000000 14.584043 7.000000
-27.803436 -4.076501 31.138661 0.000000 54.000000 14.712372 9.000000
-31.068785 -2.987963 36.109893 0.000000 66.000000 14.832304 28.000000
-28.590871 -0.683969 31.241718 0.000000 50.000000 14.800508 8.000000
-28.974013 -3.675961 32.240162 0.000000 64.000000 15.094608 12.000000
-28.298748 -4.044288 32.641107 0.000000 41.000000 14.376559 0.000000
-28.159080 -4.037719 32.403643 0.000000 41.000000 14.375555 0.000000
-28.936540 -4.379834 33.042433 0.000000 64.000000 14.771010 6.000000
-27.509609 -2.975794 31.157002 0.000000 26.000000 14.280895 0.000000
-27.171674 -5.423173 31.200470 0.000000 45.000000 14.354217 0.000000
-29.655904 -2.980009 34.060363 0.000000 37.000000 14.654685 26.000000
-30.838123 -3.031860 35.156591 0.000000 73.000000 15.120228 29.000000
-28.210624 -2.372245 31.628691 0.000000 38.000000 14.547052 7.000000
-28.389292 -2.681133 31.683113 0.000000 39.000000 14.720210 24.000000
-29.023325 -4.517745 32.743873 0.000000 57.000000 15.015982 6.000000
-28.964357 -4.614918 32.630819 0.000000 54.000000 15.037599 6.000000
-29.222032 -6.095051 34.806980 0.000000 43.000000 14.398616 0.000000
-29.691667 -5.776274 34.859671 0.000000 76.000000 14.722175 19.000000
-29.007527 -5.230841 33.993408 0.000000 62.000000 14.488285 19.000000
-30.126620 -6.689513 35.829007 0.000000 42.000000 14.749835 10.000000
-28.199031 -0.268215 31.189909 0.000000 72.000000 14.427852 8.000000
-28.381452 -3.832313 31.288853 0.000000 62.000000 15.091034 9.000000
-27.160814 -5.533426 31.178068 0.000000 47.000000 14.373435 0.000000
-28.603557 -2.288024 31.882961 0.000000 50.000000 14.741047 7.000000
-28.920759 -2.571214 32.797250 0.000000 59.000000 14.597492 16.000000
-28.759253 -4.512850 32.590696 0.000000 61.000000 14.867122 6.000000
-29.269304 -6.065197 34.747765 0.000000 46.000000 14.463845 11.000000
-28.948691 -5.905729 34.362182 0.000000 41.000000 14.359066 0.000000
-30.547072 -4.442865 35.561376 0.000000 53.000000 14.890419 21.000000
-30.187633 -4.297889 34.636112 0.000000 51.000000 15.025131 22.000000
-28.537377 -5.904909 33.714306 0.000000 46.000000 14.333245 0.000000
-28.195448 -5.845473 32.868957 0.000000 70.000000 14.456221 2.000000
-29.389507 -6.387480 35.133916 0.000000 25.000000 14.423193 0.000000
-30.272413 -5.497639 35.615425 0.000000 35.000000 14.794501 19.000000
-28.006356 -5.623379 32.706753 0.000000 43.000000 14.341742 0.000000
-27.105706 -5.274999 31.046808 0.000000 42.000000 14.351838 0.000000
-29.792202 -4.984467 34.550920 0.000000 70.000000 14.838545 13.000000
-29.389349 -5.148557 34.083311 0.000000 74.000000 14.755440 14.000000
-27.644051 -5.402008 31.988670 0.000000 41.000000 14.358308 0.000000
-28.942029 -4.240937 32.724555 0.000000 78.000000 14.913155 12.000000
-28.103135 -1.127693 31.440962 0.000000 45.000000 14.354910 0.000000
-30.377886 -2.428207 35.114051 0.000000 71.000000 14.655315 29.000000
-28.270196 -2.314531 31.950007 0.000000 41.000000 14.427822 7.000000
-30.124439 -2.078322 34.058404 0.000000 79.000000 14.913508 15.000000
-28.111207 -0.666491 31.222769 0.000000 49.000000 14.398922 0.000000
-29.045374 -0.556332 33.079567 0.000000 43.000000 14.247056 0.000000
-29.522083 -1.359692 33.060122 0.000000 73.000000 14.788269 18.000000
-30.247325 -4.907060 35.454864 0.000000 72.000000 14.761185 20.000000
-30.043455 -3.539681 34.034009 0.000000 70.000000 15.085344 23.000000
-29.717285 -1.927538 33.890714 0.000000 67.000000 14.627291 15.000000
-28.918783 -0.269657 32.587882 0.000000 43.000000 14.340691 0.000000
-29.992895 -3.678302 33.909268 0.000000 51.000000 15.126454 23.000000
-28.026517 -0.513151 31.273619 0.000000 41.000000 14.277376 0.000000
-28.062024 -4.368753 31.381130 0.000000 75.000000 14.856790 6.000000
-27.724255 -2.610085 31.279019 0.000000 49.000000 14.345320 0.000000
-30.765616 -2.625478 35.168152 0.000000 68.000000 14.989152 29.000000
-30.429904 -4.021840 35.644922 0.000000 73.000000 14.682983 21.000000
-28.123263 -2.539600 31.949990 0.000000 41.000000 14.337947 0.000000
-29.549521 -3.739125 33.749144 0.000000 72.000000 14.838710 23.000000
-28.316068 -6.196651 32.596765 0.000000 61.000000 14.750147 2.000000
-28.535640 -2.490108 32.647524 0.000000 45.000000 14.331935 0.000000
-30.747760 -3.187303 35.931100 0.000000 50.000000 14.679731 28.000000
-29.484687 -2.839885 33.346788 0.000000 46.000000 14.844376 24.000000
-29.887665 -4.928286 34.528872 0.000000 38.000000 14.922069 13.000000
-28.629373 -3.449002 33.337167 0.000000 32.000000 14.216324 0.000000
-30.942345 -3.445456 36.136539 0.000000 38.000000 14.782874 28.000000
-28.574612 -5.208443 32.415175 0.000000 55.000000 14.906631 5.000000
-28.301677 -5.500877 32.356025 0.000000 62.000000 14.749640 5.000000
-28.644147 -2.432344 32.801046 0.000000 44.000000 14.338388 0.000000
-29.500045 -3.315343 33.479060 0.000000 54.000000 14.865571 24.000000
-29.119793 -0.337668 32.895843 0.000000 39.000000 14.368220 0.000000
-31.063579 -2.961403 36.140939 0.000000 55.000000 14.808170 28.000000
-29.190776 -3.473522 32.809663 0.000000 53.000000 14.962267 24.000000
-28.356407 -3.766373 31.223150 0.000000 48.000000 15.092304 9.000000
-30.108866 -6.437028 35.088142 0.000000 70.000000 15.066264 11.000000
-29.272928 -3.590319 32.988272 0.000000 22.000000 14.961021 24.000000
-27.776754 -2.379658 31.223345 0.000000 48.000000 14.381856 0.000000
-30.864132 -0.834092 35.874640 0.000000 32.000000 14.439025 1.000000
-30.149818 -5.506588 35.548045 0.000000 62.000000 14.725279 19.000000
-29.529078 -3.837074 33.923824 0.000000 59.000000 14.749145 23.000000
-29.636695 -4.964409 33.946265 0.000000 71.000000 15.005841 14.000000
-30.508181 -2.001153 35.838631 0.000000 50.000000 14.336567 0.000000
-28.149665 -5.363344 32.531471 0.000000 50.000000 14.510854 5.000000
-29.614174 -2.374288 33.683778 0.000000 70.000000 14.713020 26.000000
-28.134011 -1.196264 31.478559 0.000000 33.000000 14.373091 0.000000
-29.501050 -1.818175 32.799398 0.000000 45.000000 14.972645 30.000000
-29.848958 -3.091157 34.965268 0.000000 44.000000 14.383232 0.000000
-30.695781 -4.314669 36.068872 0.000000 67.000000 14.742807 21.000000
-29.950620 -1.821018 34.438950 0.000000 53.000000 14.534709 15.000000
-27.676952 -5.205666 31.975967 0.000000 59.000000 14.361970 0.000000
-27.771462 -5.316963 32.208052 0.000000 49.000000 14.343604 0.000000
-28.877219 -0.858161 32.686515 0.000000 32.000000 14.347955 0.000000
-28.712568 -0.687658 31.953980 0.000000 55.000000 14.547979 8.000000
-27.122933 -5.404333 31.120292 0.000000 41.000000 14.349931 0.000000
-28.076424 -5.670789 32.839772 0.000000 43.000000 14.342189 0.000000
-30.088330 -4.396410 34.556267 0.000000 78.000000 14.995990 22.000000
-28.341914 -2.708543 31.553758 0.000000 36.000000 14.748946 24.000000
-28.782742 -3.351333 32.369199 0.000000 63.000000 14.816381 24.000000
-29.269321 -5.897286 34.707779 0.000000 49.000000 14.457623 19.000000
-28.605276 -6.329482 33.837791 0.000000 54.000000 14.395610 0.000000
-29.525737 -1.073119 33.861924 0.000000 27.000000 14.345009 0.000000
-28.423517 -3.535313 31.705710 0.000000 48.000000 14.871626 9.000000
-27.708752 -6.286370 32.560789 0.000000 45.000000 14.265183 0.000000
-29.522901 -5.607735 34.016292 0.000000 40.000000 14.974515 19.000000
-28.035919 -5.817838 32.337908 0.000000 79.000000 14.582044 2.000000
-29.909217 -5.355660 35.897125 0.000000 32.000000 14.322025 0.000000
-28.601427 -4.968639 33.809587 0.000000 36.000000 14.193618 0.000000
-28.030328 -0.761836 31.115742 0.000000 27.000000 14.398580 0.000000
-29.826204 -3.195455 33.895583 0.000000 40.000000 14.915883 24.000000
-27.411763 -5.956892 31.617197 0.000000 56.000000 14.433381 3.000000
-28.810741 -3.578201 32.183747 0.000000 73.000000 14.968576 12.000000
-27.963305 -6.110909 32.260327 0.000000 78.000000 14.604918 2.000000
-28.288005 -5.612425 32.546448 0.000000 58.000000 14.660081 5.000000
-29.306825 -1.534530 32.819251 0.000000 42.000000 14.752994 30.000000
-29.126869 -1.602555 32.512411 0.000000 74.000000 14.764103 17.000000
-30.278613 -5.139739 35.613247 0.000000 74.000000 14.744893 20.000000
-27.607876 -5.540836 31.392351 0.000000 76.000000 14.647867 3.000000
-27.621462 -5.402509 31.447345 0.000000 64.000000 14.610257 3.000000
-29.130122 -1.144602 32.222490 0.000000 38.000000 14.840442 8.000000
-29.853873 -0.715282 33.776850 0.000000 49.000000 14.610993 1.000000
-30.463843 -4.225588 35.467300 0.000000 60.000000 14.832697 21.000000
-30.015377 -1.848971 34.032460 0.000000 58.000000 14.797784 15.000000
-28.818173 -6.191118 34.177861 0.000000 24.000000 14.384901 0.000000
-29.752360 -2.275349 34.115390 0.000000 48.000000 14.599030 26.000000
-30.234471 -1.915720 34.018698 0.000000 51.000000 15.001633 15.000000
-28.633364 -2.018946 32.341186 0.000000 44.000000 14.494853 17.000000
-29.647633 -4.887792 34.388142 0.000000 62.000000 14.781872 14.000000
-28.755477 -1.794402 32.175057 0.000000 75.000000 14.646889 17.000000
-27.455798 -6.245977 32.099052 0.000000 46.000000 14.274766 0.000000
-27.360015 -6.134488 31.846910 0.000000 52.000000 14.302062 0.000000
-30.242574 -5.166441 35.549638 0.000000 45.000000 14.750245 20.000000
-28.800503 -6.419917 34.314449 0.000000 35.000000 14.337239 0.000000
-29.031758 -5.976101 34.553418 0.000000 37.000000 14.345016 0.000000
-28.169920 -1.739535 31.908885 0.000000 38.000000 14.273119 0.000000
-28.341940 -1.726603 31.958595 0.000000 47.000000 14.392643 0.000000
-29.640098 -3.079830 33.343895 0.000000 39.000000 15.015656 24.000000
-27.665958 -4.265967 31.020782 0.000000 48.000000 14.684004 6.000000
-30.456834 -1.461912 35.655512 0.000000 31.000000 14.300223 0.000000
-30.630297 -1.439324 35.936119 0.000000 38.000000 14.303831 0.000000
-30.812998 -1.426295 36.170253 0.000000 36.000000 14.340071 0.000000
-28.758216 -4.804390 32.612214 0.000000 76.000000 14.901061 6.000000
-30.249390 -0.638707 34.422971 0.000000 44.000000 14.612140 1.000000
-28.793302 -3.495810 32.486351 0.000000 66.000000 14.789297 24.000000
-30.219629 -6.285461 36.203931 0.000000 43.000000 14.578055 10.000000
-29.812497 -5.679695 34.810712 0.000000 66.000000 14.834453 19.000000
-27.967377 -6.270690 32.626117 0.000000 44.000000 14.450183 2.000000
-30.475518 -4.896212 35.941717 0.000000 43.000000 14.709931 20.000000
-29.094409 -2.193672 31.988262 0.000000 43.000000 15.091421 17.000000
-29.602045 -2.669741 33.670474 0.000000 49.000000 14.755567 26.000000
-29.002237 -0.723208 32.832944 0.000000 42.000000 14.359944 0.000000
-30.397696 -3.261685 35.563212 0.000000 74.000000 14.577594 27.000000
-28.412888 -3.799783 31.471962 0.000000 62.000000 15.021005 9.000000
-29.921604 -6.694962 35.635204 0.000000 62.000000 14.673214 11.000000
-28.038715 -1.713514 31.568745 0.000000 47.000000 14.327698 0.000000
-29.191748 -4.856756 33.289351 0.000000 73.000000 14.939205 6.000000
-29.517991 -5.369478 34.092916 0.000000 70.000000 14.894696 19.000000
-29.065018 -3.012153 32.629207 0.000000 73.000000 14.873422 24.000000
-29.938453 -5.088047 35.446204 0.000000 61.000000 14.530883 20.000000
-27.800425 -5.233162 32.166471 0.000000 48.000000 14.375978 0.000000
-30.217431 -0.962366 35.062778 0.000000 30.000000 14.315133 0.000000
-29.294679 -3.482003 33.521797 0.000000 41.000000 14.695403 24.000000
-28.819815 -4.314184 33.146691 0.000000 58.000000 14.609159 6.000000
-30.756400 -1.592344 36.161901 0.000000 39.000000 14.322042 0.000000
-30.596104 -1.703174 35.924197 0.000000 30.000000 14.321959 0.000000
-30.174821 -5.200455 35.639287 0.000000 59.000000 14.652989 20.000000
-30.069977 -4.889964 35.385191 0.000000 72.000000 14.642426 20.000000
-30.478480 -3.741722 36.064607 0.000000 49.000000 14.470342 27.000000
-27.942659 -2.555526 31.600474 0.000000 38.000000 14.361729 0.000000
-27.819933 -2.622558 31.396986 0.000000 44.000000 14.369643 0.000000
-29.857902 -2.295167 33.762411 0.000000 65.000000 14.868753 26.000000
-27.532170 -3.072748 31.273114 0.000000 20.000000 14.257116 0.000000
-27.853161 -3.142580 31.645003 0.000000 54.000000 14.355054 0.000000
-27.701221 -3.180352 31.524981 0.000000 47.000000 14.291723 0.000000
-30.081608 -4.240057 34.602474 0.000000 69.000000 14.942672 22.000000
-28.409817 -0.330354 31.214834 0.000000 82.000000 14.604532 8.000000
-27.681524 -5.066036 31.878506 0.000000 46.000000 14.392833 0.000000
-30.778661 -0.720754 34.484097 0.000000 43.000000 15.044934 1.000000
-27.872959 -5.262156 32.350244 0.000000 46.000000 14.350226 0.000000
-30.218147 -5.008982 35.227529 0.000000 76.000000 14.866139 20.000000
-28.003639 -3.716653 30.688265 0.000000 69.000000 15.052088 9.000000
-28.380102 -5.810120 33.462475 0.000000 40.000000 14.310650 0.000000
-28.748148 -3.408547 33.514474 0.000000 32.000000 14.222315 0.000000
-28.308779 -5.023418 32.825545 0.000000 49.000000 14.445870 5.000000
-30.681715 -4.209780 35.662807 0.000000 79.000000 14.917789 21.000000
-29.848735 -3.939226 35.034820 0.000000 59.000000 14.480851 22.000000
-30.839402 -2.063953 36.421322 0.000000 31.000000 14.336543 0.000000
-29.003780 -2.204927 31.949040 0.000000 58.000000 15.035671 17.000000
-29.615126 -1.435365 32.971280 0.000000 72.000000 14.923807 18.000000
-27.505453 -4.948576 31.095662 0.000000 56.000000 14.616626 4.000000
-27.488246 -5.180190 31.235210 0.000000 61.000000 14.568316 4.000000
-30.548742 -1.640383 35.819500 0.000000 34.000000 14.324252 0.000000
-30.244207 -0.732322 34.094495 0.000000 58.000000 14.786874 1.000000
-27.244742 -5.550354 31.333141 0.000000 65.000000 14.369869 0.000000
-29.729522 -4.008879 33.952874 0.000000 81.000000 14.932107 23.000000
-30.761910 -3.656386 35.510312 0.000000 65.000000 14.975878 27.000000
-28.027721 -4.034477 30.840062 0.000000 42.000000 15.046277 9.000000
-30.081135 -1.843163 33.857807 0.000000 74.000000 14.940324 15.000000
-30.353321 -2.646953 34.963050 0.000000 65.000000 14.744238 29.000000
-28.162209 -4.001006 31.576654 0.000000 55.000000 14.786641 9.000000
-29.682323 -5.625817 34.407631 0.000000 57.000000 14.917074 19.000000
-29.595744 -2.344237 33.399247 0.000000 72.000000 14.835127 26.000000
-29.021797 -1.690117 32.203461 0.000000 48.000000 14.843074 17.000000
-28.905924 -2.208345 32.435425 0.000000 52.000000 14.709314 17.000000
-30.139126 -6.306220 36.061742 0.000000 47.000000 14.583977 10.000000
-29.427518 -2.902229 33.123945 0.000000 37.000000 14.917060 24.000000
-29.860573 -4.318057 34.090943 0.000000 83.000000 15.022882 23.000000
-27.159516 -5.529492 31.143977 0.000000 41.000000 14.388787 0.000000
-28.336503 -3.511790 31.518154 0.000000 43.000000 14.887801 9.000000
-29.499518 -4.247503 34.026559 0.000000 75.000000 14.736721 23.000000
-27.981632 -4.002345 31.682004 0.000000 46.000000 14.580363 9.000000
-29.449177 -1.085410 33.202520 0.000000 64.000000 14.611991 18.000000
-30.111174 -4.367314 34.755815 0.000000 64.000000 14.910951 22.000000
-28.532939 -1.352379 32.216730 0.000000 41.000000 14.367436 0.000000
-29.167420 -6.139276 34.413216 0.000000 49.000000 14.556242 11.000000
-30.730063 -4.216076 35.803096 0.000000 78.000000 14.889675 21.000000
-28.362437 -6.206995 32.669129 0.000000 67.000000 14.754999 2.000000
-29.956138 -4.100080 34.863925 0.000000 50.000000 14.683029 22.000000
-30.545512 -4.652376 35.929569 0.000000 51.000000 14.737464 21.000000
-30.550213 -2.848041 34.436508 0.000000 49.000000 15.207002 29.000000
-30.479121 -3.676647 36.143215 0.000000 52.000000 14.421342 27.000000
-29.971711 -1.955465 34.424160 0.000000 55.000000 14.581099 15.000000
-28.930109 -1.389630 32.491981 0.000000 42.000000 14.573528 8.000000
-30.065409 -4.909270 34.487371 0.000000 69.000000 15.091194 13.000000
-28.063305 -1.181976 31.298932 0.000000 41.000000 14.400623 0.000000
-29.473053 -2.515267 33.577601 0.000000 45.000000 14.668107 26.000000
-27.617221 -2.954646 31.319868 0.000000 37.000000 14.287634 0.000000
-28.315870 -3.889755 31.029106 0.000000 52.000000 15.174271 9.000000
-30.522207 -4.910367 35.815413 0.000000 46.000000 14.815146 20.000000
-28.790626 -4.744728 32.420265 0.000000 79.000000 15.015450 6.000000
-30.503274 -4.312734 35.693149 0.000000 65.000000 14.766787 21.000000
-30.636506 -0.562224 34.170837 0.000000 71.000000 15.056005 1.000000
-29.946951 -3.991528 34.975192 0.000000 56.000000 14.602506 22.000000
-30.368788 -2.695029 33.849700 0.000000 68.000000 15.322500 26.000000
-27.900697 -0.960320 30.985199 0.000000 46.000000 14.384646 0.000000
-29.715060 -5.078365 34.939828 0.000000 53.000000 14.592791 13.000000
-28.510574 -0.377017 31.232819 0.000000 78.000000 14.688599 8.000000
-30.076615 -3.954168 34.158149 0.000000 55.000000 15.116230 23.000000
-28.882318 -3.620359 32.234217 0.000000 68.000000 15.010828 12.000000
-28.130411 -1.738498 31.897149 0.000000 34.000000 14.245200 0.000000
-29.732520 -3.085606 33.997129 0.000000 65.000000 14.768093 26.000000
-27.920032 -1.945240 31.445553 0.000000 39.000000 14.324601 0.000000
-30.205496 -4.351018 35.255564 0.000000 70.000000 14.738420 21.000000
-28.389014 -2.378610 32.334606 0.000000 39.000000 14.346384 0.000000
-28.261128 -2.462390 32.147923 0.000000 38.000000 14.344110 0.000000
-28.143222 -2.547738 31.922061 0.000000 45.000000 14.370198 0.000000
-29.635644 -4.707263 34.398436 0.000000 40.000000 14.738276 14.000000
-28.347553 -2.642744 31.833918 0.000000 31.000000 14.603148 24.000000
-27.768912 -2.775360 31.363162 0.000000 48.000000 14.367047 0.000000
-29.146180 -1.265355 31.914839 0.000000 53.000000 15.027074 8.000000
-28.261027 -5.484935 32.367180 0.000000 36.000000 14.706954 5.000000
-29.167447 -1.295107 32.298409 0.000000 58.000000 14.857736 8.000000
-30.043389 -1.756308 33.930315 0.000000 75.000000 14.858293 15.000000
-29.608886 -3.068599 33.168218 0.000000 69.000000 15.075309 24.000000
-29.808251 -4.694132 34.694852 0.000000 49.000000 14.734716 13.000000
-28.413241 -4.388839 31.831949 0.000000 74.000000 14.933151 6.000000
-29.756524 -1.805415 33.200851 0.000000 50.000000 14.987085 30.000000
-30.157978 -1.801056 34.369068 0.000000 40.000000 14.743111 15.000000
-29.594210 -4.934099 33.702088 0.000000 71.000000 15.087218 14.000000
-27.783171 -5.468494 32.270773 0.000000 41.000000 14.345860 0.000000
-27.876880 -5.582809 32.486556 0.000000 39.000000 14.335449 0.000000
-28.104891 -2.409364 31.795437 0.000000 36.000000 14.379339 0.000000
-27.983667 -5.700175 32.650443 0.000000 46.000000 14.362638 0.000000
-30.097919 -2.758930 34.325224 0.000000 54.000000 14.863754 26.000000
-28.707234 -2.048440 32.097683 0.000000 56.000000 14.684301 17.000000
-28.353659 -1.398170 31.900080 0.000000 41.000000 14.380557 0.000000
-30.260746 -3.366923 34.534546 0.000000 58.000000 14.992632 25.000000
-27.831824 -4.427398 31.036283 0.000000 45.000000 14.842693 6.000000
-27.743068 -5.569705 31.560160 0.000000 67.000000 14.683432 3.000000
-28.763965 -4.543729 33.630538 0.000000 37.000000 14.355200 0.000000
-30.034157 -4.203887 33.972436 0.000000 43.000000 15.212148 23.000000
-30.991481 -0.841506 35.177102 0.000000 73.000000 14.897932 1.000000
-29.755695 -5.382732 35.446088 0.000000 46.000000 14.421447 0.000000
-30.061002 -5.679366 35.429802 0.000000 58.000000 14.735909 19.000000
-30.755426 -4.705670 36.040199 0.000000 56.000000 14.869097 21.000000
-27.393817 -3.009316 31.050508 0.000000 32.000000 14.240896 0.000000
-29.684782 -3.440961 34.163405 0.000000 70.000000 14.699759 23.000000
-29.192751 -5.628115 34.051707 0.000000 53.000000 14.678906 19.000000
-27.800274 -5.096203 32.210854 0.000000 47.000000 14.332201 0.000000
-30.244447 -3.004952 34.831809 0.000000 74.000000 14.773271 29.000000
-29.764341 -5.600368 34.396856 0.000000 62.000000 14.988312 19.000000
-30.066497 -6.225927 35.877582 0.000000 51.000000 14.601819 10.000000
-30.793574 -3.179859 35.851039 0.000000 35.000000 14.757664 28.000000
-26.927178 -5.922889 31.021350 0.000000 42.000000 14.313938 0.000000
-30.422824 -4.546242 35.653133 0.000000 74.000000 14.754861 21.000000
-27.018456 -6.220438 31.416488 0.000000 39.000000 14.240292 0.000000
-30.264798 -6.385373 36.125925 0.000000 65.000000 14.671200 10.000000
-28.199782 -1.003495 31.515149 0.000000 53.000000 14.380608 0.000000
-30.609210 -2.282905 35.315993 0.000000 37.000000 14.728383 29.000000
-29.969181 -1.372368 33.512499 0.000000 65.000000 14.944316 18.000000
-28.955134 -0.403905 32.639493 0.000000 45.000000 14.366786 0.000000
-28.175397 -0.413097 31.270775 0.000000 67.000000 14.389894 0.000000
-27.517145 -5.053219 31.161352 0.000000 54.000000 14.610049 4.000000
-29.659014 -0.669720 33.897021 0.000000 34.000000 14.377799 0.000000
-29.262240 -1.989558 32.775772 0.000000 62.000000 14.807981 17.000000
-30.959864 -3.072072 35.859020 0.000000 45.000000 14.878373 28.000000
-28.132352 -0.312003 31.258295 0.000000 64.000000 14.343688 0.000000
-27.648145 -5.156179 31.850143 0.000000 38.000000 14.392720 0.000000
-28.017739 -4.502454 31.227285 0.000000 80.000000 14.917047 6.000000
-30.036593 -1.904178 33.713294 0.000000 50.000000 14.984322 15.000000
-28.856600 -3.795765 33.601487 0.000000 32.000000 14.331626 0.000000
-28.013300 -2.430882 31.631935 0.000000 43.000000 14.386615 0.000000
-29.698022 -4.423288 34.631362 0.000000 67.000000 14.630312 22.000000
-30.619502 -1.772271 35.961758 0.000000 49.000000 14.333874 0.000000
-30.328048 -5.081331 35.566321 0.000000 79.000000 14.801344 20.000000
-29.254638 -3.155464 32.512035 0.000000 49.000000 15.115943 24.000000
-27.502865 -5.910217 31.650295 0.000000 45.000000 14.487061 3.000000
-30.824841 -2.892937 35.397903 0.000000 71.000000 14.966342 29.000000
-30.318416 -4.562088 35.819838 0.000000 64.000000 14.584969 21.000000
-30.026788 -3.841903 34.378815 0.000000 64.000000 14.945741 23.000000
-28.418738 -0.365180 31.269642 0.000000 37.000000 14.590125 8.000000
-29.537465 -0.565929 33.829215 0.000000 45.000000 14.292048 0.000000
-29.104150 -1.262870 32.169916 0.000000 63.000000 14.863159 8.000000
-29.902659 -6.689542 35.309303 0.000000 59.000000 14.819452 11.000000
-29.963248 -1.929847 33.190204 0.000000 62.000000 15.187865 30.000000
-27.772461 -1.850134 31.260132 0.000000 21.000000 14.276958 0.000000
-29.847948 -3.862629 33.962125 0.000000 48.000000 15.005417 23.000000
-29.755110 -3.446043 34.436129 0.000000 59.000000 14.623842 25.000000
-29.110739 -5.158512 33.906104 0.000000 46.000000 14.608560 19.000000
-29.894991 -2.049468 34.317010 0.000000 61.000000 14.584151 15.000000
-28.908791 -5.517219 32.994912 0.000000 66.000000 14.949077 5.000000
-30.009545 -4.248222 34.144591 0.000000 61.000000 15.111914 23.000000
-29.182343 -3.317679 32.972065 0.000000 65.000000 14.849380 24.000000
-28.769925 -4.401250 32.776131 0.000000 68.000000 14.765885 6.000000
-30.784171 -0.967049 36.140719 0.000000 39.000000 14.258494 0.000000
-28.044130 -6.284566 32.373151 0.000000 41.000000 14.644382 2.000000
-28.510938 -4.435191 32.168086 0.000000 60.000000 14.855230 6.000000
-29.533168 -5.023868 34.661213 0.000000 60.000000 14.568954 13.000000
-28.422305 -3.552059 32.250768 0.000000 77.000000 14.600243 12.000000
-27.942322 -3.957356 30.753109 0.000000 79.000000 15.005061 9.000000
-28.701869 -5.118330 33.061509 0.000000 56.000000 14.677182 5.000000
-28.833818 -1.874362 32.083918 0.000000 63.000000 14.771731 17.000000
-30.232257 -3.074267 35.182754 0.000000 59.000000 14.597978 29.000000
-29.809259 -1.705142 33.908148 0.000000 74.000000 14.662075 15.000000
-30.367542 -4.316356 35.389959 0.000000 66.000000 14.803644 21.000000
-28.401287 -6.149031 33.487128 0.000000 28.000000 14.369345 0.000000
-28.007241 -4.823943 32.322297 0.000000 51.000000 14.410000 0.000000
-28.054970 -4.904295 32.789254 0.000000 37.000000 14.229342 0.000000
-28.828459 -5.626124 33.051884 0.000000 48.000000 14.869191 5.000000
-27.692030 -5.155479 32.006353 0.000000 50.000000 14.351739 0.000000
-28.449402 -2.054758 31.800730 0.000000 38.000000 14.614512 7.000000
-30.027961 -6.148394 35.160455 0.000000 13.000000 14.916030 11.000000
-28.010005 -5.446632 32.543959 0.000000 54.000000 14.398733 0.000000
-28.112552 -5.548528 32.730004 0.000000 59.000000 14.408796 0.000000
-29.467444 -4.333953 34.607617 0.000000 22.000000 14.431939 23.000000
-29.357629 -6.021133 35.097054 0.000000 38.000000 14.357218 0.000000
-29.955805 -3.722542 33.874634 0.000000 63.000000 15.119143 23.000000
-29.633087 -2.306363 33.469654 0.000000 52.000000 14.825733 26.000000
-29.283817 -2.138122 32.252699 0.000000 44.000000 15.111545 17.000000
-28.622965 -3.787693 31.424862 0.000000 50.000000 15.221542 9.000000
-27.633411 -5.056050 30.947938 0.000000 71.000000 14.816349 4.000000
-29.009235 -2.101371 32.012266 0.000000 58.000000 14.992454 17.000000
-27.689389 -5.561204 31.419287 0.000000 67.000000 14.706955 3.000000
-29.180989 -4.330078 34.293863 0.000000 46.000000 14.344602 0.000000
-29.225689 -3.340892 32.604368 0.000000 61.000000 15.074058 24.000000
-29.954820 -3.623053 33.915914 0.000000 76.000000 15.082071 23.000000
-28.898047 -4.359072 33.823854 0.000000 42.000000 14.343650 0.000000
-28.557990 -5.372302 32.358913 0.000000 69.000000 14.946285 5.000000
-29.733040 -1.254534 32.936915 0.000000 67.000000 15.013115 18.000000
-29.853342 -4.859389 33.672172 0.000000 52.000000 15.311117 14.000000
-30.599985 -3.752928 35.679863 0.000000 61.000000 14.768216 27.000000
-27.754452 -6.378608 32.725135 0.000000 45.000000 14.236208 0.000000
-29.420550 -5.395686 34.165525 0.000000 47.000000 14.779480 19.000000
-28.905228 -2.197202 32.196385 0.000000 62.000000 14.826692 17.000000
-29.032693 -6.649851 34.990447 0.000000 41.000000 14.232320 0.000000
-30.731434 -0.778582 35.385431 0.000000 70.000000 14.562377 1.000000
-28.548079 -6.411678 33.773029 0.000000 50.000000 14.392207 0.000000
-30.204205 -6.342255 35.141961 0.000000 78.000000 15.105651 11.000000
-30.598975 -5.059251 35.854463 0.000000 62.000000 14.884228 20.000000
-28.721729 -3.829363 32.172334 0.000000 61.000000 14.937798 12.000000
-28.751397 -6.392426 34.061682 0.000000 56.000000 14.417723 0.000000
-29.246288 -2.864394 33.062511 0.000000 62.000000 14.787627 24.000000
-27.698684 -5.964845 32.243653 0.000000 42.000000 14.365149 0.000000
-29.847500 -3.798094 33.818162 0.000000 78.000000 15.067040 23.000000
-30.850770 -0.897719 35.033504 0.000000 48.000000 14.858850 1.000000
-29.637264 -3.467659 33.608044 0.000000 74.000000 14.941612 24.000000
-28.030115 -4.308411 31.098878 0.000000 62.000000 14.961541 6.000000
-28.643068 -4.278678 32.914851 0.000000 49.000000 14.569248 12.000000
-28.801291 -2.984376 31.802934 0.000000 57.000000 15.058369 24.000000
-30.683681 -4.959432 35.987233 0.000000 76.000000 14.874235 20.000000
-28.289852 -6.131562 32.240672 0.000000 74.000000 14.895984 2.000000
-30.097077 -4.413904 34.879680 0.000000 44.000000 14.844204 22.000000
-29.115300 -1.397592 33.265405 0.000000 42.000000 14.345091 0.000000
-30.191272 -4.275203 34.525568 0.000000 67.000000 15.080043 22.000000
-28.350093 -3.480793 31.964722 0.000000 39.000000 14.670877 9.000000
-29.118203 -1.048727 33.013379 0.000000 27.000000 14.419215 18.000000
-29.753034 -4.273842 33.848721 0.000000 61.000000 15.045725 23.000000
-28.869193 -5.302750 33.172904 0.000000 80.000000 14.792683 5.000000
-28.135065 -0.374546 31.322636 0.000000 52.000000 14.323556 0.000000
-27.667160 -5.503306 31.840836 0.000000 46.000000 14.467860 3.000000
-29.170724 -3.182763 32.382876 0.000000 68.000000 15.113460 24.000000
-28.868621 -0.557619 32.821799 0.000000 34.000000 14.225878 0.000000
-29.001696 -3.036134 32.657824 0.000000 41.000000 14.808935 24.000000
-30.563272 -4.847399 35.501898 0.000000 69.000000 14.997268 20.000000
-30.133850 -4.243887 34.706758 0.000000 63.000000 14.935519 22.000000
-29.890119 -1.650425 33.949458 0.000000 81.000000 14.701665 15.000000
-29.287631 -2.891164 32.990795 0.000000 71.000000 14.862925 24.000000
-30.884842 -0.791507 35.080667 0.000000 52.000000 14.847625 1.000000
-29.853212 -4.784341 34.787806 0.000000 62.000000 14.740548 13.000000
-29.916045 -0.715354 33.829823 0.000000 51.000000 14.637402 1.000000
-28.624154 -5.822379 33.803379 0.000000 46.000000 14.349603 0.000000
-28.049387 -4.194729 31.873944 0.000000 59.000000 14.572007 6.000000
-29.428871 -4.588514 33.812797 0.000000 71.000000 14.836969 14.000000
-27.534529 -5.442695 31.421659 0.000000 36.000000 14.555398 3.000000
-28.231553 -5.252963 32.383568 0.000000 70.000000 14.637374 5.000000
-28.381232 -4.922195 33.360602 0.000000 25.000000 14.223756 0.000000
-29.316717 -6.411865 35.133913 0.000000 28.000000 14.365041 0.000000
-31.134773 -2.914385 36.187375 0.000000 77.000000 14.838169 28.000000
-30.548236 -4.500679 35.948097 0.000000 46.000000 14.706778 21.000000
-28.920608 -1.374549 32.006792 0.000000 69.000000 14.806069 8.000000
-29.912901 -4.661427 34.893442 0.000000 57.000000 14.719234 13.000000
-29.616313 -5.155407 35.015719 0.000000 54.000000 14.482769 13.000000
-27.646567 -3.120111 31.543506 0.000000 41.000000 14.226495 0.000000
-30.701007 -3.014725 35.015047 0.000000 74.000000 15.071707 29.000000
-28.850886 -5.084938 34.192650 0.000000 42.000000 14.232333 0.000000
-28.271985 -6.222783 32.633655 0.000000 33.000000 14.698231 2.000000
-28.984955 -5.177808 34.350245 0.000000 49.000000 14.282067 0.000000
-30.471045 -4.117241 35.669561 0.000000 49.000000 14.720588 21.000000
-29.806357 -6.078730 35.202890 0.000000 41.000000 14.695229 11.000000
-28.162602 -4.022849 32.389477 0.000000 47.000000 14.383322 0.000000
-28.047924 -4.031524 32.138622 0.000000 40.000000 14.412683 0.000000
-27.641129 -5.138442 31.917925 0.000000 51.000000 14.350027 0.000000
-30.188017 -1.482140 35.097082 0.000000 32.000000 14.354208 0.000000
-29.196924 -2.706335 33.334002 0.000000 37.000000 14.584916 24.000000
-29.646639 -3.976005 33.973777 0.000000 64.000000 14.845938 23.000000
-28.018056 -5.569656 32.703777 0.000000 44.000000 14.344791 0.000000
-29.239820 -5.426800 33.948353 0.000000 36.000000 14.739250 19.000000
-27.891584 -4.733219 31.637893 0.000000 65.000000 14.640106 6.000000
-27.329623 -5.557705 31.402822 0.000000 71.000000 14.408382 0.000000
-29.980392 -5.949123 35.179681 0.000000 50.000000 14.834740 19.000000
-28.878422 -4.411732 33.080589 0.000000 56.000000 14.707414 6.000000
-29.582269 -4.914148 33.749664 0.000000 70.000000 15.050106 14.000000
-28.481721 -6.178083 33.743733 0.000000 42.000000 14.313853 0.000000
-30.586551 -3.644286 36.084916 0.000000 55.000000 14.536933 27.000000
-28.597803 -6.308225 33.864530 0.000000 60.000000 14.372533 0.000000
-29.344602 -2.221670 32.244037 0.000000 44.000000 15.180697 17.000000
-29.685871 -5.175481 34.970380 0.000000 66.000000 14.567830 13.000000
-29.920156 -4.937239 34.566449 0.000000 60.000000 14.932310 13.000000
-27.847572 -6.421410 32.850678 0.000000 44.000000 14.259303 0.000000
-29.792623 -3.616103 33.882010 0.000000 67.000000 14.959884 23.000000
-30.102308 -6.219386 35.381661 0.000000 75.000000 14.879644 11.000000
-30.312062 -4.976161 35.500067 0.000000 68.000000 14.804466 20.000000
-28.168280 -3.851805 32.104346 0.000000 37.000000 14.504200 9.000000
-29.906552 -3.732366 34.009219 0.000000 44.000000 15.011349 23.000000
-29.463526 -1.802820 33.414210 0.000000 57.000000 14.630395 30.000000
-28.357334 -6.227915 32.965680 0.000000 63.000000 14.605411 2.000000
-29.468168 -5.135685 34.367431 0.000000 49.000000 14.678236 14.000000
-29.164330 -4.737570 33.134771 0.000000 46.000000 14.974637 6.000000
-28.332476 -5.987467 33.096881 0.000000 55.000000 14.480936 2.000000
-27.297696 -6.096406 31.598599 0.000000 46.000000 14.367409 0.000000
-29.244353 -1.543408 32.918285 0.000000 37.000000 14.651602 30.000000
-27.809787 -1.821379 31.260355 0.000000 41.000000 14.304125 0.000000
-29.750139 -5.777560 34.439193 0.000000 71.000000 14.982733 19.000000
-28.617582 -5.602594 33.713126 0.000000 31.000000 14.354832 0.000000
-28.782386 -3.309797 32.218019 0.000000 55.000000 14.885294 24.000000
-28.561385 -6.256520 33.781401 0.000000 26.000000 14.375075 0.000000
-29.150892 -4.679036 32.826019 0.000000 62.000000 15.108669 6.000000
-29.478873 -2.766730 33.768899 0.000000 43.000000 14.616587 26.000000
-30.203011 -4.329251 35.031243 0.000000 73.000000 14.845243 22.000000
-27.930600 -4.134436 31.258673 0.000000 68.000000 14.769587 9.000000
-29.722258 -2.247997 33.528964 0.000000 64.000000 14.862814 26.000000
-29.726831 -2.949484 33.540664 0.000000 58.000000 14.970562 24.000000
-29.541406 -0.428250 33.810817 0.000000 46.000000 14.283084 0.000000
-28.427976 -0.544525 31.187900 0.000000 84.000000 14.666977 8.000000
-28.850696 -0.372421 32.601513 0.000000 39.000000 14.291974 0.000000
-27.047958 -6.280086 31.556319 0.000000 37.000000 14.204708 0.000000
-26.964107 -6.175020 31.354683 0.000000 38.000000 14.217873 0.000000
-27.675796 -6.390751 32.670420 0.000000 42.000000 14.198549 0.000000
-29.703368 -3.601954 34.026591 0.000000 62.000000 14.809279 23.000000
-28.924976 -4.082838 32.661547 0.000000 64.000000 14.905466 12.000000
-29.780179 -2.107013 33.979235 0.000000 49.000000 14.664572 15.000000
-30.068427 -4.066109 35.026237 0.000000 50.000000 14.692020 22.000000
-28.912814 -3.799122 33.710600 0.000000 27.000000 14.325362 0.000000
-29.251039 -5.649898 34.092635 0.000000 47.000000 14.711437 19.000000
-28.233985 -1.070506 31.603478 0.000000 51.000000 14.375971 0.000000
-28.139824 -1.209437 31.515508 0.000000 44.000000 14.361596 0.000000
-30.352020 -4.868925 35.550171 0.000000 72.000000 14.796618 20.000000
-28.998759 -4.585485 33.312854 0.000000 34.000000 14.720713 6.000000
-29.549034 -6.634545 35.444189 0.000000 42.000000 14.442254 11.000000
-27.975990 -4.385653 31.187865 0.000000 77.000000 14.882980 6.000000
-29.548738 -4.166986 33.925354 0.000000 51.000000 14.816715 23.000000
-28.442031 -2.594578 32.366999 0.000000 43.000000 14.409074 0.000000
-29.047635 -5.868100 34.537190 0.000000 32.000000 14.349767 0.000000
-29.432170 -1.474558 33.808603 0.000000 32.000000 14.354844 0.000000
-30.094446 -2.079653 33.854982 0.000000 50.000000 14.990058 15.000000
-30.427145 -4.749617 35.779068 0.000000 66.000000 14.727279 20.000000
-28.860333 -3.816440 32.126559 0.000000 49.000000 15.076696 12.000000
-30.210428 -5.533839 35.561489 0.000000 61.000000 14.774406 19.000000
-30.481548 -0.814179 34.716418 0.000000 62.000000 14.690262 1.000000
-27.918069 -3.560824 30.709494 0.000000 47.000000 14.944238 9.000000
-29.962630 -4.239999 34.020404 0.000000 73.000000 15.132882 23.000000
-30.116783 -2.140797 35.181202 0.000000 39.000000 14.354454 0.000000
-28.839634 -2.266918 32.771026 0.000000 41.000000 14.493969 17.000000
-30.408798 -2.075258 35.849926 0.000000 53.000000 14.257895 0.000000
-30.780575 -3.487054 36.088010 0.000000 45.000000 14.675967 28.000000
-29.903863 -6.295475 35.188043 0.000000 64.000000 14.819572 11.000000
-30.078842 -2.078493 35.046426 0.000000 42.000000 14.379906 0.000000
-29.515209 -1.157063 32.878542 0.000000 51.000000 14.841663 18.000000
-29.474916 -2.909849 33.458655 0.000000 49.000000 14.790976 24.000000
-30.524698 -2.061976 35.876764 0.000000 51.000000 14.341043 0.000000
-29.260820 -1.999966 32.948976 0.000000 49.000000 14.721657 30.000000
-30.831278 -2.061746 36.461707 0.000000 45.000000 14.309057 0.000000
-28.368095 -3.898038 31.684327 0.000000 73.000000 14.891885 9.000000
-27.976925 -3.033714 31.352063 0.000000 82.000000 14.590096 24.000000
-30.026633 -3.830924 33.805756 0.000000 61.000000 15.230886 23.000000
-29.537439 -2.982922 33.357507 0.000000 53.000000 14.906288 24.000000
-28.321832 -5.229574 32.565789 0.000000 54.000000 14.619313 5.000000
-28.214450 -3.319078 32.156365 0.000000 59.000000 14.434134 24.000000
-29.386255 -3.330621 32.676738 0.000000 38.000000 15.172899 24.000000
-30.193572 -4.538543 34.597312 0.000000 77.000000 15.087257 22.000000
-30.304551 -3.507753 34.456423 0.000000 52.000000 15.091075 25.000000
-28.506271 -3.859620 31.704692 0.000000 47.000000 14.993308 9.000000
-28.462238 -2.297021 32.418002 0.000000 40.000000 14.354195 0.000000
-28.728020 -5.660035 33.429364 0.000000 60.000000 14.599944 5.000000
-28.228037 -2.492783 32.070083 0.000000 41.000000 14.359675 0.000000
-29.546770 -6.311971 34.801153 0.000000 45.000000 14.711913 11.000000
-30.606855 -4.547691 35.921789 0.000000 75.000000 14.777210 21.000000
-28.507609 -5.924797 33.672327 0.000000 44.000000 14.332038 0.000000
-28.691475 -4.638157 32.505526 0.000000 59.000000 14.871675 6.000000
-28.369818 -5.948460 32.414480 0.000000 50.000000 14.848378 2.000000
-29.576709 -5.230437 34.610118 0.000000 56.000000 14.663918 19.000000
-28.252848 -3.110775 31.488043 0.000000 49.000000 14.768945 24.000000
-30.713837 -1.663509 36.113694 0.000000 27.000000 14.321081 0.000000
-28.598989 -3.594079 31.618131 0.000000 56.000000 15.074059 9.000000
-30.172758 -5.914997 35.274959 0.000000 55.000000 14.945449 19.000000
-29.397630 -5.304322 34.315913 0.000000 42.000000 14.670362 19.000000
-30.133385 -2.072338 35.292279 0.000000 36.000000 14.302251 0.000000
-27.705998 -3.992403 31.327627 0.000000 47.000000 14.521633 9.000000
-29.852921 -4.333834 33.951766 0.000000 63.000000 15.088537 23.000000
-30.830378 -3.537907 36.204029 0.000000 58.000000 14.668215 28.000000
-29.793760 -1.951397 33.207026 0.000000 44.000000 15.038524 30.000000
-28.942787 -0.793844 32.890289 0.000000 26.000000 14.291662 0.000000
-29.931712 -4.146077 34.042362 0.000000 71.000000 15.080875 23.000000
-29.150514 -4.596054 33.055816 0.000000 61.000000 14.980283 6.000000
-31.042655 -3.037355 36.079925 0.000000 56.000000 14.832793 28.000000
-29.470454 -5.966933 35.156565 0.000000 54.000000 14.414986 0.000000
-30.009061 -6.655238 35.887609 0.000000 51.000000 14.615047 10.000000
-29.582930 -5.904606 34.970212 0.000000 33.000000 14.594317 19.000000
-29.891148 -2.730403 33.853748 0.000000 43.000000 14.919386 26.000000
-28.028196 -3.998786 31.527060 0.000000 61.000000 14.697044 9.000000
-28.918083 -2.165203 32.280378 0.000000 59.000000 14.790566 17.000000
-28.274826 -4.481619 31.461600 0.000000 76.000000 15.015302 6.000000
-30.145897 -6.725449 35.902392 0.000000 51.000000 14.735115 10.000000
-27.486136 -5.374064 31.661850 0.000000 49.000000 14.383177 0.000000
-28.832011 -5.283303 32.726328 0.000000 71.000000 14.981637 5.000000
-27.012782 -5.748035 31.024516 0.000000 50.000000 14.357880 0.000000
-28.254833 -2.033834 31.333304 0.000000 39.000000 14.679692 7.000000
-28.064774 -3.985211 30.810768 0.000000 67.000000 15.084786 9.000000
-29.029550 -1.242207 31.662275 0.000000 45.000000 15.050651 8.000000
