-16.985392 -0.859833 -24.112052 0.000000 67.000000 15.251781 23.000000
-17.761177 0.992807 -22.525219 0.000000 40.000000 14.480567 0.000000
-16.630853 -4.915361 -23.661907 0.000000 36.000000 14.952284 16.000000
-17.599156 0.755905 -22.663803 0.000000 39.000000 14.489522 0.000000
-16.788613 1.277422 -24.202944 0.000000 71.000000 15.043729 12.000000
-17.422447 0.510807 -22.748561 0.000000 30.000000 14.449478 0.000000
-16.716074 -2.254330 -23.917858 0.000000 47.000000 15.020599 29.000000
-17.221034 0.244055 -22.753333 0.000000 26.000000 14.335318 0.000000
-17.130964 0.133414 -22.819706 0.000000 26.000000 14.331029 0.000000
-18.283400 -0.745205 -22.987175 0.000000 50.000000 15.288293 13.000000
-16.497444 -1.766588 -23.886907 0.000000 51.000000 14.818167 24.000000
-16.821617 -2.350222 -23.948760 0.000000 53.000000 15.120766 29.000000
-17.957324 0.558492 -22.970895 0.000000 67.000000 14.969932 11.000000
-18.146959 0.970384 -22.983846 0.000000 57.000000 15.079542 30.000000
-15.750409 -1.780452 -24.116716 0.000000 34.000000 14.485944 0.000000
-17.236334 -0.457744 -23.556552 0.000000 68.000000 14.984374 28.000000
-17.913625 0.984810 -22.734435 0.000000 52.000000 14.737825 30.000000
-15.421900 -1.870476 -24.390322 0.000000 35.000000 14.472606 0.000000
-14.551373 -1.576478 -25.310988 0.000000 36.000000 14.545877 0.000000
-18.259525 -0.225724 -22.690230 0.000000 58.000000 15.018729 11.000000
-14.422291 -1.629978 -25.346663 0.000000 37.000000 14.488910 0.000000
-15.224943 -1.880505 -24.641097 0.000000 30.000000 14.525594 0.000000
-15.101168 -1.919527 -24.682092 0.000000 34.000000 14.475150 0.000000
-15.008264 -1.319161 -24.957810 0.000000 34.000000 14.575767 22.000000
-14.584205 -1.923434 -25.160430 0.000000 32.000000 14.480172 0.000000
-13.678868 -1.717621 -25.972134 0.000000 29.000000 14.455617 0.000000
-14.482485 -1.910742 -25.257503 0.000000 38.000000 14.482437 0.000000
-17.657078 -2.379793 -23.778204 0.000000 48.000000 15.559036 14.000000
-14.381362 -1.898809 -25.345524 0.000000 37.000000 14.478485 0.000000
-18.054203 -3.183140 -22.793394 0.000000 51.000000 15.154055 15.000000
-14.286337 -1.877629 -25.443662 0.000000 32.000000 14.485472 0.000000
-13.375801 -1.694063 -26.241761 0.000000 28.000000 14.448879 0.000000
-14.187966 -1.856947 -25.533884 0.000000 30.000000 14.484409 0.000000
-15.494897 -0.183203 -25.322363 0.000000 57.000000 15.095930 26.000000
-14.089719 -1.833170 -25.621212 0.000000 33.000000 14.481089 0.000000
-16.557493 -0.705556 -24.138999 0.000000 33.000000 14.973509 23.000000
-13.989647 -1.812787 -25.693464 0.000000 32.000000 14.465658 0.000000
-13.909479 -1.764296 -25.812051 0.000000 31.000000 14.495886 0.000000
-13.810176 -1.733948 -25.884622 0.000000 30.000000 14.480542 0.000000
-13.707779 -1.708806 -25.939101 0.000000 31.000000 14.450133 0.000000
-16.909574 0.688676 -23.645557 0.000000 67.000000 14.753639 10.000000
-16.963516 0.121784 -23.396996 0.000000 57.000000 14.644593 28.000000
-13.452494 -1.564062 -26.196210 0.000000 37.000000 14.458222 0.000000
-14.862911 -3.362960 -24.974515 0.000000 44.000000 14.626732 9.000000
-13.290186 -1.453307 -26.352819 0.000000 35.000000 14.457060 0.000000
-16.798253 1.048839 -23.753003 0.000000 34.000000 14.733896 12.000000
-16.640196 -0.982688 -24.554118 0.000000 72.000000 15.353553 23.000000
-15.142384 1.317660 -24.918301 0.000000 45.000000 14.460855 0.000000
-15.038849 1.287970 -25.025957 0.000000 45.000000 14.472528 0.000000
-18.467818 -0.917876 -22.887768 0.000000 65.000000 15.350615 13.000000
-14.815136 1.221600 -25.185536 0.000000 36.000000 14.444074 0.000000
-13.985230 1.346457 -25.957452 0.000000 30.000000 14.446342 0.000000
-14.715174 1.200758 -25.290370 0.000000 39.000000 14.455480 0.000000
-17.063172 -0.886142 -23.916927 0.000000 61.000000 15.162063 23.000000
-16.398542 -4.331773 -24.413525 0.000000 45.000000 15.310953 17.000000
-15.844244 -0.790746 -24.884405 0.000000 57.000000 15.048732 27.000000
-14.511616 1.166523 -25.495411 0.000000 44.000000 14.471940 0.000000
-13.673677 1.275645 -26.245038 0.000000 32.000000 14.453429 0.000000
-18.074394 0.691026 -23.118224 0.000000 50.000000 15.148406 11.000000
-13.570567 1.258397 -26.339086 0.000000 32.000000 14.454530 0.000000
-14.924406 -1.844144 -25.130279 0.000000 47.000000 14.681500 22.000000
-13.990654 1.111429 -25.945918 0.000000 45.000000 14.457179 0.000000
-13.889726 1.110086 -26.039440 0.000000 46.000000 14.458298 0.000000
-13.791271 1.113474 -26.136048 0.000000 50.000000 14.463038 0.000000
-16.903138 -4.909088 -23.381250 0.000000 41.000000 14.928197 16.000000
-13.586481 1.120605 -26.305520 0.000000 36.000000 14.449697 0.000000
-16.942065 -1.391792 -23.616567 0.000000 45.000000 14.893007 24.000000
-17.181660 -4.972066 -22.603779 0.000000 37.000000 14.546809 0.000000
-17.106930 -4.815462 -22.653740 0.000000 31.000000 14.522905 0.000000
-16.402355 0.119892 -23.960453 0.000000 45.000000 14.682476 28.000000
-14.822465 -3.163532 -24.996685 0.000000 46.000000 14.602551 9.000000
-17.633532 -3.526266 -22.289059 0.000000 38.000000 14.522329 0.000000
-17.280194 -1.414788 -22.651638 0.000000 33.000000 14.410902 0.000000
-18.218533 0.372299 -22.987597 0.000000 63.000000 15.170375 11.000000
-17.265216 -0.349523 -22.857740 0.000000 38.000000 14.481601 0.000000
-17.266941 -0.183356 -22.866358 0.000000 43.000000 14.478020 0.000000
-17.017422 -3.086719 -23.393293 0.000000 55.000000 14.892299 15.000000
-17.255672 -0.043743 -22.794415 0.000000 33.000000 14.408104 0.000000
-16.270862 0.253552 -23.620442 0.000000 29.000000 14.334539 0.000000
-17.246767 0.098573 -22.726492 0.000000 32.000000 14.342559 0.000000
-16.341014 -1.587067 -23.898395 0.000000 52.000000 14.709425 24.000000
-17.283356 0.457901 -22.825614 0.000000 34.000000 14.416231 0.000000
-17.314012 0.648368 -22.916169 0.000000 43.000000 14.490871 0.000000
-16.364982 0.952110 -23.801261 0.000000 38.000000 14.484471 0.000000
-14.952610 -1.044805 -25.724640 0.000000 62.000000 15.085118 27.000000
-18.347952 -0.733191 -22.804765 0.000000 52.000000 15.196489 13.000000
-18.176386 -2.623229 -23.074123 0.000000 39.000000 15.405746 14.000000
-17.752642 -2.372254 -23.455956 0.000000 50.000000 15.385340 14.000000
-16.459985 -0.158119 -24.328114 0.000000 56.000000 15.010740 28.000000
-14.611222 1.307375 -25.564998 0.000000 47.000000 14.580820 21.000000
-15.435365 0.270345 -25.158201 0.000000 54.000000 14.904633 26.000000
-14.462357 -3.707006 -25.090891 0.000000 28.000000 14.466021 0.000000
-15.362240 -3.991891 -24.088779 0.000000 26.000000 14.351867 0.000000
-14.284606 -3.139159 -25.325702 0.000000 31.000000 14.481589 0.000000
-15.239445 -3.291696 -24.511461 0.000000 51.000000 14.534016 0.000000
-18.107851 0.520611 -22.839832 0.000000 61.000000 14.977130 11.000000
-14.903756 -3.314843 -25.115820 0.000000 55.000000 14.755127 9.000000
-14.211316 -2.850696 -25.421197 0.000000 28.000000 14.483407 0.000000
-14.770172 -2.608520 -25.363412 0.000000 49.000000 14.800580 9.000000
-16.929465 -3.344067 -23.487498 0.000000 36.000000 14.919735 15.000000
-15.110169 -2.879782 -24.581075 0.000000 28.000000 14.470861 0.000000
-16.052689 -0.595060 -24.409838 0.000000 55.000000 14.826159 23.000000
-16.528637 -3.640848 -23.511694 0.000000 35.000000 14.687754 19.000000
-17.827836 -1.712812 -23.359387 0.000000 55.000000 15.320737 14.000000
-18.030434 -0.628413 -22.640845 0.000000 62.000000 14.855114 13.000000
-16.010860 -4.218864 -24.024703 0.000000 51.000000 14.756102 17.000000
-14.777881 -3.097779 -25.337674 0.000000 47.000000 14.819457 9.000000
-16.690023 -2.619602 -23.940480 0.000000 45.000000 15.044128 29.000000
-14.596521 0.818592 -25.999466 0.000000 69.000000 14.923732 21.000000
-18.115206 -0.008540 -22.803342 0.000000 52.000000 14.990509 11.000000
-15.597481 -0.750807 -25.281594 0.000000 65.000000 15.172779 27.000000
-17.714304 -0.700385 -22.995069 0.000000 68.000000 14.908309 13.000000
-14.629343 0.831769 -25.896235 0.000000 58.000000 14.868856 21.000000
-14.961237 0.240359 -24.821119 0.000000 30.000000 14.339300 0.000000
-14.989363 0.394245 -24.837433 0.000000 32.000000 14.359969 0.000000
-15.127631 1.004800 -24.903601 0.000000 38.000000 14.460983 0.000000
-17.495761 -2.690184 -23.532357 0.000000 38.000000 15.290071 14.000000
-15.467502 0.186698 -25.424571 0.000000 71.000000 15.128131 26.000000
-15.230218 1.426432 -24.874429 0.000000 40.000000 14.480347 0.000000
-16.071723 -2.825352 -23.580604 0.000000 36.000000 14.376751 0.000000
-15.972984 -2.859343 -23.715047 0.000000 34.000000 14.411677 0.000000
-16.896486 -0.491881 -23.784986 0.000000 61.000000 14.926390 28.000000
-15.771853 -2.924319 -23.961144 0.000000 29.000000 14.462078 0.000000
-14.656759 -0.038422 -25.554650 0.000000 53.000000 14.693660 26.000000
-15.566273 -2.983190 -24.183573 0.000000 33.000000 14.491636 0.000000
-15.450891 -3.024222 -24.263302 0.000000 27.000000 14.475517 0.000000
-15.349116 -3.045105 -24.371269 0.000000 28.000000 14.488015 0.000000
-16.367577 -0.708922 -24.569418 0.000000 56.000000 15.163173 23.000000
-15.239414 -3.070967 -24.465334 0.000000 31.000000 14.485269 0.000000
-16.086163 -3.420889 -23.686469 0.000000 38.000000 14.504233 0.000000
-15.134698 -3.087399 -24.566555 0.000000 30.000000 14.490519 0.000000
-15.979274 -3.428267 -23.792088 0.000000 32.000000 14.510659 0.000000
-15.879536 -3.417801 -23.919090 0.000000 39.000000 14.536462 0.000000
-15.771558 -3.420739 -24.013881 0.000000 39.000000 14.533880 0.000000
-16.384490 -4.082343 -24.006391 0.000000 52.000000 14.984821 17.000000
-14.397781 -3.109351 -25.228395 0.000000 26.000000 14.484019 0.000000
-16.476556 -0.854322 -24.641296 0.000000 53.000000 15.299154 23.000000
-14.189547 -3.083129 -25.399796 0.000000 26.000000 14.468508 0.000000
-14.088324 -3.060355 -25.490234 0.000000 26.000000 14.465546 0.000000
-13.991761 -3.031036 -25.584736 0.000000 27.000000 14.468276 0.000000
-13.897131 -2.999665 -25.673234 0.000000 27.000000 14.467745 0.000000
-13.815532 -2.944220 -25.794144 0.000000 34.000000 14.498257 0.000000
-13.723566 -2.904027 -25.882854 0.000000 35.000000 14.499086 0.000000
-18.142595 -0.682443 -22.629977 0.000000 71.000000 14.926158 13.000000
-14.480969 -3.045557 -25.198399 0.000000 30.000000 14.513614 0.000000
-13.533730 -2.822377 -26.034498 0.000000 32.000000 14.477691 0.000000
-14.456588 -2.852757 -25.324818 0.000000 39.000000 14.577506 9.000000
-13.434919 -2.788549 -26.087182 0.000000 26.000000 14.447791 0.000000
-14.298609 -2.946721 -25.328339 0.000000 38.000000 14.480106 0.000000
-14.993263 -2.932541 -25.306654 0.000000 52.000000 14.930447 9.000000
-14.214553 -2.886558 -25.401440 0.000000 31.000000 14.473419 0.000000
-18.348293 -1.602221 -23.097915 0.000000 51.000000 15.470760 14.000000
-18.068161 -1.783525 -23.506870 0.000000 57.000000 15.595800 14.000000
-13.187583 -2.608122 -26.328338 0.000000 34.000000 14.447089 0.000000
-14.052069 -2.746734 -25.552116 0.000000 34.000000 14.465826 0.000000
-16.616730 -1.866339 -23.655753 0.000000 28.000000 14.734720 24.000000
-13.972427 -2.676591 -25.616396 0.000000 30.000000 14.454942 0.000000
-13.877299 -2.628861 -25.633391 0.000000 30.000000 14.400291 0.000000
-13.797571 -2.554353 -25.686807 0.000000 32.000000 14.381051 0.000000
-13.720689 -2.479926 -25.736117 0.000000 29.000000 14.360706 0.000000
-13.648796 -2.396071 -25.792584 0.000000 27.000000 14.348361 0.000000
-13.583355 -2.307777 -25.851983 0.000000 25.000000 14.342220 0.000000
-16.837816 0.060190 -23.762196 0.000000 50.000000 14.833278 28.000000
-13.492084 -1.915466 -26.223085 0.000000 41.000000 14.528115 0.000000
-18.038802 -2.982779 -22.911066 0.000000 50.000000 15.217037 15.000000
-15.164379 0.128747 -25.640052 0.000000 45.000000 15.086894 26.000000
-14.162767 1.340962 -26.141811 0.000000 55.000000 14.701991 21.000000
-16.589958 -0.018073 -24.186210 0.000000 64.000000 14.984247 28.000000
-13.224967 -1.427520 -26.399408 0.000000 32.000000 14.445801 0.000000
-16.010199 -4.113173 -24.335933 0.000000 47.000000 14.977957 17.000000
-17.471515 1.078902 -22.787852 0.000000 52.000000 14.473518 0.000000
-18.094293 -0.765775 -22.598136 0.000000 65.000000 14.875766 13.000000
-17.272016 0.907730 -22.963267 0.000000 40.000000 14.480017 0.000000
-17.175078 0.830384 -23.069175 0.000000 54.000000 14.498021 0.000000
-17.623685 -0.918605 -23.201183 0.000000 42.000000 15.013811 13.000000
-18.425051 0.224742 -22.820942 0.000000 47.000000 15.196328 11.000000
-15.252983 -0.625180 -25.452520 0.000000 44.000000 15.058623 27.000000
-15.981368 0.802530 -24.122132 0.000000 36.000000 14.472873 0.000000
-17.934506 -2.104371 -23.191401 0.000000 66.000000 15.294833 14.000000
-15.574665 0.523237 -24.464389 0.000000 32.000000 14.470162 0.000000
-16.971759 -1.244614 -23.444494 0.000000 24.000000 14.776350 24.000000
-15.424193 0.406069 -24.402642 0.000000 29.000000 14.331263 0.000000
-16.209111 0.159537 -23.732242 0.000000 34.000000 14.381666 0.000000
-15.548541 -0.901210 -25.335642 0.000000 49.000000 15.189728 27.000000
-15.964576 -4.511175 -24.651277 0.000000 48.000000 15.206223 17.000000
-16.884233 -3.176815 -23.506909 0.000000 46.000000 14.892449 15.000000
-17.164976 -1.594119 -23.197150 0.000000 30.000000 14.747375 24.000000
-15.114647 0.237787 -24.684194 0.000000 27.000000 14.341760 0.000000
-17.003268 -1.193850 -23.734239 0.000000 71.000000 15.007679 23.000000
-15.020213 0.197771 -24.809321 0.000000 28.000000 14.373119 0.000000
-16.313548 -0.366317 -24.324943 0.000000 73.000000 14.923799 28.000000
-14.023888 -0.598599 -25.899970 0.000000 35.000000 14.559822 25.000000
-17.096882 -1.064100 -23.611298 0.000000 46.000000 14.971390 23.000000
-14.001833 -0.115856 -25.847947 0.000000 35.000000 14.474425 0.000000
-16.392946 -2.166951 -24.157796 0.000000 51.000000 14.974228 29.000000
-13.785817 -0.156271 -26.020438 0.000000 30.000000 14.458931 0.000000
-13.687746 -0.165162 -26.121734 0.000000 31.000000 14.468204 0.000000
-14.227673 0.573736 -26.060679 0.000000 47.000000 14.737076 21.000000
-13.587590 -0.172738 -26.218143 0.000000 27.000000 14.472385 0.000000
-16.497506 0.089329 -24.148713 0.000000 54.000000 14.887255 28.000000
-14.233291 -0.328803 -25.587854 0.000000 33.000000 14.452662 0.000000
-13.371612 -0.191633 -26.376351 0.000000 29.000000 14.444955 0.000000
-14.131747 -0.325061 -25.678695 0.000000 32.000000 14.451051 0.000000
-14.034743 -0.315737 -25.772567 0.000000 32.000000 14.454355 0.000000
-13.941324 -0.300791 -25.870511 0.000000 45.000000 14.462696 0.000000
-13.842382 -0.287093 -25.957599 0.000000 37.000000 14.459405 0.000000
-13.746831 -0.269732 -26.047691 0.000000 35.000000 14.460364 0.000000
-13.647604 -0.253630 -26.122854 0.000000 32.000000 14.447932 0.000000
-14.886152 -0.087447 -25.785064 0.000000 40.000000 15.021037 26.000000
-13.482025 -0.186574 -26.330270 0.000000 35.000000 14.484929 0.000000
-14.265981 -0.554698 -26.017115 0.000000 72.000000 14.806067 25.000000
-17.001311 -1.639529 -23.752787 0.000000 40.000000 15.049782 24.000000
-17.535114 -0.309707 -22.645315 0.000000 33.000000 14.503951 0.000000
-18.031219 -3.263665 -22.690484 0.000000 53.000000 15.068132 15.000000
-16.846063 -2.142164 -23.647102 0.000000 40.000000 14.901021 29.000000
-15.723217 0.118469 -24.825525 0.000000 72.000000 14.863239 26.000000
-16.973057 1.055648 -23.477588 0.000000 58.000000 14.648064 12.000000
-16.158912 -4.116649 -24.201076 0.000000 52.000000 14.978842 17.000000
-17.505013 0.705229 -22.760182 0.000000 39.000000 14.500603 0.000000
-14.920263 -1.415315 -25.231583 0.000000 54.000000 14.724742 22.000000
-17.568863 -3.219513 -22.883012 0.000000 43.000000 14.896055 15.000000
-17.515048 1.199579 -22.776726 0.000000 43.000000 14.486546 0.000000
-16.834631 -4.826928 -22.897385 0.000000 32.000000 14.520055 0.000000
-16.852922 -2.790760 -23.913647 0.000000 51.000000 15.145356 15.000000
-15.424950 -3.143375 -24.278473 0.000000 29.000000 14.477201 0.000000
-15.392010 -2.984700 -24.319070 0.000000 28.000000 14.474369 0.000000
-17.834479 -0.372830 -22.713906 0.000000 29.000000 14.760083 11.000000
-16.730578 -1.065419 -24.282469 0.000000 70.000000 15.219686 23.000000
-14.319663 -0.539883 -26.087503 0.000000 56.000000 14.893058 25.000000
-15.075217 -0.485679 -25.631068 0.000000 67.000000 15.061312 27.000000
-16.202863 -2.010628 -23.712265 0.000000 36.000000 14.507605 0.000000
-15.248486 0.178607 -24.653174 0.000000 36.000000 14.412880 0.000000
-16.212416 0.071753 -23.859028 0.000000 35.000000 14.483181 0.000000
-15.237177 0.301675 -24.563644 0.000000 29.000000 14.331080 0.000000
-18.043014 0.859272 -22.579684 0.000000 52.000000 14.719199 30.000000
-14.594836 0.750068 -25.709768 0.000000 52.000000 14.713685 21.000000
-16.200974 0.320077 -23.679654 0.000000 31.000000 14.326722 0.000000
-16.335745 -1.789374 -23.850624 0.000000 39.000000 14.684181 24.000000
-16.285153 0.554168 -23.913999 0.000000 37.000000 14.540416 0.000000
-16.921114 -1.687679 -23.815483 0.000000 39.000000 15.045253 24.000000
-17.628916 0.330898 -22.902394 0.000000 42.000000 14.713736 11.000000
-16.324416 0.848478 -23.873600 0.000000 50.000000 14.517410 0.000000
-15.409477 1.114229 -24.698488 0.000000 34.000000 14.492111 0.000000
-15.643151 -0.075670 -24.627357 0.000000 60.000000 14.676305 26.000000
-17.509270 -4.140745 -22.155325 0.000000 21.000000 14.381208 0.000000
-17.395190 -4.223538 -22.217512 0.000000 27.000000 14.355824 0.000000
-17.305317 -4.233994 -22.411461 0.000000 34.000000 14.438995 0.000000
-16.345513 -0.974041 -24.661919 0.000000 64.000000 15.234196 23.000000
-15.005223 -0.432723 -25.520114 0.000000 56.000000 14.928929 27.000000
-16.644936 -1.837793 -24.019052 0.000000 28.000000 15.019515 24.000000
-17.473150 -4.995113 -22.313765 0.000000 37.000000 14.530702 0.000000
-16.438314 -4.524861 -23.273365 0.000000 38.000000 14.510375 0.000000
-17.369469 -4.981164 -22.465967 0.000000 36.000000 14.572190 0.000000
-18.258664 0.253500 -23.011864 0.000000 71.000000 15.223182 11.000000
-15.253934 0.899054 -25.141263 0.000000 53.000000 14.728142 8.000000
-14.776433 -4.239621 -24.852791 0.000000 35.000000 14.537378 0.000000
-14.667896 -4.209886 -24.896567 0.000000 36.000000 14.494644 0.000000
-14.555337 -4.185341 -24.923287 0.000000 27.000000 14.436982 0.000000
-16.995499 -0.837740 -24.284086 0.000000 36.000000 15.383882 23.000000
-15.777819 -0.402334 -24.732260 0.000000 42.000000 14.866003 27.000000
-15.287788 -4.271646 -24.303397 0.000000 31.000000 14.478619 0.000000
-15.212196 -4.176919 -24.404297 0.000000 31.000000 14.495804 0.000000
-14.459102 0.277607 -26.045764 0.000000 64.000000 14.901526 21.000000
-15.296350 -0.850004 -25.604006 0.000000 59.000000 15.214437 27.000000
-15.006662 -4.077120 -24.425729 0.000000 28.000000 14.366681 0.000000
-14.025833 -3.775829 -25.334706 0.000000 32.000000 14.356656 0.000000
-14.699020 0.365316 -25.743098 0.000000 62.000000 14.834011 21.000000
-16.032518 -0.735759 -24.888110 0.000000 59.000000 15.174437 27.000000
-17.046021 -1.982729 -23.295117 0.000000 36.000000 14.765493 24.000000
-14.451173 0.658509 -25.712409 0.000000 45.000000 14.625106 21.000000
-13.743070 -3.205792 -25.835162 0.000000 35.000000 14.497203 0.000000
-16.499303 1.149035 -23.980938 0.000000 44.000000 14.694088 12.000000
-13.618667 -3.001392 -25.944425 0.000000 31.000000 14.480397 0.000000
-15.141365 -2.665248 -25.665969 0.000000 6.000000 15.277018 9.000000
-14.705446 0.172454 -25.787445 0.000000 56.000000 14.883888 21.000000
-13.502953 -2.783314 -26.044842 0.000000 29.000000 14.462003 0.000000
-16.623929 -3.299405 -23.668629 0.000000 28.000000 14.844712 15.000000
-17.991092 0.765678 -22.697894 0.000000 45.000000 14.777633 11.000000
-13.387620 -2.570215 -26.111041 0.000000 24.000000 14.418983 0.000000
-14.634436 0.773304 -25.915368 0.000000 65.000000 14.890285 21.000000
-18.132753 -3.074274 -22.876417 0.000000 48.000000 15.260808 15.000000
-14.204534 -2.461034 -25.326628 0.000000 25.000000 14.383143 0.000000
-14.734941 -0.788848 -25.734157 0.000000 32.000000 14.928628 25.000000
-16.448848 -3.340235 -23.494268 0.000000 45.000000 14.601175 15.000000
-17.276120 -2.304293 -23.658776 0.000000 53.000000 15.209730 14.000000
-13.207693 -1.783791 -26.440004 0.000000 36.000000 14.487880 0.000000
-16.244812 -3.673911 -23.617187 0.000000 36.000000 14.576784 19.000000
-14.105126 -1.737650 -25.652708 0.000000 36.000000 14.508287 0.000000
-18.294854 -1.382667 -22.786351 0.000000 51.000000 15.190556 14.000000
-17.348540 -0.952149 -23.456380 0.000000 63.000000 15.019033 13.000000
-18.415245 1.041827 -22.826301 0.000000 67.000000 15.139139 30.000000
-16.714746 -0.631091 -23.879194 0.000000 60.000000 14.882857 23.000000
-18.249667 0.017525 -22.788237 0.000000 70.000000 15.068085 11.000000
-16.907294 -0.012255 -23.441240 0.000000 60.000000 14.648326 28.000000
-14.605351 -0.839002 -26.167528 0.000000 59.000000 15.164170 25.000000
-17.594086 0.507262 -22.772451 0.000000 37.000000 14.582775 0.000000
-18.050358 -0.243978 -22.534131 0.000000 50.000000 14.764214 11.000000
-17.358034 0.199758 -22.638190 0.000000 26.000000 14.345577 0.000000
-17.264761 0.094045 -22.709968 0.000000 27.000000 14.342788 0.000000
-16.011262 -0.802974 -24.692576 0.000000 50.000000 15.020531 27.000000
-17.097183 -0.072663 -22.951481 0.000000 28.000000 14.419171 0.000000
-14.105710 -1.249206 -25.984266 0.000000 39.000000 14.720410 25.000000
-15.857880 -1.671160 -24.052162 0.000000 33.000000 14.503368 0.000000
-17.819933 -2.236619 -23.318389 0.000000 46.000000 15.320174 14.000000
-18.387977 0.482603 -23.067093 0.000000 48.000000 15.335574 11.000000
-15.540384 -1.735132 -24.349393 0.000000 41.000000 14.513109 0.000000
-18.724216 0.445397 -22.963599 0.000000 33.000000 15.487965 11.000000
-15.444150 -1.733065 -24.480938 0.000000 34.000000 14.545178 0.000000
-14.545642 -1.517738 -25.280482 0.000000 28.000000 14.515621 0.000000
-14.437914 -1.538404 -25.363607 0.000000 34.000000 14.505793 0.000000
-17.195773 -2.294926 -23.680448 0.000000 53.000000 15.171029 14.000000
-13.600892 -1.556961 -26.056720 0.000000 29.000000 14.454775 0.000000
-17.423594 -3.111544 -23.458967 0.000000 55.000000 15.215570 15.000000
-13.505401 -1.538712 -26.149740 0.000000 33.000000 14.457873 0.000000
-15.608758 -4.234821 -24.154351 0.000000 44.000000 14.582229 17.000000
-14.230673 0.826760 -26.209704 0.000000 45.000000 14.832026 21.000000
-13.223016 -1.462815 -26.416337 0.000000 27.000000 14.459321 0.000000
-13.716250 -1.377302 -26.074365 0.000000 39.000000 14.533382 0.000000
-16.432776 -4.417027 -24.005432 0.000000 55.000000 15.038935 17.000000
-13.519546 -1.306824 -26.148603 0.000000 28.000000 14.451071 0.000000
-13.444037 -1.242557 -26.230456 0.000000 33.000000 14.456309 0.000000
-13.362129 -1.186164 -26.290241 0.000000 31.000000 14.441505 0.000000
-16.171336 -4.206808 -23.876494 0.000000 68.000000 14.754023 17.000000
-15.293430 1.386403 -24.800362 0.000000 42.000000 14.470957 0.000000
-17.452056 -2.119693 -23.559850 0.000000 55.000000 15.242851 14.000000
-14.351589 0.326503 -26.097233 0.000000 63.000000 14.863871 21.000000
-17.907405 -1.737571 -23.326256 0.000000 56.000000 15.351498 14.000000
-14.863329 1.285732 -25.157528 0.000000 41.000000 14.451570 0.000000
-14.403673 -0.447050 -25.707073 0.000000 44.000000 14.663021 25.000000
-17.668821 -0.604228 -23.349480 0.000000 64.000000 15.132472 13.000000
-16.993083 -0.845018 -24.194841 0.000000 45.000000 15.316974 23.000000
-13.723387 1.342491 -26.205041 0.000000 32.000000 14.452930 0.000000
-14.469885 1.252403 -25.584747 0.000000 36.000000 14.503972 0.000000
-13.621074 1.332988 -26.302430 0.000000 30.000000 14.456512 0.000000
-13.520014 1.326368 -26.400881 0.000000 32.000000 14.461526 0.000000
-13.944177 1.233610 -25.988083 0.000000 42.000000 14.448833 0.000000
-13.849247 1.243676 -26.083872 0.000000 46.000000 14.454895 0.000000
-16.158849 -4.780150 -24.062777 0.000000 74.000000 14.921173 17.000000
-13.655163 1.268585 -26.260750 0.000000 34.000000 14.453026 0.000000
-13.562818 1.287543 -26.354750 0.000000 39.000000 14.458915 0.000000
-18.191937 -0.844173 -22.663998 0.000000 45.000000 14.995216 13.000000
-15.881176 -0.957677 -24.950845 0.000000 73.000000 15.133680 27.000000
-17.757297 -2.239616 -23.406961 0.000000 48.000000 15.343513 14.000000
-14.876851 -3.090734 -25.057220 0.000000 50.000000 14.678885 9.000000
-17.116553 -4.422330 -22.724618 0.000000 44.000000 14.555368 0.000000
-16.256678 -1.152244 -24.402759 0.000000 44.000000 14.995352 23.000000
-17.174367 -0.073832 -23.586194 0.000000 74.000000 14.938908 28.000000
-14.266777 1.064724 -25.991643 0.000000 57.000000 14.679731 21.000000
-15.593509 -0.918110 -25.394871 0.000000 50.000000 15.264753 27.000000
-17.440189 -0.523525 -22.690976 0.000000 37.000000 14.488020 0.000000
-17.440026 -0.360014 -22.690419 0.000000 36.000000 14.476585 0.000000
-16.494861 -0.013327 -23.653177 0.000000 33.000000 14.527153 0.000000
-17.441529 -0.199536 -22.686691 0.000000 44.000000 14.464137 0.000000
-18.122866 0.886003 -22.858628 0.000000 49.000000 14.976691 30.000000
-15.691177 -0.202316 -24.586517 0.000000 56.000000 14.686968 26.000000
-16.337005 -0.842693 -24.585715 0.000000 62.000000 15.163548 23.000000
-17.442257 0.248868 -22.584443 0.000000 28.000000 14.359345 0.000000
-17.474783 0.441187 -22.677807 0.000000 32.000000 14.437189 0.000000
-14.713627 0.246836 -25.514731 0.000000 45.000000 14.683455 26.000000
-17.502705 0.623527 -22.747978 0.000000 46.000000 14.495511 0.000000
-15.105502 -1.493235 -25.227304 0.000000 65.000000 14.851393 22.000000
-17.516422 0.779513 -22.730659 0.000000 49.000000 14.481562 0.000000
-17.536257 0.940452 -22.733312 0.000000 54.000000 14.486117 0.000000
-16.297662 -0.345602 -24.284915 0.000000 42.000000 14.882232 28.000000
-14.845564 -4.150932 -24.657341 0.000000 27.000000 14.433926 0.000000
-14.758978 -4.068152 -24.648873 0.000000 26.000000 14.363917 0.000000
-18.305817 -2.415424 -22.803125 0.000000 50.000000 15.279231 14.000000
-15.379700 -3.049487 -24.375511 0.000000 29.000000 14.512006 0.000000
-14.400396 -2.758919 -25.259243 0.000000 30.000000 14.485119 0.000000
-15.344849 -2.900892 -24.420578 0.000000 33.000000 14.511856 0.000000
-15.293026 -2.787035 -24.395975 0.000000 28.000000 14.451265 0.000000
-14.296204 -2.531598 -25.224053 0.000000 25.000000 14.373926 0.000000
-15.257631 -2.647651 -24.415735 0.000000 28.000000 14.432714 0.000000
-14.340588 -2.294422 -25.430634 0.000000 27.000000 14.540186 0.000000
-15.255141 -2.465953 -24.514900 0.000000 30.000000 14.491988 0.000000
-14.435134 -0.679834 -26.200949 0.000000 41.000000 15.063675 25.000000
-15.261156 -2.273457 -24.634159 0.000000 34.000000 14.571071 0.000000
-14.267977 -2.042981 -25.417233 0.000000 29.000000 14.464683 0.000000
-17.178907 -1.019570 -23.498573 0.000000 60.000000 14.940521 23.000000
-14.256630 -1.888049 -25.461736 0.000000 28.000000 14.479504 0.000000
-18.079107 -0.506060 -22.571068 0.000000 41.000000 14.828267 13.000000
-14.225906 -0.411917 -25.613321 0.000000 28.000000 14.472010 0.000000
-14.234395 -0.266064 -25.612819 0.000000 29.000000 14.467614 0.000000
-16.928380 -3.123135 -23.808119 0.000000 52.000000 15.140533 15.000000
-15.203008 0.301777 -24.632545 0.000000 32.000000 14.358864 0.000000
-15.300747 0.524874 -24.844918 0.000000 31.000000 14.566222 0.000000
-14.823212 -1.391464 -25.268076 0.000000 50.000000 14.684760 22.000000
-17.806466 -0.853919 -23.483509 0.000000 38.000000 15.340499 13.000000
-14.426680 1.019491 -25.564618 0.000000 35.000000 14.475623 0.000000
-15.345965 0.910918 -24.710941 0.000000 40.000000 14.472137 0.000000
-14.637166 -0.950900 -26.054891 0.000000 54.000000 15.110035 25.000000
-16.371850 -0.377388 -24.211303 0.000000 56.000000 14.880010 28.000000
-16.121605 -2.841786 -23.551650 0.000000 37.000000 14.390065 0.000000
-16.018899 -2.873004 -23.665791 0.000000 32.000000 14.407176 0.000000
-15.915524 -2.901294 -23.784054 0.000000 29.000000 14.426680 0.000000
-16.962574 -0.907890 -24.071467 0.000000 69.000000 15.209731 23.000000
-15.708500 -2.945678 -24.015977 0.000000 27.000000 14.461297 0.000000
-15.608158 -2.960184 -24.135594 0.000000 31.000000 14.482918 0.000000
-16.810533 -2.573729 -23.905511 0.000000 51.000000 15.096359 29.000000
-16.349688 -3.297636 -23.488422 0.000000 32.000000 14.527322 0.000000
-17.599484 0.620640 -22.805774 0.000000 47.000000 14.603395 11.000000
-14.973614 -2.613125 -25.061564 0.000000 60.000000 14.715294 9.000000
-15.281149 -3.020328 -24.410613 0.000000 27.000000 14.469636 0.000000
-16.122070 -3.329206 -23.645312 0.000000 29.000000 14.491936 0.000000
-15.178634 -3.020470 -24.524763 0.000000 38.000000 14.484808 0.000000
-15.156639 0.118332 -25.799806 0.000000 62.000000 15.200111 26.000000
-15.911750 -3.321269 -23.847017 0.000000 35.000000 14.498575 0.000000
-15.528857 -0.206303 -25.347952 0.000000 35.000000 15.139173 26.000000
-15.733166 1.248637 -24.676312 0.000000 51.000000 14.684531 20.000000
-15.600734 -3.277825 -24.140965 0.000000 41.000000 14.503085 0.000000
-15.494577 -3.259784 -24.226791 0.000000 27.000000 14.493722 0.000000
-15.395053 -3.235351 -24.317635 0.000000 27.000000 14.492090 0.000000
-16.151884 -0.642561 -24.388567 0.000000 59.000000 14.880380 23.000000
-14.366304 -2.932627 -25.298484 0.000000 35.000000 14.502700 0.000000
-15.199250 -3.169713 -24.500773 0.000000 33.000000 14.490959 0.000000
-18.016185 1.094187 -22.965694 0.000000 55.000000 14.969934 30.000000
-14.162264 -2.893205 -25.439964 0.000000 27.000000 14.467079 0.000000
-14.063056 -2.859441 -25.520084 0.000000 26.000000 14.457135 0.000000
-13.972866 -2.816636 -25.611242 0.000000 26.000000 14.460787 0.000000
-17.148934 1.120089 -23.561536 0.000000 47.000000 14.823932 12.000000
-16.351318 -0.916475 -24.599023 0.000000 50.000000 15.187908 23.000000
-13.709535 -2.665281 -25.872232 0.000000 33.000000 14.465883 0.000000
-17.025080 -3.461020 -23.480766 0.000000 55.000000 14.986898 19.000000
-17.424666 -2.321565 -23.502902 0.000000 62.000000 15.195936 14.000000
-16.005293 -0.830731 -24.855811 0.000000 59.000000 15.138662 27.000000
-14.393784 -2.697867 -25.230778 0.000000 34.000000 14.455619 0.000000
-13.481426 -2.462779 -26.148862 0.000000 24.000000 14.502783 0.000000
-14.207845 -2.595272 -25.297700 0.000000 27.000000 14.373014 0.000000
-14.130180 -2.519459 -25.362537 0.000000 24.000000 14.363491 0.000000
-14.070975 -2.423861 -25.458497 0.000000 26.000000 14.388000 0.000000
-13.895878 -2.136840 -25.700264 0.000000 27.000000 14.429226 0.000000
-13.845013 -2.030383 -25.782314 0.000000 29.000000 14.448370 0.000000
-13.788770 -1.933952 -25.844173 0.000000 28.000000 14.449686 0.000000
-14.622208 1.438081 -25.856515 0.000000 45.000000 14.794314 21.000000
-13.682574 -1.732184 -25.956991 0.000000 31.000000 14.447923 0.000000
-18.575398 0.999932 -23.080841 0.000000 9.000000 15.437243 30.000000
-13.585228 -1.525544 -26.053681 0.000000 31.000000 14.439902 0.000000
-17.090535 -3.033846 -23.492257 0.000000 45.000000 15.010880 15.000000
-16.813067 -3.284806 -23.828173 0.000000 56.000000 15.088537 15.000000
-13.461015 -1.203534 -26.179941 0.000000 32.000000 14.427898 0.000000
-16.610968 -3.059405 -23.832555 0.000000 57.000000 14.940775 15.000000
-16.858559 -0.707894 -24.262616 0.000000 43.000000 15.267278 23.000000
-14.882322 -3.431966 -25.077668 0.000000 47.000000 14.720412 9.000000
-17.832032 -0.777260 -23.177837 0.000000 63.000000 15.127320 13.000000
-13.346308 -0.601669 -26.414081 0.000000 33.000000 14.483109 0.000000
-13.318473 -0.491692 -26.425484 0.000000 35.000000 14.465447 0.000000
-18.108246 -2.520746 -23.242755 0.000000 37.000000 15.477340 14.000000
-18.264512 -0.000078 -22.742908 0.000000 61.000000 15.045841 11.000000
-17.255799 -0.978979 -23.239463 0.000000 39.000000 14.798588 13.000000
-17.462259 0.820144 -22.794066 0.000000 46.000000 14.489143 0.000000
-17.363356 0.751843 -22.898620 0.000000 53.000000 14.504224 0.000000
-15.905275 -0.527535 -24.565503 0.000000 55.000000 14.837207 27.000000
-17.255957 0.675010 -22.974102 0.000000 47.000000 14.492734 0.000000
-16.948396 -4.791723 -23.532902 0.000000 46.000000 15.062563 16.000000
-18.201753 0.651877 -22.327024 0.000000 41.000000 14.653627 11.000000
-17.156334 -2.933379 -23.319866 0.000000 61.000000 14.921394 15.000000
-16.166176 0.737872 -23.971001 0.000000 35.000000 14.490129 0.000000
-16.052953 0.660211 -24.021593 0.000000 31.000000 14.456435 0.000000
-15.934569 0.582037 -24.068303 0.000000 28.000000 14.416443 0.000000
-16.273223 -0.438580 -24.351630 0.000000 43.000000 14.921164 23.000000
-16.810808 -0.887542 -24.227571 0.000000 55.000000 15.221324 23.000000
-18.314930 -0.767730 -23.063710 0.000000 57.000000 15.367407 13.000000
-16.478411 0.203590 -23.490332 0.000000 37.000000 14.381602 0.000000
-15.615268 0.405369 -24.331442 0.000000 32.000000 14.407369 0.000000
-16.366893 0.149851 -23.574684 0.000000 34.000000 14.372337 0.000000
-15.039507 0.308886 -25.220331 0.000000 49.000000 14.681567 26.000000
-17.138981 -0.725150 -23.707846 0.000000 70.000000 15.048232 23.000000
-18.416250 1.080804 -23.110007 0.000000 51.000000 15.346285 30.000000
-16.156952 0.067183 -23.786867 0.000000 31.000000 14.393000 0.000000
-15.283143 0.242429 -24.569349 0.000000 29.000000 14.370159 0.000000
-16.064200 0.042494 -23.926693 0.000000 36.000000 14.435299 0.000000
-14.608221 -0.627755 -25.947713 0.000000 38.000000 14.990011 25.000000
-15.236854 0.299908 -25.022230 0.000000 59.000000 14.668927 26.000000
-16.958015 -3.596302 -23.521298 0.000000 7.000000 14.980685 19.000000
-16.465088 -0.285798 -24.343095 0.000000 50.000000 15.033736 28.000000
-15.751686 -0.048127 -24.246490 0.000000 32.000000 14.466801 0.000000
-15.648978 -0.072102 -24.353580 0.000000 44.000000 14.478231 0.000000
-14.066371 -0.027879 -25.838544 0.000000 31.000000 14.505036 0.000000
-13.954799 -0.038377 -25.919291 0.000000 34.000000 14.490191 0.000000
-17.125426 -0.894668 -23.398703 0.000000 52.000000 14.822612 23.000000
-14.713708 -3.046023 -25.210378 0.000000 29.000000 14.679027 9.000000
-17.153168 -3.345495 -23.485035 0.000000 32.000000 15.068492 15.000000
-17.046174 -1.335459 -23.516070 0.000000 70.000000 14.885217 24.000000
-16.831198 -2.495425 -24.075695 0.000000 58.000000 15.230446 29.000000
-14.167936 -0.919197 -26.132366 0.000000 44.000000 14.849378 25.000000
-14.015839 -0.096061 -25.827199 0.000000 37.000000 14.467235 0.000000
-13.925367 -0.068312 -25.919616 0.000000 39.000000 14.472631 0.000000
-13.837091 -0.037680 -26.011064 0.000000 38.000000 14.478597 0.000000
-17.894477 -1.810878 -23.353178 0.000000 64.000000 15.367534 14.000000
-13.678951 0.046559 -26.219228 0.000000 45.000000 14.520001 0.000000
-14.626551 0.526839 -25.788165 0.000000 72.000000 14.807693 21.000000
-17.133134 -4.893950 -22.613306 0.000000 33.000000 14.515974 0.000000
-14.225448 0.079078 -26.002552 0.000000 51.000000 14.725763 21.000000
-16.901196 -4.266550 -22.823067 0.000000 32.000000 14.472657 0.000000
-16.825013 -4.170759 -22.755934 0.000000 26.000000 14.365545 0.000000
-15.769316 -3.351799 -23.986513 0.000000 37.000000 14.507601 0.000000
-16.835901 -1.170121 -23.504693 0.000000 56.000000 14.724354 23.000000
-15.699165 -3.042865 -24.056053 0.000000 29.000000 14.491038 0.000000
-18.269607 -2.974332 -22.779760 0.000000 61.000000 15.274964 15.000000
-16.354498 -0.317795 -24.360572 0.000000 67.000000 14.974362 28.000000
-15.602595 -2.592028 -24.106706 0.000000 31.000000 14.433312 0.000000
-15.562077 -2.461905 -24.079788 0.000000 25.000000 14.377535 0.000000
-16.859126 -3.363907 -24.042059 0.000000 19.000000 15.282419 15.000000
-18.236991 0.333638 -22.986657 0.000000 53.000000 15.184679 11.000000
-15.555430 -1.920861 -24.284156 0.000000 29.000000 14.487553 0.000000
-15.049827 -2.911465 -25.133239 0.000000 32.000000 14.839294 9.000000
-15.543715 -1.591906 -24.347854 0.000000 32.000000 14.504655 0.000000
-16.961257 -0.643278 -23.714766 0.000000 74.000000 14.928318 23.000000
-15.603092 -0.007281 -24.480291 0.000000 37.000000 14.536416 0.000000
-16.788164 -2.869460 -23.690365 0.000000 36.000000 14.942505 15.000000
-16.543804 -0.021872 -23.531209 0.000000 39.000000 14.470763 0.000000
-15.327044 -0.042359 -25.796141 0.000000 55.000000 15.322762 26.000000
-15.933150 -0.160030 -24.831591 0.000000 50.000000 15.027514 26.000000
-15.623464 0.405054 -24.361632 0.000000 33.000000 14.435151 0.000000
-16.654293 0.619756 -23.610671 0.000000 45.000000 14.560813 0.000000
-16.651054 0.731898 -23.491165 0.000000 39.000000 14.463081 0.000000
-15.740627 1.014314 -24.366826 0.000000 41.000000 14.477121 0.000000
-18.508833 0.258689 -22.996164 0.000000 18.000000 15.379546 11.000000
-14.307208 -0.695190 -26.090362 0.000000 53.000000 14.897154 25.000000
-15.404782 -0.454441 -25.225984 0.000000 51.000000 14.982394 27.000000
-16.886754 -4.862467 -23.561024 0.000000 46.000000 15.046545 16.000000
-18.108228 0.439439 -22.896325 0.000000 50.000000 15.024434 11.000000
-16.630506 -0.178741 -24.218434 0.000000 48.000000 15.045994 28.000000
-17.090433 -4.359939 -22.697939 0.000000 36.000000 14.513972 0.000000
-17.554855 -4.932264 -22.233900 0.000000 37.000000 14.522611 0.000000
-15.396803 -1.008920 -25.398510 0.000000 55.000000 15.141179 27.000000
-16.422118 -4.494853 -23.289444 0.000000 37.000000 14.509326 0.000000
-17.329423 -4.927415 -22.448714 0.000000 44.000000 14.528951 0.000000
-16.324045 -4.475958 -23.431535 0.000000 38.000000 14.546806 0.000000
-16.902380 -0.401412 -23.603319 0.000000 49.000000 14.790439 28.000000
-14.736431 0.202581 -25.753545 0.000000 59.000000 14.877737 21.000000
-15.551321 -0.033524 -25.306160 0.000000 50.000000 15.111952 26.000000
-17.197495 -3.083042 -23.560011 0.000000 37.000000 15.136042 15.000000
-16.475312 -4.239400 -24.500298 0.000000 32.000000 15.420373 17.000000
-17.411554 -2.829823 -22.914197 0.000000 45.000000 14.787208 15.000000
-15.838050 -0.659512 -24.949042 0.000000 51.000000 15.083439 27.000000
-16.454553 -4.734765 -23.251712 0.000000 32.000000 14.519353 0.000000
-18.189427 0.540396 -23.078316 0.000000 67.000000 15.206429 11.000000
-15.253020 -4.292521 -24.345093 0.000000 30.000000 14.487353 0.000000
-15.161895 -4.234029 -24.454232 0.000000 29.000000 14.502580 0.000000
-15.873469 -4.723538 -24.633605 0.000000 25.000000 15.146091 17.000000
-14.940634 -4.179642 -24.544397 0.000000 25.000000 14.416561 0.000000
-16.280664 -4.193187 -23.768052 0.000000 71.000000 14.746740 17.000000
-17.682185 -2.421114 -23.296438 0.000000 42.000000 15.223655 14.000000
-14.648548 -4.019988 -24.740668 0.000000 18.000000 14.354066 0.000000
-14.582764 -3.911996 -24.877762 0.000000 21.000000 14.403636 0.000000
-17.014306 0.784597 -23.464923 0.000000 52.000000 14.684571 10.000000
-17.517233 -0.572491 -23.376102 0.000000 60.000000 15.048005 13.000000
-15.388226 -4.074786 -24.083035 0.000000 31.000000 14.370647 0.000000
-16.572689 -1.218162 -24.143994 0.000000 60.000000 15.021628 23.000000
-15.298708 -3.999625 -24.133617 0.000000 26.000000 14.342691 0.000000
-16.452118 -0.458295 -24.286441 0.000000 49.000000 14.994776 28.000000
-15.239953 -3.873798 -24.261085 0.000000 30.000000 14.388704 0.000000
-15.192712 -3.734325 -24.407717 0.000000 31.000000 14.455674 0.000000
-14.238431 -3.427094 -25.360700 0.000000 27.000000 14.495540 0.000000
-15.156206 -3.578141 -24.573626 0.000000 38.000000 14.542956 0.000000
-17.164968 -2.094053 -23.545567 0.000000 49.000000 15.037501 29.000000
-17.703094 -3.069493 -23.528888 0.000000 0.000000 15.452299 15.000000
-16.559336 1.282538 -24.177114 0.000000 29.000000 14.870127 12.000000
-14.029746 -3.145520 -25.538738 0.000000 26.000000 14.467572 0.000000
-13.968754 -3.040684 -25.601551 0.000000 24.000000 14.465835 0.000000
-14.576469 -0.709010 -26.154816 0.000000 58.000000 15.126697 25.000000
-16.129582 -4.640902 -24.269345 0.000000 44.000000 15.044418 17.000000
-13.810984 -2.698046 -25.795257 0.000000 31.000000 14.479586 0.000000
-13.738854 -2.613652 -25.796656 0.000000 29.000000 14.426464 0.000000
-13.664452 -2.528765 -25.787116 0.000000 26.000000 14.363720 0.000000
-16.001934 -4.160588 -24.043497 0.000000 56.000000 14.760057 17.000000
-14.961644 0.195631 -25.673164 0.000000 47.000000 14.970459 26.000000
-13.601390 -2.093714 -26.050451 0.000000 24.000000 14.486320 0.000000
-17.497682 -0.851023 -23.649286 0.000000 60.000000 15.254764 13.000000
-13.525717 -1.855221 -26.106790 0.000000 30.000000 14.461015 0.000000
-14.450564 -1.945163 -25.271424 0.000000 39.000000 14.473522 0.000000
-13.488550 -1.736714 -26.124406 0.000000 28.000000 14.441085 0.000000
-14.530321 0.035694 -25.882444 0.000000 68.000000 14.845225 21.000000
-17.854241 -1.785626 -23.271191 0.000000 53.000000 15.278365 14.000000
-15.164379 -1.448018 -25.171655 0.000000 45.000000 14.846970 22.000000
-16.499118 -0.722795 -24.152405 0.000000 49.000000 14.945272 23.000000
-14.576010 -0.569900 -25.892064 0.000000 65.000000 14.923473 25.000000
-13.410301 -1.211332 -26.253808 0.000000 29.000000 14.448740 0.000000
-13.394176 -1.079318 -26.272338 0.000000 24.000000 14.442737 0.000000
-13.337652 -0.988973 -26.204481 0.000000 24.000000 14.348679 0.000000
-13.330718 -0.855701 -26.225821 0.000000 25.000000 14.350844 0.000000
-14.618818 -3.170473 -25.259243 0.000000 44.000000 14.659516 9.000000
-13.385561 -0.526263 -26.381880 0.000000 32.000000 14.480749 0.000000
-13.369582 -0.406190 -26.362996 0.000000 29.000000 14.448070 0.000000
-16.979576 -4.404263 -23.178949 0.000000 44.000000 14.796833 18.000000
-13.374801 -0.268567 -26.377169 0.000000 26.000000 14.452838 0.000000
-17.092162 -0.262256 -23.355595 0.000000 56.000000 14.726254 28.000000
-18.117228 0.860685 -22.929700 0.000000 26.000000 15.026964 30.000000
-17.841790 -0.371513 -22.525520 0.000000 50.000000 14.626085 11.000000
-15.725669 1.302050 -24.957674 0.000000 58.000000 14.883267 20.000000
-13.365812 0.357960 -26.276823 0.000000 23.000000 14.331021 0.000000
-13.450366 0.782017 -26.315991 0.000000 24.000000 14.388455 0.000000
-13.502878 0.937307 -26.363582 0.000000 35.000000 14.448483 0.000000
-15.152977 0.041699 -25.728655 0.000000 41.000000 15.150330 26.000000
-14.946870 -0.672907 -25.666784 0.000000 61.000000 15.013796 27.000000
-15.661738 -1.001489 -25.203556 0.000000 45.000000 15.175227 27.000000
-13.563013 1.207138 -26.352497 0.000000 32.000000 14.462753 0.000000
-14.479858 1.122162 -25.504484 0.000000 38.000000 14.460225 0.000000
-17.872932 0.473649 -22.945859 0.000000 67.000000 14.900378 11.000000
-15.241300 0.273503 -25.319898 0.000000 40.000000 14.893042 26.000000
-13.649626 1.590284 -26.278239 0.000000 30.000000 14.440716 0.000000
-17.520080 -0.019715 -22.578022 0.000000 36.000000 14.424890 0.000000
-15.393987 -0.618954 -25.465894 0.000000 70.000000 15.162911 27.000000
-17.741520 -2.260013 -23.562122 0.000000 62.000000 15.448604 14.000000
-15.102331 0.102977 -25.701325 0.000000 54.000000 15.092031 26.000000
-16.036714 -1.614436 -23.879556 0.000000 38.000000 14.492678 0.000000
-16.519237 -1.045837 -24.610235 0.000000 66.000000 15.317759 23.000000
-15.527293 -0.585981 -25.241779 0.000000 67.000000 15.085223 27.000000
-15.714102 -1.658792 -24.157902 0.000000 33.000000 14.483752 0.000000
-15.611131 -1.663397 -24.257231 0.000000 36.000000 14.487993 0.000000
-17.453435 -2.471487 -23.602784 0.000000 55.000000 15.298901 14.000000
-16.352497 -4.359834 -23.757549 0.000000 59.000000 14.798444 17.000000
-14.046614 0.767231 -26.196908 0.000000 47.000000 14.702760 21.000000
-14.510946 -1.460348 -25.280221 0.000000 30.000000 14.488259 0.000000
-15.460463 -4.334280 -24.435463 0.000000 61.000000 14.696276 17.000000
-14.611003 -1.530589 -25.167299 0.000000 33.000000 14.477036 0.000000
-16.485104 -0.279413 -24.369057 0.000000 56.000000 15.065906 28.000000
-13.604097 -1.349442 -26.061317 0.000000 28.000000 14.446466 0.000000
-16.364134 -0.927342 -24.613280 0.000000 49.000000 15.207761 23.000000
-14.060882 -1.169138 -25.995320 0.000000 24.000000 14.693057 25.000000
-13.420646 -1.284087 -26.227726 0.000000 27.000000 14.441335 0.000000
-13.337453 -1.235952 -26.327224 0.000000 28.000000 14.455484 0.000000
-13.240122 -1.203730 -26.388531 0.000000 28.000000 14.433042 0.000000
-14.246575 -0.668806 -26.081000 0.000000 39.000000 14.847709 25.000000
-13.799668 -1.152561 -25.807345 0.000000 30.000000 14.377717 0.000000
-13.708702 -1.107087 -25.845893 0.000000 28.000000 14.341899 0.000000
-17.458732 -3.046781 -23.291808 0.000000 60.000000 15.111698 15.000000
-18.564378 -1.082459 -22.892029 0.000000 70.000000 15.429693 13.000000
-13.489120 -0.910486 -26.036215 0.000000 25.000000 14.321326 0.000000
-13.427615 -0.831144 -26.113149 0.000000 23.000000 14.331353 0.000000
-17.582994 -0.471698 -23.314221 0.000000 68.000000 15.039909 13.000000
-16.516584 -0.625739 -24.312230 0.000000 69.000000 15.068322 23.000000
-13.310629 -0.533151 -26.425301 0.000000 35.000000 14.462803 0.000000
-17.655277 -0.824782 -23.415803 0.000000 48.000000 15.186959 13.000000
-17.267529 -0.775698 -23.808362 0.000000 54.000000 15.212149 23.000000
-14.472572 0.992461 -25.818070 0.000000 76.000000 14.695074 21.000000
-14.988277 1.334266 -25.063339 0.000000 37.000000 14.462968 0.000000
-14.875854 1.322162 -25.133391 0.000000 40.000000 14.439777 0.000000
-14.781849 1.328490 -25.248644 0.000000 41.000000 14.461054 0.000000
-13.943735 1.415170 -26.014776 0.000000 32.000000 14.456087 0.000000
-14.624611 -2.996280 -25.379290 0.000000 52.000000 14.740251 9.000000
-17.020856 -0.376466 -23.864850 0.000000 50.000000 15.061199 28.000000
-13.631336 1.413522 -26.282478 0.000000 28.000000 14.443336 0.000000
-13.536403 1.424216 -26.387871 0.000000 35.000000 14.456431 0.000000
-13.889058 1.429979 -26.042058 0.000000 35.000000 14.438424 0.000000
-18.198848 -0.845547 -23.089108 0.000000 64.000000 15.313234 13.000000
-13.706567 1.484102 -26.212654 0.000000 31.000000 14.437774 0.000000
-15.363235 -4.437931 -24.466546 0.000000 37.000000 14.660699 17.000000
-13.527443 1.546269 -26.374415 0.000000 37.000000 14.432341 0.000000
-17.529305 -4.835847 -22.254982 0.000000 34.000000 14.514524 0.000000
-16.105711 -4.050941 -23.871583 0.000000 39.000000 14.695856 17.000000
-17.414658 -4.482960 -22.399742 0.000000 32.000000 14.520528 0.000000
-15.538699 -0.166208 -25.272430 0.000000 71.000000 15.087462 26.000000
-17.271867 -4.229793 -22.347929 0.000000 29.000000 14.369396 0.000000
-18.314485 1.166081 -23.005457 0.000000 44.000000 15.195093 30.000000
-16.874695 0.058664 -23.102154 0.000000 29.000000 14.371781 0.000000
-16.692751 -1.197104 -24.675395 0.000000 7.000000 15.492591 23.000000
-17.073670 1.231706 -23.323288 0.000000 36.000000 14.590282 0.000000
-16.448149 -4.876725 -23.251434 0.000000 31.000000 14.524317 0.000000
-17.054342 0.565902 -23.636511 0.000000 40.000000 14.852549 10.000000
-17.297777 -1.561895 -23.566686 0.000000 41.000000 15.106877 24.000000
-15.208753 -4.180548 -24.345423 0.000000 27.000000 14.450345 0.000000
-15.125912 -4.090703 -24.350510 0.000000 28.000000 14.392372 0.000000
-15.047951 -4.001022 -24.349507 0.000000 27.000000 14.333205 0.000000
-15.002481 -3.856824 -24.432584 0.000000 25.000000 14.354216 0.000000
-14.994854 -3.655697 -24.607731 0.000000 29.000000 14.464731 0.000000
-15.827775 -3.388388 -23.950433 0.000000 40.000000 14.522779 0.000000
-17.898106 -2.672420 -23.216347 0.000000 28.000000 15.326650 14.000000
-16.876263 -1.164185 -23.912969 0.000000 72.000000 15.051979 23.000000
-15.701540 -2.978849 -24.032708 0.000000 32.000000 14.471158 0.000000
-15.658697 -2.847737 -24.040309 0.000000 29.000000 14.439189 0.000000
-17.695151 -2.073335 -23.451774 0.000000 50.000000 15.323633 14.000000
-14.469531 -1.453963 -25.849661 0.000000 42.000000 14.879613 25.000000
-14.651900 0.848711 -25.545122 0.000000 37.000000 14.624153 21.000000
-15.577420 -2.235351 -24.213798 0.000000 32.000000 14.471488 0.000000
-14.642955 -1.917796 -25.181209 0.000000 31.000000 14.534627 0.000000
-14.177718 0.807470 -26.116744 0.000000 53.000000 14.729187 21.000000
-17.816812 -2.400628 -23.553503 0.000000 56.000000 15.502285 14.000000
-14.730662 -0.963391 -25.750566 0.000000 68.000000 14.949493 25.000000
-16.958807 -0.009072 -23.795206 0.000000 61.000000 14.943614 28.000000
-18.035219 -2.977343 -22.891728 0.000000 37.000000 15.200013 15.000000
-17.268379 -2.089115 -23.649628 0.000000 60.000000 15.183418 29.000000
