-38.384714 -13.589892 -6.301505 0.000000 37.000000 14.597578 29.000000
-42.554760 -15.505296 -4.431506 0.000000 45.000000 14.232858 0.000000
-39.452571 -16.057919 -5.352331 0.000000 47.000000 14.254936 0.000000
-38.674583 -13.131869 -6.264158 0.000000 58.000000 14.601137 29.000000
-40.277971 -14.938192 -5.443083 0.000000 51.000000 14.470953 16.000000
-41.501555 -13.673911 -4.995001 0.000000 29.000000 14.276791 0.000000
-39.291472 -13.584408 -6.078708 0.000000 66.000000 14.650824 29.000000
-39.056981 -13.184974 -6.502399 0.000000 72.000000 14.945017 26.000000
-38.629734 -16.367756 -5.632608 0.000000 44.000000 14.311397 0.000000
-39.781719 -12.876830 -5.504914 0.000000 19.000000 14.178014 0.000000
-41.985160 -16.899927 -4.527364 0.000000 52.000000 14.296741 0.000000
-41.294631 -14.386886 -5.102320 0.000000 53.000000 14.389588 9.000000
-43.445186 -14.905990 -4.268889 0.000000 51.000000 14.279099 0.000000
-39.935838 -15.704544 -5.386542 0.000000 51.000000 14.393671 8.000000
-39.115091 -15.896583 -5.389784 0.000000 31.000000 14.175529 0.000000
-38.654055 -15.908853 -5.684554 0.000000 32.000000 14.321979 0.000000
-41.535373 -13.826168 -5.371577 0.000000 60.000000 14.660015 25.000000
-40.173145 -16.166820 -5.080421 0.000000 55.000000 14.218387 0.000000
-38.927798 -13.464080 -6.479873 0.000000 54.000000 14.913692 29.000000
-40.591823 -14.521671 -5.229495 0.000000 38.000000 14.318110 0.000000
-40.415827 -15.527267 -5.138726 0.000000 27.000000 14.280903 0.000000
-40.273692 -19.372874 -4.673424 0.000000 32.000000 14.181777 0.000000
-41.370655 -18.206525 -4.514376 0.000000 32.000000 14.235158 0.000000
-42.373993 -19.640193 -4.161346 0.000000 34.000000 14.336927 0.000000
-40.337608 -15.370954 -5.236200 0.000000 54.000000 14.335026 0.000000
-39.951816 -17.903912 -5.035833 0.000000 25.000000 14.285036 0.000000
-40.485304 -16.862696 -5.050363 0.000000 34.000000 14.350916 0.000000
-39.150074 -17.056205 -5.386049 0.000000 27.000000 14.298308 0.000000
-39.290994 -18.930934 -5.122860 0.000000 33.000000 14.276999 0.000000
-38.728858 -17.357435 -5.427619 0.000000 33.000000 14.244589 0.000000
-41.040381 -14.447020 -5.510741 0.000000 76.000000 14.709476 10.000000
-39.313029 -16.448611 -5.422128 0.000000 44.000000 14.319532 0.000000
-41.377802 -18.780367 -4.566043 0.000000 48.000000 14.343823 0.000000
-42.370569 -16.722191 -4.478811 0.000000 30.000000 14.345692 0.000000
-41.921630 -15.330134 -4.747419 0.000000 39.000000 14.330232 0.000000
-39.978615 -15.484202 -5.286647 0.000000 35.000000 14.289159 0.000000
-38.996374 -15.441230 -5.683553 0.000000 38.000000 14.374503 0.000000
-43.427148 -14.587763 -4.341988 0.000000 55.000000 14.311467 0.000000
-37.650119 -15.820574 -6.199742 0.000000 63.000000 14.508903 1.000000
-42.794185 -15.534755 -4.338570 0.000000 34.000000 14.217579 0.000000
-38.020445 -18.345606 -5.605384 0.000000 51.000000 14.305000 0.000000
-39.262696 -13.690935 -5.942483 0.000000 33.000000 14.523525 29.000000
-40.015093 -16.610615 -5.248706 0.000000 33.000000 14.376526 0.000000
-40.035176 -16.909985 -5.121663 0.000000 21.000000 14.291576 0.000000
-39.932679 -17.133935 -5.099271 0.000000 19.000000 14.262674 0.000000
-38.654087 -14.401704 -6.200126 0.000000 58.000000 14.661360 27.000000
-43.343669 -15.010615 -4.347254 0.000000 60.000000 14.334347 0.000000
-39.255626 -17.574852 -5.313034 0.000000 24.000000 14.311721 0.000000
-41.818052 -16.217277 -4.742826 0.000000 64.000000 14.384326 6.000000
-39.428726 -13.502225 -5.845587 0.000000 45.000000 14.461140 29.000000
-38.188744 -18.018384 -5.597418 0.000000 21.000000 14.313975 0.000000
-41.007812 -18.485072 -4.977660 0.000000 61.000000 14.597264 23.000000
-42.490508 -17.242159 -4.334970 0.000000 46.000000 14.296106 0.000000
-38.075867 -15.810962 -5.906270 0.000000 47.000000 14.353615 0.000000
-42.992578 -14.040994 -4.534243 0.000000 39.000000 14.312231 0.000000
-42.316058 -14.822634 -4.632334 0.000000 18.000000 14.285552 0.000000
-40.933021 -18.030516 -4.611105 0.000000 45.000000 14.181305 0.000000
-40.548779 -15.525141 -5.119724 0.000000 30.000000 14.301572 0.000000
-38.648354 -16.323317 -5.658514 0.000000 44.000000 14.337037 0.000000
-41.426512 -14.712607 -5.403464 0.000000 74.000000 14.747178 9.000000
-43.590704 -14.788727 -4.254093 0.000000 46.000000 14.295923 0.000000
-41.279484 -18.412838 -4.674544 0.000000 37.000000 14.381400 0.000000
-38.331327 -15.785596 -5.711444 0.000000 39.000000 14.240662 0.000000
-41.304294 -14.939924 -4.865465 0.000000 40.000000 14.222561 0.000000
-39.515117 -17.941294 -5.443563 0.000000 53.000000 14.548540 15.000000
-43.018032 -17.635004 -4.428315 0.000000 43.000000 14.578734 7.000000
-40.305018 -16.334329 -5.011324 0.000000 49.000000 14.208087 0.000000
-39.948688 -16.132128 -5.209986 0.000000 33.000000 14.272356 0.000000
-43.105699 -16.941905 -4.237296 0.000000 49.000000 14.353402 0.000000
-38.294904 -14.063508 -6.130587 0.000000 45.000000 14.456156 27.000000
-40.471665 -14.226108 -5.532948 0.000000 69.000000 14.541866 30.000000
-41.532940 -19.483835 -4.636243 0.000000 50.000000 14.526443 19.000000
-41.183679 -14.055300 -5.098903 0.000000 45.000000 14.320641 0.000000
-38.448760 -17.482968 -5.579350 0.000000 38.000000 14.319373 0.000000
-37.700740 -17.830144 -5.787253 0.000000 18.000000 14.332673 0.000000
-37.461982 -17.946385 -5.824479 0.000000 38.000000 14.309759 0.000000
-39.262561 -16.474568 -5.442014 0.000000 38.000000 14.326254 0.000000
-42.392891 -14.792465 -4.552658 0.000000 18.000000 14.229280 0.000000
-39.818869 -17.935440 -5.433542 0.000000 68.000000 14.627413 15.000000
-41.275590 -15.811897 -4.918315 0.000000 35.000000 14.351692 0.000000
-40.113742 -13.782593 -5.471539 0.000000 52.000000 14.334219 0.000000
-38.909022 -14.625779 -6.032410 0.000000 60.000000 14.599001 17.000000
-43.424503 -16.117430 -4.222327 0.000000 57.000000 14.350034 0.000000
-38.755946 -15.989858 -5.645056 0.000000 33.000000 14.322381 0.000000
-39.413432 -12.926577 -6.350251 0.000000 55.000000 14.878905 26.000000
-41.122193 -14.287184 -5.123117 0.000000 49.000000 14.348865 0.000000
-39.812994 -14.789229 -5.748543 0.000000 61.000000 14.610272 16.000000
-43.603970 -16.001428 -4.175926 0.000000 48.000000 14.346878 0.000000
-42.607189 -16.415487 -4.412170 0.000000 54.000000 14.320944 0.000000
-39.456234 -14.181336 -6.023886 0.000000 52.000000 14.706719 30.000000
-40.278648 -16.115734 -5.096714 0.000000 47.000000 14.259674 0.000000
-38.845718 -14.810509 -5.731684 0.000000 38.000000 14.312996 0.000000
-40.050418 -15.118237 -5.363951 0.000000 53.000000 14.347067 0.000000
-39.864232 -15.460185 -5.481760 0.000000 63.000000 14.438772 8.000000
-38.448853 -17.376226 -5.587469 0.000000 35.000000 14.316435 0.000000
-43.966568 -15.094968 -4.115830 0.000000 42.000000 14.305223 0.000000
-37.624897 -17.954518 -5.795209 0.000000 42.000000 14.330469 0.000000
-37.195931 -18.212869 -5.851629 0.000000 30.000000 14.284308 0.000000
-36.823146 -18.222552 -6.031294 0.000000 32.000000 14.346903 0.000000
-40.599371 -15.106306 -5.336202 0.000000 56.000000 14.480310 16.000000
-40.011775 -16.470183 -5.255754 0.000000 35.000000 14.368198 0.000000
-42.911394 -16.253124 -4.336075 0.000000 52.000000 14.321455 0.000000
-39.687271 -16.657480 -5.296070 0.000000 42.000000 14.330214 0.000000
-39.026029 -13.784869 -6.531422 0.000000 80.000000 15.023598 29.000000
-38.675315 -18.383302 -5.737603 0.000000 61.000000 14.626349 14.000000
-42.103180 -19.051663 -4.301143 0.000000 32.000000 14.331604 0.000000
-41.120758 -17.187377 -4.775639 0.000000 54.000000 14.308355 0.000000
-43.106305 -16.378402 -4.247987 0.000000 52.000000 14.307337 0.000000
-38.533024 -16.694008 -5.662207 0.000000 57.000000 14.343868 0.000000
-43.252468 -16.337138 -4.206543 0.000000 38.000000 14.306619 0.000000
-39.383381 -16.441925 -5.427223 0.000000 44.000000 14.344318 0.000000
-41.380126 -13.619849 -5.067734 0.000000 28.000000 14.304965 0.000000
-41.461141 -15.477922 -4.934825 0.000000 49.000000 14.388319 4.000000
-42.766129 -17.725803 -4.317176 0.000000 70.000000 14.408346 7.000000
-41.456219 -18.566462 -4.542996 0.000000 26.000000 14.323469 0.000000
-38.974386 -13.355124 -6.001327 0.000000 44.000000 14.461399 29.000000
-41.356128 -16.093029 -4.926413 0.000000 58.000000 14.411129 11.000000
-39.346566 -14.202571 -6.056533 0.000000 81.000000 14.707759 17.000000
-42.173139 -13.698045 -4.928653 0.000000 28.000000 14.412868 25.000000
-43.143268 -15.203152 -4.351957 0.000000 55.000000 14.299383 0.000000
-41.039786 -16.866424 -4.859932 0.000000 34.000000 14.332656 0.000000
-38.535882 -16.091245 -6.026753 0.000000 63.000000 14.631003 3.000000
-42.754661 -17.822217 -4.279397 0.000000 31.000000 14.378716 0.000000
-38.361408 -15.308926 -5.844216 0.000000 46.000000 14.328008 0.000000
-42.214607 -14.534955 -4.734785 0.000000 36.000000 14.324451 0.000000
-41.665483 -18.272395 -4.397187 0.000000 32.000000 14.216694 0.000000
-41.481284 -18.428190 -4.317757 0.000000 17.000000 14.102799 0.000000
-40.022564 -13.975379 -5.736096 0.000000 45.000000 14.578365 30.000000
-40.271149 -18.187615 -4.954660 0.000000 40.000000 14.329803 0.000000
-38.099097 -18.002076 -5.622038 0.000000 35.000000 14.309490 0.000000
-37.643446 -17.926932 -5.766188 0.000000 35.000000 14.305547 0.000000
-42.016230 -19.075865 -4.287258 0.000000 38.000000 14.295351 0.000000
-42.971525 -18.017664 -4.109263 0.000000 28.000000 14.300038 0.000000
-37.070553 -17.771643 -5.976224 0.000000 33.000000 14.321882 0.000000
-37.215016 -18.446727 -5.804022 0.000000 31.000000 14.268041 0.000000
-40.591428 -15.142844 -5.656379 0.000000 70.000000 14.786086 16.000000
-40.922878 -18.472461 -4.906939 0.000000 39.000000 14.503873 23.000000
-41.126159 -15.119340 -5.054499 0.000000 54.000000 14.368081 0.000000
-41.697029 -16.274119 -4.736516 0.000000 49.000000 14.348561 0.000000
-38.175730 -15.600550 -5.726988 0.000000 43.000000 14.191335 0.000000
-39.232387 -15.952208 -5.395751 0.000000 40.000000 14.221135 0.000000
-43.706260 -15.780881 -4.043551 0.000000 41.000000 14.228897 0.000000
-42.268741 -18.588360 -4.118314 0.000000 32.000000 14.159883 0.000000
-39.705733 -13.125531 -6.004300 0.000000 49.000000 14.655500 28.000000
-42.683875 -18.941467 -4.185084 0.000000 44.000000 14.380338 0.000000
-37.680443 -15.816383 -6.131674 0.000000 56.000000 14.452643 1.000000
-39.536276 -16.099859 -5.302170 0.000000 48.000000 14.235960 0.000000
-40.932384 -13.451299 -5.492338 0.000000 59.000000 14.560664 28.000000
-36.971320 -18.346712 -5.924238 0.000000 36.000000 14.300945 0.000000
-40.681034 -13.300954 -5.376290 0.000000 28.000000 14.361632 0.000000
-41.767647 -15.971803 -4.738588 0.000000 41.000000 14.340956 0.000000
-40.255276 -15.401509 -5.198588 0.000000 39.000000 14.278200 0.000000
-39.524479 -15.632949 -5.920519 0.000000 49.000000 14.773734 8.000000
-39.582033 -15.780868 -5.463711 0.000000 51.000000 14.371037 0.000000
-39.654002 -16.069705 -5.238874 0.000000 39.000000 14.207244 0.000000
-37.819237 -18.280803 -5.741872 0.000000 32.000000 14.369349 0.000000
-38.982700 -16.180128 -5.563333 0.000000 41.000000 14.330150 0.000000
-37.814001 -17.931153 -5.759818 0.000000 52.000000 14.349878 0.000000
-38.298080 -16.496096 -5.669201 0.000000 38.000000 14.261878 0.000000
-40.302085 -14.513129 -5.702410 0.000000 76.000000 14.682053 30.000000
-41.087189 -18.447710 -4.882592 0.000000 66.000000 14.526381 23.000000
-42.061602 -14.588020 -4.782070 0.000000 37.000000 14.329900 0.000000
-39.577272 -13.147638 -5.905911 0.000000 53.000000 14.526523 26.000000
-38.881221 -13.848788 -6.722762 0.000000 75.000000 15.169512 29.000000
-40.763057 -13.914488 -5.238186 0.000000 44.000000 14.315759 0.000000
-42.304072 -18.819266 -4.382503 0.000000 54.000000 14.444557 21.000000
-38.985613 -17.463836 -5.403574 0.000000 24.000000 14.307596 0.000000
-39.973793 -14.908383 -5.574325 0.000000 73.000000 14.503650 16.000000
-42.122751 -19.455516 -4.342832 0.000000 59.000000 14.417405 19.000000
-37.463793 -17.416189 -6.009680 0.000000 54.000000 14.433317 12.000000
-38.579545 -14.937015 -5.836868 0.000000 27.000000 14.347698 0.000000
-39.499129 -18.983036 -4.967396 0.000000 35.000000 14.195364 0.000000
-42.664784 -18.141196 -4.186292 0.000000 25.000000 14.295785 0.000000
-43.100271 -17.234811 -3.985389 0.000000 41.000000 14.141602 0.000000
-41.563791 -14.508423 -5.154422 0.000000 56.000000 14.530150 9.000000
-37.660327 -16.435710 -6.067719 0.000000 63.000000 14.447933 2.000000
-40.181581 -17.469735 -5.069777 0.000000 35.000000 14.341163 0.000000
-39.597544 -17.294503 -5.268366 0.000000 41.000000 14.341353 0.000000
-39.663681 -14.454538 -5.894579 0.000000 50.000000 14.671887 30.000000
-42.456191 -15.367850 -4.422834 0.000000 38.000000 14.181976 0.000000
-39.060342 -16.303252 -5.548293 0.000000 51.000000 14.350920 0.000000
-40.297593 -13.507860 -5.981450 0.000000 49.000000 14.845438 28.000000
-43.364645 -14.186757 -4.878893 0.000000 77.000000 14.763541 18.000000
-39.637987 -17.921577 -5.570993 0.000000 59.000000 14.703732 15.000000
-42.674037 -15.372533 -4.364565 0.000000 20.000000 14.190859 0.000000
-41.586433 -15.864823 -4.789256 0.000000 47.000000 14.325337 0.000000
-38.526304 -16.782064 -5.634201 0.000000 39.000000 14.324084 0.000000
-40.853305 -15.530005 -5.036372 0.000000 44.000000 14.312017 0.000000
-42.798994 -15.828052 -4.429754 0.000000 51.000000 14.335052 0.000000
-38.117806 -18.234567 -5.997318 0.000000 68.000000 14.695086 13.000000
-41.101948 -16.279881 -4.914988 0.000000 36.000000 14.344504 0.000000
-41.706259 -15.352703 -4.802402 0.000000 21.000000 14.321677 0.000000
-41.547146 -17.905976 -4.561573 0.000000 36.000000 14.301656 0.000000
-42.307673 -14.954029 -4.700785 0.000000 35.000000 14.361336 0.000000
-41.619764 -15.516373 -4.990383 0.000000 65.000000 14.491467 4.000000
-43.238227 -14.518788 -4.464588 0.000000 46.000000 14.365793 0.000000
-43.008745 -16.752734 -4.504706 0.000000 68.000000 14.560334 5.000000
-41.676528 -16.971025 -4.638093 0.000000 49.000000 14.318729 0.000000
-41.491727 -14.793012 -5.082191 0.000000 59.000000 14.468843 9.000000
-39.852978 -14.907574 -5.901683 0.000000 68.000000 14.779449 16.000000
-42.017533 -15.764258 -4.963691 0.000000 57.000000 14.607431 4.000000
-40.940466 -17.591162 -4.754793 0.000000 42.000000 14.276134 0.000000
-40.695386 -17.703298 -4.818145 0.000000 33.000000 14.275800 0.000000
-40.512304 -17.847078 -4.811712 0.000000 23.000000 14.230439 0.000000
-37.288875 -18.105174 -6.146255 0.000000 60.000000 14.580907 13.000000
-39.139317 -13.619881 -6.164361 0.000000 62.000000 14.691244 29.000000
-38.756945 -14.609396 -6.052254 0.000000 44.000000 14.571677 17.000000
-38.505857 -18.051391 -5.503211 0.000000 25.000000 14.320603 0.000000
-39.780032 -17.261008 -5.212705 0.000000 59.000000 14.338536 0.000000
-40.008679 -14.473990 -5.596729 0.000000 45.000000 14.491689 30.000000
-36.771029 -18.019553 -5.976049 0.000000 27.000000 14.258783 0.000000
-37.859780 -17.083764 -5.711834 0.000000 46.000000 14.232838 0.000000
-40.932127 -16.664974 -4.863787 0.000000 38.000000 14.284616 0.000000
-38.894638 -16.739140 -5.513662 0.000000 27.000000 14.313079 0.000000
-37.951557 -17.726269 -5.722644 0.000000 37.000000 14.334320 0.000000
-39.226956 -17.474735 -5.385330 0.000000 21.000000 14.362044 0.000000
-42.061157 -14.426892 -4.801265 0.000000 37.000000 14.331892 0.000000
-37.451898 -16.110889 -6.029259 0.000000 47.000000 14.317786 0.000000
-40.327342 -14.602095 -5.155078 0.000000 38.000000 14.177917 0.000000
-40.115200 -15.451187 -5.311536 0.000000 56.000000 14.349535 0.000000
-42.609284 -15.022886 -4.506759 0.000000 29.000000 14.272096 0.000000
-41.589755 -14.438741 -4.953718 0.000000 25.000000 14.339938 0.000000
-41.233873 -15.269454 -4.988280 0.000000 53.000000 14.351698 0.000000
-42.763277 -16.644429 -4.551716 0.000000 36.000000 14.522280 5.000000
-37.957562 -14.458616 -6.068705 0.000000 33.000000 14.338037 0.000000
-40.303186 -13.064530 -5.435940 0.000000 37.000000 14.283989 0.000000
-39.064468 -15.418660 -5.620672 0.000000 52.000000 14.332401 0.000000
-42.234779 -15.841163 -4.744758 0.000000 53.000000 14.470598 4.000000
-43.214761 -14.447815 -4.692288 0.000000 68.000000 14.568326 18.000000
-42.270309 -18.567765 -4.188288 0.000000 29.000000 14.224817 0.000000
-41.733801 -18.453864 -4.335015 0.000000 31.000000 14.195757 0.000000
-39.101716 -12.896987 -6.346705 0.000000 64.000000 14.781250 26.000000
-40.265389 -14.530031 -5.688454 0.000000 65.000000 14.659724 30.000000
-39.946549 -17.935284 -4.969656 0.000000 48.000000 14.223708 0.000000
-39.250697 -17.676848 -5.290251 0.000000 42.000000 14.298823 0.000000
-39.209946 -13.626609 -6.046445 0.000000 67.000000 14.600487 29.000000
-38.179967 -17.344622 -5.612465 0.000000 34.000000 14.258266 0.000000
-41.187254 -13.601195 -5.607886 0.000000 57.000000 14.760208 28.000000
-43.081536 -16.934015 -4.430949 0.000000 67.000000 14.529672 5.000000
-39.094123 -16.376471 -5.527531 0.000000 54.000000 14.348404 0.000000
-42.555319 -17.138397 -4.241938 0.000000 28.000000 14.216245 0.000000
-38.391910 -18.613361 -5.449618 0.000000 27.000000 14.292515 0.000000
-38.855898 -14.434853 -6.105520 0.000000 57.000000 14.633844 17.000000
-41.944887 -14.419785 -4.835961 0.000000 36.000000 14.330109 0.000000
-38.088310 -15.375347 -5.907874 0.000000 31.000000 14.315180 0.000000
-41.708884 -17.210072 -4.635599 0.000000 56.000000 14.349766 0.000000
-38.400623 -16.570848 -5.624663 0.000000 36.000000 14.257052 0.000000
-38.212932 -14.615504 -5.985445 0.000000 45.000000 14.349387 0.000000
-40.812023 -13.345067 -5.280691 0.000000 32.000000 14.313520 0.000000
-40.413250 -14.199190 -5.644175 0.000000 67.000000 14.627820 30.000000
-40.238967 -14.498367 -5.736113 0.000000 41.000000 14.694131 30.000000
-40.140432 -15.200325 -5.298857 0.000000 47.000000 14.319759 0.000000
-39.771332 -19.169545 -4.894307 0.000000 43.000000 14.224282 0.000000
-38.801850 -13.330129 -6.058039 0.000000 54.000000 14.462276 29.000000
-38.539188 -13.344918 -6.253539 0.000000 54.000000 14.572701 29.000000
-38.950671 -14.143413 -6.258191 0.000000 66.000000 14.777605 17.000000
-40.967674 -13.266664 -5.218331 0.000000 37.000000 14.291975 0.000000
-41.289598 -14.386692 -5.011540 0.000000 35.000000 14.301774 0.000000
-39.031000 -13.930928 -6.415394 0.000000 74.000000 14.929348 29.000000
-41.253492 -15.871124 -4.878385 0.000000 33.000000 14.313179 0.000000
-42.069663 -15.358225 -4.690064 0.000000 58.000000 14.321875 0.000000
-40.853054 -16.679131 -4.927399 0.000000 47.000000 14.323355 0.000000
-40.658941 -16.823473 -5.005422 0.000000 48.000000 14.355126 0.000000
-42.755011 -15.302401 -4.364950 0.000000 39.000000 14.207927 0.000000
-38.263285 -15.888380 -5.830662 0.000000 52.000000 14.344378 0.000000
-41.623418 -13.824597 -5.393581 0.000000 45.000000 14.706574 25.000000
-40.025804 -17.475800 -5.065218 0.000000 49.000000 14.291798 0.000000
-40.349868 -13.447057 -6.020556 0.000000 56.000000 14.891850 28.000000
-39.708159 -14.324495 -6.031807 0.000000 78.000000 14.802386 30.000000
-41.740987 -17.242594 -4.631155 0.000000 56.000000 14.358201 0.000000
-40.406151 -14.892981 -5.543832 0.000000 46.000000 14.599778 16.000000
-43.282556 -16.602526 -4.203059 0.000000 33.000000 14.338687 0.000000
-36.943503 -18.117384 -5.868221 0.000000 32.000000 14.216574 0.000000
-37.676231 -16.114690 -5.931274 0.000000 33.000000 14.290716 0.000000
-43.217109 -17.337246 -4.095347 0.000000 54.000000 14.290641 0.000000
-38.147230 -16.917657 -5.650366 0.000000 49.000000 14.241974 0.000000
-40.420060 -14.007940 -5.728407 0.000000 81.000000 14.690765 30.000000
-40.484290 -17.830383 -4.736197 0.000000 32.000000 14.148756 0.000000
-42.740843 -14.654615 -4.560197 0.000000 43.000000 14.324586 0.000000
-43.551194 -16.090573 -4.149344 0.000000 57.000000 14.315064 0.000000
-40.853366 -13.613944 -5.740046 0.000000 60.000000 14.789334 28.000000
-42.206526 -15.136466 -4.588138 0.000000 41.000000 14.242854 0.000000
-38.241089 -17.183199 -5.541296 0.000000 44.000000 14.192341 0.000000
-40.213955 -16.877215 -5.111992 0.000000 51.000000 14.331475 0.000000
-38.270611 -14.150183 -6.262697 0.000000 66.000000 14.583335 27.000000
-40.886176 -16.376928 -4.938475 0.000000 45.000000 14.313339 0.000000
-39.731888 -18.233670 -5.114872 0.000000 44.000000 14.328771 0.000000
-42.143422 -15.787073 -4.770051 0.000000 60.000000 14.462470 4.000000
-43.304511 -14.262554 -4.997083 0.000000 56.000000 14.865894 18.000000
-42.350048 -18.764584 -4.126983 0.000000 33.000000 14.209587 0.000000
-37.275006 -17.478728 -6.006788 0.000000 23.000000 14.381520 0.000000
-38.965375 -16.423196 -5.527833 0.000000 38.000000 14.315650 0.000000
-38.130397 -17.348153 -5.779004 0.000000 41.000000 14.402454 12.000000
-42.012370 -15.451798 -4.726337 0.000000 47.000000 14.348948 0.000000
-42.534601 -16.233994 -4.482180 0.000000 32.000000 14.348081 0.000000
-41.291109 -15.927774 -4.934022 0.000000 32.000000 14.382773 0.000000
-37.681412 -16.271409 -5.968598 0.000000 31.000000 14.343412 0.000000
-42.129370 -14.861020 -4.723278 0.000000 60.000000 14.321177 0.000000
-43.864949 -15.030285 -4.133814 0.000000 42.000000 14.286078 0.000000
-39.566204 -17.727705 -5.085539 0.000000 29.000000 14.201692 0.000000
-43.337429 -14.072921 -4.909102 0.000000 72.000000 14.772897 18.000000
-42.774899 -18.451932 -4.129545 0.000000 46.000000 14.305191 0.000000
-40.614216 -13.180183 -5.285177 0.000000 41.000000 14.243330 0.000000
-38.030574 -14.758943 -6.040228 0.000000 50.000000 14.362413 0.000000
-41.657703 -18.362290 -4.342726 0.000000 28.000000 14.171628 0.000000
-37.542054 -15.957529 -6.042471 0.000000 47.000000 14.341409 0.000000
-41.842274 -19.954878 -4.109620 0.000000 35.000000 14.163469 0.000000
-43.603929 -14.547117 -4.301954 0.000000 44.000000 14.321121 0.000000
-38.517836 -12.576267 -6.062485 0.000000 44.000000 14.307834 0.000000
-39.477221 -15.150976 -5.519520 0.000000 47.000000 14.330344 0.000000
-39.672007 -14.077975 -6.294161 0.000000 55.000000 15.016582 30.000000
-41.082864 -14.316012 -5.072013 0.000000 37.000000 14.291635 0.000000
-39.881770 -13.455298 -5.895817 0.000000 48.000000 14.636930 28.000000
-41.195867 -18.584775 -4.822876 0.000000 57.000000 14.515159 23.000000
-39.682603 -15.536705 -5.672741 0.000000 57.000000 14.574820 8.000000
-43.199764 -16.242208 -4.225807 0.000000 51.000000 14.299994 0.000000
-39.414290 -16.644665 -5.342670 0.000000 30.000000 14.293269 0.000000
-37.902202 -17.381927 -6.031818 0.000000 49.000000 14.579376 12.000000
-42.761263 -17.533874 -4.355519 0.000000 46.000000 14.424168 7.000000
-40.888124 -16.961289 -4.922374 0.000000 45.000000 14.357096 0.000000
-40.945636 -17.257334 -4.763989 0.000000 29.000000 14.252976 0.000000
-41.664218 -16.849122 -4.679699 0.000000 22.000000 14.342482 0.000000
-38.093249 -17.792702 -5.690289 0.000000 29.000000 14.351715 0.000000
-41.192693 -17.290977 -4.720506 0.000000 49.000000 14.287375 0.000000
-39.384938 -14.340217 -6.031959 0.000000 58.000000 14.709412 30.000000
-41.211849 -15.173030 -4.979537 0.000000 53.000000 14.327280 0.000000
-39.459247 -18.393646 -5.070125 0.000000 27.000000 14.222363 0.000000
-39.255230 -14.435172 -5.627403 0.000000 46.000000 14.296238 0.000000
-41.345514 -14.162374 -5.047788 0.000000 45.000000 14.330167 0.000000
-37.779960 -16.694077 -5.716949 0.000000 32.000000 14.175308 0.000000
-41.568849 -15.758337 -4.773462 0.000000 42.000000 14.294508 0.000000
-42.113415 -18.958335 -4.511144 0.000000 72.000000 14.524944 21.000000
-38.307353 -18.090114 -5.513372 0.000000 37.000000 14.275986 0.000000
-38.608447 -18.848427 -5.318284 0.000000 47.000000 14.254602 0.000000
-39.020689 -16.655489 -5.482112 0.000000 40.000000 14.311633 0.000000
-42.934533 -15.331820 -4.379402 0.000000 50.000000 14.277207 0.000000
-39.972349 -13.056949 -5.821001 0.000000 82.000000 14.552450 28.000000
-40.395971 -13.160042 -5.570497 0.000000 35.000000 14.448678 28.000000
-41.858909 -16.721448 -4.527818 0.000000 27.000000 14.242319 0.000000
-40.764488 -16.115135 -5.070017 0.000000 67.000000 14.376562 0.000000
-41.122603 -13.939179 -5.167137 0.000000 46.000000 14.356006 0.000000
-37.966110 -18.097819 -5.954062 0.000000 49.000000 14.595825 13.000000
-38.980743 -15.235831 -5.713600 0.000000 60.000000 14.377934 0.000000
-42.517995 -17.521295 -4.349383 0.000000 45.000000 14.345805 0.000000
-37.730192 -16.280198 -5.900612 0.000000 30.000000 14.293937 0.000000
-37.334437 -16.231927 -6.031513 0.000000 37.000000 14.297633 0.000000
-38.109691 -17.794710 -5.652880 0.000000 36.000000 14.321162 0.000000
-41.696945 -19.371762 -4.402033 0.000000 41.000000 14.340569 0.000000
-37.830718 -17.414371 -6.132048 0.000000 67.000000 14.656987 12.000000
-40.596996 -19.071667 -4.779703 0.000000 47.000000 14.347399 0.000000
-39.784227 -16.895759 -5.150727 0.000000 38.000000 14.244269 0.000000
-38.953936 -17.361457 -5.381025 0.000000 40.000000 14.266626 0.000000
-41.658644 -19.908500 -4.241848 0.000000 38.000000 14.230762 0.000000
-39.520419 -13.405944 -5.870343 0.000000 63.000000 14.501904 28.000000
-41.350806 -16.005695 -4.825643 0.000000 37.000000 14.305008 0.000000
-43.422353 -16.764949 -4.141661 0.000000 37.000000 14.337520 0.000000
-41.907887 -17.089589 -4.605388 0.000000 40.000000 14.367279 0.000000
-38.768661 -17.392702 -5.433337 0.000000 47.000000 14.265217 0.000000
-42.420949 -18.209329 -4.340051 0.000000 40.000000 14.377375 0.000000
-41.171719 -15.551612 -4.946362 0.000000 40.000000 14.321875 0.000000
-37.026515 -16.973789 -6.058328 0.000000 47.000000 14.307184 0.000000
-38.929064 -13.849769 -6.649330 0.000000 67.000000 15.113802 29.000000
-36.847092 -17.870007 -6.094278 0.000000 45.000000 14.378517 0.000000
-39.400378 -15.611657 -5.661787 0.000000 66.000000 14.489225 8.000000
-40.315670 -14.883832 -5.543875 0.000000 43.000000 14.572395 16.000000
-40.429262 -17.477023 -4.962826 0.000000 23.000000 14.312757 0.000000
-39.278255 -15.716373 -5.481409 0.000000 50.000000 14.292414 0.000000
-38.663996 -15.514167 -5.743831 0.000000 37.000000 14.341747 0.000000
-39.701700 -12.938462 -5.629114 0.000000 40.000000 14.278839 0.000000
-43.555269 -14.261037 -4.836661 0.000000 62.000000 14.786665 18.000000
-36.789931 -18.129107 -6.005741 0.000000 41.000000 14.303520 0.000000
-40.746407 -16.282550 -4.911450 0.000000 32.000000 14.237247 0.000000
-40.416956 -16.658451 -5.093516 0.000000 56.000000 14.351480 0.000000
-39.969763 -17.908779 -5.006367 0.000000 50.000000 14.262763 0.000000
-40.341189 -17.124075 -5.024146 0.000000 34.000000 14.309931 0.000000
-39.742669 -15.554690 -5.792473 0.000000 49.000000 14.708066 8.000000
-40.176326 -17.535576 -5.001428 0.000000 45.000000 14.281223 0.000000
-40.910379 -16.064758 -5.029473 0.000000 26.000000 14.375708 0.000000
-38.869636 -16.148266 -5.619781 0.000000 29.000000 14.347511 0.000000
-39.391689 -18.323934 -5.137811 0.000000 24.000000 14.259953 0.000000
-39.139303 -18.405030 -5.238668 0.000000 30.000000 14.290033 0.000000
-41.494198 -16.368855 -4.774598 0.000000 55.000000 14.334833 0.000000
-42.520382 -18.955291 -4.218504 0.000000 31.000000 14.365603 0.000000
-37.418145 -18.486714 -5.767181 0.000000 31.000000 14.296522 0.000000
-41.273187 -13.645125 -5.367444 0.000000 80.000000 14.561151 28.000000
-39.572544 -12.896581 -5.661124 0.000000 36.000000 14.267247 0.000000
-43.501914 -15.251182 -4.213382 0.000000 51.000000 14.277493 0.000000
-40.477357 -13.995389 -5.339219 0.000000 41.000000 14.336227 0.000000
-38.562053 -16.886077 -5.583824 0.000000 34.000000 14.297068 0.000000
-37.780202 -16.135466 -5.938135 0.000000 46.000000 14.329780 0.000000
-42.506808 -16.240580 -4.452166 0.000000 37.000000 14.312058 0.000000
-40.183878 -17.385369 -5.080942 0.000000 39.000000 14.344007 0.000000
-39.240064 -14.568641 -5.894906 0.000000 60.000000 14.559516 17.000000
-39.397416 -16.655654 -5.392589 0.000000 40.000000 14.336892 0.000000
-38.642862 -17.158142 -5.475085 0.000000 43.000000 14.244579 0.000000
-40.640119 -16.872656 -4.985230 0.000000 43.000000 14.335335 0.000000
-39.098771 -12.748734 -6.001630 0.000000 24.000000 14.437426 26.000000
-40.139239 -17.040273 -5.028112 0.000000 31.000000 14.246150 0.000000
-39.749888 -17.027662 -5.185153 0.000000 33.000000 14.280148 0.000000
-39.381466 -17.024994 -5.312750 0.000000 42.000000 14.293275 0.000000
-42.527554 -15.261536 -4.479383 0.000000 40.000000 14.246011 0.000000
-39.838530 -13.880207 -5.908730 0.000000 52.000000 14.679075 30.000000
-38.364282 -17.032876 -5.579080 0.000000 61.000000 14.249312 0.000000
-39.421763 -16.019193 -5.435045 0.000000 56.000000 14.320684 0.000000
-41.749860 -18.341876 -4.413061 0.000000 35.000000 14.263462 0.000000
-43.348431 -14.204214 -4.870143 0.000000 55.000000 14.752218 18.000000
-41.132775 -15.615185 -4.956662 0.000000 28.000000 14.326624 0.000000
-39.480595 -19.219300 -5.041555 0.000000 37.000000 14.284101 0.000000
-41.463954 -15.033016 -4.778187 0.000000 36.000000 14.195664 0.000000
-38.830300 -17.248956 -5.470873 0.000000 41.000000 14.304577 0.000000
-40.638095 -14.286648 -5.359185 0.000000 50.000000 14.431458 10.000000
-42.037597 -18.251914 -4.379392 0.000000 42.000000 14.306738 0.000000
-42.266769 -18.666342 -4.223985 0.000000 31.000000 14.267591 0.000000
-42.401771 -19.315533 -4.199920 0.000000 21.000000 14.349244 0.000000
-42.071217 -19.494229 -4.341062 0.000000 47.000000 14.404500 19.000000
-36.813185 -17.838725 -6.092651 0.000000 48.000000 14.363905 0.000000
-42.719082 -18.619964 -4.031724 0.000000 30.000000 14.212644 0.000000
-38.947446 -13.990689 -6.168999 0.000000 65.000000 14.676562 29.000000
-42.501314 -18.832734 -4.122490 0.000000 33.000000 14.256452 0.000000
-41.044538 -13.460943 -5.510666 0.000000 62.000000 14.611914 28.000000
-41.787315 -17.111915 -4.637295 0.000000 49.000000 14.364530 0.000000
-38.033928 -18.135831 -5.921214 0.000000 50.000000 14.588264 13.000000
-40.660993 -16.825612 -5.017831 0.000000 54.000000 14.367740 0.000000
-40.070940 -13.903238 -5.499578 0.000000 35.000000 14.360418 0.000000
-39.958301 -17.473542 -5.063287 0.000000 20.000000 14.269960 0.000000
-37.719074 -15.853355 -6.249249 0.000000 71.000000 14.579460 1.000000
-40.886458 -15.451996 -5.036600 0.000000 43.000000 14.314138 0.000000
-39.563307 -13.839602 -5.921449 0.000000 56.000000 14.606474 30.000000
-41.645067 -15.836095 -4.762023 0.000000 51.000000 14.313744 0.000000
-40.215021 -15.107762 -5.465081 0.000000 56.000000 14.490402 16.000000
-40.321527 -17.497444 -5.013073 0.000000 39.000000 14.331018 0.000000
-39.842373 -13.574702 -5.681382 0.000000 47.000000 14.433441 28.000000
-40.820267 -14.250827 -5.316747 0.000000 43.000000 14.440889 10.000000
-39.871513 -18.508694 -5.007060 0.000000 28.000000 14.294691 0.000000
-39.690348 -18.644213 -5.072032 0.000000 35.000000 14.316963 0.000000
-39.240885 -19.107766 -5.103572 0.000000 45.000000 14.261680 0.000000
-36.847445 -17.900835 -6.028948 0.000000 42.000000 14.319586 0.000000
-42.525530 -18.006315 -4.284502 0.000000 24.000000 14.334871 0.000000
-39.498550 -17.527520 -5.184261 0.000000 34.000000 14.255704 0.000000
-43.710970 -15.594287 -4.097769 0.000000 47.000000 14.263152 0.000000
-43.292546 -16.133605 -4.288992 0.000000 54.000000 14.376385 0.000000
-38.540209 -14.499989 -6.198884 0.000000 74.000000 14.636656 27.000000
-43.170604 -16.572595 -4.209403 0.000000 42.000000 14.308925 0.000000
-40.102329 -15.330615 -5.313904 0.000000 48.000000 14.335946 0.000000
-42.526099 -17.231611 -4.303254 0.000000 45.000000 14.275319 0.000000
-38.810746 -13.379540 -6.413110 0.000000 71.000000 14.807454 29.000000
-39.955858 -15.059437 -5.419898 0.000000 53.000000 14.366676 0.000000
-39.126186 -14.613004 -6.114535 0.000000 73.000000 14.739434 17.000000
-38.235610 -16.749698 -5.695621 0.000000 41.000000 14.294084 0.000000
-42.723876 -15.398193 -4.418258 0.000000 40.000000 14.259084 0.000000
-40.567280 -18.014120 -4.700610 0.000000 15.000000 14.157623 0.000000
-42.040956 -18.709321 -4.635935 0.000000 69.000000 14.597449 21.000000
-39.703463 -17.924047 -5.114920 0.000000 39.000000 14.289495 0.000000
-37.914893 -18.533314 -5.512175 0.000000 30.000000 14.204238 0.000000
-40.090334 -14.258578 -5.908603 0.000000 66.000000 14.790599 30.000000
-37.807509 -18.156024 -5.963330 0.000000 48.000000 14.564000 13.000000
-39.456731 -13.331959 -6.058530 0.000000 47.000000 14.654781 26.000000
-40.697998 -18.032106 -4.661264 0.000000 26.000000 14.160306 0.000000
-41.095758 -17.409803 -4.758684 0.000000 32.000000 14.307175 0.000000
-40.851514 -13.228853 -5.280274 0.000000 42.000000 14.313060 0.000000
-40.180786 -14.337929 -5.905101 0.000000 58.000000 14.821712 30.000000
-41.777101 -18.609231 -4.358889 0.000000 34.000000 14.246696 0.000000
-42.793891 -17.017574 -4.221352 0.000000 50.000000 14.254468 0.000000
-38.951191 -15.031908 -5.715499 0.000000 37.000000 14.350669 0.000000
-36.795066 -18.033745 -6.030956 0.000000 41.000000 14.319455 0.000000
-38.258016 -14.465249 -6.314931 0.000000 63.000000 14.660852 27.000000
-39.427466 -15.906398 -5.339455 0.000000 55.000000 14.220170 0.000000
-42.742141 -14.277176 -5.026637 0.000000 79.000000 14.730707 25.000000
-37.492499 -16.273188 -6.031802 0.000000 40.000000 14.348345 0.000000
-37.896045 -14.749094 -6.102836 0.000000 36.000000 14.381547 0.000000
-40.204856 -15.397320 -5.253414 0.000000 36.000000 14.315142 0.000000
-38.417297 -17.356577 -5.546330 0.000000 37.000000 14.266106 0.000000
-39.647340 -13.126759 -5.952199 0.000000 59.000000 14.588975 28.000000
-37.950371 -14.535867 -6.047006 0.000000 37.000000 14.323031 0.000000
-41.076685 -13.452045 -5.389492 0.000000 57.000000 14.505221 28.000000
-38.976308 -18.597933 -5.594948 0.000000 50.000000 14.600368 14.000000
-42.307051 -16.665511 -4.504496 0.000000 43.000000 14.345833 0.000000
-40.345292 -13.800389 -5.429290 0.000000 35.000000 14.363663 0.000000
-38.364274 -18.412717 -5.791363 0.000000 44.000000 14.589289 14.000000
-44.157558 -14.351313 -4.097926 0.000000 49.000000 14.269710 0.000000
-42.641668 -14.270365 -4.984088 0.000000 50.000000 14.660132 25.000000
-42.385611 -19.217789 -4.168480 0.000000 35.000000 14.304830 0.000000
-37.537952 -16.548094 -5.950820 0.000000 38.000000 14.312176 0.000000
-38.214722 -16.253317 -5.796372 0.000000 27.000000 14.334077 0.000000
-40.215882 -16.226060 -5.112977 0.000000 52.000000 14.267794 0.000000
-40.240662 -16.483322 -5.097295 0.000000 47.000000 14.285895 0.000000
-40.317534 -17.018474 -5.002735 0.000000 30.000000 14.272071 0.000000
-40.732198 -13.789477 -5.654568 0.000000 49.000000 14.690129 28.000000
-40.282855 -17.498401 -4.983692 0.000000 48.000000 14.291846 0.000000
-38.742888 -13.878982 -6.495592 0.000000 79.000000 14.915999 29.000000
-42.238964 -19.150725 -4.198564 0.000000 30.000000 14.283761 0.000000
-42.034858 -14.355690 -5.141737 0.000000 61.000000 14.640804 25.000000
-42.583651 -18.490095 -4.086953 0.000000 34.000000 14.212483 0.000000
-39.549003 -19.085705 -5.085020 0.000000 47.000000 14.332098 0.000000
-38.956287 -13.043553 -6.217247 0.000000 62.000000 14.630219 26.000000
-41.078735 -15.941960 -4.989528 0.000000 38.000000 14.374755 0.000000
-43.585007 -15.344672 -4.204195 0.000000 38.000000 14.302460 0.000000
-43.227385 -16.731387 -4.396303 0.000000 64.000000 14.519173 5.000000
-40.626043 -14.982826 -5.273154 0.000000 60.000000 14.415812 16.000000
-43.577812 -15.851789 -4.111693 0.000000 37.000000 14.263158 0.000000
-37.686795 -15.845207 -6.179857 0.000000 76.000000 14.503205 1.000000
-41.160208 -13.566407 -5.611521 0.000000 51.000000 14.752258 28.000000
-41.153113 -14.124585 -5.100224 0.000000 33.000000 14.319878 0.000000
-40.748094 -16.482897 -5.003198 0.000000 42.000000 14.345037 0.000000
-41.460581 -18.494755 -4.383513 0.000000 34.000000 14.165922 0.000000
-40.006416 -15.627131 -5.529813 0.000000 35.000000 14.542831 8.000000
-39.402880 -18.609051 -5.200232 0.000000 48.000000 14.351127 0.000000
-38.889775 -13.725651 -6.826455 0.000000 60.000000 15.258290 29.000000
-41.388180 -17.928118 -4.681150 0.000000 48.000000 14.371003 0.000000
-42.631908 -16.333936 -4.429902 0.000000 52.000000 14.336883 0.000000
-39.382968 -15.272884 -5.521758 0.000000 44.000000 14.317063 0.000000
-40.962451 -17.080278 -4.818784 0.000000 39.000000 14.292281 0.000000
-42.071149 -14.941409 -4.733296 0.000000 73.000000 14.321694 0.000000
-39.033384 -13.011876 -6.255431 0.000000 73.000000 14.685942 26.000000
-37.541552 -18.066527 -6.091181 0.000000 60.000000 14.598695 13.000000
-41.480727 -18.451910 -4.352631 0.000000 31.000000 14.138170 0.000000
-37.623282 -17.163899 -6.160065 0.000000 41.000000 14.597783 12.000000
-37.508484 -15.999424 -6.055944 0.000000 56.000000 14.348579 0.000000
-40.456020 -16.841562 -5.041250 0.000000 36.000000 14.331556 0.000000
-38.309919 -13.802663 -6.167717 0.000000 39.000000 14.469750 29.000000
-40.378055 -18.138484 -4.880739 0.000000 20.000000 14.285915 0.000000
-41.367746 -15.039772 -4.800678 0.000000 39.000000 14.189541 0.000000
-42.511964 -19.079001 -4.349264 0.000000 42.000000 14.499856 20.000000
-39.832636 -13.891886 -5.835393 0.000000 68.000000 14.608784 30.000000
-42.872351 -14.665258 -4.497088 0.000000 48.000000 14.304170 0.000000
-39.280536 -18.073765 -5.388372 0.000000 29.000000 14.440598 15.000000
-42.381650 -15.773170 -4.840057 0.000000 72.000000 14.597436 4.000000
-39.380548 -16.086987 -5.375744 0.000000 51.000000 14.259008 0.000000
-42.351823 -17.901983 -4.309971 0.000000 45.000000 14.297756 0.000000
-38.532807 -15.944047 -5.685095 0.000000 39.000000 14.290495 0.000000
-41.932423 -16.586388 -4.748420 0.000000 68.000000 14.460100 6.000000
-38.641734 -18.424335 -5.742438 0.000000 55.000000 14.625216 14.000000
-41.153498 -16.145603 -4.995241 0.000000 55.000000 14.422475 11.000000
-40.437807 -18.124900 -4.829384 0.000000 38.000000 14.253229 0.000000
-37.993776 -17.336658 -5.913901 0.000000 58.000000 14.489548 12.000000
-38.961690 -18.786572 -5.175871 0.000000 32.000000 14.216481 0.000000
-41.120812 -18.349976 -4.686108 0.000000 36.000000 14.339618 0.000000
-38.317964 -17.371967 -5.570054 0.000000 46.000000 14.261104 0.000000
-43.005193 -15.249949 -4.463948 0.000000 52.000000 14.370105 0.000000
-41.395219 -14.539049 -5.243440 0.000000 47.000000 14.568475 9.000000
-39.188013 -13.643892 -6.214283 0.000000 74.000000 14.755383 29.000000
-43.121900 -17.171512 -4.076854 0.000000 45.000000 14.228573 0.000000
-41.549199 -14.858107 -5.324973 0.000000 60.000000 14.723051 9.000000
-41.268064 -14.016767 -5.439173 0.000000 71.000000 14.665058 28.000000
-40.053972 -14.750781 -5.384116 0.000000 33.000000 14.330499 0.000000
-41.902546 -15.362125 -4.735369 0.000000 45.000000 14.316386 0.000000
-40.698259 -15.021522 -5.187427 0.000000 46.000000 14.359327 0.000000
-39.899864 -17.409210 -5.119347 0.000000 38.000000 14.299706 0.000000
-42.071588 -18.561813 -4.191171 0.000000 33.000000 14.168745 0.000000
-39.028201 -18.994337 -5.156493 0.000000 25.000000 14.238338 0.000000
-38.766986 -15.132272 -5.778027 0.000000 54.000000 14.366206 0.000000
-42.858074 -15.760742 -4.426813 0.000000 50.000000 14.342826 0.000000
-38.665696 -16.042917 -5.780182 0.000000 63.000000 14.429739 3.000000
-40.589406 -18.633328 -4.790408 0.000000 39.000000 14.311476 0.000000
-42.187162 -14.129999 -5.296802 0.000000 59.000000 14.810278 25.000000
-43.715591 -14.855314 -4.228828 0.000000 36.000000 14.315153 0.000000
-39.176138 -14.552752 -6.087750 0.000000 75.000000 14.722567 17.000000
-40.487970 -14.145005 -5.294663 0.000000 52.000000 14.311946 0.000000
-39.278039 -13.262183 -6.417387 0.000000 49.000000 14.936673 26.000000
-40.415628 -16.508309 -5.013099 0.000000 44.000000 14.259595 0.000000
-38.781099 -18.111639 -5.424508 0.000000 38.000000 14.332433 0.000000
-39.987094 -15.296220 -5.336268 0.000000 24.000000 14.320009 0.000000
-40.332644 -13.984620 -5.796253 0.000000 52.000000 14.727333 30.000000
-41.966138 -19.548334 -4.463466 0.000000 40.000000 14.495522 19.000000
-41.668359 -18.496829 -4.355010 0.000000 39.000000 14.199898 0.000000
-38.892369 -16.773904 -5.531190 0.000000 52.000000 14.332561 0.000000
-42.817164 -18.044599 -4.192184 0.000000 27.000000 14.336359 0.000000
-39.297435 -14.103829 -6.034746 0.000000 66.000000 14.662764 17.000000
-37.857073 -15.587289 -6.275770 0.000000 70.000000 14.618473 1.000000
-41.057732 -14.757999 -5.102393 0.000000 41.000000 14.357404 0.000000
-40.834015 -18.515841 -4.988003 0.000000 29.000000 14.559263 23.000000
-39.330555 -15.089607 -5.578431 0.000000 54.000000 14.337250 0.000000
-40.722523 -15.367675 -5.135320 0.000000 40.000000 14.351540 0.000000
-42.867736 -15.288767 -4.433316 0.000000 21.000000 14.304594 0.000000
-38.374378 -18.816747 -5.377766 0.000000 34.000000 14.239417 0.000000
-40.527378 -15.163552 -5.412428 0.000000 68.000000 14.537430 16.000000
-39.572912 -17.981663 -5.513178 0.000000 57.000000 14.635707 15.000000
-37.883839 -15.390425 -5.831401 0.000000 37.000000 14.184071 0.000000
-37.904669 -16.717690 -5.849393 0.000000 51.000000 14.340144 0.000000
-37.942251 -17.391716 -5.974289 0.000000 62.000000 14.537385 12.000000
-41.444336 -19.273534 -4.507026 0.000000 48.000000 14.356565 0.000000
-42.423549 -15.656419 -4.875980 0.000000 50.000000 14.632182 4.000000
-41.789046 -17.785991 -4.546955 0.000000 45.000000 14.346612 0.000000
-39.976386 -14.969003 -5.453652 0.000000 39.000000 14.395733 16.000000
-38.943578 -13.488032 -6.390783 0.000000 61.000000 14.835999 29.000000
-39.212870 -14.384275 -5.791546 0.000000 69.000000 14.434812 17.000000
-43.327336 -15.959512 -4.255462 0.000000 54.000000 14.337267 0.000000
-43.103636 -17.573410 -4.413318 0.000000 45.000000 14.583387 7.000000
-39.811914 -14.693954 -5.700028 0.000000 55.000000 14.554287 16.000000
-38.141794 -16.572268 -5.817520 0.000000 55.000000 14.364748 0.000000
-42.833400 -14.590928 -4.942801 0.000000 65.000000 14.709133 25.000000
-41.257047 -16.869927 -4.785570 0.000000 45.000000 14.325948 0.000000
-41.476308 -17.488755 -4.632529 0.000000 28.000000 14.306608 0.000000
-43.615180 -14.195996 -4.388524 0.000000 51.000000 14.371586 0.000000
-41.689410 -18.125591 -4.447867 0.000000 42.000000 14.257198 0.000000
-37.359408 -16.360213 -6.066537 0.000000 56.000000 14.351094 0.000000
-41.406157 -16.107887 -4.842441 0.000000 49.000000 14.347426 0.000000
-41.314152 -18.605605 -4.771619 0.000000 55.000000 14.503158 23.000000
-41.569656 -19.346468 -4.480152 0.000000 51.000000 14.375027 0.000000
-41.558871 -19.874909 -4.376027 0.000000 56.000000 14.325756 0.000000
-42.870304 -15.629555 -4.349554 0.000000 51.000000 14.259813 0.000000
-37.109408 -18.217448 -5.833713 0.000000 37.000000 14.242382 0.000000
-42.405149 -14.624900 -4.631729 0.000000 25.000000 14.291283 0.000000
-37.450550 -16.787290 -5.891235 0.000000 27.000000 14.253857 0.000000
-39.565771 -17.769203 -5.114094 0.000000 17.000000 14.232871 0.000000
-41.086909 -14.720639 -5.334733 0.000000 59.000000 14.583137 9.000000
-40.714710 -15.976585 -5.086477 0.000000 47.000000 14.363761 0.000000
-42.734957 -17.012913 -4.274522 0.000000 59.000000 14.287294 0.000000
-39.491284 -15.234005 -5.486238 0.000000 36.000000 14.311129 0.000000
-40.393648 -16.404400 -5.015627 0.000000 57.000000 14.245158 0.000000
-40.568454 -16.731851 -4.987098 0.000000 44.000000 14.302021 0.000000
-42.817291 -14.557117 -4.524581 0.000000 43.000000 14.303356 0.000000
-40.816442 -15.851118 -5.066058 0.000000 55.000000 14.361589 0.000000
-39.221618 -15.809947 -5.424931 0.000000 53.000000 14.231485 0.000000
-38.735562 -13.933037 -6.444736 0.000000 75.000000 14.870907 29.000000
-42.185503 -18.766380 -4.486312 0.000000 57.000000 14.503236 21.000000
-42.648220 -16.044078 -4.453386 0.000000 55.000000 14.334977 0.000000
-38.472280 -13.259790 -6.313621 0.000000 54.000000 14.601708 29.000000
-38.011786 -17.155912 -5.654786 0.000000 39.000000 14.230347 0.000000
-43.921471 -15.297057 -4.127344 0.000000 36.000000 14.323189 0.000000
-39.715919 -14.728309 -5.875328 0.000000 52.000000 14.696291 16.000000
-39.838042 -13.080477 -5.993312 0.000000 46.000000 14.679303 28.000000
-40.463331 -13.148827 -5.344797 0.000000 41.000000 14.252679 0.000000
-39.822608 -15.633291 -5.919176 0.000000 51.000000 14.859832 8.000000
-39.431263 -12.909995 -5.684502 0.000000 40.000000 14.249429 0.000000
-41.329641 -18.290942 -4.426120 0.000000 29.000000 14.147673 0.000000
-39.426603 -17.476898 -5.120724 0.000000 32.000000 14.169143 0.000000
-41.783698 -19.852196 -4.196436 0.000000 35.000000 14.218581 0.000000
-36.859735 -17.450562 -6.094146 0.000000 38.000000 14.340108 0.000000
-41.052616 -17.892267 -4.644235 0.000000 43.000000 14.234005 0.000000
-40.712146 -17.373117 -4.911456 0.000000 51.000000 14.336384 0.000000
-40.172488 -18.744208 -4.965435 0.000000 48.000000 14.366861 0.000000
-41.716026 -13.844045 -5.433931 0.000000 77.000000 14.774020 25.000000
-43.008857 -16.587567 -4.580664 0.000000 52.000000 14.616059 5.000000
-38.688101 -16.325639 -5.636596 0.000000 40.000000 14.328072 0.000000
-39.641172 -13.392659 -5.867829 0.000000 45.000000 14.533560 28.000000
-41.741065 -19.135626 -4.370871 0.000000 24.000000 14.300225 0.000000
-37.538243 -17.026229 -5.965884 0.000000 49.000000 14.374448 0.000000
-42.211258 -20.075999 -4.056762 0.000000 48.000000 14.233431 0.000000
-39.246848 -14.780322 -5.653646 0.000000 35.000000 14.353287 0.000000
-41.474967 -19.748187 -4.440898 0.000000 48.000000 14.350174 0.000000
-40.820474 -17.352144 -4.863063 0.000000 40.000000 14.320006 0.000000
-40.553552 -19.447836 -4.642804 0.000000 46.000000 14.242154 0.000000
-38.421889 -17.280540 -5.487457 0.000000 23.000000 14.203859 0.000000
-36.835050 -17.748342 -6.107894 0.000000 45.000000 14.375757 0.000000
-41.003590 -17.462711 -4.796830 0.000000 43.000000 14.321741 0.000000
-39.248194 -14.090697 -6.078685 0.000000 58.000000 14.688804 17.000000
-38.919146 -17.100192 -5.409707 0.000000 37.000000 14.257553 0.000000
-42.427875 -15.530815 -4.595083 0.000000 50.000000 14.353780 0.000000
-39.662706 -15.531861 -5.845702 0.000000 68.000000 14.732969 8.000000
-42.011202 -16.870761 -4.484658 0.000000 62.000000 14.260843 0.000000
-38.510397 -13.524448 -6.498142 0.000000 61.000000 14.814823 29.000000
-41.488969 -18.092227 -4.415780 0.000000 48.000000 14.164626 0.000000
-37.675863 -15.657661 -6.375549 0.000000 48.000000 14.667306 1.000000
-41.539022 -16.504201 -4.704368 0.000000 46.000000 14.294734 0.000000
-40.397714 -17.974587 -4.788495 0.000000 38.000000 14.187556 0.000000
-39.110640 -16.245661 -5.539624 0.000000 46.000000 14.351647 0.000000
-43.049182 -16.162610 -4.328481 0.000000 37.000000 14.345540 0.000000
-41.015935 -17.516552 -4.787483 0.000000 36.000000 14.321859 0.000000
-40.460958 -14.437902 -5.739093 0.000000 86.000000 14.755947 30.000000
-39.354937 -14.208342 -6.055493 0.000000 79.000000 14.709800 30.000000
-40.671474 -18.916209 -4.806182 0.000000 50.000000 14.378835 0.000000
-41.930077 -15.337004 -4.697360 0.000000 46.000000 14.285795 0.000000
-40.618116 -13.281051 -5.515425 0.000000 43.000000 14.473506 28.000000
-39.396174 -16.087025 -5.428517 0.000000 48.000000 14.313770 0.000000
-42.337605 -15.785615 -4.577050 0.000000 55.000000 14.335693 0.000000
-37.969368 -14.604009 -6.053190 0.000000 32.000000 14.341298 0.000000
-39.453040 -18.492795 -5.174610 0.000000 27.000000 14.329821 0.000000
-43.025213 -14.700060 -4.460400 0.000000 48.000000 14.317551 0.000000
-38.962145 -14.001095 -6.180039 0.000000 74.000000 14.692408 29.000000
-40.121628 -15.971096 -5.218234 0.000000 40.000000 14.314744 0.000000
-43.468758 -16.460196 -4.130682 0.000000 58.000000 14.310169 0.000000
-38.972801 -18.072279 -5.361624 0.000000 40.000000 14.324860 0.000000
-39.078262 -16.029997 -5.545832 0.000000 43.000000 14.326476 0.000000
-36.865593 -18.328418 -5.926320 0.000000 24.000000 14.270119 0.000000
-38.120722 -15.674578 -5.841944 0.000000 40.000000 14.291938 0.000000
-39.923198 -15.602987 -5.480639 0.000000 68.000000 14.469276 8.000000
-42.906127 -17.662466 -4.364671 0.000000 43.000000 14.488182 7.000000
-38.937720 -18.953121 -5.190055 0.000000 36.000000 14.239617 0.000000
-40.133963 -17.415757 -5.067332 0.000000 26.000000 14.319484 0.000000
-40.747658 -13.931682 -5.254490 0.000000 45.000000 14.328471 0.000000
-39.613761 -16.447036 -5.391552 0.000000 43.000000 14.378404 0.000000
-38.932546 -18.239985 -5.358890 0.000000 31.000000 14.327255 0.000000
