-42.075917 -34.787555 7.743848 0.000000 31.000000 14.311419 0.000000
-42.871237 -33.174854 8.487620 0.000000 39.000000 14.589438 11.000000
-43.766727 -32.458779 8.242576 0.000000 52.000000 14.319544 0.000000
-41.112705 -35.008567 8.568842 0.000000 44.000000 14.911651 25.000000
-40.797725 -32.006745 9.633166 0.000000 72.000000 14.721182 30.000000
-42.650070 -35.275285 7.342529 0.000000 44.000000 14.257966 0.000000
-44.033149 -34.050785 7.416437 0.000000 66.000000 14.207285 0.000000
-42.432364 -35.264111 7.473844 0.000000 55.000000 14.321831 0.000000
-39.990635 -32.901040 9.635343 0.000000 75.000000 14.856286 28.000000
-43.403733 -33.691083 7.884458 0.000000 63.000000 14.354128 0.000000
-44.369282 -31.485402 8.465919 0.000000 42.000000 14.312096 0.000000
-39.838530 -30.807103 9.849026 0.000000 32.000000 14.261427 0.000000
-40.983676 -33.152296 9.029187 0.000000 44.000000 14.630461 10.000000
-39.663473 -32.235895 9.683224 0.000000 51.000000 14.584225 26.000000
-42.797522 -33.325283 8.153030 0.000000 65.000000 14.323972 0.000000
-42.049185 -33.475023 8.201883 0.000000 44.000000 14.247395 0.000000
-41.284309 -32.474832 8.806004 0.000000 37.000000 14.255461 0.000000
-42.129265 -33.342166 8.326687 0.000000 54.000000 14.331100 0.000000
-40.968112 -32.612301 9.437166 0.000000 66.000000 14.801427 30.000000
-43.394437 -29.392949 9.693461 0.000000 39.000000 14.441999 12.000000
-40.250107 -33.124558 9.357290 0.000000 67.000000 14.745877 28.000000
-44.497805 -32.208812 7.983026 0.000000 21.000000 14.165696 0.000000
-40.459445 -30.700618 10.317883 0.000000 56.000000 14.791627 27.000000
-40.838021 -32.110250 9.565466 0.000000 70.000000 14.706602 30.000000
-41.021150 -32.773925 9.559398 0.000000 46.000000 14.982324 30.000000
-42.231304 -34.287167 7.842281 0.000000 43.000000 14.256785 0.000000
-42.045512 -33.921562 8.043849 0.000000 29.000000 14.264207 0.000000
-40.807539 -33.687592 8.860599 0.000000 59.000000 14.629409 28.000000
-40.767060 -33.645433 8.951687 0.000000 75.000000 14.687124 28.000000
-40.775799 -33.183225 8.726588 0.000000 44.000000 14.319669 0.000000
-45.122122 -31.343332 8.498909 0.000000 55.000000 14.466433 22.000000
-40.801722 -32.530538 9.475508 0.000000 63.000000 14.767884 30.000000
-42.887170 -30.166647 9.301802 0.000000 34.000000 14.247826 0.000000
-40.673569 -34.270653 8.381646 0.000000 41.000000 14.374914 0.000000
-41.802616 -33.211084 8.473029 0.000000 52.000000 14.340046 0.000000
-42.383870 -30.982479 9.191509 0.000000 34.000000 14.323958 0.000000
-43.271731 -31.780699 8.642702 0.000000 40.000000 14.321977 0.000000
-42.455734 -30.848531 9.258377 0.000000 44.000000 14.353005 0.000000
-44.289452 -33.870774 7.590994 0.000000 49.000000 14.360101 0.000000
-42.543122 -30.715148 9.263532 0.000000 34.000000 14.330112 0.000000
-41.544120 -34.308535 8.082881 0.000000 42.000000 14.321599 0.000000
-41.446116 -31.401122 9.279951 0.000000 47.000000 14.335608 0.000000
-43.502488 -31.362527 8.764650 0.000000 45.000000 14.335714 0.000000
-42.691998 -30.448462 9.327139 0.000000 34.000000 14.326473 0.000000
-41.523319 -33.740742 8.901481 0.000000 46.000000 14.852386 9.000000
-43.349628 -33.443899 7.871781 0.000000 43.000000 14.241228 0.000000
-40.010854 -31.818315 9.787965 0.000000 73.000000 14.609826 29.000000
-42.835769 -30.175816 9.384705 0.000000 34.000000 14.314043 0.000000
-41.772005 -34.574984 7.923500 0.000000 37.000000 14.326482 0.000000
-46.093698 -33.416665 7.279753 0.000000 26.000000 14.336475 0.000000
-43.679807 -32.390933 8.306463 0.000000 42.000000 14.332619 0.000000
-42.988530 -29.893573 9.396146 0.000000 35.000000 14.258583 0.000000
-39.738444 -30.986225 10.190100 0.000000 46.000000 14.610642 29.000000
-40.960395 -34.557087 8.619359 0.000000 42.000000 14.759534 25.000000
-43.105277 -29.615813 9.485191 0.000000 32.000000 14.266457 0.000000
-41.755859 -35.925625 7.366810 0.000000 46.000000 14.305058 0.000000
-45.142403 -31.773578 8.154635 0.000000 38.000000 14.314692 0.000000
-41.810837 -32.788538 8.636946 0.000000 51.000000 14.338232 0.000000
-41.208417 -35.214140 8.183849 0.000000 66.000000 14.659972 18.000000
-44.142652 -29.783225 9.256824 0.000000 43.000000 14.362208 0.000000
-40.852723 -34.371882 8.492612 0.000000 53.000000 14.553341 25.000000
-43.985364 -33.537202 7.773283 0.000000 42.000000 14.334024 0.000000
-43.067489 -34.064273 7.803573 0.000000 58.000000 14.336729 0.000000
-44.218566 -29.490218 9.367249 0.000000 35.000000 14.374398 0.000000
-44.492079 -34.221845 7.603490 0.000000 65.000000 14.544809 7.000000
-44.386073 -29.036621 9.356219 0.000000 28.000000 14.240496 0.000000
-46.245058 -32.119936 7.635550 0.000000 38.000000 14.227284 0.000000
-43.566838 -29.447002 9.500861 0.000000 32.000000 14.327600 0.000000
-43.322484 -32.311986 8.411403 0.000000 45.000000 14.315735 0.000000
-42.849160 -33.521520 8.097428 0.000000 56.000000 14.356293 0.000000
-44.185006 -33.809257 7.613562 0.000000 39.000000 14.334028 0.000000
-41.963503 -30.247752 9.591342 0.000000 50.000000 14.323175 0.000000
-41.215801 -34.902305 8.483135 0.000000 76.000000 14.820066 25.000000
-46.053937 -33.228342 7.331258 0.000000 40.000000 14.306066 0.000000
-44.833154 -32.241708 7.920503 0.000000 35.000000 14.199233 0.000000
-41.175290 -32.091799 9.320378 0.000000 56.000000 14.557172 16.000000
-42.155958 -31.086812 9.170424 0.000000 39.000000 14.289244 0.000000
-45.509991 -33.315354 7.276357 0.000000 35.000000 14.160865 0.000000
-44.466468 -32.301471 7.943809 0.000000 31.000000 14.156249 0.000000
-41.556222 -35.026436 8.358268 0.000000 64.000000 14.831239 25.000000
-43.618718 -31.424255 8.728401 0.000000 49.000000 14.352249 0.000000
-39.719965 -32.269183 9.708039 0.000000 52.000000 14.631785 28.000000
-42.060910 -29.814523 9.721852 0.000000 43.000000 14.308137 0.000000
-44.819489 -33.382459 7.621492 0.000000 51.000000 14.335798 0.000000
-43.196324 -32.644560 8.287845 0.000000 56.000000 14.294178 0.000000
-44.646236 -33.422610 7.603151 0.000000 39.000000 14.293247 0.000000
-43.100520 -29.079292 10.161323 0.000000 39.000000 14.683491 12.000000
-43.311262 -32.775917 8.146737 0.000000 25.000000 14.240685 0.000000
-43.240866 -30.016276 9.233829 0.000000 35.000000 14.214860 0.000000
-41.491429 -33.778735 8.728339 0.000000 75.000000 14.702152 9.000000
-39.716887 -32.014994 10.088230 0.000000 26.000000 14.883259 26.000000
-42.051813 -32.466000 8.700531 0.000000 59.000000 14.335983 0.000000
-42.206247 -29.888248 9.689656 0.000000 45.000000 14.339435 0.000000
-42.970992 -32.600050 8.307402 0.000000 49.000000 14.243302 0.000000
-43.754225 -33.641176 7.645683 0.000000 54.000000 14.202183 0.000000
-43.838142 -29.421780 9.527538 0.000000 49.000000 14.405916 13.000000
-44.596422 -33.607394 7.540099 0.000000 49.000000 14.291059 0.000000
-42.879520 -30.917271 9.105029 0.000000 24.000000 14.337980 0.000000
-40.443018 -31.131728 10.042536 0.000000 57.000000 14.693916 27.000000
-42.105126 -32.842554 8.510786 0.000000 40.000000 14.312282 0.000000
-42.619315 -34.496378 7.676439 0.000000 37.000000 14.272606 0.000000
-41.644223 -33.020005 8.490798 0.000000 46.000000 14.250495 0.000000
-45.002519 -32.095060 8.333405 0.000000 39.000000 14.559128 23.000000
-41.492993 -33.082883 8.480087 0.000000 38.000000 14.228142 0.000000
-43.793120 -28.450821 9.702826 0.000000 37.000000 14.204886 0.000000
-41.527385 -29.679505 10.001947 0.000000 58.000000 14.388278 1.000000
-44.890522 -32.040236 8.349161 0.000000 60.000000 14.527543 23.000000
-40.121524 -31.292495 10.201089 0.000000 60.000000 14.819975 29.000000
-40.847286 -33.330097 8.662767 0.000000 43.000000 14.331453 0.000000
-43.715779 -32.631481 8.176420 0.000000 37.000000 14.309945 0.000000
-40.134243 -33.705037 8.617203 0.000000 54.000000 14.258719 0.000000
-41.572831 -35.470464 7.925067 0.000000 62.000000 14.603241 18.000000
-42.629376 -34.160776 8.277070 0.000000 36.000000 14.697075 4.000000
-41.983058 -34.191135 7.989169 0.000000 50.000000 14.297105 0.000000
-40.474561 -33.807324 8.577867 0.000000 44.000000 14.339303 0.000000
-42.574016 -31.118458 9.113618 0.000000 59.000000 14.346788 0.000000
-40.722434 -31.763273 9.683560 0.000000 71.000000 14.661665 17.000000
-41.571463 -35.656103 7.681321 0.000000 57.000000 14.449386 18.000000
-40.814404 -33.087086 8.751816 0.000000 48.000000 14.316920 0.000000
-42.970450 -28.853384 9.961560 0.000000 50.000000 14.391471 12.000000
-39.898964 -32.014807 9.558639 0.000000 43.000000 14.447125 29.000000
-40.185226 -31.986014 9.385405 0.000000 43.000000 14.347009 0.000000
-40.519394 -30.327027 9.979957 0.000000 44.000000 14.366010 0.000000
-41.641973 -33.682537 8.284938 0.000000 44.000000 14.302042 0.000000
-43.666071 -31.513076 8.674871 0.000000 44.000000 14.346842 0.000000
-44.374607 -34.308855 7.420878 0.000000 46.000000 14.383673 7.000000
-44.497262 -29.202000 9.226691 0.000000 32.000000 14.208818 0.000000
-40.748381 -32.400969 9.719508 0.000000 63.000000 14.929357 30.000000
-40.754016 -33.196967 8.735568 0.000000 46.000000 14.327641 0.000000
-44.227406 -31.709546 8.227000 0.000000 31.000000 14.143671 0.000000
-42.379224 -34.263521 7.807584 0.000000 37.000000 14.251434 0.000000
-40.440925 -32.231016 9.630690 0.000000 65.000000 14.716324 30.000000
-41.537972 -30.570815 9.516189 0.000000 43.000000 14.272118 0.000000
-43.151967 -33.748798 8.034128 0.000000 48.000000 14.451391 6.000000
-43.327856 -34.102976 7.720930 0.000000 46.000000 14.336686 0.000000
-43.629517 -32.631485 8.209678 0.000000 39.000000 14.319880 0.000000
-40.731187 -31.783483 9.982369 0.000000 67.000000 14.940969 17.000000
-42.915131 -31.915136 8.644670 0.000000 37.000000 14.288898 0.000000
-45.546537 -30.803504 8.292012 0.000000 27.000000 14.184477 0.000000
-45.022186 -30.136595 8.754055 0.000000 38.000000 14.240026 0.000000
-45.746059 -32.286761 7.837001 0.000000 36.000000 14.352883 0.000000
-39.969113 -30.624404 9.830891 0.000000 24.000000 14.209841 0.000000
-43.992304 -30.084606 9.155084 0.000000 34.000000 14.343515 0.000000
-42.420517 -33.948444 8.316621 0.000000 62.000000 14.607800 4.000000
-41.365229 -32.123812 9.275713 0.000000 73.000000 14.572616 16.000000
-43.755217 -28.225730 9.917569 0.000000 35.000000 14.309197 0.000000
-40.302344 -33.756111 8.636331 0.000000 35.000000 14.333562 0.000000
-44.670492 -33.621361 7.528643 0.000000 43.000000 14.303002 0.000000
-45.241994 -33.158205 7.547387 0.000000 39.000000 14.286789 0.000000
-41.668833 -35.555419 7.545956 0.000000 34.000000 14.313600 0.000000
-41.583221 -30.210791 9.567059 0.000000 46.000000 14.199261 0.000000
-43.066031 -30.525768 9.203062 0.000000 40.000000 14.329372 0.000000
-43.107148 -35.285883 7.190897 0.000000 48.000000 14.231363 0.000000
-40.295559 -31.494098 10.179530 0.000000 66.000000 14.913531 29.000000
-41.391082 -31.816441 9.155614 0.000000 52.000000 14.359670 0.000000
-42.773919 -30.687524 9.203820 0.000000 35.000000 14.320057 0.000000
-40.735923 -32.817455 9.201989 0.000000 56.000000 14.608494 30.000000
-42.623371 -30.771379 9.224368 0.000000 38.000000 14.333647 0.000000
-39.709317 -31.876449 9.733611 0.000000 41.000000 14.511278 26.000000
-42.471059 -30.856015 9.262377 0.000000 51.000000 14.362883 0.000000
-43.220779 -31.849486 8.618785 0.000000 44.000000 14.313202 0.000000
-44.326342 -33.070712 7.820718 0.000000 56.000000 14.288775 0.000000
-43.070462 -31.935480 8.643962 0.000000 45.000000 14.331796 0.000000
-39.336163 -32.209667 9.777123 0.000000 42.000000 14.583310 26.000000
-39.299034 -31.796676 10.075726 0.000000 72.000000 14.696054 26.000000
-41.638045 -35.805496 7.894923 0.000000 51.000000 14.711608 18.000000
-42.846025 -32.122279 8.465247 0.000000 36.000000 14.185095 0.000000
-43.090184 -34.485585 7.635939 0.000000 28.000000 14.341950 0.000000
-41.091337 -31.618378 9.449837 0.000000 44.000000 14.484444 16.000000
-40.602335 -33.354229 8.918135 0.000000 54.000000 14.513743 28.000000
-40.430857 -30.503116 10.197632 0.000000 55.000000 14.605328 27.000000
-46.016300 -32.503325 7.802870 0.000000 51.000000 14.462893 19.000000
-40.075389 -31.829111 9.951415 0.000000 71.000000 14.776448 29.000000
-44.243851 -29.779068 9.217592 0.000000 27.000000 14.348867 0.000000
-42.408483 -34.162387 7.848102 0.000000 31.000000 14.258527 0.000000
-41.280625 -31.676319 9.258568 0.000000 52.000000 14.376583 0.000000
-42.164050 -32.239905 8.788488 0.000000 59.000000 14.360388 0.000000
-40.695912 -30.232230 9.924214 0.000000 37.000000 14.322744 0.000000
-43.042689 -32.863867 8.271989 0.000000 54.000000 14.322829 0.000000
-41.652182 -34.231123 8.103163 0.000000 49.000000 14.337310 0.000000
-41.414542 -31.349790 9.288845 0.000000 25.000000 14.317834 0.000000
-43.139679 -34.248764 7.705570 0.000000 29.000000 14.331309 0.000000
-40.353447 -32.508018 9.124449 0.000000 48.000000 14.338030 0.000000
-44.614951 -30.438750 8.991677 0.000000 47.000000 14.468342 14.000000
-39.824095 -33.081868 8.992356 0.000000 49.000000 14.301431 0.000000
-42.140786 -32.784696 8.538172 0.000000 43.000000 14.324553 0.000000
-42.003529 -33.218233 8.439447 0.000000 56.000000 14.359128 0.000000
-39.155616 -32.150194 10.048967 0.000000 63.000000 14.765465 26.000000
-40.239934 -33.492107 9.060747 0.000000 64.000000 14.607633 28.000000
-39.152673 -31.934448 9.660311 0.000000 49.000000 14.336064 0.000000
-41.597568 -30.314117 9.524410 0.000000 34.000000 14.201200 0.000000
-41.774462 -32.889008 8.629233 0.000000 28.000000 14.358884 0.000000
-41.416062 -30.563584 9.601133 0.000000 48.000000 14.317842 0.000000
-39.791145 -31.791562 9.593843 0.000000 49.000000 14.373565 0.000000
-43.168540 -29.716909 9.467183 0.000000 39.000000 14.301269 0.000000
-44.921137 -30.899253 8.620510 0.000000 35.000000 14.369854 0.000000
-43.489148 -34.806961 7.369414 0.000000 42.000000 14.309658 0.000000
-41.555965 -33.440715 8.508537 0.000000 36.000000 14.397124 9.000000
-41.743567 -32.729742 9.184793 0.000000 43.000000 14.796443 16.000000
-39.922571 -31.605845 10.222847 0.000000 46.000000 14.905838 29.000000
-42.882520 -29.377561 9.667678 0.000000 39.000000 14.293781 0.000000
-40.113464 -33.286131 9.099861 0.000000 59.000000 14.539461 28.000000
-42.398417 -29.795758 9.695469 0.000000 51.000000 14.356269 0.000000
-42.292821 -29.903301 9.664376 0.000000 49.000000 14.342193 0.000000
-42.185974 -30.010646 9.644450 0.000000 46.000000 14.337843 0.000000
-42.076000 -30.122208 9.637426 0.000000 44.000000 14.345939 0.000000
-40.964926 -31.826430 9.358482 0.000000 44.000000 14.447179 16.000000
-44.938999 -30.439232 8.713028 0.000000 36.000000 14.292307 0.000000
-40.366862 -33.306614 9.254419 0.000000 36.000000 14.745577 28.000000
-45.607108 -31.186754 8.138202 0.000000 35.000000 14.197345 0.000000
-43.935133 -28.670073 9.624936 0.000000 33.000000 14.246415 0.000000
-44.810885 -33.223784 7.702329 0.000000 31.000000 14.349814 0.000000
-41.917935 -34.732153 7.818036 0.000000 40.000000 14.321700 0.000000
-41.370858 -31.946578 9.456891 0.000000 65.000000 14.673949 16.000000
-41.523855 -33.098929 8.472777 0.000000 38.000000 14.234501 0.000000
-43.255218 -31.249534 8.861237 0.000000 49.000000 14.324715 0.000000
-44.903758 -32.000770 8.266221 0.000000 39.000000 14.441505 23.000000
-42.156224 -31.883944 9.129492 0.000000 40.000000 14.538773 8.000000
-39.347335 -32.280352 9.503784 0.000000 49.000000 14.364330 0.000000
-40.033653 -33.303658 8.854985 0.000000 49.000000 14.305879 0.000000
-43.720764 -33.778260 7.682694 0.000000 26.000000 14.277083 0.000000
-40.912068 -32.763164 9.444471 0.000000 65.000000 14.849170 30.000000
-41.854367 -33.875055 8.148321 0.000000 42.000000 14.297314 0.000000
-41.672674 -32.250815 8.894123 0.000000 47.000000 14.345158 0.000000
-42.872764 -33.000652 8.493146 0.000000 45.000000 14.532187 11.000000
-43.749901 -34.512088 7.781750 0.000000 69.000000 14.637089 5.000000
-40.549706 -32.518895 9.334927 0.000000 38.000000 14.577896 30.000000
-40.171312 -33.196772 9.507710 0.000000 79.000000 14.889369 28.000000
-45.325798 -33.545223 7.235955 0.000000 24.000000 14.164004 0.000000
-43.741891 -34.657091 7.440506 0.000000 50.000000 14.378985 0.000000
-39.806026 -32.817024 9.630772 0.000000 60.000000 14.778908 28.000000
-43.992858 -33.013105 7.952748 0.000000 50.000000 14.309598 0.000000
-44.443230 -34.394314 7.301621 0.000000 44.000000 14.322629 0.000000
-43.014123 -35.132687 7.248815 0.000000 44.000000 14.206950 0.000000
-42.189612 -31.202132 9.045600 0.000000 33.000000 14.225744 0.000000
-43.524058 -28.951018 9.703983 0.000000 45.000000 14.322927 0.000000
-41.033940 -31.588675 9.460194 0.000000 46.000000 14.469742 17.000000
-45.312336 -32.740783 7.745639 0.000000 31.000000 14.332330 0.000000
-44.329261 -31.230090 8.686020 0.000000 62.000000 14.409896 15.000000
-43.082161 -34.102424 7.749899 0.000000 50.000000 14.305362 0.000000
-40.291240 -32.126037 9.591832 0.000000 63.000000 14.608577 30.000000
-44.936250 -32.696982 7.677208 0.000000 23.000000 14.167045 0.000000
-42.649103 -29.028382 9.965309 0.000000 48.000000 14.382799 0.000000
-41.593482 -34.098165 8.178421 0.000000 58.000000 14.343843 0.000000
-39.324274 -32.489916 9.424926 0.000000 35.000000 14.363005 0.000000
-42.079628 -35.567981 7.415194 0.000000 43.000000 14.295766 0.000000
-42.229887 -35.478085 7.405593 0.000000 37.000000 14.289831 0.000000
-42.372668 -35.383815 7.416699 0.000000 56.000000 14.299289 0.000000
-40.670651 -32.833248 9.167573 0.000000 54.000000 14.567849 30.000000
-42.529860 -35.295737 7.376379 0.000000 47.000000 14.267866 0.000000
-42.722185 -32.935315 8.449812 0.000000 51.000000 14.434433 11.000000
-42.680278 -35.204411 7.351954 0.000000 44.000000 14.248059 0.000000
-40.844823 -33.647697 8.820815 0.000000 56.000000 14.587820 28.000000
-40.175721 -31.320905 10.285400 0.000000 43.000000 14.919007 29.000000
-42.060706 -33.294288 8.359677 0.000000 54.000000 14.327714 0.000000
-42.112891 -33.904341 8.078084 0.000000 45.000000 14.304667 0.000000
-41.663454 -33.723908 8.464121 0.000000 65.000000 14.483826 9.000000
-41.039811 -32.027451 9.088954 0.000000 50.000000 14.293340 0.000000
-42.603881 -33.632164 8.111673 0.000000 30.000000 14.351719 0.000000
-43.461899 -33.786653 8.003153 0.000000 40.000000 14.509289 6.000000
-39.982084 -31.553891 10.520419 0.000000 48.000000 15.169931 29.000000
-42.086207 -34.007388 8.007594 0.000000 34.000000 14.271780 0.000000
-41.855046 -36.119080 7.181973 0.000000 48.000000 14.230693 0.000000
-40.274777 -31.424550 10.105778 0.000000 73.000000 14.817050 29.000000
-40.729969 -32.808313 9.087097 0.000000 66.000000 14.500006 30.000000
-41.140560 -32.088958 9.176356 0.000000 47.000000 14.417915 16.000000
-43.759788 -33.673974 7.717035 0.000000 62.000000 14.279739 0.000000
-44.217223 -33.517257 7.730437 0.000000 27.000000 14.342217 0.000000
-42.802146 -33.899129 7.907785 0.000000 60.000000 14.309664 0.000000
-40.182679 -31.930337 9.417738 0.000000 39.000000 14.355623 0.000000
-43.454590 -32.700791 8.230866 0.000000 41.000000 14.323133 0.000000
-39.799649 -32.509694 9.607858 0.000000 55.000000 14.646276 28.000000
-43.553894 -28.725477 10.079148 0.000000 47.000000 14.587831 13.000000
-42.667014 -30.157754 9.452182 0.000000 54.000000 14.329166 0.000000
-44.685265 -33.358591 7.710201 0.000000 60.000000 14.376073 0.000000
-43.986361 -31.868115 8.388956 0.000000 37.000000 14.290777 0.000000
-44.820234 -33.236432 7.667010 0.000000 47.000000 14.324626 0.000000
-39.690946 -32.111575 9.867799 0.000000 69.000000 14.712737 26.000000
-44.955031 -33.108498 7.626593 0.000000 41.000000 14.273570 0.000000
-39.865686 -32.855810 9.560578 0.000000 57.000000 14.743334 28.000000
-41.625208 -32.815697 8.765890 0.000000 50.000000 14.421211 16.000000
-42.716219 -34.169595 7.812970 0.000000 61.000000 14.301143 0.000000
-41.481197 -30.128597 9.568656 0.000000 23.000000 14.147372 0.000000
-44.923631 -32.802640 7.625516 0.000000 20.000000 14.155361 0.000000
-43.020970 -29.570847 9.541491 0.000000 46.000000 14.281508 0.000000
-44.359028 -31.697955 8.240695 0.000000 26.000000 14.182578 0.000000
-43.903310 -29.377308 9.764510 0.000000 70.000000 14.619259 13.000000
-45.435041 -32.421195 7.839495 0.000000 44.000000 14.330909 0.000000
-41.229141 -33.346889 8.617808 0.000000 39.000000 14.385920 9.000000
-45.413821 -33.275796 7.659397 0.000000 63.000000 14.470331 21.000000
-44.548272 -31.292457 8.553982 0.000000 43.000000 14.364078 0.000000
-45.623256 -32.137809 7.899097 0.000000 44.000000 14.326825 0.000000
-43.211419 -32.211781 8.527783 0.000000 50.000000 14.358982 0.000000
-42.225909 -31.454109 8.997674 0.000000 50.000000 14.281454 0.000000
-46.049683 -33.250294 7.343538 0.000000 40.000000 14.324058 0.000000
-41.508806 -31.905257 9.055642 0.000000 52.000000 14.328709 0.000000
-41.016145 -32.853575 9.337187 0.000000 83.000000 14.808992 30.000000
-46.001306 -31.559771 7.936057 0.000000 35.000000 14.240671 0.000000
-43.965734 -31.336059 8.562945 0.000000 38.000000 14.251984 0.000000
-45.100079 -30.451641 8.589952 0.000000 30.000000 14.223124 0.000000
-43.338459 -29.932222 9.260712 0.000000 22.000000 14.231707 0.000000
-41.879622 -31.677157 9.370513 0.000000 46.000000 14.617737 8.000000
-41.690541 -32.176604 8.908333 0.000000 41.000000 14.335497 0.000000
-42.425824 -33.413246 8.243083 0.000000 29.000000 14.350264 0.000000
-42.339286 -33.097414 8.365826 0.000000 38.000000 14.327495 0.000000
-43.383043 -34.284636 7.656632 0.000000 63.000000 14.356738 0.000000
-43.211611 -34.316618 7.641119 0.000000 44.000000 14.314232 0.000000
-43.024188 -34.341603 7.693207 0.000000 56.000000 14.326565 0.000000
-42.489309 -31.715008 8.862297 0.000000 36.000000 14.314315 0.000000
-42.675067 -34.409991 7.717302 0.000000 51.000000 14.291489 0.000000
-43.593968 -31.651503 8.645756 0.000000 49.000000 14.353463 0.000000
-40.546787 -32.913371 8.870905 0.000000 46.000000 14.299688 0.000000
-43.647233 -33.514427 7.790370 0.000000 60.000000 14.262419 0.000000
-39.271461 -32.206782 9.818397 0.000000 40.000000 14.604477 26.000000
-41.789129 -34.590434 7.911192 0.000000 48.000000 14.324907 0.000000
-41.289388 -33.427392 8.770023 0.000000 85.000000 14.566440 9.000000
-40.968699 -34.807818 8.646502 0.000000 50.000000 14.876098 25.000000
-41.739309 -32.051358 8.945958 0.000000 41.000000 14.335861 0.000000
-42.831109 -30.642748 9.218244 0.000000 43.000000 14.330338 0.000000
-41.246699 -32.163754 9.311548 0.000000 66.000000 14.591705 16.000000
-41.283550 -33.628480 8.700505 0.000000 72.000000 14.574525 9.000000
-42.871048 -34.374295 7.713445 0.000000 62.000000 14.320884 0.000000
-42.934887 -35.135377 7.302169 0.000000 50.000000 14.237647 0.000000
-40.433307 -30.680015 10.235995 0.000000 68.000000 14.704134 27.000000
-41.903899 -34.284098 7.973812 0.000000 41.000000 14.298173 0.000000
-42.555735 -31.952779 8.663005 0.000000 25.000000 14.235173 0.000000
-44.396913 -34.413976 7.283128 0.000000 27.000000 14.302182 0.000000
-42.144463 -33.854722 8.123796 0.000000 50.000000 14.335504 0.000000
-41.437976 -32.865478 8.510858 0.000000 30.000000 14.164989 0.000000
-43.128621 -35.319941 7.178467 0.000000 49.000000 14.237379 0.000000
-44.818020 -29.821796 9.026894 0.000000 31.000000 14.325819 0.000000
-42.362621 -35.752157 7.270758 0.000000 39.000000 14.297441 0.000000
-43.371234 -31.140323 8.869920 0.000000 32.000000 14.320373 0.000000
-43.773510 -29.750693 9.338134 0.000000 37.000000 14.337896 0.000000
-41.160652 -31.378752 9.358439 0.000000 40.000000 14.331913 0.000000
-40.048365 -33.233887 9.153822 0.000000 38.000000 14.554263 28.000000
-41.867373 -31.875435 9.032330 0.000000 50.000000 14.380554 0.000000
-39.239348 -32.242262 9.562827 0.000000 39.000000 14.378808 0.000000
-40.862851 -32.833000 9.110028 0.000000 57.000000 14.560588 30.000000
-44.575373 -32.647915 7.782854 0.000000 43.000000 14.160707 0.000000
-42.703361 -31.710314 8.856615 0.000000 39.000000 14.357416 0.000000
-43.193293 -32.336171 8.470198 0.000000 36.000000 14.347422 0.000000
-41.377094 -34.348613 8.233756 0.000000 43.000000 14.433376 25.000000
-42.194446 -31.164014 9.090031 0.000000 39.000000 14.253321 0.000000
-41.328475 -35.489938 8.130830 0.000000 71.000000 14.739174 18.000000
-43.556589 -35.040674 7.257062 0.000000 47.000000 14.307852 0.000000
-39.848783 -33.046363 9.391343 0.000000 54.000000 14.654949 28.000000
-46.306229 -33.160876 7.309699 0.000000 34.000000 14.321182 0.000000
-41.757002 -32.642881 8.967085 0.000000 64.000000 14.571644 16.000000
-43.099843 -35.073258 7.411925 0.000000 26.000000 14.352970 0.000000
-42.599553 -34.141169 8.356540 0.000000 71.000000 14.754883 4.000000
-42.902733 -35.605833 7.548374 0.000000 64.000000 14.621676 24.000000
-43.174144 -31.341987 8.826500 0.000000 35.000000 14.307642 0.000000
-42.534802 -33.286943 8.224628 0.000000 50.000000 14.313617 0.000000
-42.433573 -30.290478 9.449994 0.000000 34.000000 14.320440 0.000000
-40.132587 -31.580738 10.142303 0.000000 70.000000 14.873019 29.000000
-39.146946 -31.782751 10.015424 0.000000 49.000000 14.601091 26.000000
-40.177699 -33.715679 9.015967 0.000000 72.000000 14.632997 28.000000
-42.496785 -29.999690 9.565193 0.000000 36.000000 14.334779 0.000000
-44.406096 -33.596275 7.645684 0.000000 33.000000 14.338080 0.000000
-41.722550 -32.316743 8.819186 0.000000 41.000000 14.312770 0.000000
-45.669021 -32.419153 7.761784 0.000000 45.000000 14.314527 0.000000
-42.617338 -29.548663 9.599536 0.000000 32.000000 14.231848 0.000000
-43.404925 -33.466042 7.811280 0.000000 37.000000 14.207414 0.000000
-41.376003 -34.116099 8.167129 0.000000 31.000000 14.289363 0.000000
-43.403249 -30.132121 9.221652 0.000000 37.000000 14.283358 0.000000
-44.992705 -31.986343 8.379248 0.000000 55.000000 14.559194 23.000000
-43.202485 -32.666810 8.271075 0.000000 33.000000 14.288458 0.000000
-42.659463 -29.114509 9.813247 0.000000 33.000000 14.278764 0.000000
-43.412943 -29.835582 9.387754 0.000000 35.000000 14.329144 0.000000
-42.827105 -29.495123 9.608906 0.000000 47.000000 14.269998 0.000000
-45.525886 -31.826822 8.092885 0.000000 47.000000 14.367466 0.000000
-43.432125 -29.099741 9.680413 0.000000 31.000000 14.333633 0.000000
-43.426803 -28.953502 9.742168 0.000000 33.000000 14.335641 0.000000
-43.441738 -30.748962 8.916073 0.000000 55.000000 14.237882 0.000000
-42.816278 -34.293246 7.745178 0.000000 48.000000 14.307659 0.000000
-46.035596 -31.693594 7.790243 0.000000 25.000000 14.165003 0.000000
-41.105254 -31.032844 9.520966 0.000000 41.000000 14.341547 0.000000
-45.386782 -31.830720 8.056275 0.000000 34.000000 14.303344 0.000000
-41.835787 -33.318682 8.366802 0.000000 50.000000 14.290462 0.000000
-42.471932 -34.293375 7.804473 0.000000 53.000000 14.280973 0.000000
-43.209950 -31.974385 8.547729 0.000000 39.000000 14.291354 0.000000
-41.547126 -35.336576 8.075155 0.000000 67.000000 14.684750 18.000000
-46.487307 -32.809464 7.248469 0.000000 31.000000 14.181805 0.000000
-41.998419 -33.310312 8.353228 0.000000 59.000000 14.313119 0.000000
-40.746917 -32.787043 9.221803 0.000000 73.000000 14.618033 30.000000
-42.232797 -34.223104 7.846827 0.000000 39.000000 14.238220 0.000000
-42.403860 -35.175800 7.505753 0.000000 49.000000 14.312281 0.000000
-42.681583 -31.637457 8.915898 0.000000 46.000000 14.379723 0.000000
-44.950712 -33.281963 7.622704 0.000000 48.000000 14.331384 0.000000
-42.662187 -29.852518 9.705083 0.000000 42.000000 14.446871 2.000000
-45.161465 -31.367365 8.527578 0.000000 44.000000 14.510150 22.000000
-40.077765 -31.627361 10.515194 0.000000 66.000000 15.213926 29.000000
-39.651931 -32.876104 9.088638 0.000000 37.000000 14.274335 0.000000
-43.628173 -32.424852 8.301915 0.000000 55.000000 14.328656 0.000000
-42.165154 -32.691008 8.618769 0.000000 59.000000 14.369395 0.000000
-43.306686 -32.565015 8.331038 0.000000 39.000000 14.330361 0.000000
-39.566545 -31.467829 10.250259 0.000000 71.000000 14.797977 29.000000
-43.180509 -32.643484 8.245718 0.000000 43.000000 14.252038 0.000000
-40.432987 -32.765438 8.995462 0.000000 45.000000 14.332535 0.000000
-43.191883 -31.701836 8.685630 0.000000 33.000000 14.313804 0.000000
-46.044625 -32.797824 7.672209 0.000000 70.000000 14.457265 19.000000
-42.872556 -33.181858 8.342423 0.000000 41.000000 14.461064 11.000000
-43.608049 -33.850650 7.755528 0.000000 56.000000 14.342621 0.000000
-40.848101 -30.912752 9.653534 0.000000 46.000000 14.358204 0.000000
-42.524589 -33.263161 8.232675 0.000000 54.000000 14.309960 0.000000
-44.264578 -34.118305 7.440276 0.000000 35.000000 14.307065 0.000000
-44.908651 -29.933652 8.893091 0.000000 47.000000 14.266250 0.000000
-41.894614 -35.503890 7.496718 0.000000 54.000000 14.303249 0.000000
-43.254668 -33.691989 8.209850 0.000000 67.000000 14.613709 6.000000
-43.777834 -30.662131 8.966028 0.000000 32.000000 14.330203 0.000000
-42.577711 -32.173981 8.517759 0.000000 38.000000 14.188546 0.000000
-41.586041 -35.111965 8.185588 0.000000 72.000000 14.712897 25.000000
-42.519621 -29.764174 9.994713 0.000000 46.000000 14.643580 2.000000
-43.314209 -34.728129 7.447042 0.000000 51.000000 14.310673 0.000000
-42.484276 -35.766562 7.242348 0.000000 33.000000 14.305319 0.000000
-41.715357 -32.888007 8.637304 0.000000 42.000000 14.352032 0.000000
-44.727379 -32.158548 7.922594 0.000000 31.000000 14.146570 0.000000
-43.278054 -29.860319 9.350790 0.000000 35.000000 14.273174 0.000000
-43.046643 -34.140056 7.767015 0.000000 54.000000 14.326067 0.000000
-41.139661 -33.831404 8.388888 0.000000 44.000000 14.332315 0.000000
-40.657931 -34.454793 8.441720 0.000000 40.000000 14.491720 25.000000
-40.047191 -33.503852 8.846283 0.000000 46.000000 14.373114 0.000000
-43.084582 -31.244002 8.869374 0.000000 36.000000 14.290283 0.000000
-40.965604 -33.575554 8.530964 0.000000 49.000000 14.328158 0.000000
-46.323368 -32.476761 7.489068 0.000000 39.000000 14.241415 0.000000
-40.554620 -31.170232 9.934881 0.000000 52.000000 14.636505 27.000000
-45.835865 -32.485212 7.711987 0.000000 45.000000 14.332181 0.000000
-41.005250 -33.253452 8.701131 0.000000 46.000000 14.375416 0.000000
-40.340463 -31.167497 9.920236 0.000000 72.000000 14.572343 29.000000
-43.452762 -29.194122 9.654120 0.000000 36.000000 14.348604 0.000000
-44.368318 -31.571545 8.414208 0.000000 40.000000 14.296102 0.000000
-42.123529 -34.154615 7.948512 0.000000 53.000000 14.280005 0.000000
-41.140324 -31.533973 9.315216 0.000000 51.000000 14.343895 0.000000
-44.697945 -30.401803 8.914771 0.000000 52.000000 14.404930 14.000000
-41.194198 -34.251870 8.781789 0.000000 62.000000 14.851151 25.000000
-40.650200 -31.097352 9.863455 0.000000 62.000000 14.568067 27.000000
-41.793177 -35.517655 7.530436 0.000000 36.000000 14.315006 0.000000
-43.116228 -35.353260 7.147232 0.000000 42.000000 14.218238 0.000000
-42.491391 -35.085999 7.516276 0.000000 32.000000 14.309933 0.000000
-45.333302 -30.506913 8.539259 0.000000 40.000000 14.251574 0.000000
-40.623409 -30.294546 9.961189 0.000000 50.000000 14.361638 0.000000
-43.272436 -34.302746 7.652742 0.000000 47.000000 14.333935 0.000000
-43.777305 -31.613495 8.597369 0.000000 29.000000 14.338841 0.000000
-42.291493 -34.386088 7.732952 0.000000 41.000000 14.207582 0.000000
-42.517888 -34.288765 7.856563 0.000000 52.000000 14.337102 0.000000
-44.885171 -34.222735 7.212247 0.000000 38.000000 14.283285 0.000000
-39.492979 -32.171138 9.630372 0.000000 58.000000 14.473435 26.000000
-40.956383 -32.913818 9.200465 0.000000 70.000000 14.693162 30.000000
-44.745207 -32.007957 8.113673 0.000000 38.000000 14.269269 0.000000
-40.158756 -31.655736 10.269883 0.000000 83.000000 15.021352 29.000000
-43.124392 -34.124954 7.757614 0.000000 62.000000 14.330278 0.000000
-43.468077 -30.129173 9.261802 0.000000 49.000000 14.333698 0.000000
-44.223713 -30.327796 8.945500 0.000000 38.000000 14.295499 0.000000
-43.067320 -31.225460 8.920628 0.000000 43.000000 14.325906 0.000000
-43.320448 -33.879752 7.871735 0.000000 47.000000 14.391007 6.000000
-39.501062 -32.041777 10.093699 0.000000 79.000000 14.847490 26.000000
-42.330819 -34.057076 8.093745 0.000000 54.000000 14.424530 4.000000
-45.722055 -32.490153 7.740255 0.000000 51.000000 14.332956 0.000000
-42.768134 -31.410095 8.937605 0.000000 34.000000 14.337819 0.000000
-42.338002 -33.604854 8.438441 0.000000 59.000000 14.575160 4.000000
-42.590541 -34.411471 7.678552 0.000000 26.000000 14.237293 0.000000
-43.518285 -33.520987 7.791590 0.000000 26.000000 14.235805 0.000000
-43.696667 -31.093640 8.651477 0.000000 31.000000 14.182114 0.000000
-43.458671 -31.728549 8.597028 0.000000 40.000000 14.305565 0.000000
-42.514448 -35.132801 7.532636 0.000000 62.000000 14.346912 0.000000
-44.320272 -31.405669 8.473638 0.000000 24.000000 14.278989 0.000000
-41.779838 -34.223721 8.019112 0.000000 47.000000 14.288475 0.000000
-40.266205 -32.468934 9.162092 0.000000 44.000000 14.337652 0.000000
-41.977688 -31.713336 9.462427 0.000000 69.000000 14.736661 8.000000
-41.690243 -30.093476 10.011750 0.000000 63.000000 14.583880 1.000000
-43.289284 -29.649277 9.741052 0.000000 37.000000 14.552590 12.000000
-39.339867 -31.247179 10.130118 0.000000 50.000000 14.557261 29.000000
-42.878802 -32.270818 8.447185 0.000000 48.000000 14.229797 0.000000
-40.658872 -31.085979 10.091307 0.000000 69.000000 14.771887 27.000000
-42.982780 -28.931368 10.151293 0.000000 43.000000 14.593811 12.000000
-43.439653 -34.453414 7.583311 0.000000 41.000000 14.364340 0.000000
-46.115917 -33.016191 7.392091 0.000000 47.000000 14.299252 0.000000
-41.968543 -32.523576 8.718722 0.000000 42.000000 14.353690 0.000000
-41.285249 -35.289247 8.075293 0.000000 57.000000 14.606791 18.000000
-45.450784 -33.631701 7.231815 0.000000 22.000000 14.220490 0.000000
-41.710340 -35.637184 7.784938 0.000000 61.000000 14.568604 18.000000
-42.185747 -32.962047 8.435806 0.000000 40.000000 14.306274 0.000000
-45.194958 -33.088634 7.549786 0.000000 47.000000 14.252986 0.000000
-41.972450 -33.204588 8.414194 0.000000 48.000000 14.324158 0.000000
-43.859638 -33.740094 7.693574 0.000000 59.000000 14.305588 0.000000
-41.976313 -32.921822 8.534173 0.000000 59.000000 14.331857 0.000000
-40.536604 -33.727448 9.288126 0.000000 49.000000 14.966851 28.000000
-39.955064 -31.811813 9.571845 0.000000 72.000000 14.399195 29.000000
-39.640853 -31.619290 10.248198 0.000000 78.000000 14.867874 29.000000
-41.347554 -29.861003 9.789989 0.000000 41.000000 14.220036 0.000000
-42.257353 -31.793185 9.243451 0.000000 55.000000 14.632717 8.000000
-42.623714 -32.550951 8.538630 0.000000 31.000000 14.353599 0.000000
-43.209432 -31.112737 8.887936 0.000000 37.000000 14.289003 0.000000
-40.228678 -31.558296 10.148803 0.000000 59.000000 14.893238 29.000000
-39.835041 -33.106151 8.932591 0.000000 45.000000 14.258707 0.000000
-39.761344 -32.781921 9.151244 0.000000 41.000000 14.322577 0.000000
-43.872064 -29.356687 9.734881 0.000000 67.000000 14.577789 13.000000
-40.253677 -31.574828 10.099256 0.000000 64.000000 14.860239 29.000000
-40.410395 -32.403497 9.698673 0.000000 53.000000 14.832613 30.000000
-42.907615 -31.125770 8.998826 0.000000 40.000000 14.323494 0.000000
-43.257568 -28.715254 9.898331 0.000000 30.000000 14.351663 0.000000
-44.613856 -33.497749 7.612683 0.000000 37.000000 14.321310 0.000000
-44.246143 -34.120180 7.397021 0.000000 52.000000 14.264354 0.000000
-43.112685 -34.733878 7.567831 0.000000 56.000000 14.374882 0.000000
-42.546783 -29.455413 9.670362 0.000000 32.000000 14.245881 0.000000
-41.918114 -30.783112 9.261077 0.000000 30.000000 14.206550 0.000000
-44.052629 -31.791259 8.338046 0.000000 20.000000 14.232613 0.000000
-42.038734 -30.044585 9.690605 0.000000 43.000000 14.357405 0.000000
-40.038152 -32.898078 9.585880 0.000000 49.000000 14.821609 28.000000
-42.308376 -31.288744 9.063856 0.000000 47.000000 14.301063 0.000000
-41.805766 -30.401549 9.528394 0.000000 35.000000 14.284776 0.000000
-41.730662 -30.525130 9.468607 0.000000 36.000000 14.257646 0.000000
-41.649166 -30.651376 9.447159 0.000000 46.000000 14.264627 0.000000
-40.213057 -32.801391 9.425227 0.000000 70.000000 14.682492 28.000000
-44.597432 -32.948124 7.865781 0.000000 56.000000 14.348665 0.000000
-41.519512 -35.793314 7.922725 0.000000 51.000000 14.704707 18.000000
-41.322136 -31.168939 9.417803 0.000000 51.000000 14.347818 0.000000
-40.165148 -32.632625 9.450414 0.000000 73.000000 14.633430 28.000000
-40.428358 -31.128624 10.027904 0.000000 35.000000 14.676160 27.000000
-41.186285 -31.436055 9.330845 0.000000 49.000000 14.333549 0.000000
-44.088453 -33.167808 7.877243 0.000000 30.000000 14.319261 0.000000
-40.988058 -31.842134 9.242451 0.000000 43.000000 14.353373 0.000000
-40.610962 -32.839646 8.910787 0.000000 49.000000 14.324198 0.000000
-43.075106 -32.254490 8.484314 0.000000 35.000000 14.303261 0.000000
-43.384687 -32.878566 8.070257 0.000000 50.000000 14.225590 0.000000
-41.503755 -33.152309 8.436821 0.000000 24.000000 14.216506 0.000000
-43.909300 -34.644528 7.574201 0.000000 65.000000 14.534319 5.000000
-44.716198 -34.094389 7.408484 0.000000 48.000000 14.375072 0.000000
-41.760469 -33.606949 8.177503 0.000000 40.000000 14.205438 0.000000
-39.319928 -32.325184 9.481263 0.000000 53.000000 14.353699 0.000000
-43.980610 -33.814113 7.576096 0.000000 33.000000 14.254249 0.000000
-41.707937 -32.586042 9.171731 0.000000 75.000000 14.724691 16.000000
-43.802262 -34.210360 7.594445 0.000000 48.000000 14.371627 0.000000
-40.927591 -31.471634 9.805177 0.000000 65.000000 14.714602 17.000000
-41.190442 -33.818352 8.375541 0.000000 46.000000 14.327407 0.000000
-40.746678 -33.540112 8.599464 0.000000 44.000000 14.326258 0.000000
-43.788786 -28.960638 9.966744 0.000000 39.000000 14.625553 13.000000
-44.132999 -33.444219 7.757889 0.000000 23.000000 14.321133 0.000000
-42.808753 -34.402929 7.740110 0.000000 46.000000 14.340739 0.000000
-40.948678 -34.784004 8.477085 0.000000 36.000000 14.709788 25.000000
-43.129952 -34.015874 7.782675 0.000000 41.000000 14.315021 0.000000
-43.741360 -32.587448 8.194385 0.000000 50.000000 14.316321 0.000000
-44.407151 -34.545065 7.261539 0.000000 55.000000 14.332170 0.000000
-44.054402 -33.012463 7.941757 0.000000 24.000000 14.313789 0.000000
-41.689817 -34.748941 8.184191 0.000000 51.000000 14.605384 25.000000
-44.656117 -34.099235 7.429841 0.000000 60.000000 14.382099 0.000000
-40.147527 -33.296038 9.174497 0.000000 64.000000 14.618406 28.000000
-43.856854 -32.913730 8.024089 0.000000 40.000000 14.306630 0.000000
-41.771554 -29.928261 10.312162 0.000000 55.000000 14.814922 1.000000
-42.865720 -31.829495 8.772556 0.000000 59.000000 14.362155 0.000000
-40.341012 -33.376915 9.217934 0.000000 75.000000 14.731844 28.000000
-44.017111 -32.627633 8.088516 0.000000 33.000000 14.299411 0.000000
-40.967458 -33.060727 8.992159 0.000000 53.000000 14.560315 10.000000
-42.181553 -31.828245 9.092844 0.000000 61.000000 14.491550 8.000000
-44.272831 -31.144949 8.876862 0.000000 55.000000 14.538582 15.000000
-41.162411 -32.026720 9.406149 0.000000 61.000000 14.608284 16.000000
-44.654897 -30.417202 8.850931 0.000000 48.000000 14.342739 0.000000
-44.312836 -31.699513 8.238355 0.000000 32.000000 14.170250 0.000000
-40.661029 -30.450324 9.874807 0.000000 52.000000 14.348338 0.000000
-42.999780 -32.848670 8.304527 0.000000 44.000000 14.336761 0.000000
-44.705309 -30.560001 8.724201 0.000000 37.000000 14.291299 0.000000
-40.068374 -33.424920 8.889616 0.000000 42.000000 14.388845 28.000000
-46.310339 -33.146210 7.313395 0.000000 37.000000 14.320210 0.000000
-41.527514 -29.913606 10.096912 0.000000 36.000000 14.558242 1.000000
-45.407246 -32.578613 7.773992 0.000000 51.000000 14.321808 0.000000
-42.016491 -32.359809 8.744898 0.000000 60.000000 14.329674 0.000000
-40.703017 -32.440826 9.615313 0.000000 40.000000 14.838951 30.000000
-40.660006 -30.980898 9.712516 0.000000 29.000000 14.392119 27.000000
-42.890296 -31.933757 8.635670 0.000000 30.000000 14.281665 0.000000
-42.611655 -31.954379 8.632321 0.000000 39.000000 14.221064 0.000000
-42.292497 -32.895259 8.422294 0.000000 47.000000 14.294961 0.000000
-45.588103 -31.948503 8.032693 0.000000 60.000000 14.371314 0.000000
-42.652527 -30.741224 9.223693 0.000000 32.000000 14.329000 0.000000
-44.850751 -34.031097 7.327571 0.000000 26.000000 14.310596 0.000000
-44.751466 -30.680905 8.731999 0.000000 37.000000 14.352558 0.000000
-40.608590 -32.764196 8.968542 0.000000 52.000000 14.348718 0.000000
-42.322538 -32.800941 8.514228 0.000000 29.000000 14.351144 0.000000
-39.840097 -32.863139 9.588941 0.000000 58.000000 14.765628 28.000000
-44.935882 -30.210718 8.691506 0.000000 26.000000 14.190015 0.000000
-44.959633 -29.908310 8.876786 0.000000 31.000000 14.254300 0.000000
-41.659100 -33.540646 8.543070 0.000000 54.000000 14.488292 9.000000
-43.164024 -31.233266 8.860934 0.000000 51.000000 14.297327 0.000000
-43.427003 -34.985656 7.305699 0.000000 55.000000 14.301807 0.000000
-43.856042 -28.536434 9.722225 0.000000 41.000000 14.267854 0.000000
-44.060304 -33.882179 7.555438 0.000000 40.000000 14.278629 0.000000
-41.207705 -31.991017 9.417912 0.000000 58.000000 14.616646 16.000000
-41.643102 -31.275198 9.314101 0.000000 27.000000 14.367156 0.000000
-42.506958 -35.415970 7.343031 0.000000 47.000000 14.275598 0.000000
-44.517321 -34.583593 7.420928 0.000000 54.000000 14.515731 7.000000
-43.042371 -33.714237 8.008805 0.000000 65.000000 14.390529 6.000000
-43.531869 -33.382139 7.890696 0.000000 25.000000 14.278629 0.000000
-42.105518 -30.358926 9.739331 0.000000 49.000000 14.529968 3.000000
-41.409074 -35.270256 8.175613 0.000000 71.000000 14.719494 18.000000
-40.498426 -31.522359 9.814356 0.000000 55.000000 14.641033 17.000000
-42.271037 -35.708560 7.314313 0.000000 44.000000 14.299770 0.000000
-44.723900 -33.369642 7.666772 0.000000 55.000000 14.349813 0.000000
-40.823869 -33.418872 8.631150 0.000000 40.000000 14.329324 0.000000
-42.393179 -35.380158 7.422899 0.000000 47.000000 14.308361 0.000000
-41.768809 -30.331808 9.542636 0.000000 30.000000 14.263964 0.000000
-41.334144 -29.881090 9.770249 0.000000 37.000000 14.206290 0.000000
-41.501599 -33.962072 8.250333 0.000000 43.000000 14.338487 0.000000
-42.607539 -34.723171 7.641924 0.000000 65.000000 14.320172 0.000000
-42.176356 -35.519406 7.407838 0.000000 44.000000 14.294223 0.000000
-43.474796 -33.525208 7.846770 0.000000 25.000000 14.277040 0.000000
-44.776643 -30.507518 8.787001 0.000000 50.000000 14.345822 0.000000
-40.589773 -31.991620 9.660949 0.000000 69.000000 14.692352 30.000000
-41.922264 -33.359731 8.343923 0.000000 43.000000 14.304709 0.000000
-41.907340 -32.581295 8.685295 0.000000 53.000000 14.329953 0.000000
-44.981299 -31.598536 8.265902 0.000000 45.000000 14.314756 0.000000
-42.799489 -33.902519 7.980889 0.000000 62.000000 14.376318 0.000000
-41.595128 -35.456505 7.593353 0.000000 37.000000 14.303692 0.000000
-40.710038 -31.283277 9.789406 0.000000 39.000000 14.581926 17.000000
-44.521900 -32.248496 7.943188 0.000000 36.000000 14.149579 0.000000
-45.493726 -32.047810 7.960864 0.000000 36.000000 14.320086 0.000000
-43.427357 -29.931154 9.520106 0.000000 55.000000 14.486442 12.000000
-42.220927 -34.498820 7.782082 0.000000 47.000000 14.276028 0.000000
-40.213465 -31.169482 10.040836 0.000000 76.000000 14.652410 29.000000
-42.300368 -31.493384 8.928337 0.000000 30.000000 14.250280 0.000000
-40.966576 -32.419333 9.323363 0.000000 55.000000 14.628893 30.000000
-41.748294 -32.679010 9.164362 0.000000 70.000000 14.760853 16.000000
-43.020684 -31.837502 8.702844 0.000000 30.000000 14.338183 0.000000
-44.288660 -28.963194 9.391300 0.000000 29.000000 14.223090 0.000000
-41.288946 -31.359369 9.288650 0.000000 33.000000 14.291808 0.000000
-43.311528 -30.928157 8.952081 0.000000 44.000000 14.304445 0.000000
-41.828369 -36.149698 7.144943 0.000000 28.000000 14.202014 0.000000
-42.305658 -30.880866 9.291776 0.000000 39.000000 14.359802 0.000000
-45.362902 -33.734851 7.296209 0.000000 38.000000 14.295247 0.000000
-42.133927 -31.979699 9.168089 0.000000 67.000000 14.602859 8.000000
-40.189054 -33.670575 8.687012 0.000000 60.000000 14.322197 0.000000
-40.960201 -33.443978 8.600553 0.000000 42.000000 14.342495 0.000000
-43.059850 -31.179129 8.943734 0.000000 38.000000 14.328393 0.000000
-40.518160 -33.508472 9.251265 0.000000 64.000000 14.850552 28.000000
-43.456774 -34.928534 7.334037 0.000000 45.000000 14.313829 0.000000
-42.276386 -30.423868 9.478731 0.000000 58.000000 14.357681 0.000000
-43.884998 -30.655350 9.106343 0.000000 42.000000 14.479547 15.000000
-41.000913 -31.513372 9.600189 0.000000 65.000000 14.561477 17.000000
-43.010165 -30.719448 9.188955 0.000000 41.000000 14.373196 0.000000
-43.238396 -33.635968 8.187141 0.000000 70.000000 14.569263 6.000000
-41.025134 -33.582896 8.500150 0.000000 46.000000 14.316837 0.000000
-44.492017 -30.304573 8.966258 0.000000 53.000000 14.368485 0.000000
-40.671472 -33.724878 9.026392 0.000000 70.000000 14.760882 28.000000
-42.246988 -29.379332 9.868139 0.000000 29.000000 14.327331 0.000000
-42.978185 -30.109716 9.298061 0.000000 34.000000 14.245214 0.000000
-44.758696 -34.452021 7.584383 0.000000 40.000000 14.672440 7.000000
-43.389157 -32.799131 8.183373 0.000000 29.000000 14.300298 0.000000
-44.093128 -33.090792 7.898563 0.000000 41.000000 14.311939 0.000000
-41.900098 -34.002815 8.109641 0.000000 49.000000 14.318940 0.000000
-42.829371 -29.531692 9.652629 0.000000 35.000000 14.323175 0.000000
-40.214152 -31.743288 10.075246 0.000000 71.000000 14.889862 29.000000
-42.947193 -30.596977 9.237587 0.000000 55.000000 14.358442 0.000000
-43.007075 -31.048497 8.994453 0.000000 40.000000 14.314971 0.000000
-46.144890 -31.702454 7.815442 0.000000 27.000000 14.216446 0.000000
-45.716629 -33.509710 7.276567 0.000000 39.000000 14.279090 0.000000
-41.427244 -35.629852 8.094546 0.000000 65.000000 14.779703 18.000000
-44.837688 -33.793267 7.426426 0.000000 40.000000 14.311409 0.000000
-45.553740 -31.925761 8.032969 0.000000 46.000000 14.355377 0.000000
-43.314720 -34.122819 7.695239 0.000000 49.000000 14.317539 0.000000
-44.283204 -32.592548 8.074564 0.000000 46.000000 14.336256 0.000000
-41.429951 -31.911900 9.107050 0.000000 55.000000 14.359157 0.000000
-41.015757 -31.713729 9.568308 0.000000 61.000000 14.608131 16.000000
-46.509873 -32.379000 7.589386 0.000000 36.000000 14.340428 0.000000
-41.152947 -32.110189 9.134763 0.000000 36.000000 14.390850 16.000000
-45.646278 -33.440846 7.364973 0.000000 48.000000 14.317819 0.000000
-45.345596 -30.677639 8.479670 0.000000 26.000000 14.261948 0.000000
-40.055709 -33.498751 9.054246 0.000000 33.000000 14.561180 28.000000
-43.364364 -33.216357 7.972014 0.000000 61.000000 14.253466 0.000000
-45.361978 -33.627740 7.288235 0.000000 39.000000 14.249335 0.000000
-41.551768 -31.318721 9.304434 0.000000 63.000000 14.352760 0.000000
-43.727576 -32.084176 8.402434 0.000000 27.000000 14.320244 0.000000
-44.864560 -33.902298 7.392046 0.000000 45.000000 14.325792 0.000000
-41.714776 -31.352119 9.282377 0.000000 41.000000 14.382848 8.000000
-41.812592 -33.363728 8.293644 0.000000 36.000000 14.235135 0.000000
-43.700236 -32.978389 8.121646 0.000000 53.000000 14.381490 0.000000
-44.824116 -31.957223 8.412969 0.000000 56.000000 14.539881 23.000000
-42.413441 -29.988652 9.578154 0.000000 45.000000 14.323086 0.000000
-43.329990 -33.288454 7.983236 0.000000 36.000000 14.281498 0.000000
-44.176721 -34.420887 7.278558 0.000000 44.000000 14.249182 0.000000
-43.137881 -30.401667 9.167974 0.000000 41.000000 14.269828 0.000000
-44.013063 -34.519208 7.345487 0.000000 39.000000 14.306822 0.000000
-41.733346 -35.390650 7.979378 0.000000 63.000000 14.661070 18.000000
-41.827064 -32.284023 8.849346 0.000000 54.000000 14.352639 0.000000
-42.565027 -32.136560 8.630418 0.000000 50.000000 14.273938 0.000000
-44.910309 -32.005477 8.273379 0.000000 49.000000 14.451192 23.000000
-46.276768 -32.860547 7.769986 0.000000 72.000000 14.622296 19.000000
-41.558459 -30.458456 9.533374 0.000000 42.000000 14.252048 0.000000
-43.897852 -30.997307 8.660976 0.000000 19.000000 14.203000 0.000000
-44.361870 -33.181272 7.791297 0.000000 50.000000 14.310207 0.000000
-45.901569 -31.473637 7.976027 0.000000 38.000000 14.222574 0.000000
-39.547082 -32.177545 10.113357 0.000000 77.000000 14.924775 26.000000
-41.729282 -34.758716 7.868583 0.000000 46.000000 14.332921 0.000000
-39.859099 -32.705287 9.643815 0.000000 68.000000 14.762919 28.000000
