-8.772245 23.400025 13.519777 0.000000 50.000000 15.318058 14.000000
-9.541271 22.419079 14.369413 0.000000 35.000000 14.505730 0.000000
-7.531735 24.081077 14.115438 0.000000 40.000000 15.225129 15.000000
-9.562399 22.092608 13.420041 0.000000 34.000000 14.535356 0.000000
-8.400758 23.409945 13.210722 0.000000 41.000000 15.278399 14.000000
-9.559224 21.963062 13.123047 0.000000 43.000000 14.517137 0.000000
-9.553359 21.897599 12.975873 0.000000 38.000000 14.505322 0.000000
-10.892999 21.501820 11.556643 0.000000 56.000000 15.145697 26.000000
-8.367837 23.145926 13.362928 0.000000 32.000000 14.989393 14.000000
-8.465926 22.948423 13.081828 0.000000 45.000000 14.947544 24.000000
-9.306644 21.163966 11.185340 0.000000 37.000000 14.346435 0.000000
-10.631557 20.625889 11.276544 0.000000 49.000000 14.376971 0.000000
-9.226735 21.254813 10.965508 0.000000 50.000000 14.463220 0.000000
-10.747325 21.471208 12.859853 0.000000 50.000000 14.646426 22.000000
-9.132470 21.198256 10.650173 0.000000 41.000000 14.477765 0.000000
-10.447952 20.612435 10.742051 0.000000 46.000000 14.463223 0.000000
-8.890836 23.544133 15.986972 0.000000 33.000000 14.702710 16.000000
-10.980992 21.480329 13.242394 0.000000 53.000000 14.624641 22.000000
-9.638217 22.977628 15.616214 0.000000 63.000000 14.627908 17.000000
-7.446486 22.864097 10.527411 0.000000 48.000000 15.286433 11.000000
-9.763271 22.365816 12.151492 0.000000 43.000000 15.254412 23.000000
-12.711849 21.110441 14.650011 0.000000 45.000000 14.540845 0.000000
-7.397374 22.878499 10.739688 0.000000 52.000000 15.211790 11.000000
-8.928196 22.858793 12.876136 0.000000 68.000000 15.118435 24.000000
-10.639457 21.602676 11.784564 0.000000 58.000000 15.059826 27.000000
-12.547567 20.828400 14.015331 0.000000 35.000000 14.435231 0.000000
-10.587333 21.633265 11.566333 0.000000 54.000000 15.135154 26.000000
-8.694813 22.670467 12.633798 0.000000 58.000000 14.941233 24.000000
-11.224529 20.479047 11.264858 0.000000 42.000000 14.488349 0.000000
-7.314405 23.604715 11.974767 0.000000 54.000000 15.411123 13.000000
-11.719235 20.252328 10.574779 0.000000 53.000000 14.708312 21.000000
-12.491657 19.855711 11.038106 0.000000 48.000000 14.523941 0.000000
-11.211165 21.257665 11.282596 0.000000 70.000000 15.148317 26.000000
-8.826715 21.732665 11.469913 0.000000 47.000000 14.556220 28.000000
-10.822383 20.420028 10.642689 0.000000 48.000000 14.476977 0.000000
-8.834226 23.100680 14.206247 0.000000 49.000000 14.865810 15.000000
-11.364245 21.883191 14.231740 0.000000 39.000000 14.807798 9.000000
-12.163251 19.767999 10.575110 0.000000 45.000000 14.466235 0.000000
-11.117148 22.255246 14.441236 0.000000 53.000000 14.964025 9.000000
-7.844503 23.361894 14.750290 0.000000 45.000000 14.526619 0.000000
-7.746539 23.721114 12.722016 0.000000 49.000000 15.443913 14.000000
-7.403720 23.499746 12.421283 0.000000 60.000000 15.213633 14.000000
-8.031198 23.381950 15.299013 0.000000 32.000000 14.442741 0.000000
-9.063101 23.751580 15.949117 0.000000 50.000000 14.961556 16.000000
-8.129250 23.547676 15.547968 0.000000 36.000000 14.544914 0.000000
-8.196246 23.578494 15.714702 0.000000 43.000000 14.544785 0.000000
-8.265962 23.608080 15.878261 0.000000 47.000000 14.545681 0.000000
-8.337876 23.638586 16.043352 0.000000 43.000000 14.547748 0.000000
-8.826058 21.316987 10.541074 0.000000 52.000000 14.493833 0.000000
-7.664713 21.861384 10.526239 0.000000 46.000000 14.508998 0.000000
-8.851589 21.399579 10.671994 0.000000 59.000000 14.533354 0.000000
-7.955341 23.620752 14.057653 0.000000 65.000000 15.014198 15.000000
-9.034349 21.303706 11.232069 0.000000 35.000000 14.344412 0.000000
-8.340080 22.648603 11.903071 0.000000 37.000000 15.015200 13.000000
-8.207759 22.264853 11.456180 0.000000 43.000000 14.774718 28.000000
-7.895197 21.911746 11.339471 0.000000 37.000000 14.384220 0.000000
-7.917458 22.053118 11.434630 0.000000 58.000000 14.484497 0.000000
-8.018109 23.393379 11.965720 0.000000 45.000000 15.509818 13.000000
-11.422402 21.275486 12.126515 0.000000 63.000000 14.978119 25.000000
-8.048793 22.250739 11.837706 0.000000 51.000000 14.578176 0.000000
-9.836266 23.148416 15.221966 0.000000 59.000000 14.978939 17.000000
-7.572462 23.622779 13.273294 0.000000 48.000000 15.114730 14.000000
-11.664296 20.161698 10.682622 0.000000 56.000000 14.574150 21.000000
-9.528648 21.744439 11.981819 0.000000 49.000000 14.680421 23.000000
-9.961870 21.903913 13.539532 0.000000 49.000000 14.492443 0.000000
-10.049736 21.925135 13.704044 0.000000 40.000000 14.492995 0.000000
-10.171931 21.852886 13.930188 0.000000 40.000000 14.406922 0.000000
-10.250764 21.914401 14.070432 0.000000 42.000000 14.446361 0.000000
-10.339096 21.960272 14.223423 0.000000 44.000000 14.472009 0.000000
-10.421071 22.029950 14.355572 0.000000 44.000000 14.522302 0.000000
-10.525431 22.043459 14.528476 0.000000 39.000000 14.520048 0.000000
-10.634669 22.054195 14.702570 0.000000 59.000000 14.516952 0.000000
-9.152129 22.220225 11.407069 0.000000 48.000000 15.124873 28.000000
-8.564078 22.586398 12.301530 0.000000 69.000000 14.923066 23.000000
-10.383561 21.848837 12.508564 0.000000 37.000000 14.940116 27.000000
-11.141355 21.981515 15.477955 0.000000 47.000000 14.407297 0.000000
-11.238203 22.168224 14.475139 0.000000 59.000000 14.926044 9.000000
-7.418043 22.653445 10.203389 0.000000 67.000000 15.196965 30.000000
-10.234687 20.912337 10.267560 0.000000 62.000000 14.788644 20.000000
-11.247057 20.989970 11.455176 0.000000 65.000000 14.876825 26.000000
-10.578451 21.616838 11.572696 0.000000 71.000000 15.115464 26.000000
-8.001477 21.989866 11.470891 0.000000 45.000000 14.451620 0.000000
-8.063967 21.873428 11.367140 0.000000 42.000000 14.409037 0.000000
-8.118447 21.786161 11.244344 0.000000 37.000000 14.394496 0.000000
-8.272779 21.605793 10.664993 0.000000 51.000000 14.484684 0.000000
-10.395682 20.622595 10.690233 0.000000 50.000000 14.467851 0.000000
-9.193591 21.174288 10.653587 0.000000 42.000000 14.480163 0.000000
-9.281970 21.209341 10.785613 0.000000 57.000000 14.503190 0.000000
-9.388598 21.198913 10.942161 0.000000 55.000000 14.486420 0.000000
-11.513881 20.655375 10.685873 0.000000 63.000000 14.939090 21.000000
-10.861755 20.555947 11.347727 0.000000 57.000000 14.384928 0.000000
-9.343361 22.116777 11.813311 0.000000 57.000000 14.981780 28.000000
-8.832323 23.724189 15.966452 0.000000 56.000000 14.841289 16.000000
-9.832269 21.181212 11.551552 0.000000 45.000000 14.452157 0.000000
-9.145207 22.454763 13.813201 0.000000 42.000000 14.557339 29.000000
-10.974544 21.153566 12.908349 0.000000 42.000000 14.447007 0.000000
-12.405443 20.678254 13.157945 0.000000 48.000000 14.522998 0.000000
-11.721945 21.173639 11.869092 0.000000 48.000000 15.090706 25.000000
-8.580638 23.444494 14.338847 0.000000 46.000000 15.019647 15.000000
-12.744678 20.602406 13.508674 0.000000 53.000000 14.479830 0.000000
-11.885914 20.115214 10.375237 0.000000 47.000000 14.719591 21.000000
-10.770850 20.754551 10.901074 0.000000 27.000000 14.662515 8.000000
-12.088672 20.951545 14.044833 0.000000 32.000000 14.350708 0.000000
-8.317095 23.607784 14.077054 0.000000 59.000000 15.139707 15.000000
-9.795751 22.332109 12.226451 0.000000 74.000000 15.214304 23.000000
-12.539737 21.031306 14.420529 0.000000 56.000000 14.477827 0.000000
-12.709130 21.025733 14.563802 0.000000 54.000000 14.494258 0.000000
-12.858429 21.065957 14.673248 0.000000 46.000000 14.552997 0.000000
-10.417373 21.921111 12.321705 0.000000 45.000000 15.075302 27.000000
-9.895677 23.055668 16.036575 0.000000 44.000000 14.662850 17.000000
-7.630459 23.833980 15.691970 0.000000 44.000000 14.548727 0.000000
-8.883485 23.363748 15.972420 0.000000 49.000000 14.549016 0.000000
-8.143439 23.640891 14.463517 0.000000 35.000000 14.976477 15.000000
-8.952696 23.298792 15.844195 0.000000 46.000000 14.561247 0.000000
-7.776775 23.653366 15.481881 0.000000 41.000000 14.517845 0.000000
-9.021833 23.223758 15.722089 0.000000 47.000000 14.562816 0.000000
-8.913858 22.548522 12.047232 0.000000 48.000000 15.109618 23.000000
-9.836911 21.961971 12.061529 0.000000 63.000000 14.964193 23.000000
-7.022366 22.852465 10.071237 0.000000 60.000000 15.254308 30.000000
-8.407497 22.365116 12.069719 0.000000 33.000000 14.744443 23.000000
-8.029057 23.337190 15.002548 0.000000 34.000000 14.497818 0.000000
-7.842109 23.999368 13.404409 0.000000 58.000000 15.503920 14.000000
-8.083955 23.268068 14.871211 0.000000 37.000000 14.501799 0.000000
-9.384180 22.688108 15.200443 0.000000 33.000000 14.410632 0.000000
-9.554170 22.486087 14.590725 0.000000 35.000000 14.498024 0.000000
-9.101117 23.174406 14.238509 0.000000 56.000000 15.024455 15.000000
-9.649793 22.309501 14.335987 0.000000 39.000000 14.464823 0.000000
-7.216219 23.237922 10.557308 0.000000 36.000000 15.508074 11.000000
-9.742774 22.109785 14.088392 0.000000 41.000000 14.408372 0.000000
-9.779148 22.032226 13.949465 0.000000 39.000000 14.400188 0.000000
-9.307426 22.932349 13.496169 0.000000 51.000000 15.133963 29.000000
-10.266631 21.778397 12.878544 0.000000 45.000000 14.715321 22.000000
-9.831640 21.927904 13.441904 0.000000 43.000000 14.492799 0.000000
-8.062383 21.867466 10.213064 0.000000 47.000000 14.771105 12.000000
-9.209220 22.466336 12.729498 0.000000 40.000000 14.937993 24.000000
-9.166576 22.127895 11.530861 0.000000 40.000000 15.011567 28.000000
-9.917482 21.434167 12.046207 0.000000 50.000000 14.546112 0.000000
-9.915861 21.243764 11.594463 0.000000 43.000000 14.525391 0.000000
-11.196473 21.978548 14.898028 0.000000 71.000000 14.611344 9.000000
-8.800550 23.262119 14.066199 0.000000 49.000000 15.036251 15.000000
-11.594615 20.827385 11.335610 0.000000 63.000000 14.912102 21.000000
-9.967638 20.911944 11.393370 0.000000 41.000000 14.324018 0.000000
-9.936871 20.917511 11.210953 0.000000 35.000000 14.374805 0.000000
-8.621506 21.469087 10.758584 0.000000 53.000000 14.474782 0.000000
-8.605590 21.419480 10.611315 0.000000 41.000000 14.472691 0.000000
-9.828467 20.941820 10.662641 0.000000 60.000000 14.527699 0.000000
-9.800833 20.910620 10.498979 0.000000 54.000000 14.542066 0.000000
-9.772194 20.876801 10.338325 0.000000 59.000000 14.552819 0.000000
-9.659889 22.100795 12.017025 0.000000 73.000000 15.028085 23.000000
-10.906341 21.577888 12.892731 0.000000 57.000000 14.790668 22.000000
-10.976310 20.251643 10.457357 0.000000 53.000000 14.451746 0.000000
-7.393746 22.987685 10.885286 0.000000 69.000000 15.258032 11.000000
-8.127877 21.740310 10.228324 0.000000 44.000000 14.682542 12.000000
-9.094199 21.593444 10.870061 0.000000 62.000000 14.733083 10.000000
-12.438408 19.826078 11.528381 0.000000 35.000000 14.321116 0.000000
-12.541132 19.996672 11.553603 0.000000 39.000000 14.500638 0.000000
-11.437100 22.048120 15.730050 0.000000 42.000000 14.501135 0.000000
-8.871986 22.748681 12.413213 0.000000 51.000000 15.148902 23.000000
-11.455319 21.947782 15.592948 0.000000 38.000000 14.465572 0.000000
-13.059692 21.370219 15.976944 0.000000 45.000000 14.479131 0.000000
-12.938756 20.992858 14.711433 0.000000 41.000000 14.509564 0.000000
-12.922063 20.916160 14.550154 0.000000 53.000000 14.488287 0.000000
-12.896203 20.851984 14.380163 0.000000 44.000000 14.476957 0.000000
-12.687690 20.630670 13.483608 0.000000 53.000000 14.489667 0.000000
-8.997224 23.078549 15.117393 0.000000 28.000000 14.620708 19.000000
-9.907151 23.685175 15.218143 0.000000 14.000000 15.470653 17.000000
-11.021551 21.407986 11.432283 0.000000 55.000000 15.155250 26.000000
-8.558257 23.486922 13.332643 0.000000 30.000000 15.368068 14.000000
-12.513607 20.369601 12.830441 0.000000 49.000000 14.404145 0.000000
-8.393983 22.249085 11.837792 0.000000 58.000000 14.713047 28.000000
-12.287494 20.349952 12.264056 0.000000 56.000000 14.478437 0.000000
-12.237329 20.275705 12.114034 0.000000 39.000000 14.442466 0.000000
-11.504942 20.705834 11.154082 0.000000 47.000000 14.829810 21.000000
-12.087027 20.232712 11.763709 0.000000 63.000000 14.457720 0.000000
-10.238199 20.719221 10.352772 0.000000 57.000000 14.596472 20.000000
-9.230921 23.050336 15.419548 0.000000 59.000000 14.592388 17.000000
-6.975326 22.882415 11.310732 0.000000 74.000000 14.866481 11.000000
-10.262237 20.827527 10.775434 0.000000 58.000000 14.564575 0.000000
-10.222560 20.697096 10.668798 0.000000 41.000000 14.470507 0.000000
-10.147124 20.669936 10.518983 0.000000 47.000000 14.465062 0.000000
-8.217302 22.112735 10.670533 0.000000 73.000000 14.897818 10.000000
-12.443732 19.756279 10.857235 0.000000 44.000000 14.476985 0.000000
-11.040054 21.418797 13.014724 0.000000 47.000000 14.667511 22.000000
-12.182785 19.749728 10.565078 0.000000 41.000000 14.461403 0.000000
-10.570364 21.642418 11.550346 0.000000 60.000000 15.141434 26.000000
-8.496427 21.600474 10.695113 0.000000 51.000000 14.558825 0.000000
-7.441790 23.937175 13.380930 0.000000 57.000000 15.299718 14.000000
-11.833757 20.682091 11.365777 0.000000 51.000000 14.871737 21.000000
-9.525788 22.478487 14.467518 0.000000 34.000000 14.519536 0.000000
-9.600375 22.512989 14.630004 0.000000 43.000000 14.526932 0.000000
-7.572876 23.793530 13.394507 0.000000 59.000000 15.223388 14.000000
-8.708376 23.127251 15.160463 0.000000 36.000000 14.534871 0.000000
-8.834102 23.014024 15.429663 0.000000 36.000000 14.401161 0.000000
-8.890751 23.148593 15.504298 0.000000 44.000000 14.515697 0.000000
-7.580080 23.800044 12.590530 0.000000 37.000000 15.488092 14.000000
-9.159170 23.254760 15.957487 0.000000 39.000000 14.568740 0.000000
-7.736207 21.896519 10.714150 0.000000 65.000000 14.507616 0.000000
-7.805457 21.811979 10.600111 0.000000 60.000000 14.498467 0.000000
-7.313410 22.844626 11.976802 0.000000 58.000000 14.755146 13.000000
-7.937318 21.648046 10.369336 0.000000 47.000000 14.482842 0.000000
-9.776256 20.850437 10.318187 0.000000 56.000000 14.538125 0.000000
-9.830858 20.919666 10.453288 0.000000 55.000000 14.576280 0.000000
-7.532654 23.929767 13.252218 0.000000 60.000000 15.370244 14.000000
-8.848310 23.855825 15.947769 0.000000 47.000000 14.966981 16.000000
-7.746501 23.709777 12.715930 0.000000 53.000000 15.436069 14.000000
-10.199042 20.778250 11.181082 0.000000 38.000000 14.367868 0.000000
-10.262695 20.849349 11.311229 0.000000 47.000000 14.412788 0.000000
-8.570338 23.509266 14.249997 0.000000 51.000000 15.099709 15.000000
-10.320717 20.944708 11.429770 0.000000 44.000000 14.480088 0.000000
-11.302967 21.104993 13.015641 0.000000 44.000000 14.500659 0.000000
-10.062161 21.616126 12.924319 0.000000 36.000000 14.480160 0.000000
-11.425693 21.097622 13.190127 0.000000 58.000000 14.487163 0.000000
-9.308880 22.449935 11.895632 0.000000 47.000000 15.228992 23.000000
-11.097480 20.424549 10.265588 0.000000 66.000000 14.709706 21.000000
-10.391593 21.659293 13.383477 0.000000 37.000000 14.501112 0.000000
-10.511868 21.652347 13.545560 0.000000 39.000000 14.490966 0.000000
-8.761263 23.879336 16.012324 0.000000 43.000000 14.932288 16.000000
-8.414290 21.841058 11.007519 0.000000 41.000000 14.634117 10.000000
-12.227270 21.040760 14.235956 0.000000 38.000000 14.421400 0.000000
-12.319168 21.152766 14.331258 0.000000 49.000000 14.523829 0.000000
-12.461887 21.152218 14.497826 0.000000 46.000000 14.526631 0.000000
-12.036132 20.994730 13.076565 0.000000 48.000000 14.675779 25.000000
-11.710275 21.664676 14.968410 0.000000 48.000000 14.521376 0.000000
-9.117795 21.898968 11.370324 0.000000 74.000000 14.846212 28.000000
-12.093604 21.463472 15.421476 0.000000 33.000000 14.354990 0.000000
-11.203110 21.173863 11.981783 0.000000 45.000000 14.850080 27.000000
-12.325444 21.648642 15.598984 0.000000 55.000000 14.549527 0.000000
-10.179311 23.226688 15.998196 0.000000 56.000000 14.934457 17.000000
-7.440272 23.762600 15.483613 0.000000 34.000000 14.478521 0.000000
-7.538298 23.655675 15.413164 0.000000 37.000000 14.447556 0.000000
-7.636802 23.537070 15.350287 0.000000 36.000000 14.404301 0.000000
-7.728684 23.449056 15.260409 0.000000 30.000000 14.393396 0.000000
-11.815646 20.592978 11.074280 0.000000 63.000000 14.880707 21.000000
-10.376686 21.921621 12.953103 0.000000 57.000000 14.858431 22.000000
-7.950957 23.348029 14.851418 0.000000 41.000000 14.524482 0.000000
-8.801501 21.995137 11.421308 0.000000 58.000000 14.787915 28.000000
-7.187300 22.944126 11.399008 0.000000 65.000000 14.975234 11.000000
-11.285831 20.289635 10.444931 0.000000 34.000000 14.610680 21.000000
-11.642473 21.193531 12.835269 0.000000 47.000000 14.768516 25.000000
-10.240160 22.064487 12.258161 0.000000 58.000000 15.149109 27.000000
-8.150541 21.817598 11.341165 0.000000 37.000000 14.403399 0.000000
-7.773951 22.925023 12.482607 0.000000 32.000000 14.845088 14.000000
-8.161123 21.792661 11.184057 0.000000 37.000000 14.436166 0.000000
-8.555928 22.586917 12.561625 0.000000 57.000000 14.837396 24.000000
-9.385650 21.172562 11.160234 0.000000 44.000000 14.393044 0.000000
-9.374588 21.200331 10.972751 0.000000 48.000000 14.472358 0.000000
-8.173933 21.749049 10.703024 0.000000 52.000000 14.556963 0.000000
-7.937806 23.618438 14.352380 0.000000 52.000000 14.911343 15.000000
-8.741280 23.592179 14.239284 0.000000 39.000000 15.242076 15.000000
-11.618029 21.303478 12.512846 0.000000 65.000000 14.956364 25.000000
-7.691134 23.651041 13.016271 0.000000 55.000000 15.267867 14.000000
-11.709673 21.278135 12.769786 0.000000 49.000000 14.888826 25.000000
-11.754826 20.217307 10.221797 0.000000 65.000000 14.804694 21.000000
-7.443132 22.555978 10.888830 0.000000 56.000000 14.904425 11.000000
-10.950335 20.477870 11.203370 0.000000 53.000000 14.398646 0.000000
-12.396977 19.865294 11.453572 0.000000 37.000000 14.362387 0.000000
-10.740855 21.551821 11.990842 0.000000 42.000000 14.990306 27.000000
-7.022527 22.531579 10.555525 0.000000 58.000000 14.823525 11.000000
-10.274391 21.875358 12.029271 0.000000 53.000000 15.072616 27.000000
-10.083903 22.321753 14.639281 0.000000 45.000000 14.550154 0.000000
-10.108240 22.225184 14.508715 0.000000 33.000000 14.518171 0.000000
-10.122428 22.152011 14.363199 0.000000 34.000000 14.507104 0.000000
-10.130294 22.091640 14.207424 0.000000 41.000000 14.507840 0.000000
-8.745398 23.447688 14.113333 0.000000 38.000000 15.159344 15.000000
-11.541691 21.485662 14.317523 0.000000 39.000000 14.508002 0.000000
-11.247926 22.071075 14.097990 0.000000 51.000000 14.966381 9.000000
-10.151119 21.874812 13.767837 0.000000 36.000000 14.469341 0.000000
-10.126694 21.887295 13.570884 0.000000 39.000000 14.533224 0.000000
-10.134292 21.790888 13.439437 0.000000 35.000000 14.495050 0.000000
-10.120203 21.757952 13.270210 0.000000 38.000000 14.515043 0.000000
-11.506706 21.208553 13.492243 0.000000 49.000000 14.518449 0.000000
-11.941036 21.058274 13.056705 0.000000 33.000000 14.699305 25.000000
-10.548670 21.581028 11.560632 0.000000 56.000000 15.076692 26.000000
-10.099081 21.640697 12.963796 0.000000 39.000000 14.503330 0.000000
-11.486226 21.071140 13.181164 0.000000 53.000000 14.491107 0.000000
-10.092715 21.558714 12.826881 0.000000 39.000000 14.473813 0.000000
-11.471180 21.005383 13.024896 0.000000 57.000000 14.478312 0.000000
-11.460302 20.923187 12.875000 0.000000 39.000000 14.450966 0.000000
-9.646097 22.034221 12.724744 0.000000 42.000000 14.739708 23.000000
-8.344813 23.586205 15.520731 0.000000 45.000000 14.671926 18.000000
-11.811229 21.335244 12.456782 0.000000 47.000000 15.077903 25.000000
-9.863157 21.076931 11.457889 0.000000 34.000000 14.404353 0.000000
-9.831184 21.010972 11.315597 0.000000 33.000000 14.380245 0.000000
-7.157308 22.894417 10.923603 0.000000 61.000000 15.072080 11.000000
-10.760338 20.888747 10.883989 0.000000 16.000000 14.779439 8.000000
-10.639841 21.713606 12.015714 0.000000 80.000000 15.081889 27.000000
-7.452647 22.856622 10.574266 0.000000 46.000000 15.267492 11.000000
-9.609297 21.007213 10.633392 0.000000 56.000000 14.506812 0.000000
-10.914466 20.413398 10.729416 0.000000 46.000000 14.479987 0.000000
-9.561015 20.962390 10.485028 0.000000 59.000000 14.496409 0.000000
-10.857489 20.382916 10.570672 0.000000 54.000000 14.481817 0.000000
-10.797270 20.352570 10.411284 0.000000 49.000000 14.482688 0.000000
-10.737080 20.318564 10.254024 0.000000 45.000000 14.479738 0.000000
-8.086438 22.952439 12.634971 0.000000 48.000000 14.943558 14.000000
-12.635320 20.380243 12.876078 0.000000 41.000000 14.446837 0.000000
-12.544069 20.373069 12.695222 0.000000 34.000000 14.462261 0.000000
-12.429786 20.425513 12.487326 0.000000 41.000000 14.528579 0.000000
-12.281218 20.313003 12.189880 0.000000 41.000000 14.467763 0.000000
-11.850186 20.335527 10.574461 0.000000 60.000000 14.831817 21.000000
-8.753530 23.211083 14.046149 0.000000 62.000000 14.980097 15.000000
-9.237064 23.068801 13.266812 0.000000 52.000000 15.296851 29.000000
-7.471636 22.796532 10.884265 0.000000 55.000000 15.124410 11.000000
-9.591171 21.853198 11.990858 0.000000 50.000000 14.795944 23.000000
-8.234432 23.518876 13.974619 0.000000 75.000000 15.063101 15.000000
-7.416934 23.858323 14.017884 0.000000 70.000000 15.018947 15.000000
-7.977395 21.706429 10.584253 0.000000 50.000000 14.480476 0.000000
-7.963577 21.780097 10.714859 0.000000 59.000000 14.496869 0.000000
-9.111706 22.089674 11.688261 0.000000 64.000000 14.906796 28.000000
-10.107732 23.168357 15.498491 0.000000 43.000000 15.015195 17.000000
-7.971122 21.813444 11.208038 0.000000 42.000000 14.371394 0.000000
-10.364292 21.760184 11.886220 0.000000 41.000000 15.054474 27.000000
-7.952155 22.003805 11.452138 0.000000 50.000000 14.450128 0.000000
-7.947945 22.085603 11.581100 0.000000 41.000000 14.477845 0.000000
-7.946291 22.168581 11.708304 0.000000 55.000000 14.508147 0.000000
-8.955269 22.130733 11.550536 0.000000 61.000000 14.924290 28.000000
-7.473280 23.616552 14.981359 0.000000 44.000000 14.525793 0.000000
-8.737607 23.017285 15.345976 0.000000 40.000000 14.392535 0.000000
-7.555650 23.535023 15.230830 0.000000 29.000000 14.408562 0.000000
-8.786904 23.111639 15.463770 0.000000 43.000000 14.455761 0.000000
-9.227137 21.173602 10.352893 0.000000 41.000000 14.588659 12.000000
-7.668495 23.665031 15.496555 0.000000 37.000000 14.480456 0.000000
-7.717726 23.779291 15.589523 0.000000 46.000000 14.568720 0.000000
-8.375086 23.197295 12.999337 0.000000 58.000000 15.152403 24.000000
-7.792331 23.781335 15.769021 0.000000 43.000000 14.542735 0.000000
-7.344092 22.932475 11.815370 0.000000 46.000000 14.894411 13.000000
-7.633183 24.045941 14.024202 0.000000 34.000000 15.263997 15.000000
-7.937177 23.852306 16.076192 0.000000 44.000000 14.563188 0.000000
-9.496600 20.978001 10.536814 0.000000 61.000000 14.467916 0.000000
-9.533829 21.027717 10.684185 0.000000 64.000000 14.478486 0.000000
-8.524745 23.182405 14.230451 0.000000 54.000000 14.806291 15.000000
-9.640961 21.040164 11.018092 0.000000 44.000000 14.425096 0.000000
-11.237782 21.424838 11.945732 0.000000 48.000000 15.091517 27.000000
-8.788128 23.576769 14.067781 0.000000 15.000000 15.301960 15.000000
-10.207439 22.994643 15.831149 0.000000 48.000000 14.798865 17.000000
-8.580323 21.598204 11.319520 0.000000 47.000000 14.390989 0.000000
-9.798690 21.123679 11.492208 0.000000 36.000000 14.408237 0.000000
-9.489933 23.030314 15.347490 0.000000 52.000000 14.700392 17.000000
-7.319837 23.023548 10.560134 0.000000 58.000000 15.363379 11.000000
-9.944473 21.324658 11.907839 0.000000 48.000000 14.506513 0.000000
-11.748406 20.359963 10.787847 0.000000 56.000000 14.744666 21.000000
-8.973055 21.577569 10.207635 0.000000 62.000000 14.882692 12.000000
-9.413860 22.054491 13.275541 0.000000 38.000000 14.489906 0.000000
-10.720443 21.534897 13.540841 0.000000 45.000000 14.473641 0.000000
-10.783026 21.645567 13.651822 0.000000 45.000000 14.558343 0.000000
-10.055949 23.291915 15.591617 0.000000 43.000000 15.071528 17.000000
-10.301856 21.753411 11.757582 0.000000 55.000000 15.064981 27.000000
-9.965049 22.143273 14.245630 0.000000 40.000000 14.474894 0.000000
-10.061193 22.173517 14.395808 0.000000 34.000000 14.491058 0.000000
-11.388489 21.018282 11.391010 0.000000 53.000000 14.977527 26.000000
-11.952990 21.598961 15.470217 0.000000 47.000000 14.400669 0.000000
-10.438310 21.819421 12.030615 0.000000 54.000000 15.088725 27.000000
-12.051557 21.681337 15.590884 0.000000 45.000000 14.472116 0.000000
-10.059134 22.817784 15.569698 0.000000 49.000000 14.671234 17.000000
-10.458280 21.720870 11.984589 0.000000 51.000000 15.026365 27.000000
-7.558935 22.256069 11.523660 0.000000 59.000000 14.489405 0.000000
-10.972697 22.104249 14.161308 0.000000 41.000000 14.866089 9.000000
-10.212451 20.975988 10.239797 0.000000 49.000000 14.843556 20.000000
-7.770970 21.942986 10.877080 0.000000 50.000000 14.509453 0.000000
-10.716457 21.602837 11.929674 0.000000 54.000000 15.044124 27.000000
-7.196664 22.575094 10.455238 0.000000 50.000000 14.961755 11.000000
-7.116237 22.654022 10.389667 0.000000 40.000000 15.018901 30.000000
-7.882791 21.720532 10.497767 0.000000 50.000000 14.482832 0.000000
-10.181919 21.305280 11.442924 0.000000 54.000000 14.731769 26.000000
-7.913278 21.660509 10.363888 0.000000 44.000000 14.485823 0.000000
-10.845247 20.260782 10.257628 0.000000 50.000000 14.471519 0.000000
-8.703330 22.457465 12.550989 0.000000 67.000000 14.787455 23.000000
-7.789185 22.830760 11.926165 0.000000 58.000000 14.947234 13.000000
-8.441317 23.504576 15.698229 0.000000 48.000000 14.583129 18.000000
-9.851569 20.822696 10.527514 0.000000 43.000000 14.477247 0.000000
-11.157318 20.283614 10.710074 0.000000 49.000000 14.470232 0.000000
-9.942787 20.864447 10.656998 0.000000 58.000000 14.507977 0.000000
-11.259296 20.307762 10.851698 0.000000 62.000000 14.486174 0.000000
-10.033899 20.913522 10.782215 0.000000 56.000000 14.546336 0.000000
-10.140735 20.916920 10.929325 0.000000 41.000000 14.544569 0.000000
-10.315259 20.708312 11.177312 0.000000 37.000000 14.354705 0.000000
-10.432314 20.692974 11.332765 0.000000 39.000000 14.338170 0.000000
-11.990167 20.300171 11.781594 0.000000 60.000000 14.471893 0.000000
-7.192045 23.034749 11.348737 0.000000 54.000000 15.071216 11.000000
-8.954090 22.483925 12.000431 0.000000 53.000000 15.084763 23.000000
-10.123592 20.950240 10.139778 0.000000 60.000000 14.818156 20.000000
-8.485499 23.689582 13.593129 0.000000 49.000000 15.430934 14.000000
-12.277281 20.729473 13.357930 0.000000 39.000000 14.452777 0.000000
-12.420662 20.751501 13.486977 0.000000 58.000000 14.487251 0.000000
-8.429821 23.572904 16.036070 0.000000 38.000000 14.529785 0.000000
-8.497699 23.507381 15.909098 0.000000 39.000000 14.540604 0.000000
-8.560028 23.453581 15.775209 0.000000 43.000000 14.561535 0.000000
-8.949098 22.122533 11.499340 0.000000 62.000000 14.931105 28.000000
-8.850381 22.987374 15.417049 0.000000 36.000000 14.388647 0.000000
-10.448158 22.106147 14.640746 0.000000 51.000000 14.507763 0.000000
-10.487522 22.031710 14.497291 0.000000 41.000000 14.504892 0.000000
-9.710783 22.361651 12.151088 0.000000 52.000000 15.230224 23.000000
-10.563122 21.868608 14.223479 0.000000 43.000000 14.481481 0.000000
-10.586229 21.819832 14.063098 0.000000 45.000000 14.499696 0.000000
-10.616674 21.739581 13.921578 0.000000 42.000000 14.487677 0.000000
-10.667939 21.593419 13.825174 0.000000 33.000000 14.412708 0.000000
-10.665725 21.595295 13.630122 0.000000 37.000000 14.475618 0.000000
-7.311690 22.958122 11.675997 0.000000 57.000000 14.948135 13.000000
-10.684454 21.532469 13.476645 0.000000 40.000000 14.477797 0.000000
-10.741570 21.251239 12.881541 0.000000 51.000000 14.447703 0.000000
-9.434123 21.363634 11.501768 0.000000 37.000000 14.467971 0.000000
-9.433269 21.269877 11.372905 0.000000 42.000000 14.427920 0.000000
-9.427791 21.185573 11.239778 0.000000 42.000000 14.395546 0.000000
-10.704166 20.617987 11.357908 0.000000 43.000000 14.372904 0.000000
-9.410356 21.141266 11.088004 0.000000 48.000000 14.398856 0.000000
-10.665192 20.626261 11.171409 0.000000 54.000000 14.424084 0.000000
-9.365458 21.192958 10.890469 0.000000 54.000000 14.488625 0.000000
-8.799595 23.348435 15.411939 0.000000 51.000000 14.681330 18.000000
-8.662369 23.482735 14.326783 0.000000 58.000000 15.088720 15.000000
-7.502460 22.540777 10.798645 0.000000 65.000000 14.943501 11.000000
-10.547032 20.488178 10.522647 0.000000 45.000000 14.465215 0.000000
-8.435065 21.855240 10.976988 0.000000 41.000000 14.664272 10.000000
-7.873258 23.401383 13.968145 0.000000 41.000000 14.821289 15.000000
-12.284441 21.676353 15.717337 0.000000 39.000000 14.519489 0.000000
-8.790707 23.442043 14.411748 0.000000 49.000000 15.077261 15.000000
-7.637897 23.684030 12.570700 0.000000 63.000000 15.417282 14.000000
-8.825035 22.615882 12.057442 0.000000 54.000000 15.129325 23.000000
-12.142504 21.272839 14.349082 0.000000 47.000000 14.551840 0.000000
-12.147176 21.135560 14.235718 0.000000 41.000000 14.471529 0.000000
-12.158668 20.977548 14.138120 0.000000 32.000000 14.371023 0.000000
-7.256780 22.914907 10.552834 0.000000 53.000000 15.247192 11.000000
-10.672185 21.510635 11.441263 0.000000 59.000000 15.102862 26.000000
-11.957996 20.905987 13.395012 0.000000 36.000000 14.466958 0.000000
-11.208435 20.352936 11.326746 0.000000 34.000000 14.353603 0.000000
-11.114688 20.378479 11.146009 0.000000 37.000000 14.396194 0.000000
-9.279234 22.145979 11.594854 0.000000 72.000000 15.051244 28.000000
-7.290699 23.508847 11.880508 0.000000 54.000000 15.349197 13.000000
-10.925489 20.432519 10.789157 0.000000 43.000000 14.481776 0.000000
-8.987753 21.466526 10.165734 0.000000 57.000000 14.806171 12.000000
-10.547583 21.647918 11.519989 0.000000 52.000000 15.146852 26.000000
-10.765075 20.378180 10.490117 0.000000 44.000000 14.466914 0.000000
-12.110019 19.827748 10.547331 0.000000 45.000000 14.505549 0.000000
-10.297591 23.399155 15.918296 0.000000 41.000000 15.155242 17.000000
-7.557159 21.950549 10.624682 0.000000 60.000000 14.511976 0.000000
-8.531958 22.334950 12.055352 0.000000 52.000000 14.772182 23.000000
-11.927024 20.345604 11.002867 0.000000 55.000000 14.734303 21.000000
-11.880669 21.265858 12.238483 0.000000 30.000000 15.115117 25.000000
-7.732424 23.623215 15.369775 0.000000 44.000000 14.510080 0.000000
-7.779560 23.660392 15.527881 0.000000 50.000000 14.510337 0.000000
-7.816862 23.761361 15.635567 0.000000 49.000000 14.577747 0.000000
-7.875021 23.768092 15.817050 0.000000 43.000000 14.548673 0.000000
-7.928655 23.805904 15.971932 0.000000 36.000000 14.553070 0.000000
-11.353262 20.960797 11.477480 0.000000 61.000000 14.886523 26.000000
-7.889226 21.620885 10.259738 0.000000 40.000000 14.475377 0.000000
-7.897308 21.678333 10.399381 0.000000 46.000000 14.483562 0.000000
-8.394847 21.890941 10.172819 0.000000 54.000000 14.935458 12.000000
-7.908647 21.735628 10.539658 0.000000 51.000000 14.492699 0.000000
-11.227808 21.492370 11.408176 0.000000 47.000000 15.317099 26.000000
-7.921248 21.790922 10.679303 0.000000 62.000000 14.500811 0.000000
-7.936129 21.845902 10.819770 0.000000 49.000000 14.509293 0.000000
-8.157626 23.012350 12.641379 0.000000 61.000000 15.021253 14.000000
-9.159112 21.228387 11.220003 0.000000 35.000000 14.332631 0.000000
-10.554818 23.322053 15.935915 0.000000 45.000000 15.184777 17.000000
-9.180539 21.287325 11.365718 0.000000 39.000000 14.345435 0.000000
-8.022205 21.858414 11.321354 0.000000 41.000000 14.394200 0.000000
-11.823120 21.214764 12.978388 0.000000 47.000000 14.812539 25.000000
-8.054782 22.040691 11.565273 0.000000 47.000000 14.486383 0.000000
-7.530250 22.899147 12.695071 0.000000 23.000000 14.658831 14.000000
-8.114663 22.140370 11.853429 0.000000 51.000000 14.504078 0.000000
-11.046846 22.421745 14.080990 0.000000 54.000000 15.194544 9.000000
-7.419416 22.451821 10.206127 0.000000 62.000000 15.022904 30.000000
-9.566321 21.876403 12.979691 0.000000 43.000000 14.490960 0.000000
-11.633126 20.335135 10.367518 0.000000 55.000000 14.811715 21.000000
-11.049497 22.120673 14.930528 0.000000 41.000000 14.665403 9.000000
-9.734448 21.982477 13.455996 0.000000 37.000000 14.496948 0.000000
-9.794862 22.019556 13.617481 0.000000 44.000000 14.501287 0.000000
-11.532510 20.400745 10.113600 0.000000 41.000000 14.909441 21.000000
-8.916200 23.391382 14.258817 0.000000 36.000000 15.131912 15.000000
-10.023891 22.019199 14.166763 0.000000 37.000000 14.416360 0.000000
-10.069586 22.140161 14.270221 0.000000 43.000000 14.505659 0.000000
-10.147809 22.164412 14.431973 0.000000 50.000000 14.505893 0.000000
-9.291626 21.802656 11.436108 0.000000 45.000000 14.810908 28.000000
-9.346300 22.823751 15.118499 0.000000 55.000000 14.538667 0.000000
-9.996087 21.409923 11.715200 0.000000 38.000000 14.661765 26.000000
-9.058746 23.418982 14.329471 0.000000 15.000000 15.189470 15.000000
-7.788555 22.255212 11.777336 0.000000 42.000000 14.498496 0.000000
-10.514057 20.975050 10.747953 0.000000 65.000000 14.799898 8.000000
-7.944720 22.081291 11.573396 0.000000 41.000000 14.475311 0.000000
-11.618220 20.791978 10.991387 0.000000 67.000000 15.000627 21.000000
-8.112170 21.820278 11.406730 0.000000 35.000000 14.369658 0.000000
-8.174437 21.792721 11.266988 0.000000 44.000000 14.415044 0.000000
-11.556245 20.243361 10.714424 0.000000 42.000000 14.591707 21.000000
-8.481401 21.500019 10.638779 0.000000 45.000000 14.484288 0.000000
-8.790641 23.500450 13.351825 0.000000 65.000000 15.465384 14.000000
-7.230466 23.102210 11.890548 0.000000 54.000000 14.971830 13.000000
-9.354877 21.098484 10.605601 0.000000 45.000000 14.493836 0.000000
-8.995957 22.672004 12.110643 0.000000 60.000000 15.228229 23.000000
-9.503561 21.131886 10.906468 0.000000 51.000000 14.485444 0.000000
-8.765727 22.665177 13.189889 0.000000 36.000000 14.787441 24.000000
-9.592459 21.110985 11.076205 0.000000 55.000000 14.448443 0.000000
-9.033532 23.176652 13.477312 0.000000 63.000000 15.242311 29.000000
-10.367047 21.756418 11.599058 0.000000 59.000000 15.143843 26.000000
-9.764695 21.103033 11.396592 0.000000 41.000000 14.407496 0.000000
-9.834100 21.180318 11.518257 0.000000 42.000000 14.462722 0.000000
-7.477014 23.148163 11.897544 0.000000 58.000000 15.106563 13.000000
-10.796861 22.130381 14.291722 0.000000 44.000000 14.777598 9.000000
-10.410774 22.923782 15.941345 0.000000 61.000000 14.782987 17.000000
-10.051598 21.952434 12.033621 0.000000 57.000000 15.049656 27.000000
-9.308421 23.072495 15.017161 0.000000 30.000000 14.770337 19.000000
-8.692625 23.396006 14.772995 0.000000 48.000000 14.883720 19.000000
-11.026221 21.443654 12.891077 0.000000 65.000000 14.722875 22.000000
-12.761496 20.690756 14.032845 0.000000 38.000000 14.395533 0.000000
-8.837059 23.567407 15.433073 0.000000 72.000000 14.878067 18.000000
-7.447613 23.777539 12.409986 0.000000 62.000000 15.473930 14.000000
-8.218231 22.971559 11.848142 0.000000 53.000000 15.262863 13.000000
-9.274875 21.350980 10.217092 0.000000 53.000000 14.803633 12.000000
-7.918703 23.821413 16.073228 0.000000 50.000000 14.530218 0.000000
-8.007761 23.776057 15.959235 0.000000 37.000000 14.562640 0.000000
-8.108818 23.671603 15.895171 0.000000 43.000000 14.532966 0.000000
-8.202235 23.583691 15.812426 0.000000 45.000000 14.520481 0.000000
-8.295915 23.497264 15.727086 0.000000 46.000000 14.510208 0.000000
-11.555862 20.779169 11.321272 0.000000 45.000000 14.859821 21.000000
-10.403518 23.024080 15.650383 0.000000 70.000000 14.959280 17.000000
-7.273762 22.715988 11.773439 0.000000 36.000000 14.693463 13.000000
-9.568683 22.303126 12.035176 0.000000 63.000000 15.160620 23.000000
-10.677995 20.703214 10.820237 0.000000 57.000000 14.607374 8.000000
-8.748528 22.993667 15.308486 0.000000 51.000000 14.388447 0.000000
-7.630533 23.488869 14.902679 0.000000 35.000000 14.502956 0.000000
-11.804171 20.507828 10.591700 0.000000 59.000000 14.956615 21.000000
-8.560874 22.157372 11.305771 0.000000 53.000000 14.869500 28.000000
-9.701268 21.927300 13.245484 0.000000 54.000000 14.503396 0.000000
-7.497756 22.636710 10.109503 0.000000 65.000000 15.243950 30.000000
-9.790951 21.757127 12.991016 0.000000 40.000000 14.473289 0.000000
-11.102083 21.511429 12.989863 0.000000 50.000000 14.779749 22.000000
-10.661314 21.805026 12.943077 0.000000 52.000000 14.873569 22.000000
-8.563782 22.392759 11.313741 0.000000 76.000000 15.070930 28.000000
-8.463609 21.745311 10.662491 0.000000 61.000000 14.681061 10.000000
-10.852084 21.518609 11.824177 0.000000 46.000000 15.058736 26.000000
-8.725950 24.007715 15.939374 0.000000 18.000000 15.052211 16.000000
-9.113635 21.790317 11.401758 0.000000 46.000000 14.740931 28.000000
-10.113540 20.798368 11.175351 0.000000 35.000000 14.353263 0.000000
-10.079993 20.876573 10.959251 0.000000 48.000000 14.476276 0.000000
-10.072174 21.386927 11.945698 0.000000 42.000000 14.598533 27.000000
-10.089487 20.746299 10.669341 0.000000 52.000000 14.460175 0.000000
-10.713418 20.325140 10.293011 0.000000 49.000000 14.463634 0.000000
-12.025151 19.875630 10.426154 0.000000 43.000000 14.551912 0.000000
-10.846931 20.302951 10.434597 0.000000 52.000000 14.452115 0.000000
-8.016450 23.605555 13.471562 0.000000 47.000000 15.212038 14.000000
-10.974947 20.308873 10.563167 0.000000 57.000000 14.466796 0.000000
-11.111398 20.289624 10.701329 0.000000 47.000000 14.460063 0.000000
-11.246788 20.291504 10.832173 0.000000 56.000000 14.473449 0.000000
-7.725238 23.824502 14.128368 0.000000 68.000000 15.076348 15.000000
-8.422457 22.153941 11.339810 0.000000 54.000000 14.801030 28.000000
-12.482070 20.089016 11.945214 0.000000 47.000000 14.432066 0.000000
-10.672347 21.652853 13.185762 0.000000 38.000000 14.669456 22.000000
-11.493316 20.756263 11.193760 0.000000 45.000000 14.856025 21.000000
-8.373341 22.345147 11.405625 0.000000 76.000000 14.925409 28.000000
-11.067062 21.934754 15.478155 0.000000 28.000000 14.337600 0.000000
-12.473149 21.533355 15.704441 0.000000 45.000000 14.474910 0.000000
-11.908987 20.356072 11.009559 0.000000 39.000000 14.734067 21.000000
-11.357142 20.515628 10.827112 0.000000 64.000000 14.711761 21.000000
-11.318420 20.351389 10.378916 0.000000 44.000000 14.697802 21.000000
-12.516088 21.091898 14.555951 0.000000 43.000000 14.477536 0.000000
-12.516549 21.018362 14.397847 0.000000 48.000000 14.464746 0.000000
-12.514765 20.941486 14.241080 0.000000 52.000000 14.447766 0.000000
-10.661966 21.579409 11.390892 0.000000 63.000000 15.174140 26.000000
-7.507002 22.599927 10.870491 0.000000 46.000000 14.973362 11.000000
-10.016832 21.979873 12.166906 0.000000 67.000000 15.017088 27.000000
-12.431398 20.873953 13.675437 0.000000 50.000000 14.536936 0.000000
-12.439922 20.746776 13.551483 0.000000 59.000000 14.470227 0.000000
-8.537232 23.166422 14.445678 0.000000 35.000000 14.728853 15.000000
-12.337412 20.524866 12.891039 0.000000 43.000000 14.449033 0.000000
-12.182379 20.352369 12.218919 0.000000 49.000000 14.453393 0.000000
-8.607152 23.180842 14.225891 0.000000 47.000000 14.838943 15.000000
-12.086199 20.280221 11.882317 0.000000 47.000000 14.460526 0.000000
-9.100343 22.351688 13.192309 0.000000 46.000000 14.648699 29.000000
-7.301390 22.936396 11.963636 0.000000 62.000000 14.833670 13.000000
-11.415738 20.537281 11.056135 0.000000 69.000000 14.680565 21.000000
-7.457663 23.525551 11.919922 0.000000 55.000000 15.416967 13.000000
-12.288459 19.924040 10.903572 0.000000 44.000000 14.545448 0.000000
-8.378323 23.767163 14.285833 0.000000 56.000000 15.234674 15.000000
-11.439396 21.146177 12.811401 0.000000 40.000000 14.655121 25.000000
-7.688310 21.907170 10.653983 0.000000 57.000000 14.517054 0.000000
-8.839552 21.418793 11.329131 0.000000 37.000000 14.335711 0.000000
-8.812719 21.595559 11.410235 0.000000 52.000000 14.451575 0.000000
-8.714849 23.325359 14.578067 0.000000 41.000000 14.893752 19.000000
-9.011774 21.774350 10.818344 0.000000 70.000000 14.872893 10.000000
-7.681700 22.312830 11.791170 0.000000 47.000000 14.501534 0.000000
-8.331796 23.231602 14.957152 0.000000 42.000000 14.540865 0.000000
-10.338850 21.747101 11.555795 0.000000 73.000000 15.138467 26.000000
-8.807023 23.199626 13.421718 0.000000 56.000000 15.190371 29.000000
-8.475682 23.187894 15.365488 0.000000 47.000000 14.429882 0.000000
-8.726539 23.413066 15.928673 0.000000 42.000000 14.543472 0.000000
-8.673434 22.364564 11.343667 0.000000 74.000000 15.080402 28.000000
-6.909025 22.670541 11.813312 0.000000 34.000000 14.497551 0.000000
-7.933983 21.831836 10.810535 0.000000 48.000000 14.499268 0.000000
-7.842379 23.620638 13.116619 0.000000 47.000000 15.269418 14.000000
-8.104145 21.673553 10.609032 0.000000 56.000000 14.494308 0.000000
-7.540921 23.089863 12.559204 0.000000 52.000000 14.870681 14.000000
-7.613827 23.122551 11.847212 0.000000 52.000000 15.154567 13.000000
-9.057089 21.211071 10.541837 0.000000 50.000000 14.493567 0.000000
-7.223211 23.068149 10.637902 0.000000 44.000000 15.338863 11.000000
-10.302766 20.750028 10.850746 0.000000 54.000000 14.489800 0.000000
-7.829043 23.369455 11.914308 0.000000 47.000000 15.430923 13.000000
-9.181017 21.366966 10.961896 0.000000 37.000000 14.542954 0.000000
-11.735399 21.152676 12.870508 0.000000 60.000000 14.758781 25.000000
-10.312254 21.616150 11.431809 0.000000 52.000000 15.054647 26.000000
-10.504860 20.690496 11.391941 0.000000 39.000000 14.345825 0.000000
-9.537091 22.464612 12.412211 0.000000 51.000000 15.167119 23.000000
-11.782446 20.631179 10.941608 0.000000 40.000000 14.942797 21.000000
-7.485388 23.509117 12.031248 0.000000 56.000000 15.378274 13.000000
-7.647223 23.581959 13.303942 0.000000 40.000000 15.099314 14.000000
-9.349539 22.811123 13.222406 0.000000 54.000000 15.133394 29.000000
-9.185864 22.892459 13.402146 0.000000 47.000000 15.081551 29.000000
-11.319604 22.447546 14.003701 0.000000 12.000000 15.349129 9.000000
-10.285782 21.717670 13.463886 0.000000 41.000000 14.483996 0.000000
-9.112955 22.613060 12.655206 0.000000 69.000000 15.050080 24.000000
-11.194865 20.940424 12.156310 0.000000 44.000000 14.590055 27.000000
-9.078783 21.968177 11.293235 0.000000 66.000000 14.915010 28.000000
-12.011326 21.281090 14.385002 0.000000 57.000000 14.495696 0.000000
-8.343847 23.000662 11.910882 0.000000 44.000000 15.317552 13.000000
-7.368776 22.839388 10.637360 0.000000 65.000000 15.199410 11.000000
-11.228976 20.833108 11.727436 0.000000 31.000000 14.647748 26.000000
-11.134305 21.059660 11.252512 0.000000 56.000000 14.956939 26.000000
-12.353192 21.328354 14.886789 0.000000 43.000000 14.511501 0.000000
-8.182714 23.201675 12.588499 0.000000 69.000000 15.211148 14.000000
-11.692830 21.868405 15.577356 0.000000 46.000000 14.495945 0.000000
-13.158644 21.340000 15.953965 0.000000 47.000000 14.499496 0.000000
-9.822130 22.290196 12.176148 0.000000 66.000000 15.204641 23.000000
-8.227326 23.317152 12.934873 0.000000 70.000000 15.217870 14.000000
-11.233289 22.176790 14.355120 0.000000 62.000000 14.969737 9.000000
-9.584616 21.266086 11.496659 0.000000 43.000000 14.444980 0.000000
-8.469864 21.709036 11.272900 0.000000 42.000000 14.457723 0.000000
-9.622960 21.200544 11.361266 0.000000 48.000000 14.446801 0.000000
-11.371899 21.845911 14.444068 0.000000 34.000000 14.711024 9.000000
-7.084662 22.986510 11.252105 0.000000 74.000000 15.018041 11.000000
-9.133925 23.140680 13.319048 0.000000 39.000000 15.301405 29.000000
-8.590102 21.490005 10.722848 0.000000 44.000000 14.491793 0.000000
-7.889704 23.612492 13.228462 0.000000 60.000000 15.245442 14.000000
-9.797667 20.844168 10.517064 0.000000 45.000000 14.477792 0.000000
-8.138612 22.667889 11.790812 0.000000 38.000000 14.988033 13.000000
-10.411897 20.583202 10.583922 0.000000 56.000000 14.474195 0.000000
-7.244989 23.512265 12.423671 0.000000 59.000000 15.160972 14.000000
-8.436467 22.096216 10.735789 0.000000 59.000000 14.949339 10.000000
-11.437850 20.691833 10.809180 0.000000 64.000000 14.901178 21.000000
-10.977722 20.526656 11.341916 0.000000 46.000000 14.407340 0.000000
-12.333373 19.961518 11.561361 0.000000 43.000000 14.385825 0.000000
-12.401742 20.120694 11.634271 0.000000 62.000000 14.526743 0.000000
-12.407979 20.533116 12.929778 0.000000 47.000000 14.471663 0.000000
-8.848322 21.437177 10.402915 0.000000 42.000000 14.650222 12.000000
-9.149513 22.189209 11.824510 0.000000 58.000000 14.964067 23.000000
-11.092702 21.969759 14.583974 0.000000 39.000000 14.662885 9.000000
-11.130937 22.033362 15.585008 0.000000 37.000000 14.413736 0.000000
-7.406788 22.769904 11.644538 0.000000 57.000000 14.833540 11.000000
-11.209565 21.909479 15.284360 0.000000 42.000000 14.433867 0.000000
-8.055563 23.570111 12.845849 0.000000 58.000000 15.396374 14.000000
-9.947107 22.351530 14.680225 0.000000 33.000000 14.508738 0.000000
-11.343085 20.250465 10.384611 0.000000 39.000000 14.618766 21.000000
-8.462014 23.734711 14.254410 0.000000 46.000000 15.249779 15.000000
-10.043998 22.127020 14.273942 0.000000 38.000000 14.483044 0.000000
-8.462344 23.711250 13.405562 0.000000 52.000000 15.500242 14.000000
-10.109284 21.936661 14.024448 0.000000 31.000000 14.424324 0.000000
-10.126448 21.879604 13.873711 0.000000 34.000000 14.429982 0.000000
-10.130960 21.853411 13.515400 0.000000 42.000000 14.523397 0.000000
-10.996541 21.469680 12.913020 0.000000 31.000000 14.726586 22.000000
-10.151724 21.740570 13.214442 0.000000 45.000000 14.530289 0.000000
-7.965276 23.670757 13.197479 0.000000 61.000000 15.335366 14.000000
-9.979968 21.291200 11.533762 0.000000 42.000000 14.610929 26.000000
-9.214392 21.927547 11.357835 0.000000 58.000000 14.912967 28.000000
-8.095855 22.507313 12.132884 0.000000 61.000000 14.723759 13.000000
-9.056524 23.079049 15.198431 0.000000 47.000000 14.618729 19.000000
-10.194321 21.467147 12.830204 0.000000 34.000000 14.433981 0.000000
-11.680815 20.455818 10.668367 0.000000 46.000000 14.838648 21.000000
-10.147379 21.267063 12.030204 0.000000 38.000000 14.498018 0.000000
-11.332334 21.349956 12.112916 0.000000 69.000000 15.011050 27.000000
-7.155135 23.198493 11.412017 0.000000 68.000000 15.177561 11.000000
-10.248751 21.963067 12.108366 0.000000 57.000000 15.112856 27.000000
-10.810539 21.682910 12.899177 0.000000 40.000000 14.841271 22.000000
-11.277609 20.359977 11.081227 0.000000 46.000000 14.465242 0.000000
-11.238375 20.340698 10.914255 0.000000 59.000000 14.486353 0.000000
-9.952497 20.873369 10.671233 0.000000 54.000000 14.514962 0.000000
-9.728758 23.320109 15.256713 0.000000 61.000000 15.073346 17.000000
-11.173433 20.234804 10.609852 0.000000 48.000000 14.466482 0.000000
-7.149414 23.032859 11.578324 0.000000 72.000000 14.979577 11.000000
-11.132278 20.200347 10.451049 0.000000 48.000000 14.471153 0.000000
-12.215446 19.697370 10.529134 0.000000 45.000000 14.440644 0.000000
-9.118322 22.168659 11.762884 0.000000 70.000000 14.953684 28.000000
-11.342030 20.441063 10.772791 0.000000 71.000000 14.658856 21.000000
-9.154086 22.991478 13.782269 0.000000 56.000000 15.033167 29.000000
-12.622130 20.479079 13.080556 0.000000 41.000000 14.461619 0.000000
-7.933153 23.609071 13.372177 0.000000 47.000000 15.213848 14.000000
-10.379695 21.968310 12.172517 0.000000 58.000000 15.148640 27.000000
-10.001842 21.411085 11.675639 0.000000 57.000000 14.677648 26.000000
-12.222192 20.286451 12.089750 0.000000 38.000000 14.453487 0.000000
-11.858817 21.005783 12.354635 0.000000 35.000000 14.845372 25.000000
-12.052583 20.289342 11.740331 0.000000 56.000000 14.500364 0.000000
-11.475912 20.121084 10.663023 0.000000 41.000000 14.471004 0.000000
-8.432091 21.521622 10.652395 0.000000 48.000000 14.479089 0.000000
-7.480468 23.102215 11.864573 0.000000 70.000000 15.078845 13.000000
-8.326365 21.729491 11.373990 0.000000 42.000000 14.386457 0.000000
-8.673299 23.543929 13.704841 0.000000 63.000000 15.343993 14.000000
-7.362450 23.629601 14.864477 0.000000 42.000000 14.530521 0.000000
-11.642604 20.124500 10.395355 0.000000 27.000000 14.625091 21.000000
-7.398511 23.683330 15.008521 0.000000 42.000000 14.545148 0.000000
-11.785179 20.507134 11.354846 0.000000 48.000000 14.705284 21.000000
-9.039419 21.657569 10.806227 0.000000 72.000000 14.787048 10.000000
-8.624935 23.287186 15.386255 0.000000 60.000000 14.567763 0.000000
