-12.738969 45.560643 -12.158612 0.000000 65.000000 14.496960 27.000000
-14.587499 46.661013 -12.311401 0.000000 46.000000 14.120117 0.000000
-13.025628 51.586151 -10.196892 0.000000 43.000000 14.160503 0.000000
-15.836042 45.943537 -13.472396 0.000000 47.000000 14.425029 20.000000
-11.307689 46.129003 -11.007041 0.000000 42.000000 14.240669 5.000000
-14.451685 45.814714 -12.495600 0.000000 40.000000 14.128263 0.000000
-17.194966 48.292452 -13.464988 0.000000 62.000000 14.425560 19.000000
-15.225568 46.742397 -12.470785 0.000000 38.000000 14.008954 0.000000
-13.486321 47.739940 -11.549342 0.000000 51.000000 14.190022 0.000000
-12.097545 49.050583 -10.372993 0.000000 19.000000 14.078211 0.000000
-14.083172 45.298630 -12.877724 0.000000 69.000000 14.489292 22.000000
-15.043122 46.250702 -12.631080 0.000000 42.000000 14.103954 0.000000
-14.352388 44.862546 -12.583130 0.000000 43.000000 14.010463 0.000000
-14.851010 47.170240 -12.693595 0.000000 60.000000 14.467805 9.000000
-14.722864 45.603019 -13.261220 0.000000 64.000000 14.628010 23.000000
-14.187551 44.865768 -12.877581 0.000000 54.000000 14.337624 23.000000
-13.865953 44.202741 -12.527144 0.000000 45.000000 14.004067 0.000000
-14.172029 44.752291 -13.058181 0.000000 70.000000 14.473415 23.000000
-15.710594 47.046367 -12.600434 0.000000 24.000000 13.991891 0.000000
-16.211890 46.562048 -13.168845 0.000000 56.000000 14.154753 0.000000
-14.556888 44.439019 -12.958499 0.000000 48.000000 14.145894 0.000000
-14.673250 44.641855 -12.927439 0.000000 42.000000 14.119852 0.000000
-17.115209 49.136536 -13.365090 0.000000 58.000000 14.581608 7.000000
-14.097024 48.026512 -11.698201 0.000000 35.000000 14.132159 0.000000
-15.597260 47.840488 -12.733358 0.000000 60.000000 14.352627 8.000000
-16.044303 47.063529 -12.887115 0.000000 45.000000 14.104609 0.000000
-12.093238 48.741198 -10.441380 0.000000 35.000000 14.062900 0.000000
-16.008418 48.119821 -12.487902 0.000000 35.000000 14.033908 0.000000
-16.708145 48.675376 -12.642029 0.000000 41.000000 14.009636 0.000000
-12.745188 47.765074 -12.264239 0.000000 3.000000 15.133007 24.000000
-13.796336 46.993921 -12.635035 0.000000 59.000000 14.819702 30.000000
-15.277905 48.331198 -12.189218 0.000000 47.000000 14.135446 0.000000
-12.736382 49.554459 -11.076792 0.000000 44.000000 14.545840 1.000000
-12.325072 45.383977 -12.257602 0.000000 78.000000 14.714682 27.000000
-16.266438 47.091244 -13.011165 0.000000 61.000000 14.125494 0.000000
-15.006758 45.027076 -13.717208 0.000000 68.000000 14.762266 18.000000
-15.211586 48.766592 -11.986420 0.000000 44.000000 14.094802 0.000000
-13.610507 47.711136 -12.516611 0.000000 68.000000 14.973069 29.000000
-16.736500 47.708236 -13.040561 0.000000 44.000000 14.105041 0.000000
-13.570262 45.362670 -12.376662 0.000000 68.000000 14.285809 30.000000
-17.030327 48.099991 -13.100329 0.000000 46.000000 14.129830 0.000000
-14.974705 45.943335 -13.111853 0.000000 66.000000 14.475605 23.000000
-14.564315 46.648358 -12.858761 0.000000 77.000000 14.603712 9.000000
-14.566764 43.997253 -13.057974 0.000000 43.000000 14.118836 0.000000
-15.526917 47.388688 -12.545087 0.000000 42.000000 14.106340 0.000000
-14.910807 47.747862 -12.209689 0.000000 45.000000 14.164091 0.000000
-13.111673 49.218550 -10.908642 0.000000 34.000000 14.157101 0.000000
-13.547414 44.513331 -12.469563 0.000000 73.000000 14.165813 0.000000
-13.448042 44.603665 -12.366538 0.000000 49.000000 14.140532 0.000000
-12.746697 50.244773 -10.410576 0.000000 29.000000 14.132179 0.000000
-16.345663 47.195321 -13.034462 0.000000 59.000000 14.138051 0.000000
-11.965021 45.782672 -11.388791 0.000000 46.000000 14.209032 0.000000
-12.868001 45.204399 -11.847224 0.000000 21.000000 14.082663 0.000000
-17.224872 48.188527 -13.424477 0.000000 51.000000 14.351827 19.000000
-11.362910 46.480426 -10.900729 0.000000 56.000000 14.211798 0.000000
-11.012498 47.031732 -10.521745 0.000000 54.000000 14.166697 0.000000
-15.050981 46.066590 -13.041103 0.000000 62.000000 14.412223 23.000000
-16.962623 49.231781 -13.248930 0.000000 71.000000 14.568636 7.000000
-13.057205 44.579745 -12.505059 0.000000 74.000000 14.420809 28.000000
-16.480431 48.815735 -12.488257 0.000000 36.000000 14.006895 0.000000
-13.783253 45.102339 -12.877582 0.000000 66.000000 14.567505 22.000000
-14.205793 44.907867 -13.317770 0.000000 68.000000 14.723875 23.000000
-13.464568 47.395355 -12.080706 0.000000 53.000000 14.576762 29.000000
-16.177497 49.454449 -12.325472 0.000000 60.000000 14.151736 0.000000
-16.939104 49.259211 -12.723437 0.000000 52.000000 14.127536 0.000000
-12.898285 46.335978 -12.556353 0.000000 55.000000 14.968308 26.000000
-12.845359 44.864923 -11.934091 0.000000 54.000000 14.083757 0.000000
-15.912746 46.269756 -13.057218 0.000000 37.000000 14.111695 0.000000
-12.689186 49.493966 -11.035594 0.000000 63.000000 14.514930 1.000000
-12.568570 47.856823 -11.428138 0.000000 68.000000 14.502060 15.000000
-12.308409 46.474862 -11.335582 0.000000 26.000000 14.188897 0.000000
-12.657501 48.665203 -10.878043 0.000000 40.000000 14.185560 0.000000
-13.675782 48.149690 -11.484808 0.000000 48.000000 14.155167 0.000000
-13.652091 50.503156 -10.877841 0.000000 43.000000 14.219955 16.000000
-16.213903 49.344340 -12.394302 0.000000 48.000000 14.168986 0.000000
-16.650940 48.986873 -13.265290 0.000000 76.000000 14.654153 7.000000
-12.710466 46.198184 -12.228328 0.000000 51.000000 14.727869 26.000000
-11.449370 47.660829 -10.518251 0.000000 41.000000 14.134643 0.000000
-13.489895 44.540487 -12.681818 0.000000 79.000000 14.381844 22.000000
-15.602456 46.870049 -12.670244 0.000000 34.000000 14.054789 0.000000
-14.637383 45.393770 -13.168990 0.000000 74.000000 14.531962 23.000000
-13.404100 44.814829 -12.271071 0.000000 41.000000 14.128324 0.000000
-13.098600 47.536135 -12.322627 0.000000 4.000000 14.977442 24.000000
-10.810728 47.118158 -10.541293 0.000000 54.000000 14.290608 2.000000
-14.731426 44.461725 -13.178249 0.000000 56.000000 14.269077 18.000000
-12.361280 46.539008 -11.964196 0.000000 66.000000 14.730125 25.000000
-13.620990 48.246358 -11.427780 0.000000 49.000000 14.152654 0.000000
-13.878655 47.762594 -12.177348 0.000000 62.000000 14.576672 29.000000
-12.919782 44.966568 -12.320759 0.000000 50.000000 14.414349 28.000000
-15.047300 46.812833 -12.737025 0.000000 66.000000 14.333890 9.000000
-12.356393 45.659348 -11.826324 0.000000 47.000000 14.393931 27.000000
-12.722480 47.423568 -11.754578 0.000000 63.000000 14.613870 24.000000
-14.437297 49.753296 -11.413236 0.000000 29.000000 14.167970 0.000000
-14.273113 47.507844 -12.577345 0.000000 46.000000 14.694968 9.000000
-13.353881 48.116259 -11.221979 0.000000 31.000000 14.054196 0.000000
-13.351443 45.429461 -12.520584 0.000000 67.000000 14.520439 30.000000
-14.417801 44.069485 -12.988972 0.000000 49.000000 14.139711 0.000000
-14.153900 49.120285 -11.634469 0.000000 44.000000 14.323774 13.000000
-15.092751 46.076825 -12.680112 0.000000 42.000000 14.082540 0.000000
-13.688937 45.211876 -12.305008 0.000000 49.000000 14.135726 0.000000
-13.434035 46.004478 -11.796301 0.000000 36.000000 13.996985 0.000000
-11.849658 47.225992 -10.881858 0.000000 33.000000 14.174107 0.000000
-14.826694 44.801386 -13.456135 0.000000 70.000000 14.555083 18.000000
-16.212671 49.043384 -12.438956 0.000000 56.000000 14.133785 0.000000
-12.664664 49.265212 -10.922211 0.000000 50.000000 14.369799 1.000000
-15.785987 46.117621 -13.047758 0.000000 34.000000 14.119408 0.000000
-12.958069 49.633432 -10.780544 0.000000 42.000000 14.213420 0.000000
-15.125284 50.164640 -12.067172 0.000000 56.000000 14.548393 6.000000
-12.682622 50.471157 -10.705027 0.000000 57.000000 14.472007 4.000000
-11.359131 45.676884 -11.366506 0.000000 54.000000 14.419971 5.000000
-14.539057 47.742482 -11.934106 0.000000 51.000000 14.080074 0.000000
-16.075459 47.257402 -12.852670 0.000000 34.000000 14.109479 0.000000
-15.402602 46.811480 -12.568183 0.000000 40.000000 14.035976 0.000000
-12.405307 46.531396 -11.158542 0.000000 38.000000 14.007626 0.000000
-16.162243 47.791462 -12.967650 0.000000 57.000000 14.305344 14.000000
-11.673335 47.726789 -10.997831 0.000000 75.000000 14.474011 12.000000
-15.590311 48.483771 -12.327493 0.000000 36.000000 14.161459 0.000000
-14.329811 46.384947 -12.287348 0.000000 56.000000 14.139830 0.000000
-10.172692 46.654791 -10.738674 0.000000 60.000000 14.617884 2.000000
-14.166808 44.925143 -12.993402 0.000000 60.000000 14.462047 23.000000
-13.508262 47.525515 -12.142638 0.000000 44.000000 14.644496 29.000000
-12.153063 50.007980 -10.193610 0.000000 49.000000 14.135816 0.000000
-14.707551 44.820509 -13.176384 0.000000 42.000000 14.366533 23.000000
-14.563140 48.445209 -11.807159 0.000000 37.000000 14.133526 0.000000
-14.260784 45.079799 -13.297358 0.000000 78.000000 14.725437 23.000000
-13.090222 46.536936 -11.669493 0.000000 45.000000 14.164136 0.000000
-17.109080 48.102388 -13.297154 0.000000 31.000000 14.268567 19.000000
-16.824705 48.407676 -13.038738 0.000000 48.000000 14.239543 14.000000
-14.941606 45.678394 -13.543561 0.000000 71.000000 14.800070 23.000000
-13.184542 47.367924 -11.900628 0.000000 44.000000 14.531647 24.000000
-14.671637 45.316793 -13.230002 0.000000 68.000000 14.551527 23.000000
-14.614418 45.282787 -13.228250 0.000000 66.000000 14.565799 23.000000
-15.164447 45.194059 -13.063679 0.000000 28.000000 14.167474 0.000000
-14.508438 44.070121 -13.334139 0.000000 61.000000 14.402229 18.000000
-15.469840 45.793794 -12.995209 0.000000 41.000000 14.127206 0.000000
-12.645118 46.235688 -12.094550 0.000000 71.000000 14.648283 26.000000
-12.179352 45.276814 -11.578834 0.000000 37.000000 14.158409 0.000000
-16.362166 48.109026 -13.195997 0.000000 71.000000 14.498385 14.000000
-14.794079 48.516369 -11.736097 0.000000 29.000000 13.991456 0.000000
-16.922502 48.436214 -12.944379 0.000000 57.000000 14.122989 0.000000
-14.196020 50.552614 -11.306707 0.000000 68.000000 14.375542 17.000000
-14.196280 44.818510 -12.501548 0.000000 41.000000 13.994571 0.000000
-15.147596 46.249611 -12.913351 0.000000 48.000000 14.305382 23.000000
-15.091304 46.070873 -13.289931 0.000000 51.000000 14.613012 23.000000
-13.722289 51.172965 -10.498005 0.000000 34.000000 14.025373 0.000000
-12.347430 47.734854 -11.040288 0.000000 33.000000 14.227531 15.000000
-14.745142 44.442456 -13.013321 0.000000 48.000000 14.114789 0.000000
-14.935793 44.856575 -13.338286 0.000000 67.000000 14.419884 18.000000
-14.310173 47.788633 -12.067781 0.000000 34.000000 14.304919 29.000000
-12.091433 49.951846 -10.224194 0.000000 49.000000 14.174644 0.000000
-14.330987 45.064578 -12.494833 0.000000 42.000000 13.992692 0.000000
-13.572363 47.542963 -11.593075 0.000000 36.000000 14.142843 0.000000
-12.190483 48.608877 -10.586463 0.000000 40.000000 14.115316 0.000000
-16.987223 49.125198 -13.488144 0.000000 65.000000 14.740215 7.000000
-14.666021 49.426779 -11.913146 0.000000 60.000000 14.425710 6.000000
-12.462112 49.617515 -10.446639 0.000000 34.000000 14.128575 0.000000
-13.411787 46.097252 -11.778393 0.000000 34.000000 14.013810 0.000000
-13.305561 46.839045 -11.649262 0.000000 47.000000 14.130231 0.000000
-14.552660 46.462913 -12.635722 0.000000 72.000000 14.368328 9.000000
-13.303565 47.044983 -11.594042 0.000000 59.000000 14.134031 0.000000
-13.974804 48.586331 -11.481460 0.000000 45.000000 14.133894 0.000000
-13.421382 45.927693 -12.271376 0.000000 48.000000 14.397236 30.000000
-14.042723 49.101510 -11.292677 0.000000 48.000000 14.068397 0.000000
-14.050310 49.333744 -11.233206 0.000000 43.000000 14.070955 0.000000
-14.584769 49.878256 -11.415972 0.000000 34.000000 14.138888 0.000000
-12.616174 45.438280 -12.233093 0.000000 55.000000 14.583514 27.000000
-10.743328 47.023488 -10.868426 0.000000 57.000000 14.580707 2.000000
-17.059319 49.215202 -12.982343 0.000000 52.000000 14.291297 7.000000
-14.744853 47.163280 -12.572759 0.000000 55.000000 14.405751 9.000000
-13.444868 48.863607 -11.062628 0.000000 44.000000 14.062147 0.000000
-15.103768 49.935946 -12.261493 0.000000 54.000000 14.670105 6.000000
-15.775966 45.939495 -13.272516 0.000000 66.000000 14.275313 20.000000
-13.227632 49.652296 -10.853781 0.000000 38.000000 14.167752 0.000000
-11.451679 47.834275 -10.399659 0.000000 33.000000 14.073347 0.000000
-15.071502 44.965921 -13.099454 0.000000 52.000000 14.181433 0.000000
-13.748683 49.029840 -11.050018 0.000000 33.000000 13.963719 0.000000
-11.126642 46.011459 -11.464153 0.000000 48.000000 14.686474 5.000000
-14.612887 44.324368 -13.026166 0.000000 57.000000 14.152706 0.000000
-13.446632 48.901237 -11.186655 0.000000 42.000000 14.178796 0.000000
-11.136890 46.025094 -11.128351 0.000000 57.000000 14.392931 5.000000
-12.390874 46.738535 -11.118596 0.000000 38.000000 14.030299 0.000000
-12.010972 48.683276 -10.408658 0.000000 38.000000 14.054865 0.000000
-14.506896 49.188881 -11.642294 0.000000 40.000000 14.198111 0.000000
-13.964880 48.709137 -11.447752 0.000000 44.000000 14.139180 0.000000
-13.621497 44.498163 -12.694700 0.000000 76.000000 14.326840 22.000000
-14.299846 48.191055 -11.757356 0.000000 44.000000 14.138611 0.000000
-12.823189 49.309150 -10.903034 0.000000 68.000000 14.296852 1.000000
-14.854124 48.387838 -11.951271 0.000000 38.000000 14.121635 0.000000
-17.051863 48.800277 -13.202045 0.000000 48.000000 14.382989 7.000000
-11.079041 46.667918 -11.182064 0.000000 58.000000 14.623635 3.000000
-13.995075 47.885411 -11.798743 0.000000 36.000000 14.227946 29.000000
-13.368651 48.890342 -11.066602 0.000000 45.000000 14.104516 0.000000
-15.787374 49.714425 -11.975508 0.000000 53.000000 14.076494 0.000000
-13.230375 51.255267 -10.400838 0.000000 38.000000 14.169441 0.000000
-13.571040 48.591031 -11.152712 0.000000 50.000000 14.019611 0.000000
-13.515198 47.626795 -11.676735 0.000000 38.000000 14.260733 24.000000
-13.332028 44.547229 -12.350647 0.000000 42.000000 14.161822 0.000000
-13.593074 50.956483 -11.207573 0.000000 48.000000 14.644658 17.000000
-14.352703 47.238832 -12.730155 0.000000 62.000000 14.727697 9.000000
-17.255324 48.241284 -13.149925 0.000000 43.000000 14.112796 0.000000
-13.510874 44.429358 -12.453326 0.000000 52.000000 14.146317 0.000000
-13.581673 44.285009 -12.470906 0.000000 39.000000 14.095857 0.000000
-14.321886 45.290998 -12.518740 0.000000 46.000000 14.073524 0.000000
-14.091046 44.526272 -12.562299 0.000000 44.000000 14.019601 0.000000
-15.264061 48.571880 -12.043523 0.000000 54.000000 14.074048 0.000000
-14.389454 43.838603 -13.037651 0.000000 48.000000 14.136876 0.000000
-14.381192 45.154068 -12.539687 0.000000 22.000000 14.032704 0.000000
-14.380131 44.393706 -12.925660 0.000000 49.000000 14.180899 0.000000
-14.416328 46.913903 -12.157508 0.000000 41.000000 14.121230 0.000000
-12.043373 46.687895 -11.173453 0.000000 52.000000 14.212701 0.000000
-14.761433 47.371038 -12.527651 0.000000 63.000000 14.410946 9.000000
-11.162354 48.749140 -10.501685 0.000000 55.000000 14.511634 10.000000
-13.518245 45.332187 -12.565605 0.000000 57.000000 14.464905 30.000000
-14.559064 45.809959 -12.552691 0.000000 58.000000 14.131353 0.000000
-13.518313 46.185962 -12.485848 0.000000 66.000000 14.607100 30.000000
-14.642544 46.236456 -12.455109 0.000000 56.000000 14.116738 0.000000
-15.314948 49.198784 -12.015939 0.000000 42.000000 14.183922 0.000000
-14.212269 49.259668 -11.358617 0.000000 52.000000 14.093269 0.000000
-14.770509 46.890344 -12.326381 0.000000 51.000000 14.112535 0.000000
-17.064462 47.945345 -13.364691 0.000000 69.000000 14.307364 19.000000
-14.061966 44.462873 -13.110312 0.000000 65.000000 14.493678 21.000000
-16.628514 47.745916 -13.012502 0.000000 46.000000 14.135668 0.000000
-14.253157 44.068366 -13.189275 0.000000 69.000000 14.383682 21.000000
-11.711589 48.807277 -10.320114 0.000000 32.000000 14.135252 0.000000
-14.357596 44.328931 -13.005928 0.000000 56.000000 14.244318 21.000000
-15.445940 49.323536 -11.857060 0.000000 39.000000 14.020953 0.000000
-14.813265 48.276087 -11.880719 0.000000 39.000000 14.049755 0.000000
-16.309027 46.544636 -13.217394 0.000000 43.000000 14.151600 0.000000
-12.941726 48.020513 -11.074150 0.000000 33.000000 14.076193 0.000000
-16.186077 48.973595 -12.469235 0.000000 46.000000 14.154123 0.000000
-14.855258 44.814242 -13.463229 0.000000 53.000000 14.552355 18.000000
-15.621846 47.394937 -12.497253 0.000000 42.000000 14.026011 0.000000
-14.631299 45.988557 -12.559674 0.000000 36.000000 14.151135 0.000000
-13.726342 46.476023 -11.836414 0.000000 40.000000 14.025079 0.000000
-14.525214 44.260922 -12.988657 0.000000 59.000000 14.141420 0.000000
-13.848503 44.191192 -12.533505 0.000000 46.000000 14.014135 0.000000
-13.757360 51.290529 -10.446000 0.000000 26.000000 13.994362 0.000000
-14.582965 49.820457 -11.296930 0.000000 22.000000 14.021598 0.000000
-13.544687 44.801390 -12.700435 0.000000 58.000000 14.439559 22.000000
-16.782163 48.541209 -12.991431 0.000000 56.000000 14.249454 14.000000
-14.098043 46.180091 -12.245904 0.000000 45.000000 14.151071 0.000000
-14.770398 44.420957 -13.644493 0.000000 70.000000 14.648702 18.000000
-15.513997 48.176103 -12.334069 0.000000 34.000000 14.123212 0.000000
-11.321002 48.137612 -11.030630 0.000000 44.000000 14.753673 10.000000
-14.530587 47.894027 -12.485282 0.000000 50.000000 14.601480 9.000000
-14.006976 48.793145 -11.446798 0.000000 48.000000 14.141354 0.000000
-14.694127 44.439501 -13.192595 0.000000 59.000000 14.291862 18.000000
-14.023244 48.580724 -11.516324 0.000000 41.000000 14.142367 0.000000
-13.842688 46.442756 -12.644457 0.000000 63.000000 14.671606 30.000000
-16.191289 48.489534 -12.507694 0.000000 37.000000 14.065389 0.000000
-17.108990 48.289493 -13.364484 0.000000 28.000000 14.373667 19.000000
-16.930169 49.154478 -13.453375 0.000000 49.000000 14.741343 7.000000
-14.973488 48.833709 -11.796764 0.000000 42.000000 14.047030 0.000000
-13.801912 45.616062 -12.381288 0.000000 44.000000 14.254574 30.000000
-15.009451 48.412732 -11.866392 0.000000 38.000000 13.988074 0.000000
-11.371821 45.847753 -11.405637 0.000000 62.000000 14.491063 5.000000
-12.514944 50.763060 -10.952336 0.000000 53.000000 14.830883 4.000000
-11.860695 45.639769 -11.691573 0.000000 63.000000 14.481590 25.000000
-13.926419 47.740806 -12.125689 0.000000 57.000000 14.506031 29.000000
-13.846426 50.895040 -11.013090 0.000000 70.000000 14.352677 17.000000
-14.294367 50.038744 -11.064044 0.000000 30.000000 13.995033 0.000000
-13.528451 45.402368 -12.634475 0.000000 66.000000 14.537992 30.000000
-13.300376 47.524034 -11.638287 0.000000 52.000000 14.292726 24.000000
-14.719052 45.590679 -12.539365 0.000000 41.000000 13.997612 0.000000
-13.661954 44.270562 -12.473513 0.000000 44.000000 14.060547 0.000000
-13.846647 44.297276 -12.503233 0.000000 39.000000 14.014851 0.000000
-15.860373 45.802190 -13.251057 0.000000 55.000000 14.186821 20.000000
-11.457628 48.330634 -10.719317 0.000000 50.000000 14.472431 10.000000
-14.403076 43.798744 -13.074611 0.000000 52.000000 14.153427 0.000000
-14.680078 48.805760 -11.786830 0.000000 48.000000 14.155699 0.000000
-15.241504 46.527651 -13.243481 0.000000 69.000000 14.622203 23.000000
-11.656675 46.991909 -10.877578 0.000000 40.000000 14.194057 0.000000
-13.936035 47.293604 -12.562881 0.000000 59.000000 14.771988 29.000000
-14.881084 45.797788 -12.648449 0.000000 46.000000 14.075397 0.000000
-15.715324 47.334621 -12.561715 0.000000 43.000000 14.027632 0.000000
-13.146942 51.569603 -10.267983 0.000000 47.000000 14.166966 0.000000
-16.885007 49.264136 -12.674337 0.000000 52.000000 14.108885 0.000000
-14.940984 47.268500 -12.763574 0.000000 66.000000 14.515041 9.000000
-15.368973 46.448688 -13.342723 0.000000 69.000000 14.635109 23.000000
-15.290627 46.471895 -12.526987 0.000000 40.000000 13.963293 0.000000
-13.440119 49.944246 -10.913587 0.000000 34.000000 14.202272 0.000000
-14.200247 44.452153 -12.662906 0.000000 23.000000 14.042634 0.000000
-11.553290 46.105526 -11.150287 0.000000 45.000000 14.255648 5.000000
-11.942772 47.775575 -11.038488 0.000000 58.000000 14.407429 12.000000
-14.901987 44.742109 -13.052370 0.000000 24.000000 14.156697 0.000000
-15.614856 47.091066 -12.527223 0.000000 49.000000 13.979730 0.000000
-13.802017 44.175506 -13.467949 0.000000 71.000000 14.844112 21.000000
-15.663097 47.258800 -12.595904 0.000000 40.000000 14.060737 0.000000
-13.606874 50.387026 -11.123447 0.000000 63.000000 14.424303 16.000000
-12.897850 44.948608 -12.402337 0.000000 69.000000 14.490262 28.000000
-12.546395 49.521685 -10.462362 0.000000 31.000000 14.082817 0.000000
-15.453659 47.608522 -12.668158 0.000000 55.000000 14.299110 8.000000
-12.132217 48.734350 -10.445790 0.000000 31.000000 14.048537 0.000000
-13.519326 45.945093 -12.340622 0.000000 68.000000 14.420406 30.000000
-16.063185 46.437192 -13.127635 0.000000 45.000000 14.150861 0.000000
-15.445517 45.502593 -13.197045 0.000000 54.000000 14.241155 18.000000
-16.842715 48.875268 -12.892970 0.000000 69.000000 14.220860 7.000000
-13.401066 46.156400 -12.315858 0.000000 56.000000 14.501311 30.000000
-16.103333 47.245059 -12.939495 0.000000 38.000000 14.170265 0.000000
-14.517597 44.662180 -13.003507 0.000000 65.000000 14.257087 23.000000
-12.870533 49.112146 -10.801604 0.000000 46.000000 14.139573 0.000000
-16.802987 48.956785 -12.612838 0.000000 39.000000 14.013820 0.000000
-13.323384 48.249723 -11.085894 0.000000 29.000000 13.981636 0.000000
-15.011305 49.036607 -11.850891 0.000000 43.000000 14.128490 0.000000
-13.380717 44.576912 -12.350481 0.000000 47.000000 14.148419 0.000000
-12.988813 49.989552 -10.466932 0.000000 22.000000 14.015459 0.000000
-14.186263 46.525206 -12.647477 0.000000 54.000000 14.549182 30.000000
-11.795307 45.449973 -11.288227 0.000000 49.000000 14.110781 0.000000
-11.678131 45.532193 -11.206811 0.000000 43.000000 14.109855 0.000000
-13.833396 45.363346 -12.909104 0.000000 74.000000 14.638459 22.000000
-15.938548 49.032858 -12.316804 0.000000 61.000000 14.140832 0.000000
-15.839627 45.864016 -13.362199 0.000000 70.000000 14.307776 20.000000
-15.162631 46.124776 -13.262140 0.000000 67.000000 14.571959 23.000000
-12.496360 47.807415 -11.303780 0.000000 46.000000 14.412035 15.000000
-15.063745 47.711267 -12.279621 0.000000 35.000000 14.151180 0.000000
-13.626992 51.280798 -10.407657 0.000000 25.000000 14.013750 0.000000
-14.444206 45.270775 -12.779958 0.000000 50.000000 14.244307 23.000000
-12.895086 48.371613 -11.339272 0.000000 39.000000 14.414010 11.000000
-15.624668 48.875924 -12.157065 0.000000 42.000000 14.095660 0.000000
-14.148926 49.122835 -11.871052 0.000000 40.000000 14.532647 13.000000
-17.186301 48.562080 -13.075384 0.000000 36.000000 14.156629 0.000000
-11.612414 48.040719 -11.023777 0.000000 73.000000 14.600265 12.000000
-15.986719 47.267457 -12.800967 0.000000 45.000000 14.104504 0.000000
-16.183512 49.138322 -12.398601 0.000000 58.000000 14.134514 0.000000
-16.457425 48.555493 -12.528044 0.000000 39.000000 13.986770 0.000000
-13.641636 50.220748 -10.892790 0.000000 49.000000 14.167377 0.000000
-15.875211 47.961109 -12.498665 0.000000 41.000000 14.060341 0.000000
-14.953633 46.366025 -12.569139 0.000000 49.000000 14.116480 0.000000
-15.810888 47.736952 -12.513864 0.000000 50.000000 14.045238 0.000000
-14.904902 46.164868 -12.578293 0.000000 44.000000 14.095210 0.000000
-16.403301 46.606445 -13.240081 0.000000 41.000000 14.146770 0.000000
-12.935536 50.370698 -10.460511 0.000000 33.000000 14.126943 0.000000
-15.629107 47.258527 -12.588868 0.000000 43.000000 14.068933 0.000000
-15.346407 46.640961 -12.986558 0.000000 53.000000 14.382019 23.000000
-16.901221 49.238382 -13.153810 0.000000 37.000000 14.513398 7.000000
-12.317036 50.093474 -10.299442 0.000000 35.000000 14.179787 0.000000
-14.013120 45.565708 -12.358088 0.000000 26.000000 14.132429 0.000000
-12.734273 48.261406 -11.202979 0.000000 37.000000 14.336032 11.000000
-15.768207 48.444073 -12.413884 0.000000 64.000000 14.151550 0.000000
-13.468714 50.192710 -11.023382 0.000000 42.000000 14.347440 16.000000
-13.465679 44.680034 -12.376804 0.000000 53.000000 14.160945 0.000000
-16.223630 48.483707 -12.519333 0.000000 46.000000 14.060389 0.000000
-12.753314 46.182068 -12.360681 0.000000 48.000000 14.821047 26.000000
-15.408671 49.049092 -11.919137 0.000000 51.000000 14.022768 0.000000
-14.428227 45.244413 -12.794003 0.000000 49.000000 14.256774 23.000000
-15.331932 49.003405 -11.869671 0.000000 43.000000 14.000837 0.000000
-16.314876 48.640193 -12.547734 0.000000 34.000000 14.085297 0.000000
-14.926882 44.869325 -12.975010 0.000000 40.000000 14.110297 0.000000
-15.706908 46.275368 -12.992944 0.000000 48.000000 14.144256 0.000000
-15.050088 45.030366 -13.001398 0.000000 52.000000 14.121047 0.000000
-14.819777 45.714694 -12.662179 0.000000 45.000000 14.092717 0.000000
-16.216310 47.819180 -12.653796 0.000000 30.000000 14.015859 0.000000
-15.757387 46.460198 -13.147657 0.000000 39.000000 14.303513 23.000000
-16.177039 46.853020 -13.016455 0.000000 56.000000 14.108889 0.000000
-15.094875 49.968720 -11.683610 0.000000 41.000000 14.178489 0.000000
-13.758405 44.315678 -13.256051 0.000000 44.000000 14.712715 21.000000
-12.685930 45.669564 -12.142112 0.000000 63.000000 14.532054 27.000000
-14.581360 45.256241 -13.137747 0.000000 53.000000 14.494361 23.000000
-17.111166 48.165654 -13.574440 0.000000 54.000000 14.524971 19.000000
-13.474973 47.004053 -12.004986 0.000000 45.000000 14.409347 29.000000
-14.644876 45.431361 -13.098256 0.000000 63.000000 14.476480 23.000000
-13.882885 44.171537 -13.402365 0.000000 67.000000 14.751738 21.000000
-14.618333 44.094704 -13.065766 0.000000 50.000000 14.127952 0.000000
-14.905055 49.463865 -12.310086 0.000000 59.000000 14.679532 6.000000
-16.625838 48.907200 -12.532424 0.000000 32.000000 14.006480 0.000000
-16.914839 48.076313 -13.059193 0.000000 35.000000 14.137025 0.000000
-13.239920 49.283100 -10.941363 0.000000 40.000000 14.147306 0.000000
-13.584886 45.096821 -12.290910 0.000000 58.000000 14.138976 0.000000
-16.126473 48.501317 -12.483396 0.000000 44.000000 14.074588 0.000000
-13.206041 45.745523 -11.788269 0.000000 43.000000 14.022326 0.000000
-12.739215 46.178158 -11.613814 0.000000 58.000000 14.175303 0.000000
-15.205163 49.678046 -12.024009 0.000000 60.000000 14.356292 6.000000
-12.858994 47.706772 -12.110184 0.000000 56.000000 14.936125 24.000000
-12.689866 47.488665 -11.584301 0.000000 63.000000 14.495462 24.000000
-15.578728 45.847833 -13.039779 0.000000 47.000000 14.133327 0.000000
-13.067068 46.185814 -12.168618 0.000000 43.000000 14.521759 26.000000
-12.159285 47.176006 -11.064850 0.000000 51.000000 14.190028 0.000000
-15.004576 48.808999 -11.794215 0.000000 38.000000 14.025516 0.000000
-13.570006 47.189715 -12.333062 0.000000 72.000000 14.700994 29.000000
-14.441829 46.333041 -12.352052 0.000000 52.000000 14.135896 0.000000
-17.554519 48.705859 -13.342834 0.000000 61.000000 14.269375 7.000000
-12.695399 46.244051 -11.533935 0.000000 30.000000 14.140599 0.000000
-11.735021 48.415782 -10.357707 0.000000 39.000000 14.061002 0.000000
-17.001646 49.229247 -13.127262 0.000000 53.000000 14.445472 7.000000
-13.161048 50.313152 -11.135477 0.000000 54.000000 14.605268 16.000000
-10.786516 47.766987 -10.177550 0.000000 41.000000 14.144827 0.000000
-17.080243 48.640185 -12.969805 0.000000 62.000000 14.128921 0.000000
-14.365888 45.056537 -13.043425 0.000000 37.000000 14.453906 23.000000
-10.446918 46.965555 -10.973859 0.000000 73.000000 14.783731 2.000000
-16.741016 47.944160 -12.985384 0.000000 48.000000 14.113556 0.000000
-12.398199 49.325908 -10.549041 0.000000 40.000000 14.172552 0.000000
-12.544543 45.465822 -12.528329 0.000000 77.000000 14.877918 27.000000
-13.796127 46.427627 -11.822280 0.000000 32.000000 13.971210 0.000000
-14.194349 48.791546 -11.583082 0.000000 27.000000 14.180351 0.000000
-17.256750 48.672125 -13.041760 0.000000 57.000000 14.124787 0.000000
-14.783551 46.682765 -12.839688 0.000000 69.000000 14.502781 9.000000
-14.544826 46.446794 -12.537050 0.000000 65.000000 14.281675 9.000000
-10.795496 46.202631 -11.061032 0.000000 49.000000 14.522878 3.000000
-14.384708 44.882478 -13.329402 0.000000 76.000000 14.651946 23.000000
-12.912858 48.729660 -10.949945 0.000000 30.000000 14.156051 0.000000
-16.861547 47.979464 -13.032718 0.000000 51.000000 14.112509 0.000000
-14.507048 49.236120 -12.114068 0.000000 53.000000 14.620818 6.000000
-14.442023 45.026110 -13.294515 0.000000 66.000000 14.632893 23.000000
-15.776811 46.218663 -13.023122 0.000000 47.000000 14.126885 0.000000
-16.587636 47.529507 -13.030514 0.000000 44.000000 14.115008 0.000000
-16.445781 47.309426 -13.035988 0.000000 54.000000 14.125277 0.000000
-12.733704 46.094273 -11.951301 0.000000 57.000000 14.450887 26.000000
-14.334059 45.468270 -12.799841 0.000000 63.000000 14.357251 22.000000
-11.061075 47.708024 -10.847443 0.000000 72.000000 14.597611 10.000000
-16.452662 47.347940 -13.016014 0.000000 42.000000 14.114510 0.000000
-12.707769 45.491013 -12.041967 0.000000 44.000000 14.391273 27.000000
-12.478137 48.396914 -10.846898 0.000000 42.000000 14.167853 0.000000
-17.057387 49.285196 -12.934736 0.000000 35.000000 14.267993 7.000000
-13.998484 50.644571 -10.927685 0.000000 49.000000 14.151758 0.000000
-14.699857 44.548039 -12.973466 0.000000 41.000000 14.125423 0.000000
-14.824657 45.105397 -13.209136 0.000000 61.000000 14.416122 23.000000
-11.061765 47.181943 -10.520099 0.000000 59.000000 14.181647 0.000000
-13.594833 46.305017 -11.793356 0.000000 26.000000 14.000850 0.000000
-16.059837 49.619883 -12.246486 0.000000 36.000000 14.173767 0.000000
-10.744570 46.007400 -10.802158 0.000000 69.000000 14.270475 3.000000
-15.413324 47.401979 -12.468113 0.000000 57.000000 14.090674 0.000000
-16.311010 48.111635 -12.952674 0.000000 56.000000 14.308689 14.000000
-12.495414 45.318757 -12.131394 0.000000 52.000000 14.516406 27.000000
-15.013624 45.545195 -13.543303 0.000000 65.000000 14.736316 23.000000
-14.208501 47.290009 -11.915360 0.000000 46.000000 14.091525 0.000000
-16.773878 48.902561 -13.261846 0.000000 78.000000 14.578182 7.000000
-15.430310 48.162741 -12.481124 0.000000 58.000000 14.283469 8.000000
-13.093930 47.362188 -11.985884 0.000000 50.000000 14.642881 24.000000
-14.010043 44.193386 -12.914960 0.000000 54.000000 14.278630 21.000000
-12.605075 48.493369 -11.050197 0.000000 48.000000 14.315149 11.000000
-14.557608 44.050091 -13.037056 0.000000 48.000000 14.117590 0.000000
-16.240113 48.379199 -12.610943 0.000000 54.000000 14.107313 0.000000
-14.688254 43.786955 -13.208352 0.000000 58.000000 14.146261 0.000000
-14.578681 46.411137 -12.402702 0.000000 39.000000 14.141439 0.000000
-14.897898 49.552577 -12.107419 0.000000 72.000000 14.527977 6.000000
-14.950067 44.949076 -12.963458 0.000000 42.000000 14.110190 0.000000
-14.741210 46.476194 -12.721176 0.000000 71.000000 14.366228 9.000000
-16.220006 47.807591 -12.640508 0.000000 34.000000 13.999842 0.000000
-14.913222 47.375845 -12.764248 0.000000 66.000000 14.554004 9.000000
-14.625250 43.802814 -13.157663 0.000000 51.000000 14.132710 0.000000
-14.562951 43.938995 -13.085304 0.000000 45.000000 14.129817 0.000000
-12.535412 48.284602 -10.860511 0.000000 43.000000 14.127608 0.000000
-15.226794 46.270412 -13.651628 0.000000 61.000000 14.920262 23.000000
-14.226808 45.004705 -12.500974 0.000000 41.000000 14.027315 0.000000
-14.736624 49.516118 -11.778836 0.000000 58.000000 14.300940 6.000000
-14.360708 45.084316 -13.277898 0.000000 71.000000 14.667285 23.000000
-16.786811 49.059231 -13.219344 0.000000 78.000000 14.574523 7.000000
-13.164041 47.657425 -11.943570 0.000000 68.000000 14.649533 24.000000
-12.797893 47.356272 -11.099764 0.000000 36.000000 13.994706 0.000000
-17.239534 48.446157 -13.128747 0.000000 47.000000 14.151835 0.000000
-14.856757 48.407753 -11.861976 0.000000 36.000000 14.047656 0.000000
-10.909787 47.537009 -10.372330 0.000000 43.000000 14.205306 0.000000
-15.643932 50.075923 -11.926960 0.000000 49.000000 14.184584 0.000000
-15.453144 49.065691 -11.919680 0.000000 29.000000 14.008523 0.000000
-12.559964 48.260942 -10.966595 0.000000 47.000000 14.203774 0.000000
-14.621795 49.478166 -11.813758 0.000000 36.000000 14.370586 6.000000
-14.206521 44.782762 -12.684288 0.000000 38.000000 14.140591 0.000000
-14.892753 46.649315 -12.609449 0.000000 49.000000 14.247633 9.000000
-13.707464 50.585455 -10.853741 0.000000 37.000000 14.195915 0.000000
-13.284459 50.693546 -10.485411 0.000000 41.000000 14.080931 0.000000
-12.572375 49.186433 -10.639602 0.000000 52.000000 14.143110 0.000000
-14.816140 45.767669 -12.611130 0.000000 37.000000 14.062915 0.000000
-14.796681 49.188346 -12.045621 0.000000 67.000000 14.426677 6.000000
-12.607998 49.924381 -10.388345 0.000000 45.000000 14.092097 0.000000
-15.123612 49.810709 -12.100073 0.000000 62.000000 14.490001 6.000000
-12.581863 50.375808 -10.305587 0.000000 54.000000 14.143002 0.000000
-11.232536 46.956864 -10.845393 0.000000 39.000000 14.336942 3.000000
-13.553421 46.292991 -11.830090 0.000000 22.000000 14.047411 0.000000
-11.149317 48.449959 -10.816585 0.000000 68.000000 14.717337 10.000000
-10.936793 46.053576 -10.920455 0.000000 66.000000 14.303593 3.000000
-14.785107 44.761171 -12.945766 0.000000 52.000000 14.118037 0.000000
-14.254480 46.965689 -11.958237 0.000000 35.000000 14.028988 0.000000
-11.954379 49.589750 -10.236571 0.000000 41.000000 14.153677 0.000000
-12.717597 45.269995 -12.155211 0.000000 53.000000 14.430973 27.000000
-11.514384 47.840915 -10.454331 0.000000 39.000000 14.096074 0.000000
-12.475195 46.372647 -11.920639 0.000000 75.000000 14.602677 25.000000
-13.700311 48.233446 -11.461370 0.000000 53.000000 14.145127 0.000000
-12.311209 49.209395 -10.458150 0.000000 45.000000 14.101306 0.000000
-15.155234 44.881942 -13.124423 0.000000 50.000000 14.146905 0.000000
-15.062550 50.441526 -11.467848 0.000000 36.000000 14.121430 0.000000
-11.084611 46.438465 -11.038740 0.000000 49.000000 14.439499 3.000000
-11.174476 48.581513 -10.895410 0.000000 48.000000 14.807985 10.000000
-11.868301 47.287104 -10.851931 0.000000 36.000000 14.155291 0.000000
-11.816171 48.288094 -10.981012 0.000000 45.000000 14.538057 12.000000
-14.160067 44.796154 -13.207675 0.000000 59.000000 14.619612 23.000000
-15.085272 48.674697 -11.933730 0.000000 43.000000 14.079597 0.000000
-14.545327 47.562402 -12.633142 0.000000 65.000000 14.641833 9.000000
-13.047780 48.013131 -11.177730 0.000000 43.000000 14.119699 0.000000
-12.100498 46.222670 -11.529486 0.000000 56.000000 14.383356 25.000000
-15.141509 45.288741 -13.136312 0.000000 68.000000 14.263952 23.000000
-15.818626 45.745950 -13.164721 0.000000 42.000000 14.115330 0.000000
-13.268934 44.578454 -12.307465 0.000000 40.000000 14.158660 0.000000
-13.353437 47.258947 -11.546960 0.000000 41.000000 14.124946 0.000000
-14.562399 45.434618 -12.540008 0.000000 25.000000 14.025814 0.000000
-12.857757 44.998546 -12.326822 0.000000 55.000000 14.453829 28.000000
-15.205764 48.299716 -12.146990 0.000000 44.000000 14.121397 0.000000
-15.362859 45.758920 -13.206646 0.000000 45.000000 14.348088 23.000000
-11.680838 48.068889 -10.775371 0.000000 55.000000 14.361837 12.000000
-16.211477 48.702948 -12.484602 0.000000 37.000000 14.089641 0.000000
-15.575071 48.716473 -12.267570 0.000000 28.000000 14.173407 0.000000
-14.895571 44.750534 -13.005222 0.000000 45.000000 14.120423 0.000000
-12.002204 46.142350 -11.656186 0.000000 33.000000 14.515459 25.000000
-15.285354 47.989327 -12.569484 0.000000 60.000000 14.378841 8.000000
-17.506365 48.725728 -13.434549 0.000000 37.000000 14.374607 7.000000
-13.166967 49.162912 -10.972444 0.000000 47.000000 14.175478 0.000000
-14.729638 45.562016 -13.261426 0.000000 72.000000 14.615154 23.000000
-15.134671 45.868779 -13.339236 0.000000 55.000000 14.587492 23.000000
-13.916021 51.221610 -11.324782 0.000000 52.000000 14.675763 17.000000
-10.678948 46.080809 -11.016629 0.000000 52.000000 14.503337 3.000000
-14.548477 44.231996 -13.664639 0.000000 77.000000 14.713378 18.000000
-13.478089 45.387555 -12.602519 0.000000 75.000000 14.527804 30.000000
-13.701519 51.070415 -11.269831 0.000000 56.000000 14.681231 17.000000
-13.017517 46.569607 -11.625180 0.000000 36.000000 14.164418 0.000000
-14.501325 49.510699 -11.472601 0.000000 34.000000 14.132421 0.000000
-14.175676 45.826103 -12.364566 0.000000 45.000000 14.133804 0.000000
-14.102587 45.710469 -12.677701 0.000000 39.000000 14.408917 22.000000
-13.464465 47.069114 -12.497313 0.000000 59.000000 14.858895 29.000000
-15.006685 46.083854 -13.106509 0.000000 70.000000 14.492251 23.000000
-14.749839 49.621918 -11.552052 0.000000 46.000000 14.123983 0.000000
-14.819072 46.806916 -12.950337 0.000000 60.000000 14.614934 9.000000
-14.067957 46.862906 -12.366151 0.000000 41.000000 14.437906 30.000000
-14.140322 48.672281 -11.535830 0.000000 47.000000 14.132485 0.000000
-14.677039 47.706324 -12.562014 0.000000 66.000000 14.559770 9.000000
-15.042784 45.033582 -13.707118 0.000000 62.000000 14.739831 18.000000
-12.050960 46.270359 -11.892439 0.000000 40.000000 14.732401 25.000000
-13.661428 49.285657 -11.054041 0.000000 40.000000 14.067612 0.000000
-13.943596 45.529120 -12.371354 0.000000 47.000000 14.164357 0.000000
-15.066636 44.665201 -13.575150 0.000000 66.000000 14.523396 18.000000
-12.892464 45.132386 -11.828766 0.000000 44.000000 14.038363 0.000000
-14.878420 44.690493 -13.024700 0.000000 48.000000 14.129769 0.000000
-14.504404 46.049971 -12.474304 0.000000 47.000000 14.145720 0.000000
-16.484003 47.836053 -13.159685 0.000000 54.000000 14.347459 14.000000
-15.756072 46.922360 -12.741944 0.000000 30.000000 14.065178 0.000000
-17.494486 48.830219 -13.347033 0.000000 59.000000 14.329296 7.000000
-12.884696 50.180164 -10.393284 0.000000 39.000000 14.042650 0.000000
-13.806543 51.105833 -11.469015 0.000000 62.000000 14.819086 17.000000
-15.123220 46.012488 -13.301335 0.000000 78.000000 14.594955 23.000000
-14.368621 49.150503 -11.479855 0.000000 27.000000 14.105619 0.000000
-13.158372 48.951585 -10.993104 0.000000 45.000000 14.144715 0.000000
-14.315682 49.536032 -11.370107 0.000000 43.000000 14.128018 0.000000
-12.416828 45.816785 -11.707514 0.000000 47.000000 14.303859 25.000000
-14.002444 50.336304 -11.037426 0.000000 61.000000 14.169255 0.000000
-13.085509 47.507816 -12.001793 0.000000 82.000000 14.696421 24.000000
-16.221618 46.741670 -13.099853 0.000000 51.000000 14.135063 0.000000
-13.736216 47.446815 -12.407765 0.000000 68.000000 14.759450 29.000000
-14.200246 50.014746 -11.061377 0.000000 37.000000 14.026617 0.000000
-14.605293 43.753585 -13.173254 0.000000 48.000000 14.142539 0.000000
-15.124881 45.973728 -13.333247 0.000000 67.000000 14.612444 23.000000
-13.080546 45.552713 -11.773665 0.000000 32.000000 14.014934 0.000000
-13.201278 48.488604 -11.097962 0.000000 42.000000 14.103099 0.000000
-14.748309 45.619593 -13.395808 0.000000 53.000000 14.738611 23.000000
-15.029470 45.431547 -13.289987 0.000000 58.000000 14.480709 23.000000
-13.583931 47.180750 -12.235161 0.000000 61.000000 14.607573 29.000000
-13.501189 46.054583 -12.426115 0.000000 53.000000 14.529728 30.000000
-14.542436 44.115612 -13.060813 0.000000 46.000000 14.160963 0.000000
-15.253706 47.995074 -12.261077 0.000000 34.000000 14.124954 0.000000
-10.687580 46.876098 -10.484680 0.000000 64.000000 14.233408 2.000000
-15.089873 50.132920 -11.929550 0.000000 54.000000 14.435613 6.000000
-15.325727 48.085828 -12.607958 0.000000 64.000000 14.419196 8.000000
-14.702871 46.992094 -12.584116 0.000000 52.000000 14.390975 9.000000
-13.762174 45.454260 -12.574235 0.000000 65.000000 14.399394 30.000000
-16.888276 48.932553 -13.398713 0.000000 64.000000 14.656425 7.000000
-14.679368 43.853993 -13.289415 0.000000 52.000000 14.237279 18.000000
-10.143701 46.478412 -10.614276 0.000000 69.000000 14.478035 2.000000
-14.216552 45.781126 -12.424957 0.000000 27.000000 14.157959 0.000000
-14.724461 45.245184 -13.254585 0.000000 73.000000 14.532818 23.000000
-14.500484 45.251968 -13.234587 0.000000 69.000000 14.611928 23.000000
-15.473570 46.574977 -13.004867 0.000000 34.000000 14.327757 23.000000
-15.325496 50.262536 -11.672686 0.000000 41.000000 14.144165 0.000000
-13.797697 46.627348 -12.152586 0.000000 47.000000 14.307867 30.000000
-15.745938 46.621065 -13.151672 0.000000 30.000000 14.351751 23.000000
-10.716998 47.843307 -10.519961 0.000000 74.000000 14.491536 10.000000
-14.863114 48.214336 -11.884363 0.000000 34.000000 14.016507 0.000000
-14.058250 44.490087 -12.530300 0.000000 38.000000 13.996636 0.000000
-16.378775 47.549461 -12.928344 0.000000 58.000000 14.119386 0.000000
-14.062209 44.824616 -13.276053 0.000000 82.000000 14.727689 23.000000
-14.707030 45.973892 -12.597856 0.000000 59.000000 14.148695 0.000000
-12.539816 46.512356 -12.059658 0.000000 50.000000 14.731083 25.000000
-15.559331 46.617733 -12.634289 0.000000 38.000000 13.979156 0.000000
-12.188391 48.976611 -10.494271 0.000000 31.000000 14.127065 0.000000
-14.885684 46.426280 -12.488036 0.000000 57.000000 14.089532 0.000000
-13.610855 44.767206 -12.615386 0.000000 59.000000 14.328958 22.000000
-12.562566 49.856834 -10.389747 0.000000 29.000000 14.095809 0.000000
-15.480593 46.561440 -13.407643 0.000000 69.000000 14.672364 23.000000
-10.958829 46.506398 -11.049542 0.000000 68.000000 14.519024 3.000000
-14.022191 44.410448 -13.193400 0.000000 78.000000 14.569917 21.000000
-12.157222 46.693276 -11.471895 0.000000 47.000000 14.425854 25.000000
-12.500421 45.580971 -11.659225 0.000000 39.000000 14.167907 0.000000
-14.856127 45.257612 -13.369077 0.000000 55.000000 14.579897 23.000000
-15.644064 48.653139 -12.306514 0.000000 63.000000 14.162416 0.000000
-15.759408 48.906816 -12.269925 0.000000 60.000000 14.144594 0.000000
-15.160056 47.457900 -12.767830 0.000000 65.000000 14.472941 9.000000
-15.477956 46.511114 -13.169649 0.000000 43.000000 14.453637 23.000000
-12.455601 47.145943 -11.107853 0.000000 41.000000 14.094555 0.000000
-15.677415 46.181160 -13.004482 0.000000 39.000000 14.143437 0.000000
-10.892367 47.992616 -10.814644 0.000000 55.000000 14.711051 10.000000
-15.359207 48.191928 -12.253029 0.000000 47.000000 14.122078 0.000000
-11.948318 45.563856 -11.819570 0.000000 68.000000 14.537182 25.000000
-16.732111 48.305231 -13.060468 0.000000 65.000000 14.272285 14.000000
-11.985075 47.753279 -11.036695 0.000000 44.000000 14.382423 12.000000
-14.113597 44.902944 -13.049352 0.000000 62.000000 14.527826 23.000000
-16.102465 48.252838 -12.542148 0.000000 38.000000 14.074329 0.000000
-12.028306 47.173273 -11.009994 0.000000 39.000000 14.197022 0.000000
-17.533333 49.119397 -13.081196 0.000000 41.000000 14.152930 0.000000
-12.779269 45.634280 -12.146821 0.000000 78.000000 14.487880 27.000000
-14.791737 48.101235 -11.848925 0.000000 40.000000 13.987811 0.000000
-14.664109 44.524572 -12.958145 0.000000 44.000000 14.121393 0.000000
-13.860519 49.523767 -11.069501 0.000000 31.000000 14.055815 0.000000
-14.006042 44.612313 -12.493479 0.000000 39.000000 14.016972 0.000000
-15.162258 49.215439 -11.923308 0.000000 45.000000 14.172006 0.000000
-10.747841 46.875832 -10.316420 0.000000 27.000000 14.061218 0.000000
-11.828991 49.232166 -10.306259 0.000000 24.000000 14.178824 0.000000
-15.765044 46.590905 -12.897311 0.000000 41.000000 14.114557 0.000000
-14.925709 49.936812 -11.570203 0.000000 44.000000 14.143405 0.000000
-13.825668 49.725489 -11.085230 0.000000 38.000000 14.134301 0.000000
-11.853935 48.343588 -10.460020 0.000000 43.000000 14.081886 0.000000
-14.896242 48.589235 -11.816659 0.000000 37.000000 14.036453 0.000000
-14.058500 49.203210 -11.738171 0.000000 46.000000 14.475094 13.000000
-15.343217 47.848556 -12.850010 0.000000 61.000000 14.563851 8.000000
-14.495137 46.645330 -12.274769 0.000000 44.000000 14.123425 0.000000
-14.415701 45.248645 -13.158092 0.000000 72.000000 14.580359 23.000000
-12.992631 48.460001 -11.300168 0.000000 65.000000 14.360548 11.000000
-12.528747 45.693535 -12.336358 0.000000 44.000000 14.773811 27.000000
-15.734393 46.170439 -13.004020 0.000000 30.000000 14.116246 0.000000
-14.804875 46.631183 -12.788761 0.000000 57.000000 14.436587 9.000000
-14.592752 46.972990 -12.235335 0.000000 42.000000 14.128979 0.000000
-14.076048 48.907658 -11.908130 0.000000 78.000000 14.542457 13.000000
-12.926031 47.582545 -11.467166 0.000000 27.000000 14.316669 24.000000
-13.572207 47.564096 -12.350982 0.000000 59.000000 14.808514 29.000000
-16.061968 47.049189 -12.922549 0.000000 39.000000 14.124446 0.000000
-12.468862 46.806653 -11.868546 0.000000 50.000000 14.667594 25.000000
-14.102941 45.543624 -12.466304 0.000000 49.000000 14.183203 0.000000
-16.738124 49.037574 -13.281502 0.000000 51.000000 14.643930 7.000000
-16.195450 49.958597 -12.164950 0.000000 52.000000 14.129288 0.000000
-14.886983 44.855795 -13.536333 0.000000 67.000000 14.612919 18.000000
-12.911834 47.376036 -11.778164 0.000000 42.000000 14.542444 24.000000
-14.343009 49.030593 -11.564682 0.000000 43.000000 14.160641 0.000000
-16.792656 48.731055 -12.925645 0.000000 39.000000 14.234768 7.000000
-14.803703 45.910778 -12.600450 0.000000 46.000000 14.094364 0.000000
-14.110629 44.582503 -12.562029 0.000000 40.000000 14.025016 0.000000
-12.690211 46.180426 -12.276636 0.000000 62.000000 14.774134 26.000000
-15.106098 46.372083 -13.318971 0.000000 76.000000 14.706743 23.000000
-15.253976 46.656201 -13.061711 0.000000 66.000000 14.490422 23.000000
-14.113702 44.687636 -12.515511 0.000000 38.000000 14.009254 0.000000
-14.175844 44.997618 -12.467364 0.000000 37.000000 14.017855 0.000000
-13.609160 46.102211 -12.826308 0.000000 77.000000 14.844502 30.000000
-13.888386 45.391248 -12.357785 0.000000 48.000000 14.141726 0.000000
-14.761352 47.992607 -11.879123 0.000000 45.000000 14.000053 0.000000
-13.249901 45.489804 -12.454106 0.000000 51.000000 14.520482 30.000000
-16.245958 47.812597 -12.755343 0.000000 49.000000 14.090149 0.000000
-13.981267 46.751424 -12.494711 0.000000 53.000000 14.558988 30.000000
-16.179016 47.385443 -12.896866 0.000000 61.000000 14.135883 0.000000
-14.760419 46.136215 -12.605344 0.000000 51.000000 14.172862 0.000000
-12.637332 45.695607 -12.201878 0.000000 72.000000 14.611167 27.000000
-16.974264 48.382767 -12.977964 0.000000 64.000000 14.117077 0.000000
-16.718690 49.063303 -13.180573 0.000000 70.000000 14.570601 7.000000
-15.015137 50.474947 -11.453514 0.000000 51.000000 14.137307 0.000000
-16.628084 48.689473 -13.248134 0.000000 66.000000 14.575136 14.000000
-14.667522 44.355298 -13.057342 0.000000 54.000000 14.164402 0.000000
-14.266571 44.677295 -12.643704 0.000000 38.000000 14.053646 0.000000
-16.847880 49.178863 -12.948530 0.000000 55.000000 14.342367 7.000000
-14.039889 44.834272 -12.470857 0.000000 41.000000 14.037969 0.000000
-13.611771 45.029844 -12.319128 0.000000 51.000000 14.135568 0.000000
-14.992243 45.823152 -13.383322 0.000000 65.000000 14.674906 23.000000
-12.162677 46.470106 -11.121315 0.000000 41.000000 14.062743 0.000000
-11.796583 48.463726 -10.313587 0.000000 23.000000 14.008378 0.000000
-13.263614 50.452515 -11.141273 0.000000 69.000000 14.601442 16.000000
-14.450628 45.178842 -12.557177 0.000000 39.000000 14.024681 0.000000
-12.854013 48.107389 -11.234648 0.000000 37.000000 14.274724 11.000000
-13.433733 48.130824 -11.316696 0.000000 30.000000 14.106518 0.000000
-16.876031 48.069570 -13.546856 0.000000 52.000000 14.576688 19.000000
-11.341439 47.456063 -10.531242 0.000000 57.000000 14.140893 0.000000
-16.851452 48.948988 -13.336881 0.000000 80.000000 14.622221 7.000000
-13.053397 45.243557 -12.424244 0.000000 59.000000 14.516618 30.000000
-11.119525 47.706545 -10.422600 0.000000 47.000000 14.202325 0.000000
-13.530332 49.125549 -11.146790 0.000000 46.000000 14.164239 0.000000
-10.241204 46.573748 -10.814143 0.000000 74.000000 14.634529 2.000000
-14.752446 49.540954 -11.591621 0.000000 41.000000 14.137278 0.000000
-15.530919 45.568766 -13.230787 0.000000 67.000000 14.250797 18.000000
-16.394477 48.915196 -12.467303 0.000000 38.000000 14.049703 0.000000
-16.330014 48.693261 -12.466609 0.000000 40.000000 14.021362 0.000000
-11.148892 46.204712 -10.826286 0.000000 41.000000 14.169200 0.000000
