-21.588351 -24.771610 -26.034465 0.000000 66.000000 14.994945 5.000000
-18.691418 -25.861909 -31.606437 0.000000 43.000000 14.520016 10.000000
-20.570962 -24.342613 -32.107592 0.000000 41.000000 14.229181 0.000000
-19.873414 -25.734668 -27.498798 0.000000 57.000000 14.943158 21.000000
-21.118710 -24.242877 -29.605944 0.000000 31.000000 14.377378 0.000000
-20.304476 -25.579819 -26.085444 0.000000 70.000000 15.007174 9.000000
-18.808162 -25.644759 -31.609441 0.000000 42.000000 14.396971 0.000000
-17.940191 -26.045110 -31.664379 0.000000 48.000000 14.281563 0.000000
-21.595549 -24.368761 -28.417679 0.000000 63.000000 14.709081 7.000000
-17.909768 -26.870075 -29.085792 0.000000 50.000000 14.909653 29.000000
-17.961838 -26.935773 -29.531096 0.000000 68.000000 15.002759 29.000000
-20.890444 -24.962874 -31.473953 0.000000 55.000000 14.910522 17.000000
-20.119911 -24.889560 -30.907759 0.000000 67.000000 14.430067 0.000000
-20.104088 -24.888567 -30.734893 0.000000 55.000000 14.417069 0.000000
-20.076449 -24.870446 -30.577744 0.000000 68.000000 14.383639 0.000000
-19.119912 -25.961399 -29.834554 0.000000 59.000000 14.790920 23.000000
-20.033581 -24.935884 -28.975974 0.000000 42.000000 14.381240 0.000000
-20.023389 -24.955583 -28.804185 0.000000 41.000000 14.388815 0.000000
-17.943113 -26.166149 -31.077323 0.000000 34.000000 14.372984 0.000000
-21.152039 -24.629923 -29.136989 0.000000 50.000000 14.713511 7.000000
-19.620385 -25.920666 -27.935437 0.000000 72.000000 14.977716 21.000000
-19.600693 -25.749376 -29.672136 0.000000 48.000000 14.860201 23.000000
-20.415930 -24.996194 -31.917696 0.000000 70.000000 14.698879 17.000000
-20.746667 -24.897558 -30.915378 0.000000 83.000000 14.766960 12.000000
-20.078610 -25.916981 -31.864376 0.000000 61.000000 15.302753 16.000000
-18.870528 -26.183413 -29.011964 0.000000 65.000000 14.830138 23.000000
-19.990412 -25.633006 -31.554379 0.000000 59.000000 15.008101 16.000000
-18.817025 -25.638946 -31.744276 0.000000 42.000000 14.399680 0.000000
-21.156502 -24.292274 -30.983232 0.000000 40.000000 14.469739 18.000000
-19.657727 -25.573560 -26.467928 0.000000 75.000000 14.669870 9.000000
-20.058277 -25.359999 -27.574064 0.000000 61.000000 14.723687 19.000000
-18.699112 -26.495321 -31.518545 0.000000 55.000000 15.060488 10.000000
-21.038662 -24.235858 -31.790061 0.000000 44.000000 14.377616 0.000000
-17.779099 -26.521577 -31.317561 0.000000 54.000000 14.594060 2.000000
-21.297719 -24.065787 -31.756776 0.000000 49.000000 14.368695 0.000000
-20.588668 -24.891846 -29.897778 0.000000 33.000000 14.656411 3.000000
-21.565617 -23.912540 -31.700491 0.000000 55.000000 14.378219 0.000000
-21.577470 -24.567794 -26.844107 0.000000 71.000000 14.833904 5.000000
-17.842138 -27.156618 -27.335014 0.000000 66.000000 15.078850 25.000000
-19.462043 -25.949851 -27.660802 0.000000 65.000000 14.913091 21.000000
-21.019607 -24.492994 -28.011721 0.000000 46.000000 14.502511 8.000000
-19.661469 -25.922858 -27.831311 0.000000 48.000000 14.998901 21.000000
-20.007892 -25.857218 -29.075098 0.000000 67.000000 15.152997 20.000000
-19.124574 -25.648617 -26.432959 0.000000 40.000000 14.452238 9.000000
-20.387209 -25.130224 -28.429180 0.000000 64.000000 14.720467 19.000000
-21.552925 -24.143069 -30.966591 0.000000 76.000000 14.551233 11.000000
-18.414290 -26.747822 -26.245644 0.000000 46.000000 15.008464 13.000000
-19.234178 -26.328454 -29.008127 0.000000 55.000000 15.144757 23.000000
-20.216640 -24.779044 -28.940504 0.000000 47.000000 14.343511 0.000000
-19.034075 -26.764513 -31.482664 0.000000 52.000000 15.464818 10.000000
-21.665850 -24.275343 -30.351953 0.000000 74.000000 14.709499 11.000000
-19.604365 -26.025080 -26.084100 0.000000 79.000000 15.017054 9.000000
-19.047179 -26.580377 -27.060844 0.000000 74.000000 15.217342 22.000000
-19.452359 -25.452563 -26.679565 0.000000 29.000000 14.463608 21.000000
-20.043300 -24.976598 -29.161914 0.000000 58.000000 14.425076 0.000000
-20.057013 -24.833670 -30.651536 0.000000 79.000000 14.343783 0.000000
-18.053478 -26.767303 -27.354386 0.000000 54.000000 14.859631 25.000000
-18.683987 -25.865010 -31.697946 0.000000 45.000000 14.520766 10.000000
-20.603907 -24.793368 -27.392862 0.000000 44.000000 14.525291 8.000000
-21.175331 -24.798595 -29.831457 0.000000 49.000000 14.884505 12.000000
-21.547307 -24.600072 -26.726605 0.000000 71.000000 14.842860 5.000000
-17.350716 -26.621217 -31.512566 0.000000 47.000000 14.457563 1.000000
-18.501322 -26.095677 -29.506531 0.000000 53.000000 14.572163 29.000000
-22.038591 -24.100545 -30.480138 0.000000 59.000000 14.759978 11.000000
-21.550965 -23.909423 -31.672108 0.000000 59.000000 14.367229 0.000000
-17.543238 -26.947892 -27.370386 0.000000 38.000000 14.744884 26.000000
-21.281807 -24.071817 -31.693472 0.000000 51.000000 14.364043 0.000000
-18.685040 -26.306067 -28.389253 0.000000 57.000000 14.822964 24.000000
-22.007487 -24.101089 -30.584953 0.000000 72.000000 14.746387 11.000000
-19.993062 -25.403097 -26.047338 0.000000 64.000000 14.692198 9.000000
-21.548869 -24.692230 -28.454945 0.000000 52.000000 14.960265 7.000000
-18.086094 -27.096543 -27.852368 0.000000 44.000000 15.167658 25.000000
-19.729615 -25.137592 -30.288343 0.000000 58.000000 14.421720 0.000000
-19.681186 -25.160889 -30.125993 0.000000 55.000000 14.412434 0.000000
-19.226932 -26.662317 -26.010383 0.000000 67.000000 15.358359 14.000000
-18.525612 -26.712976 -27.466339 0.000000 56.000000 15.064465 24.000000
-18.803963 -26.051471 -30.858403 0.000000 76.000000 14.723822 10.000000
-21.109895 -24.720164 -29.956366 0.000000 77.000000 14.786162 12.000000
-19.230086 -25.337041 -28.923955 0.000000 40.000000 14.298090 0.000000
-17.651836 -26.618940 -29.812609 0.000000 60.000000 14.576513 29.000000
-19.745257 -25.583978 -28.143550 0.000000 84.000000 14.761887 21.000000
-17.746626 -26.455004 -26.966345 0.000000 46.000000 14.424077 0.000000
-17.913236 -26.824436 -29.077950 0.000000 69.000000 14.872514 29.000000
-18.629827 -26.502238 -31.102044 0.000000 64.000000 15.020677 10.000000
-20.778040 -24.444407 -31.518345 0.000000 47.000000 14.411665 0.000000
-20.897248 -24.378231 -31.442022 0.000000 63.000000 14.416481 0.000000
-21.594242 -24.351624 -29.366315 0.000000 69.000000 14.714824 7.000000
-17.914617 -26.455076 -31.059515 0.000000 35.000000 14.603163 2.000000
-20.765126 -24.965177 -30.865973 0.000000 42.000000 14.833055 12.000000
-21.627351 -24.718566 -25.987047 0.000000 53.000000 14.969341 5.000000
-21.182090 -24.597464 -29.689568 0.000000 48.000000 14.713972 12.000000
-18.224834 -26.737909 -29.701174 0.000000 67.000000 14.976791 29.000000
-17.951884 -26.509715 -31.153227 0.000000 55.000000 14.671295 2.000000
-21.675126 -24.356405 -28.869613 0.000000 50.000000 14.750471 7.000000
-20.907439 -25.010686 -27.455043 0.000000 76.000000 14.871155 8.000000
-20.581736 -25.064873 -29.773733 0.000000 54.000000 14.797081 3.000000
-20.700798 -24.957050 -30.878032 0.000000 74.000000 14.792553 12.000000
-21.609617 -24.602483 -30.069110 0.000000 76.000000 14.951689 11.000000
-19.911569 -25.963811 -26.022092 0.000000 40.000000 15.125319 9.000000
-20.662083 -25.091512 -27.478776 0.000000 69.000000 14.811223 8.000000
-19.455278 -25.221618 -30.541483 0.000000 48.000000 14.354329 0.000000
-19.527656 -25.717580 -29.295106 0.000000 72.000000 14.786385 20.000000
-18.314253 -26.841118 -26.344623 0.000000 45.000000 15.037293 13.000000
-19.862136 -25.625078 -27.341216 0.000000 43.000000 14.840588 21.000000
-20.376327 -24.593897 -28.585064 0.000000 39.000000 14.262339 0.000000
-20.384966 -24.999468 -32.028586 0.000000 39.000000 14.687817 17.000000
-19.971014 -25.771857 -29.020234 0.000000 54.000000 15.059818 20.000000
-16.931127 -27.456565 -29.575839 0.000000 59.000000 14.903827 27.000000
-21.084425 -24.290741 -31.238891 0.000000 78.000000 14.436153 0.000000
-21.154988 -24.597044 -28.638001 0.000000 51.000000 14.676074 7.000000
-20.335651 -25.040988 -28.272457 0.000000 78.000000 14.614012 19.000000
-19.237148 -25.282321 -30.531397 0.000000 40.000000 14.290876 0.000000
-19.492817 -25.897687 -27.789876 0.000000 48.000000 14.887811 21.000000
-19.030975 -25.374437 -31.454437 0.000000 45.000000 14.281070 0.000000
-18.856516 -26.252306 -31.572096 0.000000 60.000000 14.937981 10.000000
-20.432892 -25.372231 -31.431932 0.000000 73.000000 15.016668 17.000000
-20.064979 -25.572396 -31.267602 0.000000 75.000000 14.989491 16.000000
-18.020534 -27.191180 -27.603868 0.000000 34.000000 15.208084 25.000000
-20.375251 -25.204247 -31.080039 0.000000 78.000000 14.835760 17.000000
-19.098009 -25.995287 -30.102709 0.000000 61.000000 14.814129 23.000000
-17.532416 -27.122595 -27.834052 0.000000 59.000000 14.897938 26.000000
-17.459403 -27.168984 -30.653340 0.000000 60.000000 14.961331 1.000000
-21.019311 -24.336819 -30.802996 0.000000 63.000000 14.431394 0.000000
-20.798591 -24.766249 -29.787458 0.000000 41.000000 14.657722 12.000000
-18.427727 -26.927740 -26.143232 0.000000 42.000000 15.166192 13.000000
-19.771645 -26.251017 -26.308859 0.000000 55.000000 15.302120 9.000000
-21.181808 -24.214167 -30.559447 0.000000 50.000000 14.407294 0.000000
-18.590890 -26.574154 -29.388707 0.000000 61.000000 15.023384 29.000000
-21.170200 -24.903750 -29.816943 0.000000 63.000000 14.970860 12.000000
-19.968235 -25.689743 -30.824960 0.000000 74.000000 15.028506 16.000000
-21.710049 -23.903788 -30.993681 0.000000 47.000000 14.431166 0.000000
-19.191330 -26.040136 -27.280177 0.000000 50.000000 14.838901 22.000000
-19.071682 -26.577362 -26.997316 0.000000 46.000000 15.226271 22.000000
-18.797687 -26.266913 -31.009345 0.000000 51.000000 14.906973 10.000000
-19.141981 -25.747971 -26.959795 0.000000 59.000000 14.557508 22.000000
-17.731848 -26.306422 -26.820713 0.000000 34.000000 14.286787 0.000000
-17.737900 -26.281749 -26.973909 0.000000 40.000000 14.272392 0.000000
-18.277827 -26.586434 -29.105475 0.000000 70.000000 14.862756 29.000000
-18.890072 -25.725247 -31.278382 0.000000 45.000000 14.501172 10.000000
-20.109688 -25.519348 -28.333176 0.000000 43.000000 14.902990 19.000000
-21.554599 -24.742375 -27.092482 0.000000 69.000000 14.975747 5.000000
-18.611335 -25.801712 -30.233977 0.000000 56.000000 14.396319 0.000000
-17.260033 -27.084866 -31.286478 0.000000 57.000000 14.798900 1.000000
-17.626705 -26.519907 -31.265404 0.000000 51.000000 14.511265 2.000000
-19.864207 -25.894097 -26.244325 0.000000 54.000000 15.046053 9.000000
-19.813677 -25.452862 -30.647358 0.000000 77.000000 14.741879 16.000000
-18.514248 -26.464857 -26.976005 0.000000 60.000000 14.836743 24.000000
-21.590960 -23.906060 -28.925467 0.000000 24.000000 14.324633 0.000000
-16.700419 -27.335171 -28.055917 0.000000 37.000000 14.645562 26.000000
-20.163303 -25.516310 -26.094222 0.000000 41.000000 14.879075 9.000000
-19.211256 -25.450246 -31.586202 0.000000 54.000000 14.443320 0.000000
-18.540658 -26.503203 -29.656361 0.000000 70.000000 14.942561 29.000000
-20.146687 -25.401629 -28.584539 0.000000 82.000000 14.827974 19.000000
-20.827684 -24.845215 -31.100408 0.000000 64.000000 14.769213 12.000000
-19.079833 -26.203438 -26.117038 0.000000 55.000000 14.893263 14.000000
-18.132835 -26.841488 -26.300336 0.000000 64.000000 14.941128 13.000000
-21.688701 -23.916487 -29.878444 0.000000 48.000000 14.406038 0.000000
-20.995333 -24.857727 -27.727949 0.000000 68.000000 14.793456 8.000000
-21.702879 -24.651713 -29.177933 0.000000 72.000000 15.022902 7.000000
-20.017300 -25.624874 -29.071061 0.000000 67.000000 14.960380 20.000000
-17.331729 -27.480804 -28.343701 0.000000 37.000000 15.108035 26.000000
-18.880048 -25.633301 -26.595427 0.000000 40.000000 14.314098 0.000000
-20.578954 -25.251878 -29.909328 0.000000 59.000000 14.957561 3.000000
-18.092812 -26.857012 -29.030130 0.000000 57.000000 14.993673 29.000000
-19.307945 -25.644624 -31.714467 0.000000 46.000000 14.662268 16.000000
-18.869433 -25.628276 -30.861387 0.000000 57.000000 14.398658 0.000000
-18.482326 -26.553604 -28.833068 0.000000 63.000000 14.936471 24.000000
-19.480594 -25.810659 -31.711028 0.000000 62.000000 14.894195 16.000000
-19.979342 -25.689254 -26.070290 0.000000 44.000000 14.928702 9.000000
-17.942253 -26.034383 -31.581640 0.000000 44.000000 14.271700 0.000000
-20.830288 -25.388508 -31.372335 0.000000 59.000000 15.238373 17.000000
-17.708238 -26.420665 -31.009749 0.000000 31.000000 14.464175 2.000000
-17.929065 -26.630819 -29.916002 0.000000 69.000000 14.734831 29.000000
-17.187414 -26.718519 -29.722934 0.000000 62.000000 14.414692 0.000000
-19.624637 -25.196654 -29.968758 0.000000 36.000000 14.409586 0.000000
-16.684537 -26.914541 -30.825177 0.000000 44.000000 14.340981 0.000000
-20.068575 -25.468361 -28.470347 0.000000 66.000000 14.841047 19.000000
-16.891358 -27.734886 -29.228759 0.000000 52.000000 15.111769 27.000000
-20.661198 -24.320739 -31.858471 0.000000 45.000000 14.252577 0.000000
-20.878465 -25.114982 -26.298654 0.000000 71.000000 14.918955 4.000000
-17.920248 -26.368884 -31.472027 0.000000 57.000000 14.541998 2.000000
-17.384873 -26.663757 -31.888020 0.000000 60.000000 14.520010 1.000000
-18.433839 -26.520612 -28.458467 0.000000 65.000000 14.874615 24.000000
-19.836151 -25.818522 -28.929344 0.000000 76.000000 15.026476 20.000000
-17.809749 -26.571445 -26.474915 0.000000 58.000000 14.545397 13.000000
-21.141503 -24.247542 -30.238041 0.000000 60.000000 14.407331 0.000000
-21.162296 -24.197700 -30.095513 0.000000 49.000000 14.372758 0.000000
-17.979529 -26.529289 -27.055755 0.000000 46.000000 14.611794 25.000000
-18.689126 -26.698376 -30.920061 0.000000 36.000000 15.214571 10.000000
-21.259930 -24.148957 -29.606504 0.000000 54.000000 14.371900 0.000000
-19.314794 -25.902592 -28.123857 0.000000 65.000000 14.805661 22.000000
-20.053413 -25.439411 -31.934905 0.000000 55.000000 14.885142 16.000000
-20.977900 -24.754163 -29.959941 0.000000 80.000000 14.745656 12.000000
-20.585387 -25.496018 -31.425523 0.000000 42.000000 15.202012 17.000000
-19.824174 -25.821578 -29.334413 0.000000 47.000000 15.031734 20.000000
-21.000067 -24.803540 -27.839279 0.000000 50.000000 14.752357 8.000000
-21.502961 -24.112352 -27.976948 0.000000 45.000000 14.432654 0.000000
-21.043475 -24.669588 -30.610187 0.000000 62.000000 14.722682 12.000000
-20.914913 -25.344545 -27.963877 0.000000 75.000000 15.170115 8.000000
-19.715829 -25.254044 -29.421901 0.000000 63.000000 14.494264 20.000000
-21.535000 -24.088616 -27.373281 0.000000 43.000000 14.415983 0.000000
-17.603896 -26.844239 -26.692329 0.000000 48.000000 14.673707 13.000000
-21.536747 -24.085911 -26.485248 0.000000 42.000000 14.394949 0.000000
-21.550457 -24.517274 -30.054610 0.000000 78.000000 14.847804 11.000000
-17.734733 -26.957704 -27.565827 0.000000 66.000000 14.858353 25.000000
-18.880701 -26.468390 -28.138147 0.000000 55.000000 15.058369 24.000000
-20.353019 -25.125003 -27.270426 0.000000 73.000000 14.672385 19.000000
-20.640546 -25.142690 -31.652495 0.000000 58.000000 14.935761 17.000000
-19.922590 -25.306349 -27.147728 0.000000 35.000000 14.597225 21.000000
-19.969683 -25.480215 -27.554118 0.000000 64.000000 14.778787 21.000000
-17.185426 -26.711779 -29.893921 0.000000 61.000000 14.411701 0.000000
-19.608749 -26.040045 -29.824201 0.000000 56.000000 15.114861 23.000000
-20.284280 -25.455426 -27.839605 0.000000 67.000000 14.929640 19.000000
-17.401992 -26.545390 -30.296125 0.000000 50.000000 14.393182 0.000000
-18.417549 -26.288427 -26.587625 0.000000 58.000000 14.627287 13.000000
-17.560111 -26.434187 -30.556750 0.000000 53.000000 14.387668 0.000000
-17.948278 -27.192471 -27.423974 0.000000 61.000000 15.167164 25.000000
-21.631589 -24.519413 -26.699297 0.000000 77.000000 14.818066 5.000000
-17.836309 -26.297868 -30.909278 0.000000 57.000000 14.424998 0.000000
-19.891682 -25.802613 -31.483607 0.000000 48.000000 15.098720 16.000000
-19.850141 -25.246912 -30.701452 0.000000 45.000000 14.587225 16.000000
-18.661829 -25.702565 -32.024457 0.000000 57.000000 14.378258 0.000000
-21.941853 -24.216524 -27.905246 0.000000 44.000000 14.750642 28.000000
-18.764986 -25.632991 -32.141594 0.000000 48.000000 14.376019 0.000000
-18.170360 -26.748275 -29.107289 0.000000 63.000000 14.943781 29.000000
-18.930020 -25.586335 -31.051224 0.000000 48.000000 14.399105 0.000000
-20.171868 -25.417464 -31.161208 0.000000 56.000000 14.911718 17.000000
-19.070479 -25.342971 -31.339794 0.000000 38.000000 14.272583 0.000000
-17.842124 -26.594007 -26.370156 0.000000 61.000000 14.579296 13.000000
-21.544296 -23.989878 -29.830233 0.000000 48.000000 14.391335 0.000000
-22.239573 -24.282278 -30.804317 0.000000 47.000000 15.027414 11.000000
-18.713975 -25.959934 -30.972334 0.000000 35.000000 14.601172 10.000000
-21.322084 -24.653845 -28.392287 0.000000 36.000000 14.806873 7.000000
-21.112294 -24.206296 -30.690291 0.000000 51.000000 14.366908 0.000000
-18.612881 -26.268226 -28.412613 0.000000 59.000000 14.753333 24.000000
-19.428828 -26.150376 -29.915136 0.000000 72.000000 15.115938 23.000000
-18.463980 -26.591299 -27.475875 0.000000 56.000000 14.928814 24.000000
-19.991452 -24.885131 -32.049616 0.000000 47.000000 14.383955 0.000000
-20.936829 -25.099800 -27.374453 0.000000 54.000000 14.960585 8.000000
-20.882902 -24.943606 -31.147864 0.000000 79.000000 14.882958 17.000000
-20.945196 -24.652701 -28.910967 0.000000 79.000000 14.618986 7.000000
-17.807559 -26.918821 -26.695293 0.000000 66.000000 14.844372 13.000000
-17.441715 -26.512325 -31.293015 0.000000 44.000000 14.408053 0.000000
-19.080003 -26.230736 -29.592513 0.000000 62.000000 14.993477 23.000000
-20.283359 -24.807855 -30.888659 0.000000 54.000000 14.446239 0.000000
-20.270693 -24.741087 -30.751148 0.000000 40.000000 14.379779 0.000000
-21.094260 -24.256488 -30.145112 0.000000 24.000000 14.388008 0.000000
-19.687523 -25.884769 -31.501062 0.000000 41.000000 15.061465 16.000000
-16.889151 -27.372175 -29.592367 0.000000 59.000000 14.810369 27.000000
-19.410790 -26.012667 -27.923449 0.000000 71.000000 14.945315 22.000000
-20.334816 -24.666446 -29.402086 0.000000 54.000000 14.320234 0.000000
-18.200451 -26.765899 -26.323640 0.000000 47.000000 14.912990 13.000000
-20.324198 -24.641236 -29.249338 0.000000 37.000000 14.289836 0.000000
-19.808988 -25.913059 -27.112497 0.000000 50.000000 15.052317 21.000000
-20.012093 -25.359441 -31.042886 0.000000 57.000000 14.775677 16.000000
-20.082103 -25.561889 -27.465991 0.000000 70.000000 14.905433 21.000000
-20.338906 -24.668509 -28.741160 0.000000 45.000000 14.309512 0.000000
-20.061055 -25.474600 -27.463507 0.000000 59.000000 14.820107 21.000000
-20.327390 -24.668553 -28.419098 0.000000 55.000000 14.296359 0.000000
-18.125805 -26.472643 -30.329107 0.000000 53.000000 14.713098 10.000000
-21.082586 -24.583706 -30.978450 0.000000 38.000000 14.678426 12.000000
-20.306684 -24.615774 -29.310347 0.000000 43.000000 14.260326 0.000000
-17.969784 -26.542564 -29.611381 0.000000 73.000000 14.674511 29.000000
-18.705645 -26.433571 -26.903029 0.000000 64.000000 14.909287 22.000000
-18.549427 -26.252519 -27.251579 0.000000 54.000000 14.680883 24.000000
-17.730526 -27.025987 -28.879069 0.000000 70.000000 14.943241 29.000000
-17.496774 -27.009361 -31.026532 0.000000 67.000000 14.853593 1.000000
-19.712927 -25.829959 -27.660608 0.000000 51.000000 14.943251 21.000000
-18.843175 -25.765232 -30.101194 0.000000 53.000000 14.484415 23.000000
-19.395377 -25.985733 -29.215714 0.000000 44.000000 14.942911 23.000000
-19.252751 -26.361400 -27.619155 0.000000 49.000000 15.151794 22.000000
-19.322452 -26.035801 -27.727878 0.000000 81.000000 14.914148 22.000000
-19.165154 -26.261902 -27.111626 0.000000 75.000000 15.009881 22.000000
-20.191374 -24.785071 -26.708691 0.000000 41.000000 14.285937 0.000000
-21.613512 -24.135069 -28.762100 0.000000 49.000000 14.527534 7.000000
-18.013911 -26.813861 -29.421338 0.000000 46.000000 14.924122 29.000000
-21.564699 -24.597342 -29.166294 0.000000 77.000000 14.903693 7.000000
-18.773589 -26.016157 -30.294379 0.000000 39.000000 14.665334 10.000000
-16.606461 -26.995418 -30.851649 0.000000 24.000000 14.369209 0.000000
-20.126616 -25.560672 -31.551546 0.000000 66.000000 15.018256 16.000000
-17.329136 -26.647441 -30.834967 0.000000 51.000000 14.453494 0.000000
-17.888150 -27.060599 -29.078364 0.000000 48.000000 15.060044 29.000000
-17.606391 -26.768194 -27.479121 0.000000 61.000000 14.627801 25.000000
-17.406957 -26.498246 -32.219637 0.000000 49.000000 14.398299 0.000000
-20.377579 -25.205907 -31.170489 0.000000 83.000000 14.840398 17.000000
-17.893934 -26.268542 -31.201954 0.000000 50.000000 14.436883 0.000000
-20.415750 -25.188396 -31.069207 0.000000 81.000000 14.843366 17.000000
-17.454726 -27.088687 -28.058963 0.000000 75.000000 14.833201 26.000000
-18.943746 -25.524383 -31.761860 0.000000 42.000000 14.369403 0.000000
-19.045492 -25.412361 -31.835406 0.000000 46.000000 14.329377 0.000000
-19.668540 -25.926805 -26.216432 0.000000 65.000000 14.970235 9.000000
-21.254679 -24.327819 -31.087420 0.000000 78.000000 14.553938 18.000000
-21.684257 -23.955629 -26.525852 0.000000 46.000000 14.362765 0.000000
-21.631492 -24.007598 -26.640808 0.000000 42.000000 14.381704 0.000000
-20.104350 -25.211476 -31.019473 0.000000 69.000000 14.697961 17.000000
-19.887348 -25.580713 -29.380831 0.000000 58.000000 14.861295 20.000000
-16.963419 -27.391699 -29.350073 0.000000 53.000000 14.860696 27.000000
-17.622585 -26.944432 -28.635660 0.000000 43.000000 14.811716 26.000000
-19.772069 -25.220512 -30.769823 0.000000 69.000000 14.525202 16.000000
-20.301920 -25.156146 -29.356074 0.000000 81.000000 14.718118 3.000000
-20.005141 -25.242683 -27.346799 0.000000 78.000000 14.590973 21.000000
-19.688495 -25.801381 -26.792966 0.000000 49.000000 14.886897 21.000000
-20.407762 -25.335875 -27.482331 0.000000 65.000000 14.885122 19.000000
-20.406619 -25.326814 -31.077766 0.000000 75.000000 14.956397 17.000000
-21.281136 -24.517502 -28.757900 0.000000 56.000000 14.677526 7.000000
-19.466543 -25.682592 -29.607737 0.000000 61.000000 14.731396 23.000000
-20.611616 -24.544246 -29.621982 0.000000 48.000000 14.366944 0.000000
-19.806345 -25.592951 -32.068495 0.000000 46.000000 14.888543 16.000000
-21.495232 -24.469926 -29.287737 0.000000 49.000000 14.761516 7.000000
-20.752387 -24.996309 -31.263847 0.000000 62.000000 14.861617 17.000000
-20.635420 -25.452592 -31.251134 0.000000 68.000000 15.187581 17.000000
-19.069979 -26.546704 -27.198005 0.000000 63.000000 15.203759 22.000000
-18.496646 -26.569402 -30.040416 0.000000 65.000000 14.984159 10.000000
-20.325596 -24.590909 -29.253129 0.000000 38.000000 14.247881 0.000000
-20.846979 -24.716405 -29.567764 0.000000 70.000000 14.635967 12.000000
-20.371746 -24.553893 -30.675846 0.000000 45.000000 14.272201 0.000000
-19.406426 -25.775759 -29.820611 0.000000 65.000000 14.783649 23.000000
-18.862462 -26.350515 -27.186704 0.000000 57.000000 14.927521 22.000000
-20.198545 -24.856525 -30.854200 0.000000 67.000000 14.442197 0.000000
-19.390992 -25.832430 -29.671891 0.000000 46.000000 14.820400 23.000000
-21.513816 -23.998968 -26.138676 0.000000 29.000000 14.301310 0.000000
-21.504848 -24.377858 -27.259612 0.000000 75.000000 14.643436 5.000000
-20.322907 -25.395860 -27.701097 0.000000 45.000000 14.896281 19.000000
-19.953564 -25.153226 -30.997396 0.000000 80.000000 14.568589 16.000000
-20.139744 -25.117228 -30.215518 0.000000 55.000000 14.618692 3.000000
-19.970470 -24.941928 -30.693853 0.000000 42.000000 14.391177 0.000000
-20.291303 -25.381612 -29.852996 0.000000 41.000000 14.915162 3.000000
-19.932174 -25.000375 -30.331765 0.000000 53.000000 14.412681 0.000000
-20.743109 -25.005154 -31.327622 0.000000 48.000000 14.865662 17.000000
-17.268046 -26.809653 -26.095816 0.000000 51.000000 14.454317 0.000000
-21.363998 -24.322339 -30.350291 0.000000 58.000000 14.590511 11.000000
-18.875046 -26.371327 -28.109975 0.000000 56.000000 14.972269 24.000000
-21.381822 -24.339566 -31.287872 0.000000 58.000000 14.635287 18.000000
-22.010826 -24.100546 -30.402900 0.000000 38.000000 14.743653 11.000000
-21.213948 -24.864528 -26.307300 0.000000 44.000000 14.882872 5.000000
-21.732592 -24.227622 -30.708198 0.000000 68.000000 14.711956 11.000000
-20.233163 -25.192602 -29.723642 0.000000 47.000000 14.721046 3.000000
-20.396704 -24.598541 -28.285126 0.000000 33.000000 14.270374 0.000000
-19.089419 -25.384911 -28.484968 0.000000 44.000000 14.255013 0.000000
-19.949190 -25.650862 -27.068130 0.000000 63.000000 14.902284 21.000000
-21.623331 -23.953122 -25.955409 0.000000 38.000000 14.315936 0.000000
-17.213788 -27.608407 -27.441665 0.000000 58.000000 15.134443 26.000000
-20.598285 -24.977597 -29.721523 0.000000 66.000000 14.730456 3.000000
-17.108780 -26.674288 -32.287380 0.000000 53.000000 14.392464 0.000000
-17.251332 -26.605557 -32.292755 0.000000 52.000000 14.409205 0.000000
-19.551379 -25.782436 -29.789307 0.000000 63.000000 14.864935 23.000000
-21.433712 -24.806060 -26.026924 0.000000 68.000000 14.942656 5.000000
-19.088824 -26.157360 -27.766775 0.000000 66.000000 14.895346 22.000000
-18.563895 -26.682487 -27.885950 0.000000 58.000000 15.067990 24.000000
-21.238213 -24.198189 -31.530339 0.000000 81.000000 14.444894 18.000000
-17.380604 -27.365285 -28.492326 0.000000 61.000000 15.038868 26.000000
-21.398756 -24.046326 -31.639628 0.000000 49.000000 14.402748 0.000000
-20.159597 -25.710151 -31.783360 0.000000 67.000000 15.167798 16.000000
-20.251742 -25.147385 -30.260694 0.000000 45.000000 14.704280 3.000000
-20.531579 -25.489593 -26.257352 0.000000 79.000000 15.053840 9.000000
-16.773648 -27.298081 -28.339893 0.000000 52.000000 14.658871 26.000000
-20.445983 -25.088655 -31.155272 0.000000 73.000000 14.776411 17.000000
-17.160812 -27.126138 -26.946654 0.000000 71.000000 14.685696 26.000000
-17.702366 -27.104716 -28.551999 0.000000 63.000000 14.988094 26.000000
-19.795662 -25.116919 -29.296838 0.000000 52.000000 14.416971 0.000000
-19.793533 -25.111934 -29.463466 0.000000 59.000000 14.415301 0.000000
-19.588892 -25.654018 -29.868450 0.000000 58.000000 14.777285 23.000000
-20.087843 -25.056621 -26.730556 0.000000 41.000000 14.462726 9.000000
-19.723399 -25.171068 -28.598323 0.000000 44.000000 14.409496 0.000000
-19.293748 -25.808711 -27.351537 0.000000 69.000000 14.697694 22.000000
-19.637977 -25.718141 -28.881614 0.000000 80.000000 14.835783 20.000000
-19.925095 -25.849100 -31.109228 0.000000 72.000000 15.147534 16.000000
-20.824405 -24.646164 -31.991759 0.000000 45.000000 14.618032 15.000000
-19.810877 -25.056672 -30.498264 0.000000 62.000000 14.400365 0.000000
-20.223318 -25.693577 -31.734019 0.000000 65.000000 15.186161 16.000000
-19.795057 -25.116176 -29.750724 0.000000 50.000000 14.426067 0.000000
-19.930960 -25.619836 -27.702106 0.000000 69.000000 14.880350 21.000000
-17.355833 -26.892012 -31.868881 0.000000 36.000000 14.698304 1.000000
-16.688846 -26.932985 -32.365716 0.000000 26.000000 14.393023 0.000000
-21.090240 -24.749800 -27.937571 0.000000 69.000000 14.756323 8.000000
-19.222045 -26.021840 -29.754802 0.000000 54.000000 14.894289 23.000000
-18.065831 -26.814647 -27.224341 0.000000 60.000000 14.903495 25.000000
-20.144444 -25.669171 -26.280475 0.000000 63.000000 15.003195 9.000000
-19.974348 -25.226941 -27.387651 0.000000 60.000000 14.562289 21.000000
-21.200595 -24.154683 -31.632553 0.000000 53.000000 14.390376 0.000000
-19.301948 -26.300799 -27.827935 0.000000 49.000000 15.130804 22.000000
-20.947683 -24.302712 -31.734018 0.000000 54.000000 14.385305 0.000000
-19.883626 -25.835337 -31.585887 0.000000 47.000000 15.124557 16.000000
-17.432712 -27.406235 -27.226831 0.000000 66.000000 15.073094 26.000000
-21.175608 -24.295667 -31.086455 0.000000 62.000000 14.484966 18.000000
-19.106508 -25.369501 -30.955960 0.000000 46.000000 14.305602 0.000000
-19.057948 -25.453738 -30.784148 0.000000 57.000000 14.347834 0.000000
-17.943065 -26.579845 -27.575582 0.000000 60.000000 14.647074 25.000000
-19.629179 -25.926857 -26.465666 0.000000 75.000000 14.955077 9.000000
-21.846126 -24.039930 -29.277075 0.000000 35.000000 14.580517 6.000000
-18.638582 -25.793467 -29.934101 0.000000 46.000000 14.397017 0.000000
-21.603286 -24.471048 -27.017091 0.000000 43.000000 14.769093 5.000000
-19.944503 -25.227606 -26.664277 0.000000 49.000000 14.531133 9.000000
-17.352713 -26.735103 -26.908458 0.000000 47.000000 14.453508 0.000000
-20.004691 -25.739572 -29.269341 0.000000 44.000000 15.055618 20.000000
-21.235841 -24.356379 -27.350781 0.000000 33.000000 14.485593 5.000000
-17.067265 -26.886445 -26.643304 0.000000 59.000000 14.426012 0.000000
-19.350630 -25.511487 -30.135587 0.000000 75.000000 14.536632 23.000000
-17.432808 -27.048201 -31.018286 0.000000 70.000000 14.852750 1.000000
-20.429386 -24.679098 -27.056823 0.000000 28.000000 14.328861 0.000000
-19.708715 -25.830459 -31.536841 0.000000 70.000000 15.027252 16.000000
-19.453658 -25.939757 -26.239959 0.000000 70.000000 14.868651 9.000000
-21.629104 -24.419234 -28.423330 0.000000 53.000000 14.769769 7.000000
-17.362935 -27.609595 -28.523729 0.000000 26.000000 15.237912 26.000000
-16.764851 -27.523565 -27.779262 0.000000 56.000000 14.833482 26.000000
-20.371038 -24.901537 -28.369268 0.000000 47.000000 14.516256 19.000000
-21.641695 -23.754098 -31.966175 0.000000 41.000000 14.289480 0.000000
-20.568992 -25.291762 -31.060114 0.000000 51.000000 15.011688 17.000000
-18.281178 -27.016404 -26.194048 0.000000 62.000000 15.165533 13.000000
-18.444322 -26.740157 -26.064642 0.000000 47.000000 15.013753 13.000000
-17.327761 -26.795715 -30.672962 0.000000 40.000000 14.575211 1.000000
-21.170011 -24.909437 -29.756991 0.000000 57.000000 14.974267 12.000000
-20.273595 -24.835821 -30.870741 0.000000 61.000000 14.464472 17.000000
-17.339836 -27.322794 -28.611850 0.000000 63.000000 14.983937 26.000000
-19.979048 -25.583826 -27.320442 0.000000 53.000000 14.866608 21.000000
-21.517639 -24.142294 -31.318883 0.000000 68.000000 14.539797 18.000000
-19.863856 -25.366313 -27.664080 0.000000 40.000000 14.628702 21.000000
-17.243137 -27.160310 -30.504912 0.000000 75.000000 14.836832 1.000000
-19.959633 -26.005116 -26.053167 0.000000 76.000000 15.186414 9.000000
-19.123500 -25.329594 -31.001687 0.000000 42.000000 14.281640 0.000000
-19.083232 -25.478130 -30.825501 0.000000 57.000000 14.382791 0.000000
-19.897963 -25.818818 -27.632364 0.000000 56.000000 15.030560 21.000000
-18.974085 -25.524475 -30.725568 0.000000 49.000000 14.362515 0.000000
-18.050296 -26.646537 -27.603189 0.000000 64.000000 14.760817 25.000000
-20.095096 -25.587579 -27.344014 0.000000 69.000000 14.931408 21.000000
-21.314358 -24.701528 -27.182085 0.000000 62.000000 14.816549 5.000000
-18.581599 -26.725748 -27.679446 0.000000 47.000000 15.109509 24.000000
-18.708417 -25.761551 -30.370139 0.000000 54.000000 14.416302 0.000000
-18.550185 -26.532364 -26.961376 0.000000 48.000000 14.912713 24.000000
-20.841001 -24.672888 -31.441199 0.000000 74.000000 14.637297 17.000000
-17.804107 -26.370039 -29.503397 0.000000 37.000000 14.438272 0.000000
-19.060541 -26.577518 -26.032550 0.000000 66.000000 15.199186 14.000000
-20.537481 -25.175900 -30.156954 0.000000 53.000000 14.876634 3.000000
-19.636502 -25.916633 -27.589955 0.000000 65.000000 14.975126 21.000000
-17.352929 -27.018351 -27.112573 0.000000 72.000000 14.698886 26.000000
-20.858839 -25.026918 -27.388271 0.000000 53.000000 14.857891 8.000000
-21.009578 -24.699055 -32.091543 0.000000 44.000000 14.762671 15.000000
-19.506317 -25.934359 -28.943312 0.000000 65.000000 14.951617 23.000000
-18.886227 -26.459161 -26.184859 0.000000 40.000000 15.010201 14.000000
-16.862928 -26.755244 -30.221457 0.000000 36.000000 14.286130 0.000000
-21.199166 -25.209437 -27.515258 0.000000 65.000000 15.194982 8.000000
-16.670495 -26.931341 -30.059263 0.000000 36.000000 14.330916 0.000000
-19.427348 -25.839364 -29.118791 0.000000 65.000000 14.833190 23.000000
-16.934738 -27.532915 -30.129308 0.000000 55.000000 14.982872 27.000000
-21.179196 -25.033477 -27.679510 0.000000 69.000000 15.038548 8.000000
-20.068541 -25.560429 -27.425472 0.000000 73.000000 14.896157 21.000000
-17.382463 -27.504905 -27.775879 0.000000 47.000000 15.142658 26.000000
-18.097506 -27.109110 -27.830236 0.000000 54.000000 15.183856 25.000000
-20.517068 -25.227745 -31.830871 0.000000 62.000000 14.947002 17.000000
-21.642931 -23.936872 -28.962474 0.000000 54.000000 14.378998 0.000000
-16.785046 -27.260197 -29.669061 0.000000 44.000000 14.662091 27.000000
-19.499109 -25.982458 -26.267079 0.000000 54.000000 14.929469 9.000000
-21.768086 -23.715177 -29.736433 0.000000 46.000000 14.273580 0.000000
-21.803220 -23.919568 -28.484893 0.000000 46.000000 14.438096 0.000000
-19.989017 -25.337355 -27.982927 0.000000 63.000000 14.677031 19.000000
-16.781143 -26.986637 -26.364680 0.000000 34.000000 14.354388 0.000000
-16.821848 -26.996502 -26.491198 0.000000 42.000000 14.387001 0.000000
-20.912375 -24.941391 -31.504913 0.000000 76.000000 14.904492 17.000000
-19.331795 -26.227923 -29.138549 0.000000 57.000000 15.113582 23.000000
-19.472619 -25.561949 -31.012899 0.000000 47.000000 14.663155 16.000000
-20.860596 -24.880040 -31.434410 0.000000 65.000000 14.823531 17.000000
-21.208760 -24.336558 -30.964857 0.000000 57.000000 14.534481 18.000000
-17.264939 -26.762202 -27.355070 0.000000 32.000000 14.440221 0.000000
-19.913335 -25.763195 -27.667137 0.000000 67.000000 14.992145 21.000000
-22.097476 -24.074822 -30.400379 0.000000 67.000000 14.767347 11.000000
-17.808624 -26.481551 -31.673883 0.000000 48.000000 14.583468 2.000000
-21.630861 -24.501938 -28.515205 0.000000 59.000000 14.843022 7.000000
-20.516312 -24.940400 -30.930391 0.000000 83.000000 14.682446 17.000000
-18.800406 -25.685394 -30.571131 0.000000 56.000000 14.404445 0.000000
-18.834463 -25.596303 -31.848545 0.000000 51.000000 14.374923 0.000000
-18.428776 -26.606345 -29.853829 0.000000 75.000000 14.975702 29.000000
-20.873624 -24.620931 -30.461710 0.000000 66.000000 14.588631 12.000000
-17.887332 -26.918663 -28.607484 0.000000 62.000000 14.928554 25.000000
-21.057378 -25.156486 -27.583172 0.000000 78.000000 15.076842 8.000000
-18.638168 -26.529245 -26.486606 0.000000 54.000000 14.945869 13.000000
-20.117622 -25.793293 -30.971221 0.000000 63.000000 15.198393 16.000000
-20.019642 -24.856250 -32.150965 0.000000 46.000000 14.376490 0.000000
-18.869716 -26.570544 -31.301328 0.000000 50.000000 15.209423 10.000000
-18.663888 -26.317275 -31.700825 0.000000 62.000000 14.894650 10.000000
-21.313541 -24.610610 -28.797372 0.000000 51.000000 14.774594 7.000000
-20.995672 -24.614512 -27.456822 0.000000 56.000000 14.580914 8.000000
-17.387259 -26.794136 -31.344057 0.000000 79.000000 14.620041 1.000000
-19.843914 -25.320073 -27.039783 0.000000 45.000000 14.565086 21.000000
-19.802196 -25.498946 -28.086505 0.000000 50.000000 14.718325 21.000000
-20.010875 -25.696418 -32.197882 0.000000 68.000000 15.087012 16.000000
-21.396401 -24.284480 -30.477916 0.000000 59.000000 14.578214 11.000000
-21.235050 -24.802403 -26.442336 0.000000 69.000000 14.844167 5.000000
-18.817988 -25.629673 -31.473001 0.000000 46.000000 14.386301 0.000000
-17.882081 -26.067648 -31.165910 0.000000 38.000000 14.259097 0.000000
-21.555453 -24.515442 -29.247594 0.000000 76.000000 14.831014 7.000000
-21.477038 -24.309496 -31.225125 0.000000 81.000000 14.658462 18.000000
-17.475504 -26.487592 -30.909115 0.000000 48.000000 14.396321 0.000000
-17.387151 -26.513031 -32.167180 0.000000 52.000000 14.399278 0.000000
-17.344337 -26.560410 -30.876257 0.000000 51.000000 14.388439 0.000000
-21.181955 -24.265427 -27.577550 0.000000 29.000000 14.384942 0.000000
-21.706282 -24.314601 -29.211559 0.000000 69.000000 14.738909 7.000000
-17.307309 -27.491169 -27.773749 0.000000 27.000000 15.091376 26.000000
-17.619599 -26.812776 -29.794649 0.000000 48.000000 14.723896 29.000000
-20.758804 -24.502370 -29.309455 0.000000 41.000000 14.401915 0.000000
-21.043315 -25.420305 -27.809296 0.000000 14.000000 15.298676 8.000000
-20.834690 -24.459468 -28.345807 0.000000 48.000000 14.384069 0.000000
-17.433043 -27.022550 -30.434862 0.000000 57.000000 14.818159 1.000000
-20.861626 -24.431746 -28.393048 0.000000 47.000000 14.375731 0.000000
-19.089210 -26.127004 -26.204205 0.000000 61.000000 14.835163 14.000000
-19.351399 -25.780862 -27.035856 0.000000 42.000000 14.697384 21.000000
-20.140351 -25.547539 -32.123170 0.000000 58.000000 15.026976 16.000000
-20.837684 -24.694715 -27.899844 0.000000 64.000000 14.575722 8.000000
-20.854060 -24.517327 -26.637853 0.000000 43.000000 14.405640 0.000000
-19.291475 -25.649031 -29.312229 0.000000 39.000000 14.604175 23.000000
-20.974191 -24.857241 -29.733983 0.000000 47.000000 14.826314 12.000000
-17.782304 -27.162709 -27.346488 0.000000 46.000000 15.052783 25.000000
-20.675517 -25.077516 -31.405536 0.000000 48.000000 14.893310 17.000000
-16.686986 -26.942548 -30.865183 0.000000 46.000000 14.366960 0.000000
-20.060204 -25.697780 -29.290044 0.000000 64.000000 15.049778 20.000000
-20.910867 -24.898305 -25.997836 0.000000 62.000000 14.745189 4.000000
-19.907982 -25.291560 -28.368073 0.000000 67.000000 14.603976 19.000000
-19.876802 -25.966604 -29.196151 0.000000 70.000000 15.179643 20.000000
-17.169758 -26.682759 -30.196093 0.000000 37.000000 14.385476 0.000000
-20.331219 -25.100257 -28.417701 0.000000 32.000000 14.665270 19.000000
-17.460521 -27.290735 -27.419279 0.000000 57.000000 14.993823 26.000000
-18.518443 -26.440116 -27.216037 0.000000 69.000000 14.823235 24.000000
-17.463572 -26.495442 -30.495770 0.000000 40.000000 14.387563 0.000000
-17.572985 -26.440706 -30.585936 0.000000 54.000000 14.400632 0.000000
-18.692103 -26.688892 -30.351171 0.000000 56.000000 15.195486 10.000000
-17.756591 -26.281490 -30.797145 0.000000 38.000000 14.366632 0.000000
-19.530702 -25.566555 -29.844889 0.000000 63.000000 14.671793 23.000000
-19.094922 -26.333331 -29.009214 0.000000 40.000000 15.075621 23.000000
-20.073770 -25.294291 -29.990967 0.000000 58.000000 14.729488 3.000000
-18.750535 -25.667584 -31.562840 0.000000 40.000000 14.385004 0.000000
-18.861839 -25.587628 -31.646430 0.000000 44.000000 14.377487 0.000000
-18.657774 -26.651924 -28.003973 0.000000 52.000000 15.094043 24.000000
-20.724539 -25.327260 -31.436536 0.000000 53.000000 15.132071 17.000000
-20.381398 -25.231014 -26.562465 0.000000 60.000000 14.761758 9.000000
-21.553391 -24.088158 -27.436436 0.000000 42.000000 14.426674 0.000000
-21.463588 -24.058603 -27.597598 0.000000 41.000000 14.357848 0.000000
-16.948552 -26.818806 -30.048684 0.000000 30.000000 14.381403 0.000000
-21.357024 -24.156085 -27.853171 0.000000 43.000000 14.390264 0.000000
-21.299292 -24.189875 -27.988961 0.000000 43.000000 14.391598 0.000000
-21.162040 -24.685050 -29.734704 0.000000 71.000000 14.778860 12.000000
-19.706909 -25.691848 -31.648361 0.000000 55.000000 14.910958 16.000000
-20.400067 -25.366717 -31.367235 0.000000 47.000000 14.993270 17.000000
-17.584722 -26.997567 -27.341010 0.000000 46.000000 14.808292 25.000000
-20.347652 -24.586691 -29.078409 0.000000 32.000000 14.252040 0.000000
-19.038751 -26.020519 -28.290209 0.000000 76.000000 14.764265 23.000000
-20.969396 -25.124817 -27.505908 0.000000 58.000000 15.001901 8.000000
-18.805191 -25.620530 -32.225963 0.000000 50.000000 14.388459 0.000000
-20.545709 -25.009409 -31.710841 0.000000 65.000000 14.773848 17.000000
-20.439892 -25.047931 -31.136745 0.000000 74.000000 14.738182 17.000000
-20.293855 -25.304655 -28.257824 0.000000 73.000000 14.815791 19.000000
-19.551859 -25.779549 -27.260811 0.000000 74.000000 14.806770 21.000000
-20.731813 -25.252580 -31.344151 0.000000 80.000000 15.070381 17.000000
-21.969882 -23.892885 -30.938226 0.000000 58.000000 14.557448 11.000000
-20.165648 -24.833263 -30.600520 0.000000 42.000000 14.399494 0.000000
-20.225919 -25.420466 -32.089766 0.000000 70.000000 14.963274 16.000000
-20.157682 -25.443005 -28.016112 0.000000 68.000000 14.856348 19.000000
-19.745617 -25.841235 -27.742165 0.000000 72.000000 14.971848 21.000000
-19.055743 -26.184473 -29.566003 0.000000 57.000000 14.940799 23.000000
-20.261397 -24.722551 -26.720116 0.000000 46.000000 14.269912 0.000000
-19.875968 -25.057480 -29.169605 0.000000 45.000000 14.405908 0.000000
-20.627239 -25.056959 -31.065585 0.000000 41.000000 14.842899 17.000000
-19.817728 -25.111648 -28.855000 0.000000 42.000000 14.414327 0.000000
-19.783812 -25.137068 -28.702676 0.000000 44.000000 14.414709 0.000000
-19.712923 -25.188138 -28.402980 0.000000 44.000000 14.414166 0.000000
-19.573067 -25.338589 -26.667849 0.000000 39.000000 14.430017 0.000000
-19.224270 -26.591599 -27.014812 0.000000 51.000000 15.319082 22.000000
-19.169407 -26.423967 -26.106644 0.000000 60.000000 15.127623 14.000000
-20.124227 -25.104084 -30.201661 0.000000 59.000000 14.599046 3.000000
-18.964469 -25.558872 -26.411510 0.000000 46.000000 14.291205 0.000000
-21.707073 -23.992488 -28.908100 0.000000 30.000000 14.458829 6.000000
-16.621272 -27.023176 -31.651597 0.000000 40.000000 14.418303 0.000000
-18.551365 -26.372463 -30.345165 0.000000 53.000000 14.852320 10.000000
-19.858648 -25.657057 -27.233535 0.000000 64.000000 14.863549 21.000000
-20.360235 -25.240307 -31.742797 0.000000 64.000000 14.873173 17.000000
-19.765819 -25.438138 -29.429255 0.000000 56.000000 14.677212 20.000000
-20.922305 -24.477410 -26.494832 0.000000 44.000000 14.404472 0.000000
-18.291708 -26.451595 -30.168234 0.000000 66.000000 14.778979 10.000000
-20.830705 -24.518832 -26.763167 0.000000 43.000000 14.397399 0.000000
-21.451161 -24.141528 -31.503441 0.000000 62.000000 14.508236 18.000000
-20.751689 -24.569700 -27.029001 0.000000 51.000000 14.404924 0.000000
-19.665867 -25.668065 -26.681634 0.000000 49.000000 14.759210 21.000000
-17.238300 -27.329443 -28.636461 0.000000 55.000000 14.936685 26.000000
-21.747915 -24.144333 -30.733738 0.000000 38.000000 14.649796 11.000000
-16.710300 -27.019243 -31.684413 0.000000 48.000000 14.462551 30.000000
-20.396309 -24.649207 -28.364421 0.000000 60.000000 14.314985 0.000000
-18.090501 -26.887259 -31.545153 0.000000 21.000000 15.073830 2.000000
-20.351949 -24.634059 -28.531870 0.000000 59.000000 14.282465 0.000000
-20.330069 -24.656055 -28.680507 0.000000 58.000000 14.292932 0.000000
-16.951187 -26.944735 -31.593665 0.000000 54.000000 14.524019 1.000000
-20.283445 -24.686331 -28.989953 0.000000 60.000000 14.300971 0.000000
-21.734447 -24.020773 -28.151851 0.000000 46.000000 14.480542 28.000000
-20.249447 -24.726263 -29.295495 0.000000 60.000000 14.323777 0.000000
-21.672063 -23.798357 -29.704861 0.000000 31.000000 14.293034 0.000000
-20.106621 -24.890589 -29.030139 0.000000 42.000000 14.382389 0.000000
-17.458621 -27.373222 -27.441338 0.000000 73.000000 15.063420 26.000000
-20.772519 -25.075546 -30.711086 0.000000 64.000000 14.927327 12.000000
-21.074144 -24.928762 -27.190323 0.000000 50.000000 14.883419 8.000000
-20.153650 -25.343431 -29.422794 0.000000 50.000000 14.800727 3.000000
-20.068893 -24.883772 -30.722302 0.000000 70.000000 14.394187 0.000000
-20.099205 -24.922553 -30.869256 0.000000 57.000000 14.446358 0.000000
-17.280725 -26.775285 -30.658821 0.000000 50.000000 14.532774 1.000000
-20.249039 -25.340975 -29.895517 0.000000 60.000000 14.859317 3.000000
-19.613285 -25.215954 -30.163468 0.000000 48.000000 14.424323 0.000000
-19.103922 -26.540608 -26.022110 0.000000 55.000000 15.190420 14.000000
-19.843560 -25.790412 -25.994310 0.000000 77.000000 14.941523 9.000000
-19.292634 -25.233665 -30.741365 0.000000 46.000000 14.283376 0.000000
-16.752077 -27.341803 -28.531461 0.000000 30.000000 14.688918 26.000000
-18.355632 -26.850625 -27.718843 0.000000 31.000000 15.097571 24.000000
-18.914676 -26.232147 -26.578717 0.000000 34.000000 14.840944 14.000000
-19.282265 -25.779827 -29.472485 0.000000 52.000000 14.714043 23.000000
-20.097305 -25.920841 -31.106504 0.000000 16.000000 15.299102 16.000000
-20.007543 -25.808942 -31.060201 0.000000 49.000000 15.155718 16.000000
-21.726813 -24.369751 -28.634546 0.000000 74.000000 14.783821 7.000000
-16.475299 -27.141566 -26.328706 0.000000 33.000000 14.324277 0.000000
-18.659487 -26.344162 -28.166511 0.000000 66.000000 14.836962 24.000000
-18.699221 -26.519269 -28.434422 0.000000 46.000000 15.012639 24.000000
-21.214691 -24.342799 -31.032825 0.000000 50.000000 14.544412 18.000000
-20.321980 -24.905452 -27.927535 0.000000 25.000000 14.483983 19.000000
-21.528475 -23.963603 -31.486765 0.000000 47.000000 14.397338 0.000000
-21.861180 -23.790306 -31.202675 0.000000 52.000000 14.418894 0.000000
-19.324977 -25.952291 -29.991837 0.000000 73.000000 14.894607 23.000000
-19.087656 -25.451403 -26.846244 0.000000 32.000000 14.274331 0.000000
-17.972273 -26.648375 -29.407219 0.000000 61.000000 14.761237 29.000000
-19.206746 -25.413929 -28.401339 0.000000 34.000000 14.339588 0.000000
-20.045821 -26.095479 -25.988506 0.000000 74.000000 15.307157 9.000000
-20.168483 -25.785253 -32.024586 0.000000 73.000000 15.241647 16.000000
-21.706766 -24.402365 -29.251891 0.000000 77.000000 14.814651 7.000000
-19.198484 -25.343441 -28.896322 0.000000 46.000000 14.286283 0.000000
-19.212199 -25.338292 -29.053408 0.000000 43.000000 14.292603 0.000000
-17.411973 -26.960915 -29.128142 0.000000 71.000000 14.725759 29.000000
-17.611698 -26.666444 -27.135093 0.000000 71.000000 14.536498 25.000000
-18.549015 -26.590264 -31.169973 0.000000 54.000000 15.054459 10.000000
-21.169463 -24.793576 -29.757363 0.000000 36.000000 14.875511 12.000000
-17.947299 -26.342983 -31.286760 0.000000 48.000000 14.530123 2.000000
-19.604289 -25.944077 -27.793855 0.000000 38.000000 14.986007 21.000000
-19.428986 -25.219813 -30.674333 0.000000 39.000000 14.341895 0.000000
-21.558838 -24.674369 -27.163778 0.000000 79.000000 14.921754 5.000000
-21.980268 -24.374952 -28.031971 0.000000 36.000000 14.908323 28.000000
-19.548834 -25.211257 -30.243026 0.000000 47.000000 14.388165 0.000000
-19.588889 -25.187072 -30.406564 0.000000 52.000000 14.392313 0.000000
-20.955587 -24.496040 -28.680390 0.000000 60.000000 14.486199 7.000000
-21.542302 -24.515095 -26.579662 0.000000 71.000000 14.764747 5.000000
-18.957973 -26.333037 -29.088164 0.000000 62.000000 15.005028 23.000000
-18.954291 -26.574687 -31.411564 0.000000 68.000000 15.259904 10.000000
-20.747394 -24.384083 -31.955197 0.000000 62.000000 14.353930 0.000000
-19.996320 -25.653465 -28.884447 0.000000 62.000000 14.969506 20.000000
-19.133979 -25.355149 -30.699264 0.000000 43.000000 14.302183 0.000000
-18.041804 -26.641178 -26.545388 0.000000 44.000000 14.728379 13.000000
-21.734530 -24.623735 -26.156219 0.000000 53.000000 14.948902 5.000000
-19.026787 -25.438983 -31.718947 0.000000 48.000000 14.339581 0.000000
-19.025471 -25.558940 -30.382448 0.000000 41.000000 14.411264 0.000000
-19.060947 -26.220551 -26.914300 0.000000 74.000000 14.915513 22.000000
-19.860176 -25.390235 -28.467904 0.000000 57.000000 14.664889 19.000000
-19.155364 -25.877255 -30.092253 0.000000 47.000000 14.743768 23.000000
-18.516720 -25.923105 -29.660377 0.000000 45.000000 14.436996 0.000000
-19.792361 -25.799733 -31.640571 0.000000 63.000000 15.047464 16.000000
-21.395320 -24.552326 -28.818960 0.000000 65.000000 14.768582 7.000000
-20.175742 -25.519764 -28.436838 0.000000 78.000000 14.940409 19.000000
-16.546041 -27.065693 -29.076931 0.000000 38.000000 14.357854 0.000000
-21.957644 -23.807773 -31.384723 0.000000 49.000000 14.488547 11.000000
-21.331127 -24.039138 -32.068220 0.000000 49.000000 14.370524 0.000000
-21.315496 -24.128839 -30.779508 0.000000 50.000000 14.410014 0.000000
-21.596783 -24.367916 -30.826216 0.000000 43.000000 14.762321 11.000000
-19.190268 -26.424967 -29.273991 0.000000 68.000000 15.209557 23.000000
-18.016824 -26.787205 -31.451416 0.000000 41.000000 14.947931 2.000000
-21.666345 -23.913509 -31.464865 0.000000 50.000000 14.426852 0.000000
-19.791668 -25.841214 -29.412435 0.000000 69.000000 15.033040 20.000000
-18.859255 -26.345774 -26.713622 0.000000 78.000000 14.911333 22.000000
-21.096586 -24.316332 -27.834658 0.000000 28.000000 14.388960 0.000000
-20.712610 -25.125298 -26.367205 0.000000 58.000000 14.841935 4.000000
-21.280795 -24.699349 -26.955801 0.000000 57.000000 14.792021 5.000000
-21.209240 -24.836310 -26.332231 0.000000 71.000000 14.856962 5.000000
