40.063705 70.900712 2.222643 0.000000 45.000000 14.222643 0.000000
39.861146 70.878389 2.222954 0.000000 58.000000 14.222954 0.000000
39.605255 70.843694 2.152838 0.000000 36.000000 14.152838 0.000000
37.876241 69.465966 2.549723 0.000000 40.000000 14.549723 17.000000
37.939223 70.437616 2.224549 0.000000 55.000000 14.224549 0.000000
43.261028 69.867379 2.120939 0.000000 47.000000 14.120939 0.000000
42.851266 68.426627 2.050104 0.000000 30.000000 14.050104 0.000000
38.614283 70.863193 2.314685 0.000000 42.000000 14.314685 15.000000
40.430433 66.171990 2.368510 0.000000 61.000000 14.368510 4.000000
37.981460 70.762724 2.249166 0.000000 62.000000 14.249166 0.000000
38.377465 70.180801 2.339825 0.000000 42.000000 14.339825 23.000000
39.245365 72.182629 2.105054 0.000000 58.000000 14.105054 0.000000
38.938494 70.963324 2.070521 0.000000 23.000000 14.070521 0.000000
40.599359 70.660055 1.990754 0.000000 25.000000 13.990754 0.000000
36.474141 67.544114 2.514513 0.000000 67.000000 14.514513 25.000000
39.285508 71.527565 2.178814 0.000000 59.000000 14.178814 0.000000
39.273082 71.359689 2.177385 0.000000 60.000000 14.177385 0.000000
39.232055 71.185455 2.143116 0.000000 57.000000 14.143116 0.000000
39.213997 71.017052 2.139955 0.000000 46.000000 14.139955 0.000000
37.809354 70.546847 2.173080 0.000000 48.000000 14.173080 0.000000
39.176862 70.121349 2.494969 0.000000 21.000000 14.494969 7.000000
41.068021 70.562085 2.145924 0.000000 36.000000 14.145924 0.000000
39.082768 69.847611 2.205787 0.000000 41.000000 14.205787 0.000000
42.261742 68.987678 2.313488 0.000000 29.000000 14.313488 0.000000
39.027489 69.509978 2.229643 0.000000 61.000000 14.229643 0.000000
42.264124 66.961884 2.488099 0.000000 54.000000 14.488099 9.000000
37.244798 68.091901 2.514848 0.000000 46.000000 14.514848 21.000000
41.527850 64.910480 2.332010 0.000000 52.000000 14.332010 29.000000
37.453270 68.119184 2.772253 0.000000 76.000000 14.772253 21.000000
41.275193 69.472466 2.314770 0.000000 32.000000 14.314770 12.000000
38.483548 67.728860 2.233700 0.000000 56.000000 14.233700 0.000000
38.418013 67.546827 2.241128 0.000000 53.000000 14.241128 0.000000
38.341656 67.360891 2.238666 0.000000 43.000000 14.238666 0.000000
38.977079 69.209971 2.829016 0.000000 59.000000 14.829016 16.000000
37.930647 66.426718 2.245952 0.000000 50.000000 14.245952 0.000000
37.838643 66.235203 2.248877 0.000000 62.000000 14.248877 0.000000
42.852902 68.080332 2.015344 0.000000 23.000000 14.015344 0.000000
38.302048 69.502902 2.077946 0.000000 32.000000 14.077946 0.000000
38.379507 70.943396 2.907169 0.000000 77.000000 14.907169 15.000000
39.163178 67.559468 2.154869 0.000000 32.000000 14.154869 0.000000
39.136999 70.686164 2.072828 0.000000 36.000000 14.072828 0.000000
39.371927 70.686768 2.105989 0.000000 40.000000 14.105989 0.000000
39.666232 70.701560 2.222709 0.000000 55.000000 14.222709 0.000000
39.875169 70.692079 2.233669 0.000000 56.000000 14.233669 0.000000
40.067654 70.677263 2.225187 0.000000 45.000000 14.225187 0.000000
38.751773 70.246098 2.157079 0.000000 44.000000 14.157079 0.000000
40.273706 70.664880 2.236602 0.000000 51.000000 14.236602 0.000000
40.459090 70.645040 2.223337 0.000000 50.000000 14.223337 0.000000
38.517151 66.198480 2.337411 0.000000 39.000000 14.337411 14.000000
37.178749 68.282863 2.602139 0.000000 39.000000 14.602139 21.000000
41.872736 70.072062 2.126564 0.000000 35.000000 14.126564 0.000000
37.608772 68.139740 2.531243 0.000000 31.000000 14.531243 21.000000
42.640985 69.542051 2.177875 0.000000 48.000000 14.177875 0.000000
41.187399 70.553141 2.191130 0.000000 54.000000 14.191130 0.000000
42.683591 69.703173 2.193337 0.000000 43.000000 14.193337 0.000000
40.917444 66.320166 2.207373 0.000000 57.000000 14.207373 0.000000
40.186447 70.102745 2.205599 0.000000 48.000000 14.205599 0.000000
39.815208 64.985299 2.407859 0.000000 65.000000 14.407859 13.000000
40.332714 70.059126 2.147029 0.000000 55.000000 14.147029 0.000000
41.557772 67.107892 2.562891 0.000000 51.000000 14.562891 5.000000
40.493592 70.019285 2.109860 0.000000 55.000000 14.109860 0.000000
39.801975 65.454272 2.379396 0.000000 59.000000 14.379396 4.000000
40.967750 69.989929 2.261065 0.000000 54.000000 14.261065 0.000000
41.147765 69.954748 2.262583 0.000000 54.000000 14.262583 0.000000
42.604720 70.306833 2.208281 0.000000 57.000000 14.208281 0.000000
37.156550 66.687275 2.506573 0.000000 44.000000 14.506573 8.000000
42.973241 70.242949 2.272182 0.000000 50.000000 14.272182 0.000000
40.992031 67.644344 2.398623 0.000000 59.000000 14.398623 1.000000
42.670379 69.569748 2.288730 0.000000 52.000000 14.288730 0.000000
42.470906 66.098781 2.346744 0.000000 55.000000 14.346744 10.000000
43.496809 69.197214 2.140512 0.000000 40.000000 14.140512 0.000000
39.509652 68.092441 2.162815 0.000000 27.000000 14.162815 0.000000
38.856441 65.533452 2.277662 0.000000 52.000000 14.277662 0.000000
38.815688 65.700942 2.255946 0.000000 46.000000 14.255946 0.000000
38.785884 65.874521 2.243500 0.000000 44.000000 14.243500 0.000000
38.710701 66.572801 2.213787 0.000000 36.000000 14.213787 0.000000
38.662248 66.727246 2.161471 0.000000 40.000000 14.161471 0.000000
38.631360 66.893679 2.127469 0.000000 37.000000 14.127469 0.000000
42.554736 66.315718 2.303429 0.000000 45.000000 14.303429 10.000000
38.687846 67.276614 2.192596 0.000000 45.000000 14.192596 0.000000
38.720803 67.468424 2.225060 0.000000 49.000000 14.225060 0.000000
40.424748 65.156933 2.428340 0.000000 46.000000 14.428340 19.000000
37.722281 67.738718 2.817861 0.000000 45.000000 14.817861 20.000000
38.765061 67.999573 2.240196 0.000000 45.000000 14.240196 0.000000
38.647633 68.925399 2.893308 0.000000 37.000000 14.893308 16.000000
38.338255 70.854928 2.511690 0.000000 38.000000 14.511690 15.000000
39.602249 65.119973 2.267859 0.000000 36.000000 14.267859 13.000000
40.046026 66.845853 2.119141 0.000000 46.000000 14.119141 0.000000
41.894984 65.856761 2.556391 0.000000 73.000000 14.556391 10.000000
41.521212 65.645108 2.083609 0.000000 33.000000 14.083609 0.000000
38.730454 69.001300 2.666778 0.000000 32.000000 14.666778 16.000000
37.913455 70.412377 2.216337 0.000000 57.000000 14.216337 0.000000
39.289360 70.880542 2.137283 0.000000 50.000000 14.137283 0.000000
39.828319 67.168323 2.189968 0.000000 45.000000 14.189968 0.000000
37.620780 67.584403 2.795069 0.000000 61.000000 14.795069 20.000000
42.125056 70.469528 2.132131 0.000000 35.000000 14.132131 0.000000
37.261730 68.327286 2.827511 0.000000 43.000000 14.827511 21.000000
39.498082 71.521566 2.099447 0.000000 52.000000 14.099447 0.000000
39.557561 71.680241 2.092426 0.000000 38.000000 14.092426 0.000000
37.075682 67.300216 2.778502 0.000000 50.000000 14.778502 30.000000
38.392330 71.587002 2.207322 0.000000 50.000000 14.207322 0.000000
37.725630 67.195002 2.646696 0.000000 60.000000 14.646696 20.000000
38.455518 71.748014 2.188522 0.000000 44.000000 14.188522 0.000000
41.866743 65.512687 2.183607 0.000000 42.000000 14.183607 0.000000
41.539169 65.338453 2.558619 0.000000 72.000000 14.558619 11.000000
40.891904 64.717642 2.102568 0.000000 37.000000 14.102568 0.000000
42.858372 70.065575 2.260603 0.000000 50.000000 14.260603 0.000000
37.523284 69.761103 2.443752 0.000000 37.000000 14.443752 22.000000
42.443075 70.006576 2.156020 0.000000 44.000000 14.156020 0.000000
42.286393 70.000607 2.190366 0.000000 46.000000 14.190366 0.000000
41.387675 69.839799 2.364940 0.000000 42.000000 14.364940 12.000000
38.062111 70.912035 2.586944 0.000000 35.000000 14.586944 15.000000
41.439244 69.981599 2.289871 0.000000 63.000000 14.289871 0.000000
42.038831 66.324279 2.250943 0.000000 29.000000 14.250943 10.000000
41.592901 69.678294 2.330520 0.000000 39.000000 14.330520 12.000000
40.210970 66.090246 2.626394 0.000000 44.000000 14.626394 4.000000
42.386366 68.383134 2.680503 0.000000 57.000000 14.680503 6.000000
38.057557 66.887819 2.745818 0.000000 35.000000 14.745818 3.000000
38.667108 70.924329 2.505095 0.000000 42.000000 14.505095 26.000000
41.230186 67.882738 2.341809 0.000000 40.000000 14.341809 1.000000
40.049219 69.985137 2.221664 0.000000 56.000000 14.221664 0.000000
38.169269 69.804479 2.367290 0.000000 36.000000 14.367290 17.000000
39.861281 69.999550 2.235312 0.000000 52.000000 14.235312 0.000000
43.775082 69.317011 2.144702 0.000000 32.000000 14.144702 0.000000
39.667444 70.013492 2.239440 0.000000 48.000000 14.239440 0.000000
40.748063 70.373619 2.082955 0.000000 38.000000 14.082955 0.000000
43.671949 69.168116 2.294665 0.000000 38.000000 14.294665 2.000000
40.314910 67.667712 2.164004 0.000000 40.000000 14.164004 0.000000
39.236979 70.038983 2.210008 0.000000 51.000000 14.210008 0.000000
40.445415 70.438966 2.187502 0.000000 51.000000 14.187502 0.000000
40.067157 65.681614 2.732145 0.000000 71.000000 14.732145 4.000000
40.086987 70.495727 2.218794 0.000000 39.000000 14.218794 0.000000
39.898701 70.525845 2.223758 0.000000 54.000000 14.223758 0.000000
42.596389 66.690046 2.403591 0.000000 64.000000 14.403591 9.000000
39.480902 70.579272 2.179660 0.000000 44.000000 14.179660 0.000000
39.174796 70.585149 2.042501 0.000000 35.000000 14.042501 0.000000
38.774473 70.763666 2.093784 0.000000 29.000000 14.093784 0.000000
38.922233 70.699001 2.218590 0.000000 58.000000 14.218590 0.000000
38.750011 72.286680 2.074424 0.000000 36.000000 14.074424 0.000000
38.748475 72.132384 2.141191 0.000000 54.000000 14.141191 0.000000
40.140364 69.611451 2.117942 0.000000 35.000000 14.117942 0.000000
37.582555 69.876322 2.822664 0.000000 66.000000 14.822664 22.000000
40.645436 68.707444 2.169344 0.000000 47.000000 14.169344 0.000000
39.881812 71.920404 2.109092 0.000000 58.000000 14.109092 0.000000
39.733714 66.721082 2.169659 0.000000 37.000000 14.169659 0.000000
40.426721 65.605708 2.223255 0.000000 36.000000 14.223255 0.000000
42.619931 68.673313 2.135659 0.000000 26.000000 14.135659 0.000000
39.637140 71.434353 2.060499 0.000000 31.000000 14.060499 0.000000
39.566741 71.273465 2.066156 0.000000 34.000000 14.066156 0.000000
39.487645 71.111203 2.063538 0.000000 41.000000 14.063538 0.000000
38.187347 70.666051 2.238383 0.000000 59.000000 14.238383 0.000000
40.895379 67.054764 2.572585 0.000000 74.000000 14.572585 18.000000
39.763008 68.809999 2.070933 0.000000 26.000000 14.070933 0.000000
39.240168 70.624280 2.065773 0.000000 34.000000 14.065773 0.000000
38.424635 66.658239 2.063114 0.000000 36.000000 14.063114 0.000000
38.550195 69.971424 2.081066 0.000000 36.000000 14.081066 0.000000
40.727941 64.621404 2.023065 0.000000 26.000000 14.023065 0.000000
41.476835 66.465164 2.101948 0.000000 31.000000 14.101948 0.000000
39.095997 70.559323 2.133812 0.000000 43.000000 14.133812 0.000000
42.578195 66.780072 2.504569 0.000000 61.000000 14.504569 9.000000
40.190324 70.773873 2.160576 0.000000 36.000000 14.160576 0.000000
42.430197 68.693814 2.300268 0.000000 43.000000 14.300268 0.000000
40.317051 70.500032 2.143757 0.000000 45.000000 14.143757 0.000000
43.815627 69.059100 2.561264 0.000000 70.000000 14.561264 2.000000
38.915814 69.724745 2.157491 0.000000 57.000000 14.157491 0.000000
40.365325 70.127489 2.163095 0.000000 49.000000 14.163095 0.000000
42.191457 66.300007 2.732157 0.000000 47.000000 14.732157 10.000000
40.486589 70.043721 2.098989 0.000000 47.000000 14.098989 0.000000
39.332412 69.607063 2.238941 0.000000 70.000000 14.238941 0.000000
41.425278 69.275266 2.044771 0.000000 31.000000 14.044771 0.000000
38.969270 69.030692 2.833711 0.000000 58.000000 14.833711 27.000000
42.317017 66.711544 2.648994 0.000000 63.000000 14.648994 9.000000
39.672205 69.459839 2.233970 0.000000 58.000000 14.233970 0.000000
41.091179 69.869902 2.255992 0.000000 55.000000 14.255992 0.000000
39.808579 69.372814 2.192464 0.000000 54.000000 14.192464 0.000000
37.257627 67.564371 2.488411 0.000000 39.000000 14.488411 30.000000
36.946587 68.532862 2.543994 0.000000 37.000000 14.543994 21.000000
41.262670 70.706155 2.208649 0.000000 27.000000 14.208649 0.000000
40.505407 69.082929 2.265740 0.000000 58.000000 14.265740 0.000000
39.889244 69.962068 2.207346 0.000000 34.000000 14.207346 0.000000
41.919538 69.374740 2.121819 0.000000 50.000000 14.121819 0.000000
41.241106 68.837450 2.069655 0.000000 28.000000 14.069655 0.000000
39.496657 68.820579 2.054076 0.000000 29.000000 14.054076 0.000000
40.948928 68.833149 2.249653 0.000000 57.000000 14.249653 0.000000
42.293839 69.249774 2.254695 0.000000 48.000000 14.254695 0.000000
42.448277 69.173143 2.278238 0.000000 60.000000 14.278238 0.000000
41.475493 68.460990 2.173939 0.000000 56.000000 14.173939 0.000000
41.626758 68.378243 2.194977 0.000000 43.000000 14.194977 0.000000
41.802430 68.305178 2.253018 0.000000 51.000000 14.253018 0.000000
40.607973 65.355783 2.523213 0.000000 49.000000 14.523213 19.000000
41.943880 68.217603 2.264894 0.000000 58.000000 14.264894 0.000000
41.305661 66.297545 2.164171 0.000000 36.000000 14.164171 0.000000
43.353714 68.536459 2.229395 0.000000 29.000000 14.229395 0.000000
42.507941 67.689336 2.145871 0.000000 39.000000 14.145871 0.000000
42.626924 67.585949 2.143287 0.000000 37.000000 14.143287 0.000000
42.778069 67.502606 2.194062 0.000000 38.000000 14.194062 0.000000
38.595044 69.465482 2.129414 0.000000 61.000000 14.129414 0.000000
39.162590 70.200980 2.554559 0.000000 34.000000 14.554559 7.000000
38.057787 69.548248 2.771541 0.000000 71.000000 14.771541 17.000000
40.484733 66.471668 2.505239 0.000000 63.000000 14.505239 4.000000
39.197024 70.294167 2.554278 0.000000 42.000000 14.554278 7.000000
40.452880 68.557775 2.198049 0.000000 48.000000 14.198049 0.000000
38.859971 66.133548 2.201161 0.000000 35.000000 14.201161 0.000000
37.211957 66.751544 2.726394 0.000000 33.000000 14.726394 8.000000
39.870875 71.155103 2.188171 0.000000 37.000000 14.188171 0.000000
39.983102 71.295574 2.177597 0.000000 43.000000 14.177597 0.000000
38.341920 66.075798 2.243249 0.000000 50.000000 14.243249 0.000000
37.857798 69.422443 2.781901 0.000000 75.000000 14.781901 17.000000
39.805337 69.086005 1.995611 0.000000 25.000000 13.995611 0.000000
40.317126 71.697511 2.139368 0.000000 64.000000 14.139368 0.000000
39.125428 71.404757 2.200943 0.000000 49.000000 14.200943 0.000000
39.136708 70.250269 2.644555 0.000000 48.000000 14.644555 7.000000
39.388010 71.675110 2.188430 0.000000 59.000000 14.188430 0.000000
40.370353 67.689469 2.201117 0.000000 40.000000 14.201117 0.000000
39.599274 71.922932 2.110154 0.000000 48.000000 14.110154 0.000000
38.523930 66.134409 2.345307 0.000000 45.000000 14.345307 14.000000
43.178586 68.456413 2.095883 0.000000 33.000000 14.095883 0.000000
37.492075 68.516700 2.770378 0.000000 58.000000 14.770378 21.000000
43.376881 68.983128 2.109711 0.000000 29.000000 14.109711 0.000000
42.254619 68.642372 2.263689 0.000000 52.000000 14.263689 0.000000
39.846595 66.998413 2.179895 0.000000 49.000000 14.179895 0.000000
41.881850 68.690981 2.223045 0.000000 54.000000 14.223045 0.000000
43.643519 69.101426 2.333661 0.000000 54.000000 14.333661 2.000000
40.265188 67.956516 2.256559 0.000000 38.000000 14.256559 0.000000
42.479944 69.249623 2.268296 0.000000 56.000000 14.268296 0.000000
42.315159 69.291238 2.262787 0.000000 50.000000 14.262787 0.000000
41.028530 68.891946 2.249043 0.000000 62.000000 14.249043 0.000000
42.057745 69.295801 2.116652 0.000000 31.000000 14.116652 0.000000
39.402764 70.619283 2.431197 0.000000 35.000000 14.431197 7.000000
38.442146 67.068892 2.319251 0.000000 40.000000 14.319251 3.000000
39.740338 67.360238 2.188169 0.000000 44.000000 14.188169 0.000000
40.513582 69.036952 2.261245 0.000000 61.000000 14.261245 0.000000
40.288599 69.069674 2.194275 0.000000 49.000000 14.194275 0.000000
40.020241 69.090216 2.075061 0.000000 41.000000 14.075061 0.000000
41.449056 65.631225 2.299507 0.000000 55.000000 14.299507 11.000000
39.756078 69.240910 2.193751 0.000000 54.000000 14.193751 0.000000
41.008085 69.723371 2.274574 0.000000 64.000000 14.274574 0.000000
40.638053 69.838933 2.218021 0.000000 55.000000 14.218021 0.000000
39.263806 68.061158 2.078829 0.000000 20.000000 14.078829 0.000000
40.445897 65.599056 2.537321 0.000000 79.000000 14.537321 19.000000
39.062755 69.509662 2.217551 0.000000 62.000000 14.217551 0.000000
40.262326 69.962267 2.155073 0.000000 46.000000 14.155073 0.000000
41.905285 65.328781 2.169736 0.000000 51.000000 14.169736 0.000000
40.143702 70.050054 2.216603 0.000000 51.000000 14.216603 0.000000
40.127059 65.442292 2.662852 0.000000 56.000000 14.662852 4.000000
39.839515 70.209093 2.245718 0.000000 41.000000 14.245718 0.000000
37.294487 67.237114 2.819257 0.000000 47.000000 14.819257 30.000000
39.297357 70.345033 2.588324 0.000000 40.000000 14.588324 7.000000
39.789595 72.042245 2.096065 0.000000 73.000000 14.096065 0.000000
39.682295 71.898870 2.099654 0.000000 55.000000 14.099654 0.000000
39.578057 71.756315 2.109808 0.000000 51.000000 14.109808 0.000000
43.801618 69.132931 2.391530 0.000000 44.000000 14.391530 2.000000
42.372397 66.279025 2.760414 0.000000 59.000000 14.760414 10.000000
42.173539 66.655954 2.520881 0.000000 56.000000 14.520881 9.000000
40.576550 71.639382 2.209613 0.000000 58.000000 14.209613 0.000000
42.575885 69.220598 2.472075 0.000000 46.000000 14.472075 6.000000
40.678414 65.572252 2.299767 0.000000 53.000000 14.299767 0.000000
40.250236 71.346841 2.087624 0.000000 46.000000 14.087624 0.000000
40.187161 71.221808 2.172049 0.000000 75.000000 14.172049 0.000000
40.091680 71.092856 2.212888 0.000000 65.000000 14.212888 0.000000
36.084996 67.169700 2.749966 0.000000 58.000000 14.749966 24.000000
39.837658 70.821083 2.220723 0.000000 57.000000 14.220723 0.000000
39.700776 70.683281 2.220166 0.000000 48.000000 14.220166 0.000000
38.787856 69.847712 2.172909 0.000000 60.000000 14.172909 0.000000
38.315287 69.435708 2.183727 0.000000 56.000000 14.183727 0.000000
38.136971 69.292556 2.173079 0.000000 44.000000 14.173079 0.000000
38.928291 70.603863 2.138878 0.000000 47.000000 14.138878 0.000000
37.712234 69.915087 2.473061 0.000000 41.000000 14.473061 22.000000
39.859476 69.985410 2.229947 0.000000 42.000000 14.229947 0.000000
37.829211 67.752013 2.499369 0.000000 46.000000 14.499369 20.000000
38.614952 69.097571 2.577883 0.000000 51.000000 14.577883 16.000000
40.088237 69.753533 2.182960 0.000000 44.000000 14.182960 0.000000
40.165297 69.624749 2.114247 0.000000 37.000000 14.114247 0.000000
40.354813 69.535399 2.199317 0.000000 56.000000 14.199317 0.000000
40.475676 69.420099 2.194243 0.000000 55.000000 14.194243 0.000000
37.608585 68.158365 2.560306 0.000000 56.000000 14.560306 21.000000
40.938494 66.962281 2.475453 0.000000 70.000000 14.475453 18.000000
38.161142 67.116587 2.338677 0.000000 54.000000 14.338677 3.000000
38.219979 69.088233 2.855803 0.000000 84.000000 14.855803 16.000000
41.107887 67.562943 2.172515 0.000000 36.000000 14.172515 0.000000
39.632726 68.397505 2.144422 0.000000 47.000000 14.144422 0.000000
39.739132 68.272520 2.134010 0.000000 46.000000 14.134010 0.000000
39.934975 68.184713 2.241424 0.000000 55.000000 14.241424 0.000000
43.428181 68.107769 2.157866 0.000000 40.000000 14.157866 0.000000
40.055437 68.062643 2.253090 0.000000 59.000000 14.253090 0.000000
41.348853 68.451895 2.136603 0.000000 38.000000 14.136603 0.000000
40.167844 67.937184 2.256429 0.000000 61.000000 14.256429 0.000000
39.519233 69.296784 2.155421 0.000000 38.000000 14.155421 0.000000
41.439558 68.185528 2.142531 0.000000 31.000000 14.142531 0.000000
41.738200 68.114843 2.256961 0.000000 51.000000 14.256961 0.000000
41.842346 67.992947 2.267799 0.000000 55.000000 14.267799 0.000000
41.940018 67.867084 2.271791 0.000000 52.000000 14.271791 0.000000
41.040222 66.071043 2.197027 0.000000 39.000000 14.197027 0.000000
41.053512 66.757272 2.278250 0.000000 58.000000 14.278250 0.000000
42.308553 67.162152 2.151872 0.000000 39.000000 14.151872 0.000000
41.133770 66.615667 2.271581 0.000000 52.000000 14.271581 0.000000
39.418395 67.361125 2.179946 0.000000 32.000000 14.179946 0.000000
38.204415 69.335067 2.572466 0.000000 75.000000 14.572466 17.000000
41.658609 67.809042 2.167182 0.000000 42.000000 14.167182 0.000000
39.713788 70.464969 2.258556 0.000000 67.000000 14.258556 0.000000
36.894813 67.752854 2.673955 0.000000 71.000000 14.673955 25.000000
40.014797 70.687049 2.228096 0.000000 41.000000 14.228096 0.000000
41.787072 70.654788 2.211795 0.000000 37.000000 14.211795 0.000000
43.802506 68.648822 2.747378 0.000000 57.000000 14.747378 2.000000
39.938589 70.765828 2.208302 0.000000 34.000000 14.208302 0.000000
37.874612 66.664071 2.291781 0.000000 40.000000 14.291781 3.000000
41.720332 65.616226 2.198156 0.000000 43.000000 14.198156 0.000000
37.870723 67.902399 2.418650 0.000000 42.000000 14.418650 20.000000
39.162149 70.623309 2.072869 0.000000 40.000000 14.072869 0.000000
42.406421 68.883547 2.576649 0.000000 51.000000 14.576649 6.000000
39.342221 70.732337 2.076399 0.000000 39.000000 14.076399 0.000000
40.768586 71.204526 2.148952 0.000000 36.000000 14.148952 0.000000
42.593963 67.834307 2.010509 0.000000 28.000000 14.010509 0.000000
40.981304 71.316226 2.224338 0.000000 63.000000 14.224338 0.000000
39.103483 69.167117 2.637163 0.000000 47.000000 14.637163 27.000000
39.973202 71.062633 2.213483 0.000000 50.000000 14.213483 0.000000
40.941123 69.708623 2.358575 0.000000 44.000000 14.358575 12.000000
37.055421 66.445027 2.754150 0.000000 61.000000 14.754150 8.000000
40.827606 69.649587 2.307753 0.000000 50.000000 14.307753 12.000000
40.681054 71.433815 2.242462 0.000000 51.000000 14.242462 0.000000
42.092308 66.851998 2.157144 0.000000 37.000000 14.157144 0.000000
42.902817 67.545718 2.206851 0.000000 31.000000 14.206851 0.000000
39.175234 70.202179 2.348479 0.000000 38.000000 14.348479 7.000000
38.501214 70.538523 2.536483 0.000000 55.000000 14.536483 23.000000
40.806366 70.205293 2.190866 0.000000 28.000000 14.190866 0.000000
37.536552 69.926636 2.742165 0.000000 47.000000 14.742165 22.000000
41.949171 68.126103 2.274410 0.000000 55.000000 14.274410 0.000000
41.807052 68.211906 2.269592 0.000000 55.000000 14.269592 0.000000
41.623805 68.276425 2.196822 0.000000 34.000000 14.196822 0.000000
39.264555 71.700103 2.052820 0.000000 28.000000 14.052820 0.000000
40.212809 67.942329 2.263561 0.000000 58.000000 14.263561 0.000000
40.337255 65.412845 2.278957 0.000000 36.000000 14.278957 0.000000
40.065629 68.034904 2.257317 0.000000 56.000000 14.257317 0.000000
39.914042 68.130337 2.247415 0.000000 53.000000 14.247415 0.000000
39.688178 68.191417 2.135556 0.000000 45.000000 14.135556 0.000000
41.199257 65.236274 2.081701 0.000000 26.000000 14.081701 0.000000
39.869494 70.356079 2.193674 0.000000 29.000000 14.193674 0.000000
38.620293 68.303368 2.513739 0.000000 71.000000 14.513739 28.000000
42.743232 66.881103 2.748056 0.000000 79.000000 14.748056 9.000000
40.616677 69.089149 2.268413 0.000000 55.000000 14.268413 0.000000
40.471966 69.189171 2.243432 0.000000 58.000000 14.243432 0.000000
42.814590 69.516873 2.186980 0.000000 39.000000 14.186980 0.000000
40.152516 69.386747 2.150083 0.000000 38.000000 14.150083 0.000000
39.670707 68.071967 2.207994 0.000000 36.000000 14.207994 0.000000
38.242043 71.294373 2.858890 0.000000 42.000000 14.858890 15.000000
39.721210 66.508261 2.187970 0.000000 42.000000 14.187970 0.000000
42.530581 68.638550 2.572724 0.000000 55.000000 14.572724 6.000000
38.517938 67.508239 2.182560 0.000000 28.000000 14.182560 0.000000
41.780823 70.776474 2.182036 0.000000 34.000000 14.182036 0.000000
38.971155 70.605947 2.123790 0.000000 45.000000 14.123790 0.000000
39.413536 69.528991 2.194790 0.000000 31.000000 14.194790 0.000000
42.314968 66.728417 2.527369 0.000000 52.000000 14.527369 9.000000
40.477545 71.300354 2.120633 0.000000 54.000000 14.120633 0.000000
40.355161 71.194744 2.158283 0.000000 63.000000 14.158283 0.000000
40.487872 65.313767 2.528527 0.000000 51.000000 14.528527 19.000000
40.086330 70.980257 2.218807 0.000000 55.000000 14.218807 0.000000
36.974695 68.161438 2.630758 0.000000 73.000000 14.630758 21.000000
39.920807 70.866819 2.212232 0.000000 58.000000 14.212232 0.000000
40.613264 70.772388 1.999447 0.000000 27.000000 13.999447 0.000000
40.382680 70.670551 2.140227 0.000000 44.000000 14.140227 0.000000
41.232989 66.862236 2.238617 0.000000 34.000000 14.238617 0.000000
38.587032 70.827271 2.321613 0.000000 45.000000 14.321613 15.000000
40.734037 70.959616 2.088113 0.000000 36.000000 14.088113 0.000000
37.622218 68.675512 2.555397 0.000000 37.000000 14.555397 21.000000
40.613890 70.865833 2.148961 0.000000 34.000000 14.148961 0.000000
40.498159 70.775443 2.217235 0.000000 54.000000 14.217235 0.000000
40.340532 70.675768 2.228542 0.000000 55.000000 14.228542 0.000000
40.168377 70.572685 2.227674 0.000000 44.000000 14.227674 0.000000
41.568186 69.793816 2.265668 0.000000 64.000000 14.265668 12.000000
39.830028 70.373438 2.237806 0.000000 53.000000 14.237806 0.000000
39.017600 69.952254 2.140016 0.000000 46.000000 14.140016 0.000000
40.259074 68.504554 2.196190 0.000000 40.000000 14.196190 0.000000
38.391209 71.558579 2.207708 0.000000 46.000000 14.207708 0.000000
40.594699 70.405871 2.053817 0.000000 26.000000 14.053817 0.000000
42.793773 67.796198 2.043677 0.000000 27.000000 14.043677 0.000000
36.893445 67.866176 2.345752 0.000000 49.000000 14.345752 25.000000
38.173679 69.324244 2.164464 0.000000 49.000000 14.164464 0.000000
39.678535 69.740177 2.249019 0.000000 58.000000 14.249019 0.000000
37.796452 68.529673 2.791866 0.000000 75.000000 14.791866 21.000000
39.823047 69.443122 2.233738 0.000000 58.000000 14.233738 0.000000
39.840508 69.277429 2.160074 0.000000 43.000000 14.160074 0.000000
39.883757 69.117381 2.121895 0.000000 40.000000 14.121895 0.000000
36.996199 66.829531 2.788044 0.000000 50.000000 14.788044 8.000000
38.596857 70.757027 2.322667 0.000000 36.000000 14.322667 15.000000
40.015072 68.813776 2.114227 0.000000 31.000000 14.114227 0.000000
39.374248 68.271235 2.082470 0.000000 31.000000 14.082470 0.000000
38.470405 70.414270 2.314845 0.000000 37.000000 14.314845 23.000000
39.335411 71.713690 2.085585 0.000000 27.000000 14.085585 0.000000
40.259888 68.558896 2.269067 0.000000 56.000000 14.269067 0.000000
39.570767 68.731959 2.082787 0.000000 27.000000 14.082787 0.000000
37.837244 67.264768 2.448205 0.000000 47.000000 14.448205 20.000000
38.917178 67.792092 2.192303 0.000000 43.000000 14.192303 0.000000
40.376859 68.254696 2.268448 0.000000 68.000000 14.268448 0.000000
38.934616 67.615425 2.141626 0.000000 42.000000 14.141626 0.000000
40.451762 68.111131 2.295472 0.000000 62.000000 14.295472 0.000000
39.793913 65.325890 2.475947 0.000000 44.000000 14.475947 4.000000
42.589026 66.868117 2.400185 0.000000 68.000000 14.400185 9.000000
39.139240 67.148021 2.198447 0.000000 62.000000 14.198447 0.000000
37.869099 69.140470 2.427543 0.000000 35.000000 14.427543 17.000000
39.269897 66.836850 2.242902 0.000000 56.000000 14.242902 0.000000
39.311833 66.669322 2.242650 0.000000 50.000000 14.242650 0.000000
37.625433 67.969052 2.447443 0.000000 40.000000 14.447443 20.000000
39.351487 66.502120 2.241586 0.000000 48.000000 14.241586 0.000000
38.080570 66.629626 2.391477 0.000000 53.000000 14.391477 3.000000
41.146850 69.811670 2.393031 0.000000 55.000000 14.393031 12.000000
40.825763 66.655590 2.265088 0.000000 56.000000 14.265088 0.000000
38.673253 69.539975 2.167422 0.000000 33.000000 14.167422 0.000000
41.284909 69.729128 2.252954 0.000000 50.000000 14.252954 0.000000
39.467328 65.613863 2.182144 0.000000 55.000000 14.182144 0.000000
42.058810 66.525668 2.508425 0.000000 54.000000 14.508425 9.000000
37.081508 67.912740 2.446754 0.000000 42.000000 14.446754 25.000000
40.961226 64.871823 2.153923 0.000000 34.000000 14.153923 0.000000
44.076324 69.036366 2.177030 0.000000 39.000000 14.177030 0.000000
37.943095 67.818295 2.290712 0.000000 44.000000 14.290712 20.000000
38.278715 69.525404 2.213092 0.000000 40.000000 14.213092 0.000000
39.392171 72.148356 2.027029 0.000000 47.000000 14.027029 0.000000
39.010892 69.867700 2.128356 0.000000 40.000000 14.128356 0.000000
39.663226 69.174490 2.077060 0.000000 26.000000 14.077060 0.000000
39.695679 70.141280 2.249226 0.000000 53.000000 14.249226 0.000000
38.642038 70.538907 2.156150 0.000000 38.000000 14.156150 0.000000
40.073944 70.288965 2.243472 0.000000 40.000000 14.243472 0.000000
40.251413 70.356138 2.223482 0.000000 43.000000 14.223482 0.000000
38.919327 69.910279 2.104070 0.000000 48.000000 14.104070 0.000000
39.886509 71.340929 2.036725 0.000000 27.000000 14.036725 0.000000
39.210356 70.007211 2.212626 0.000000 48.000000 14.212626 0.000000
41.902335 70.681127 2.194503 0.000000 27.000000 14.194503 0.000000
38.864953 70.778809 2.442542 0.000000 62.000000 14.442542 26.000000
39.647022 70.148969 2.259147 0.000000 65.000000 14.259147 0.000000
37.804482 69.299017 2.932920 0.000000 48.000000 14.932920 17.000000
39.831321 70.206832 2.238458 0.000000 50.000000 14.238458 0.000000
41.147143 70.662360 2.169678 0.000000 52.000000 14.169678 0.000000
37.579197 69.199500 2.829654 0.000000 78.000000 14.829654 17.000000
39.412081 70.081505 2.823516 0.000000 2.000000 14.823516 7.000000
37.672214 69.515990 2.717476 0.000000 56.000000 14.717476 17.000000
38.417628 67.338821 2.180610 0.000000 31.000000 14.180610 0.000000
38.504388 70.030367 2.097357 0.000000 41.000000 14.097357 0.000000
41.399004 67.170260 2.455589 0.000000 63.000000 14.455589 5.000000
40.537919 70.407476 2.138943 0.000000 41.000000 14.138943 0.000000
39.272209 71.192845 2.014277 0.000000 14.000000 14.014277 0.000000
39.177603 68.804702 2.625589 0.000000 45.000000 14.625589 27.000000
43.380124 69.678876 2.128487 0.000000 43.000000 14.128487 0.000000
38.676595 70.817589 2.251577 0.000000 37.000000 14.251577 0.000000
41.141971 69.385819 2.498403 0.000000 53.000000 14.498403 12.000000
37.013324 67.002744 2.760604 0.000000 38.000000 14.760604 30.000000
39.500201 70.073804 2.240811 0.000000 55.000000 14.240811 0.000000
38.423510 66.444419 2.246980 0.000000 32.000000 14.246980 0.000000
38.396021 66.504858 2.475362 0.000000 35.000000 14.475362 14.000000
42.568940 67.102413 2.474718 0.000000 56.000000 14.474718 9.000000
39.851639 69.255214 2.031159 0.000000 24.000000 14.031159 0.000000
41.578486 65.323626 2.470198 0.000000 41.000000 14.470198 11.000000
41.377650 66.758653 2.274577 0.000000 47.000000 14.274577 0.000000
39.781206 66.449745 2.222106 0.000000 49.000000 14.222106 0.000000
41.473949 66.509585 2.075734 0.000000 34.000000 14.075734 0.000000
39.603989 66.732148 2.258082 0.000000 50.000000 14.258082 0.000000
36.919572 68.092337 2.431972 0.000000 44.000000 14.431972 21.000000
43.412801 68.653804 2.479331 0.000000 40.000000 14.479331 2.000000
38.437728 70.583953 2.847518 0.000000 38.000000 14.847518 23.000000
40.889464 66.244899 2.162984 0.000000 43.000000 14.162984 0.000000
38.992924 67.367524 2.091738 0.000000 43.000000 14.091738 0.000000
40.437171 68.064510 2.271599 0.000000 56.000000 14.271599 0.000000
38.628300 70.393210 2.590307 0.000000 46.000000 14.590307 23.000000
38.677048 68.579742 2.742487 0.000000 65.000000 14.742487 28.000000
36.459334 67.404548 2.366896 0.000000 40.000000 14.366896 25.000000
40.270751 68.339740 2.266766 0.000000 62.000000 14.266766 0.000000
38.837309 67.853320 2.218902 0.000000 53.000000 14.218902 0.000000
39.934674 65.003821 2.477772 0.000000 51.000000 14.477772 13.000000
38.772360 68.009212 2.239642 0.000000 59.000000 14.239642 0.000000
41.953914 67.360192 2.423973 0.000000 55.000000 14.423973 5.000000
38.699659 68.159616 2.245643 0.000000 63.000000 14.245643 0.000000
39.973264 68.738225 2.173406 0.000000 42.000000 14.173406 0.000000
39.835377 68.857095 2.086509 0.000000 36.000000 14.086509 0.000000
39.817667 69.023614 2.155307 0.000000 43.000000 14.155307 0.000000
39.755917 69.174509 2.162578 0.000000 37.000000 14.162578 0.000000
42.351387 66.461862 2.503627 0.000000 53.000000 14.503627 9.000000
36.933146 66.583036 2.680863 0.000000 47.000000 14.680863 8.000000
39.643183 69.650968 2.259663 0.000000 53.000000 14.259663 0.000000
38.329230 68.650771 2.587665 0.000000 49.000000 14.587665 28.000000
39.532885 69.957337 2.264387 0.000000 57.000000 14.264387 0.000000
41.597985 65.340188 2.522200 0.000000 49.000000 14.522200 11.000000
41.465921 68.374918 2.135554 0.000000 33.000000 14.135554 0.000000
38.373143 70.181863 2.961151 0.000000 57.000000 14.961151 23.000000
41.454391 65.135448 2.296736 0.000000 39.000000 14.296736 29.000000
39.101702 71.177797 2.168866 0.000000 42.000000 14.168866 0.000000
39.101947 71.344492 2.210219 0.000000 49.000000 14.210219 0.000000
39.168535 68.805764 2.623517 0.000000 52.000000 14.623517 27.000000
43.970793 68.937270 2.522071 0.000000 57.000000 14.522071 2.000000
41.756668 67.068351 2.321449 0.000000 51.000000 14.321449 5.000000
38.233820 68.545306 2.921366 0.000000 38.000000 14.921366 28.000000
41.328105 64.879477 2.365470 0.000000 49.000000 14.365470 29.000000
42.149266 67.128731 2.140628 0.000000 26.000000 14.140628 0.000000
37.458758 68.832535 2.649797 0.000000 65.000000 14.649797 17.000000
41.593814 67.223071 2.497963 0.000000 54.000000 14.497963 5.000000
41.670362 70.766136 2.249129 0.000000 62.000000 14.249129 0.000000
40.075046 65.554851 2.640552 0.000000 47.000000 14.640552 4.000000
40.105470 67.550192 2.231569 0.000000 38.000000 14.231569 0.000000
41.101123 70.516984 2.173877 0.000000 55.000000 14.173877 0.000000
42.033792 69.813516 2.149078 0.000000 29.000000 14.149078 0.000000
39.049253 68.163086 2.101431 0.000000 21.000000 14.101431 0.000000
41.086356 67.645841 2.337210 0.000000 45.000000 14.337210 1.000000
43.666922 68.735967 2.848883 0.000000 42.000000 14.848883 2.000000
41.766309 70.664903 2.249585 0.000000 56.000000 14.249585 0.000000
38.578461 68.712925 2.593202 0.000000 65.000000 14.593202 28.000000
41.594813 70.600423 2.255814 0.000000 58.000000 14.255814 0.000000
40.211111 70.157062 2.209179 0.000000 55.000000 14.209179 0.000000
41.404346 70.532069 2.239013 0.000000 46.000000 14.239013 0.000000
40.037448 70.091504 2.232265 0.000000 53.000000 14.232265 0.000000
40.230364 67.514096 2.176424 0.000000 35.000000 14.176424 0.000000
39.842139 70.021182 2.232152 0.000000 49.000000 14.232152 0.000000
42.425603 66.632592 2.617336 0.000000 55.000000 14.617336 9.000000
40.032494 65.573821 2.683731 0.000000 61.000000 14.683731 4.000000
41.329488 67.941449 2.274314 0.000000 58.000000 14.274314 1.000000
39.444260 69.884412 2.231702 0.000000 55.000000 14.231702 0.000000
41.147171 69.417384 2.588531 0.000000 59.000000 14.588531 12.000000
40.339356 66.326873 2.512959 0.000000 62.000000 14.512959 4.000000
40.421383 70.207031 2.173894 0.000000 53.000000 14.173894 0.000000
42.710642 67.078062 2.186259 0.000000 51.000000 14.186259 0.000000
42.662315 66.675258 2.670713 0.000000 59.000000 14.670713 9.000000
38.686278 69.642844 2.061665 0.000000 41.000000 14.061665 0.000000
38.647662 70.386736 2.782360 0.000000 77.000000 14.782360 23.000000
39.878167 70.051529 2.233598 0.000000 44.000000 14.233598 0.000000
42.672647 68.859328 2.418262 0.000000 66.000000 14.418262 6.000000
39.495885 69.951004 2.267793 0.000000 56.000000 14.267793 0.000000
39.074813 69.367848 2.273613 0.000000 38.000000 14.273613 27.000000
39.409758 69.688357 2.198142 0.000000 32.000000 14.198142 0.000000
40.207772 65.040897 2.587037 0.000000 50.000000 14.587037 13.000000
38.803630 72.302598 2.074343 0.000000 34.000000 14.074343 0.000000
40.327632 67.632372 2.238873 0.000000 37.000000 14.238873 0.000000
38.988127 72.001881 2.167770 0.000000 46.000000 14.167770 0.000000
39.081174 71.852749 2.218818 0.000000 57.000000 14.218818 0.000000
39.138435 71.695389 2.228843 0.000000 56.000000 14.228843 0.000000
39.287407 68.775535 2.627007 0.000000 56.000000 14.627007 27.000000
41.057013 67.439329 2.412626 0.000000 56.000000 14.412626 1.000000
39.221964 71.210715 2.169794 0.000000 49.000000 14.169794 0.000000
42.738189 67.008284 2.477557 0.000000 56.000000 14.477557 9.000000
37.861538 70.525387 2.154084 0.000000 47.000000 14.154084 0.000000
39.246917 70.877582 2.106124 0.000000 51.000000 14.106124 0.000000
43.736076 68.715490 2.415161 0.000000 42.000000 14.415161 2.000000
39.241903 70.705403 2.055159 0.000000 37.000000 14.055159 0.000000
39.297174 70.550130 2.086404 0.000000 36.000000 14.086404 0.000000
38.083984 69.694160 2.282216 0.000000 49.000000 14.282216 17.000000
36.199890 67.403791 2.491595 0.000000 66.000000 14.491595 24.000000
39.560128 69.606221 2.243160 0.000000 48.000000 14.243160 0.000000
39.580422 69.441584 2.250393 0.000000 55.000000 14.250393 0.000000
40.859700 67.284449 2.263840 0.000000 47.000000 14.263840 18.000000
39.515827 68.556414 2.120273 0.000000 38.000000 14.120273 0.000000
36.777669 68.072727 2.399546 0.000000 35.000000 14.399546 25.000000
42.420248 68.026502 2.114487 0.000000 43.000000 14.114487 0.000000
38.225482 67.810328 2.263858 0.000000 66.000000 14.263858 0.000000
36.151539 67.141955 2.343759 0.000000 38.000000 14.343759 24.000000
40.054043 67.704999 2.196837 0.000000 37.000000 14.196837 0.000000
38.204668 67.445733 2.257010 0.000000 64.000000 14.257010 0.000000
39.525481 67.868201 2.153786 0.000000 39.000000 14.153786 0.000000
42.306576 68.266226 2.744692 0.000000 65.000000 14.744692 6.000000
38.261473 70.504308 2.494124 0.000000 42.000000 14.494124 23.000000
39.592861 67.558964 2.268726 0.000000 48.000000 14.268726 0.000000
39.548340 67.368865 2.230750 0.000000 42.000000 14.230750 0.000000
42.728349 68.973011 2.443004 0.000000 67.000000 14.443004 6.000000
42.939362 67.990227 2.143169 0.000000 26.000000 14.143169 0.000000
37.284613 67.189694 2.760578 0.000000 56.000000 14.760578 30.000000
37.076349 68.098281 2.789549 0.000000 46.000000 14.789549 21.000000
38.036034 66.127716 2.225388 0.000000 53.000000 14.225388 0.000000
39.475246 66.651685 2.251328 0.000000 50.000000 14.251328 0.000000
39.432778 66.460871 2.233267 0.000000 43.000000 14.233267 0.000000
38.270726 68.295924 2.620143 0.000000 50.000000 14.620143 28.000000
41.184298 69.859163 2.271128 0.000000 51.000000 14.271128 0.000000
40.085658 70.517177 2.144476 0.000000 29.000000 14.144476 0.000000
40.553003 71.070636 2.070128 0.000000 28.000000 14.070128 0.000000
39.192603 69.803930 2.238562 0.000000 49.000000 14.238562 0.000000
39.399125 69.835712 2.234287 0.000000 46.000000 14.234287 0.000000
38.400856 68.847599 2.811787 0.000000 49.000000 14.811787 16.000000
38.257541 69.378494 2.148202 0.000000 50.000000 14.148202 0.000000
39.230362 66.219835 2.186688 0.000000 40.000000 14.186688 0.000000
42.401752 66.657228 2.377388 0.000000 57.000000 14.377388 9.000000
40.022337 69.923498 2.240500 0.000000 48.000000 14.240500 0.000000
38.682453 69.428269 2.133368 0.000000 52.000000 14.133368 0.000000
38.289275 67.072144 2.471429 0.000000 57.000000 14.471429 3.000000
41.468095 66.882397 2.218403 0.000000 43.000000 14.218403 0.000000
37.923308 68.782434 2.623704 0.000000 46.000000 14.623704 17.000000
37.476307 67.447543 2.686646 0.000000 45.000000 14.686646 30.000000
40.515486 69.951555 2.089406 0.000000 38.000000 14.089406 0.000000
36.745472 67.280313 2.419867 0.000000 57.000000 14.419867 25.000000
39.512960 67.784740 2.175668 0.000000 36.000000 14.175668 0.000000
41.177599 65.040659 2.236773 0.000000 44.000000 14.236773 29.000000
40.668018 65.190747 2.173111 0.000000 39.000000 14.173111 0.000000
37.950223 70.810218 2.958038 0.000000 34.000000 14.958038 15.000000
41.226522 70.042007 2.272190 0.000000 54.000000 14.272190 0.000000
38.915245 66.838600 2.180889 0.000000 44.000000 14.180889 0.000000
39.401465 70.165179 2.814708 0.000000 9.000000 14.814708 7.000000
40.145228 69.549293 2.135380 0.000000 43.000000 14.135380 0.000000
40.362439 69.564125 2.161485 0.000000 53.000000 14.161485 0.000000
38.807759 68.932069 2.468787 0.000000 48.000000 14.468787 16.000000
37.469476 68.373763 2.947049 0.000000 59.000000 14.947049 21.000000
42.804934 68.678009 2.394403 0.000000 46.000000 14.394403 6.000000
42.510705 68.312155 2.183964 0.000000 44.000000 14.183964 0.000000
37.848777 66.992618 2.633476 0.000000 56.000000 14.633476 20.000000
38.642851 68.930313 2.702838 0.000000 47.000000 14.702838 16.000000
36.725435 67.254578 2.355171 0.000000 52.000000 14.355171 25.000000
43.741455 68.774600 2.701209 0.000000 50.000000 14.701209 2.000000
40.141554 71.095966 2.149108 0.000000 23.000000 14.149108 0.000000
41.494223 65.099436 2.436644 0.000000 55.000000 14.436644 29.000000
43.131054 68.393857 2.011863 0.000000 31.000000 14.011863 0.000000
38.318947 66.151293 2.432233 0.000000 56.000000 14.432233 14.000000
38.338026 65.779237 2.188554 0.000000 41.000000 14.188554 0.000000
39.793194 66.559193 2.229407 0.000000 38.000000 14.229407 0.000000
38.300051 65.954216 2.187298 0.000000 46.000000 14.187298 0.000000
40.868030 67.377653 2.430346 0.000000 61.000000 14.430346 1.000000
40.517260 69.145772 2.214921 0.000000 34.000000 14.214921 0.000000
39.707969 67.068316 2.249866 0.000000 48.000000 14.249866 0.000000
38.212295 66.488028 2.195051 0.000000 45.000000 14.195051 0.000000
42.738555 68.905023 2.256680 0.000000 49.000000 14.256680 6.000000
39.641123 67.394216 2.234179 0.000000 38.000000 14.234179 0.000000
39.634411 67.572248 2.255116 0.000000 50.000000 14.255116 0.000000
39.034615 72.349085 2.069640 0.000000 28.000000 14.069640 0.000000
38.171781 67.221330 2.248414 0.000000 57.000000 14.248414 0.000000
39.516197 67.867100 2.152195 0.000000 43.000000 14.152195 0.000000
39.146799 68.892213 2.801244 0.000000 80.000000 14.801244 27.000000
38.179843 69.537803 2.302487 0.000000 54.000000 14.302487 17.000000
42.012629 69.080817 2.224057 0.000000 43.000000 14.224057 0.000000
39.351519 69.997915 2.188853 0.000000 38.000000 14.188853 0.000000
38.129358 67.932776 2.247761 0.000000 57.000000 14.247761 0.000000
39.456583 68.540127 2.135153 0.000000 39.000000 14.135153 0.000000
39.533976 68.741605 2.240406 0.000000 45.000000 14.240406 0.000000
39.561255 69.419723 2.267486 0.000000 51.000000 14.267486 0.000000
39.547664 69.580377 2.241411 0.000000 51.000000 14.241411 0.000000
39.611640 70.175853 2.253203 0.000000 34.000000 14.253203 0.000000
37.217285 68.289053 2.462559 0.000000 68.000000 14.462559 21.000000
39.602296 70.085232 2.262193 0.000000 63.000000 14.262193 0.000000
39.627845 70.570600 2.219222 0.000000 48.000000 14.219222 0.000000
39.642265 70.732288 2.206598 0.000000 57.000000 14.206598 0.000000
39.600260 70.877907 2.117645 0.000000 38.000000 14.117645 0.000000
42.810980 68.040879 2.023560 0.000000 25.000000 14.023560 0.000000
37.444378 67.483165 2.675036 0.000000 52.000000 14.675036 30.000000
39.657782 71.362904 2.067729 0.000000 28.000000 14.067729 0.000000
38.204796 71.187685 2.818192 0.000000 32.000000 14.818192 15.000000
39.763840 71.691835 2.108113 0.000000 45.000000 14.108113 0.000000
42.305423 65.976716 2.820349 0.000000 81.000000 14.820349 10.000000
42.512670 68.630197 2.432076 0.000000 64.000000 14.432076 6.000000
39.763085 67.778834 2.276129 0.000000 39.000000 14.276129 0.000000
39.852532 72.012222 2.113334 0.000000 57.000000 14.113334 0.000000
38.641482 71.737852 2.225893 0.000000 61.000000 14.225893 0.000000
38.687930 71.898932 2.219788 0.000000 60.000000 14.219788 0.000000
38.670221 72.051909 2.132291 0.000000 43.000000 14.132291 0.000000
43.140769 69.974279 2.263414 0.000000 48.000000 14.263414 0.000000
37.560503 66.349586 2.202119 0.000000 30.000000 14.202119 0.000000
38.701291 69.130870 2.763637 0.000000 39.000000 14.763637 16.000000
38.526680 66.599177 2.292860 0.000000 26.000000 14.292860 14.000000
42.420375 69.782841 2.218889 0.000000 47.000000 14.218889 0.000000
38.663561 66.338674 2.314665 0.000000 70.000000 14.314665 14.000000
43.160070 70.087763 2.269113 0.000000 49.000000 14.269113 0.000000
42.717319 67.073513 2.583201 0.000000 50.000000 14.583201 9.000000
39.714801 66.755286 2.178242 0.000000 32.000000 14.178242 0.000000
42.624821 69.990679 2.251966 0.000000 52.000000 14.251966 0.000000
42.437412 69.958883 2.234496 0.000000 41.000000 14.234496 0.000000
40.539687 67.728121 2.131786 0.000000 24.000000 14.131786 0.000000
40.541626 69.435055 2.193054 0.000000 61.000000 14.193054 0.000000
40.321795 69.401609 2.163293 0.000000 56.000000 14.163293 0.000000
40.073518 69.360881 2.100703 0.000000 40.000000 14.100703 0.000000
41.368967 69.842135 2.286667 0.000000 57.000000 14.286667 0.000000
36.947269 66.537540 2.733322 0.000000 50.000000 14.733322 8.000000
41.159190 69.818577 2.256344 0.000000 53.000000 14.256344 0.000000
42.378936 67.008377 2.438646 0.000000 44.000000 14.438646 9.000000
40.988515 69.811902 2.287352 0.000000 56.000000 14.287352 0.000000
37.952799 69.726557 2.614508 0.000000 55.000000 14.614508 17.000000
41.461683 69.814784 2.192626 0.000000 42.000000 14.192626 0.000000
42.029674 65.312105 2.223978 0.000000 41.000000 14.223978 0.000000
39.965612 69.755542 2.230580 0.000000 57.000000 14.230580 0.000000
37.626893 68.384752 2.673862 0.000000 68.000000 14.673862 21.000000
39.564059 69.752719 2.234742 0.000000 49.000000 14.234742 0.000000
43.884365 69.435871 2.149043 0.000000 41.000000 14.149043 0.000000
39.140393 66.364790 2.192642 0.000000 29.000000 14.192642 0.000000
42.939228 67.456350 2.185855 0.000000 33.000000 14.185855 0.000000
38.630627 66.493696 2.332651 0.000000 49.000000 14.332651 14.000000
38.407855 71.377251 2.530315 0.000000 45.000000 14.530315 26.000000
42.394724 69.915269 2.177612 0.000000 37.000000 14.177612 0.000000
38.391270 70.981002 3.021530 0.000000 2.000000 15.021530 15.000000
38.625763 71.427432 2.221409 0.000000 59.000000 14.221409 0.000000
39.873549 71.742983 2.083143 0.000000 43.000000 14.083143 0.000000
37.193351 66.745749 2.432872 0.000000 38.000000 14.432872 8.000000
39.825106 71.412673 2.069592 0.000000 32.000000 14.069592 0.000000
42.857469 67.992435 2.133384 0.000000 29.000000 14.133384 0.000000
39.857292 71.101329 2.174046 0.000000 39.000000 14.174046 0.000000
41.337320 68.774172 2.095425 0.000000 42.000000 14.095425 0.000000
37.404627 66.620759 2.316497 0.000000 37.000000 14.316497 8.000000
39.793747 70.607486 2.209838 0.000000 56.000000 14.209838 0.000000
40.524725 64.723468 2.120393 0.000000 37.000000 14.120393 0.000000
37.114162 66.416501 2.545257 0.000000 44.000000 14.545257 8.000000
39.125861 70.119826 2.279664 0.000000 45.000000 14.279664 7.000000
39.339913 69.514267 2.231291 0.000000 33.000000 14.231291 0.000000
40.249975 70.349747 2.060271 0.000000 17.000000 14.060271 0.000000
42.766150 68.567097 2.261580 0.000000 50.000000 14.261580 6.000000
36.703182 67.610320 2.638594 0.000000 55.000000 14.638594 25.000000
37.368705 66.476401 2.352430 0.000000 46.000000 14.352430 8.000000
39.123617 68.389298 2.201124 0.000000 49.000000 14.201124 0.000000
39.071794 68.219577 2.224335 0.000000 52.000000 14.224335 0.000000
38.882137 65.984792 2.181228 0.000000 31.000000 14.181228 0.000000
38.904476 67.855610 2.201566 0.000000 46.000000 14.201566 0.000000
40.255561 67.082293 2.172819 0.000000 30.000000 14.172819 0.000000
41.258538 65.138371 2.368661 0.000000 41.000000 14.368661 29.000000
38.683245 67.326974 2.231830 0.000000 61.000000 14.231830 0.000000
38.577804 67.135806 2.212662 0.000000 57.000000 14.212662 0.000000
38.469435 66.944673 2.191935 0.000000 43.000000 14.191935 0.000000
38.278902 66.574073 2.194695 0.000000 53.000000 14.194695 0.000000
43.201187 69.782354 2.149467 0.000000 34.000000 14.149467 0.000000
40.813091 70.946736 1.957758 0.000000 26.000000 13.957758 0.000000
37.969217 66.013362 2.200302 0.000000 46.000000 14.200302 0.000000
43.325427 68.350617 2.148390 0.000000 44.000000 14.148390 0.000000
39.010373 69.714530 2.208389 0.000000 51.000000 14.208389 0.000000
42.700408 66.832537 2.196426 0.000000 44.000000 14.196426 0.000000
39.164024 68.068050 2.033950 0.000000 28.000000 14.033950 0.000000
39.643730 69.661730 2.244691 0.000000 54.000000 14.244691 0.000000
39.839569 69.636096 2.242061 0.000000 56.000000 14.242061 0.000000
39.994468 69.596710 2.190858 0.000000 47.000000 14.190858 0.000000
40.150532 69.555562 2.143196 0.000000 40.000000 14.143196 0.000000
42.231117 68.402735 2.495359 0.000000 59.000000 14.495359 6.000000
