-49.827104 -66.777771 -12.656841 0.000000 34.000000 14.036110 0.000000
-48.910472 -66.862021 -11.708052 0.000000 67.000000 14.458979 9.000000
-47.426023 -70.621706 -11.947578 0.000000 26.000000 14.029231 0.000000
-49.317528 -68.858676 -12.704532 0.000000 37.000000 14.016456 0.000000
-50.335109 -67.654919 -12.994229 0.000000 36.000000 14.081419 0.000000
-49.558945 -67.374681 -12.427172 0.000000 39.000000 14.188311 0.000000
-48.716438 -66.543099 -11.154524 0.000000 71.000000 14.817045 29.000000
-50.140516 -67.344840 -12.913890 0.000000 57.000000 14.024267 0.000000
-46.815875 -69.475066 -11.451769 0.000000 39.000000 14.042970 0.000000
-50.506023 -68.103290 -13.260791 0.000000 40.000000 13.981002 0.000000
-50.692106 -66.822511 -13.026876 0.000000 35.000000 14.114270 0.000000
-45.544616 -66.271832 -9.601011 0.000000 83.000000 14.690128 2.000000
-47.109560 -70.176146 -11.755196 0.000000 33.000000 13.997806 0.000000
-46.269437 -67.126398 -10.372475 0.000000 43.000000 14.450746 12.000000
-46.973981 -70.307129 -11.468304 0.000000 54.000000 14.203835 0.000000
-51.341036 -68.177887 -13.113610 0.000000 56.000000 14.503809 7.000000
-48.102933 -70.449909 -11.698027 0.000000 63.000000 14.538905 17.000000
-44.946374 -65.807301 -9.443441 0.000000 64.000000 14.496102 2.000000
-49.562297 -66.559360 -12.018918 0.000000 60.000000 14.448218 9.000000
-50.897881 -67.370440 -12.989112 0.000000 39.000000 14.309754 14.000000
-50.947096 -66.654308 -13.117919 0.000000 49.000000 14.130791 0.000000
-51.611839 -67.885355 -13.154286 0.000000 76.000000 14.556551 7.000000
-49.249371 -66.622263 -12.263940 0.000000 44.000000 14.096564 0.000000
-49.877276 -65.136685 -11.816018 0.000000 56.000000 14.596016 23.000000
-50.234968 -64.806311 -12.457244 0.000000 43.000000 14.156033 0.000000
-50.645526 -66.024313 -12.882717 0.000000 49.000000 14.121111 0.000000
-46.838097 -68.883546 -11.091186 0.000000 49.000000 14.297256 1.000000
-46.818169 -68.821434 -11.125819 0.000000 36.000000 14.249973 1.000000
-45.795850 -65.122594 -9.861599 0.000000 50.000000 14.434809 5.000000
-47.651618 -65.100026 -10.754804 0.000000 75.000000 14.500525 26.000000
-50.917065 -66.724581 -13.128222 0.000000 58.000000 14.116585 0.000000
-50.958243 -67.416964 -13.061361 0.000000 71.000000 14.279743 14.000000
-49.714576 -63.419641 -11.361372 0.000000 76.000000 14.709059 18.000000
-50.333140 -65.427363 -12.635636 0.000000 48.000000 14.120975 0.000000
-46.456118 -67.267108 -10.277476 0.000000 71.000000 14.637527 12.000000
-50.671623 -66.247945 -12.874467 0.000000 63.000000 14.167963 0.000000
-50.174090 -65.142714 -12.509473 0.000000 46.000000 14.123605 0.000000
-47.242909 -65.039913 -10.911480 0.000000 26.000000 14.167302 0.000000
-50.189603 -64.354068 -12.163999 0.000000 60.000000 14.337200 18.000000
-48.191355 -64.242826 -11.299057 0.000000 32.000000 14.164568 0.000000
-49.430853 -65.826759 -11.622491 0.000000 71.000000 14.645912 9.000000
-50.315000 -65.699490 -12.666476 0.000000 53.000000 14.119087 0.000000
-50.227157 -65.565235 -12.602327 0.000000 50.000000 14.118509 0.000000
-50.137589 -65.432024 -12.540808 0.000000 44.000000 14.114954 0.000000
-49.693542 -64.324105 -12.078592 0.000000 61.000000 14.180356 0.000000
-49.874294 -69.227094 -12.981491 0.000000 47.000000 14.074566 0.000000
-46.983178 -68.517084 -11.008600 0.000000 45.000000 14.391410 1.000000
-50.112762 -67.880626 -12.866629 0.000000 55.000000 14.119155 0.000000
-49.601959 -65.852006 -11.928452 0.000000 52.000000 14.458737 9.000000
-47.792806 -68.770121 -11.874352 0.000000 34.000000 14.033931 0.000000
-51.829054 -67.927615 -13.262940 0.000000 48.000000 14.566172 7.000000
-46.244957 -67.945878 -10.843670 0.000000 24.000000 14.126290 0.000000
-45.026216 -66.276737 -9.302923 0.000000 73.000000 14.714307 2.000000
-48.183535 -67.433253 -11.749683 0.000000 39.000000 14.158384 0.000000
-47.481414 -70.704263 -11.972651 0.000000 25.000000 14.042858 0.000000
-45.980786 -68.678487 -10.788043 0.000000 29.000000 14.144041 0.000000
-46.333104 -69.943217 -11.153914 0.000000 43.000000 14.140492 0.000000
-46.087306 -68.741833 -10.862966 0.000000 46.000000 14.134991 0.000000
-46.206925 -68.763353 -10.973882 0.000000 33.000000 14.095160 0.000000
-49.074297 -66.249530 -11.826200 0.000000 59.000000 14.354907 9.000000
-46.847473 -68.084689 -11.108924 0.000000 27.000000 14.187413 0.000000
-50.578018 -66.978851 -12.703546 0.000000 50.000000 14.365355 14.000000
-48.502997 -66.237523 -11.347504 0.000000 64.000000 14.511461 29.000000
-50.868073 -66.126397 -13.027135 0.000000 44.000000 14.109121 0.000000
-48.147134 -63.841210 -11.249729 0.000000 37.000000 14.138043 0.000000
-46.563752 -67.217631 -10.447158 0.000000 54.000000 14.531754 12.000000
-49.275809 -66.720755 -12.211549 0.000000 38.000000 14.166944 0.000000
-49.447194 -65.381675 -12.300769 0.000000 43.000000 14.002141 0.000000
-49.443976 -65.665160 -11.700628 0.000000 71.000000 14.563310 9.000000
-46.916581 -64.951536 -10.759948 0.000000 30.000000 14.139487 0.000000
-47.001866 -69.986613 -10.553147 0.000000 45.000000 14.981772 4.000000
-48.039677 -69.793307 -12.032849 0.000000 63.000000 14.134398 0.000000
-50.936962 -68.071625 -13.221694 0.000000 33.000000 14.209749 7.000000
-50.200839 -67.811452 -12.885050 0.000000 31.000000 14.134949 0.000000
-49.914550 -67.013065 -12.240042 0.000000 67.000000 14.471845 8.000000
-45.930259 -66.979445 -10.472070 0.000000 37.000000 14.188988 0.000000
-49.175928 -65.531973 -12.107800 0.000000 40.000000 14.065541 0.000000
-49.628955 -67.999157 -12.583503 0.000000 44.000000 14.160115 0.000000
-48.998898 -67.958699 -12.428690 0.000000 40.000000 14.001349 0.000000
-48.748442 -69.614679 -12.371526 0.000000 50.000000 14.140685 0.000000
-50.895050 -67.745665 -13.220811 0.000000 39.000000 14.151025 0.000000
-45.517002 -66.279795 -9.681675 0.000000 71.000000 14.607481 2.000000
-48.540065 -68.353877 -12.112078 0.000000 39.000000 14.117375 0.000000
-45.877627 -68.206251 -10.453669 0.000000 53.000000 14.332312 10.000000
-49.950314 -65.130576 -12.342469 0.000000 37.000000 14.165985 0.000000
-49.384543 -63.487377 -11.263602 0.000000 57.000000 14.651531 21.000000
-47.026316 -67.666326 -10.954640 0.000000 37.000000 14.353738 11.000000
-49.211252 -66.373879 -11.530309 0.000000 59.000000 14.693425 9.000000
-49.189661 -68.138666 -12.486947 0.000000 46.000000 14.060101 0.000000
-45.264295 -65.901958 -9.975396 0.000000 40.000000 14.186338 0.000000
-46.215712 -67.576443 -10.536497 0.000000 37.000000 14.337336 12.000000
-46.040495 -68.041783 -10.373848 0.000000 63.000000 14.457139 10.000000
-49.842357 -67.119555 -12.249767 0.000000 62.000000 14.443217 8.000000
-51.341166 -68.313524 -13.394743 0.000000 60.000000 14.273418 7.000000
-49.593495 -67.938680 -12.616314 0.000000 46.000000 14.107489 0.000000
-50.125194 -69.086951 -13.027314 0.000000 59.000000 14.132426 0.000000
-49.135624 -66.963389 -11.743708 0.000000 62.000000 14.543729 9.000000
-49.282853 -63.753180 -11.825326 0.000000 26.000000 14.143641 0.000000
-45.753242 -67.331716 -10.564346 0.000000 33.000000 14.069871 0.000000
-50.013479 -63.624970 -11.510506 0.000000 73.000000 14.740793 18.000000
-49.678852 -66.352391 -11.908676 0.000000 74.000000 14.573240 9.000000
-50.525623 -68.886588 -13.216920 0.000000 60.000000 14.125235 0.000000
-50.097383 -67.697128 -12.890551 0.000000 43.000000 14.068406 0.000000
-50.649598 -68.836841 -13.317270 0.000000 49.000000 14.087906 0.000000
-48.061156 -66.596469 -11.186586 0.000000 74.000000 14.493939 29.000000
-48.717689 -65.120103 -11.528315 0.000000 68.000000 14.313399 30.000000
-47.375122 -64.344407 -11.077455 0.000000 39.000000 13.996391 0.000000
-49.175974 -63.590111 -11.267735 0.000000 66.000000 14.564608 21.000000
-47.386941 -69.455904 -11.489786 0.000000 44.000000 14.269930 16.000000
-48.972504 -66.577650 -11.586487 0.000000 66.000000 14.559322 9.000000
-51.091259 -67.050377 -13.267445 0.000000 49.000000 14.114516 0.000000
-47.762755 -69.370166 -11.770666 0.000000 39.000000 14.185303 0.000000
-47.442386 -64.472476 -10.942022 0.000000 28.000000 14.162220 0.000000
-49.961013 -65.999467 -12.282181 0.000000 40.000000 14.331117 23.000000
-49.348316 -66.610023 -11.853205 0.000000 64.000000 14.501717 9.000000
-46.424699 -68.155198 -10.963405 0.000000 40.000000 14.129539 0.000000
-48.156640 -64.703359 -10.891142 0.000000 58.000000 14.564075 30.000000
-46.889245 -69.880997 -11.109685 0.000000 40.000000 14.427587 4.000000
-50.221981 -65.542479 -12.607405 0.000000 45.000000 14.108856 0.000000
-49.657752 -64.119173 -12.104271 0.000000 40.000000 14.116027 0.000000
-50.234054 -68.329410 -12.967288 0.000000 39.000000 14.141828 0.000000
-50.334267 -65.127933 -12.586037 0.000000 44.000000 14.128161 0.000000
-50.219753 -65.313469 -12.575175 0.000000 51.000000 14.107914 0.000000
-48.544087 -64.714725 -10.974189 0.000000 71.000000 14.670724 30.000000
-51.583682 -67.587877 -13.294912 0.000000 59.000000 14.383248 19.000000
-47.076640 -65.322731 -10.280479 0.000000 66.000000 14.680501 25.000000
-47.595557 -69.974843 -11.537626 0.000000 32.000000 14.387877 16.000000
-48.606830 -65.685801 -11.228351 0.000000 70.000000 14.595930 30.000000
-48.078308 -65.229929 -10.890502 0.000000 24.000000 14.593562 30.000000
-50.086054 -65.156362 -12.486293 0.000000 46.000000 14.105164 0.000000
-45.170495 -65.556733 -9.800880 0.000000 49.000000 14.254030 3.000000
-48.639798 -65.996860 -11.651949 0.000000 52.000000 14.277028 30.000000
-49.683334 -66.206356 -12.178645 0.000000 41.000000 14.319915 9.000000
-50.226325 -65.451642 -12.598387 0.000000 50.000000 14.107576 0.000000
-47.221103 -68.875044 -11.391594 0.000000 40.000000 14.208297 0.000000
-50.905511 -66.561147 -13.092164 0.000000 34.000000 14.122808 0.000000
-47.837139 -67.248309 -10.941280 0.000000 48.000000 14.686975 24.000000
-49.046382 -63.871439 -11.268984 0.000000 57.000000 14.538593 23.000000
-50.909970 -66.886637 -13.160863 0.000000 52.000000 14.104615 0.000000
-50.451520 -65.899293 -12.781166 0.000000 48.000000 14.105711 0.000000
-50.050709 -65.252970 -11.675156 0.000000 73.000000 14.814013 23.000000
-49.202181 -66.097897 -12.013649 0.000000 64.000000 14.230225 9.000000
-51.076582 -67.201684 -13.277798 0.000000 65.000000 14.117328 0.000000
-47.682110 -66.826170 -10.652050 0.000000 26.000000 14.817869 24.000000
-48.478970 -66.558770 -10.953269 0.000000 50.000000 14.886671 29.000000
-49.601816 -66.089900 -12.078200 0.000000 57.000000 14.356357 9.000000
-47.949202 -66.921860 -10.656465 0.000000 64.000000 14.948684 24.000000
-51.430645 -67.853693 -13.561857 0.000000 54.000000 14.110919 0.000000
-50.359641 -68.048660 -13.168006 0.000000 29.000000 13.988491 0.000000
-49.710069 -65.781722 -11.594048 0.000000 37.000000 14.793833 9.000000
-49.329825 -65.915118 -11.765175 0.000000 56.000000 14.484874 9.000000
-46.739165 -66.301151 -10.991329 0.000000 32.000000 14.020927 0.000000
-47.070235 -70.431510 -10.935847 0.000000 58.000000 14.731630 4.000000
-51.281336 -67.976507 -13.168140 0.000000 64.000000 14.403549 7.000000
-48.978628 -68.051372 -12.384723 0.000000 23.000000 14.042114 0.000000
-46.865361 -64.956808 -10.440420 0.000000 55.000000 14.397516 25.000000
-47.432711 -68.051278 -11.590047 0.000000 30.000000 14.029536 0.000000
-50.397613 -67.942704 -13.157321 0.000000 41.000000 14.002285 0.000000
-51.091201 -67.485838 -13.300005 0.000000 63.000000 14.139588 0.000000
-48.327141 -67.994750 -11.934795 0.000000 50.000000 14.130974 0.000000
-50.137829 -68.256953 -12.907630 0.000000 67.000000 14.141068 0.000000
-49.540712 -63.951806 -11.442761 0.000000 67.000000 14.623159 23.000000
-46.907668 -64.941720 -10.643289 0.000000 56.000000 14.236748 25.000000
-48.701679 -65.643475 -11.363655 0.000000 69.000000 14.515383 30.000000
-49.743301 -68.866560 -12.896736 0.000000 38.000000 14.044333 0.000000
-47.321821 -64.604642 -10.318392 0.000000 45.000000 14.671380 27.000000
-50.638893 -68.837795 -13.211577 0.000000 32.000000 14.176029 0.000000
-47.490852 -64.372718 -10.407301 0.000000 63.000000 14.642365 27.000000
-47.761664 -68.416660 -11.840911 0.000000 30.000000 14.005397 0.000000
-47.659105 -68.716386 -11.656979 0.000000 48.000000 14.156910 0.000000
-48.833076 -69.581191 -12.379801 0.000000 53.000000 14.168218 0.000000
-50.949374 -66.853839 -13.178586 0.000000 53.000000 14.103115 0.000000
-48.349241 -66.182219 -10.912267 0.000000 61.000000 14.816575 29.000000
-51.531786 -67.581887 -13.120466 0.000000 50.000000 14.512014 19.000000
-48.217007 -67.852660 -11.850837 0.000000 42.000000 14.136590 0.000000
-50.731332 -66.593662 -13.023904 0.000000 47.000000 14.106697 0.000000
-51.176860 -67.639698 -13.372774 0.000000 69.000000 14.134000 0.000000
-47.377215 -70.403592 -11.861551 0.000000 23.000000 14.055504 0.000000
-51.056598 -67.513850 -13.305959 0.000000 64.000000 14.121887 0.000000
-50.076328 -66.212967 -12.636990 0.000000 37.000000 14.098550 0.000000
-46.816476 -70.539760 -11.420351 0.000000 49.000000 14.202229 0.000000
-47.693841 -64.845439 -10.323653 0.000000 71.000000 14.867631 27.000000
-50.978441 -67.402784 -12.892016 0.000000 63.000000 14.436183 14.000000
-48.447692 -68.756683 -12.097625 0.000000 24.000000 14.137278 0.000000
-48.580822 -66.462319 -11.508039 0.000000 42.000000 14.433853 29.000000
-49.065716 -69.247558 -12.287744 0.000000 50.000000 14.315036 6.000000
-50.127665 -64.616686 -12.139414 0.000000 64.000000 14.362719 18.000000
-49.992625 -66.489989 -12.689684 0.000000 49.000000 14.047885 0.000000
-45.906934 -68.295920 -10.663559 0.000000 25.000000 14.172313 0.000000
-50.702392 -67.608079 -13.028644 0.000000 32.000000 14.214370 14.000000
-50.309446 -64.372897 -11.999285 0.000000 76.000000 14.539488 18.000000
-49.769174 -66.262662 -12.492546 0.000000 49.000000 14.090361 0.000000
-49.279106 -65.161035 -12.109190 0.000000 45.000000 14.066026 0.000000
-49.631678 -66.204825 -12.514672 0.000000 39.000000 14.000508 0.000000
-49.538128 -66.630600 -11.939735 0.000000 69.000000 14.515508 9.000000
-47.853503 -70.394170 -11.412487 0.000000 52.000000 14.668324 17.000000
-49.063100 -64.956914 -11.925197 0.000000 45.000000 14.103233 0.000000
-48.938479 -64.884720 -11.902199 0.000000 32.000000 14.057208 0.000000
-50.640249 -65.176001 -12.346944 0.000000 66.000000 14.485098 20.000000
-49.600103 -66.253297 -12.508498 0.000000 33.000000 13.997388 0.000000
-46.750282 -66.127386 -10.946999 0.000000 42.000000 14.043581 0.000000
-48.733770 -65.441641 -11.803312 0.000000 53.000000 14.118678 0.000000
-49.617471 -69.417002 -12.896323 0.000000 49.000000 14.054714 0.000000
-48.630621 -65.345661 -11.683778 0.000000 46.000000 14.164476 0.000000
-50.706892 -68.705486 -13.437597 0.000000 40.000000 13.992264 0.000000
-47.807065 -64.884953 -11.244022 0.000000 48.000000 14.115368 0.000000
-48.322124 -63.567886 -11.377290 0.000000 21.000000 14.072678 0.000000
-49.895975 -64.472768 -12.003161 0.000000 71.000000 14.358161 23.000000
-49.519913 -66.419190 -12.021547 0.000000 57.000000 14.409111 9.000000
-48.528919 -69.253818 -12.222517 0.000000 29.000000 14.126175 0.000000
-47.110638 -65.652328 -10.455731 0.000000 35.000000 14.582718 25.000000
-48.944387 -68.155852 -12.425274 0.000000 34.000000 14.003596 0.000000
-46.100706 -65.377744 -9.991894 0.000000 70.000000 14.491994 5.000000
-48.440262 -70.043965 -12.426215 0.000000 47.000000 14.003769 0.000000
-50.193127 -69.155353 -13.013283 0.000000 48.000000 14.184458 0.000000
-47.348549 -68.057842 -11.463886 0.000000 41.000000 14.102549 0.000000
-46.645723 -64.532222 -10.457459 0.000000 36.000000 14.229093 25.000000
-47.350862 -65.785550 -11.057152 0.000000 37.000000 14.180884 0.000000
-46.047605 -68.162088 -10.781357 0.000000 33.000000 14.116951 0.000000
-49.509779 -69.100273 -12.865575 0.000000 37.000000 13.993123 0.000000
-47.430241 -69.324692 -11.464847 0.000000 45.000000 14.295592 16.000000
-49.753672 -68.816107 -12.850143 0.000000 38.000000 14.083848 0.000000
-47.425486 -66.320687 -10.810675 0.000000 43.000000 14.497958 24.000000
-50.007794 -66.690275 -12.724383 0.000000 43.000000 14.049066 0.000000
-48.193428 -66.774349 -11.124913 0.000000 68.000000 14.630971 29.000000
-50.460370 -68.264492 -13.106182 0.000000 34.000000 14.115826 0.000000
-50.408320 -68.111099 -13.170667 0.000000 34.000000 14.016253 0.000000
-49.325930 -63.463604 -11.209486 0.000000 68.000000 14.669210 21.000000
-50.454346 -68.024458 -13.222562 0.000000 36.000000 13.981111 0.000000
-50.549184 -67.902237 -13.266116 0.000000 39.000000 13.971373 0.000000
-48.581758 -63.715421 -11.203555 0.000000 51.000000 14.363095 22.000000
-46.254982 -64.981573 -10.541700 0.000000 38.000000 14.030681 0.000000
-48.082678 -64.336006 -11.152353 0.000000 48.000000 14.255052 30.000000
-48.898748 -66.687023 -11.644379 0.000000 52.000000 14.487978 9.000000
-50.048118 -64.702259 -11.657487 0.000000 69.000000 14.760411 23.000000
-48.223377 -63.495640 -11.271036 0.000000 42.000000 14.111754 0.000000
-48.850836 -67.832648 -12.187255 0.000000 40.000000 14.129955 0.000000
-50.588592 -67.930310 -13.259185 0.000000 32.000000 13.999063 0.000000
-51.554032 -68.172943 -13.677870 0.000000 23.000000 14.105074 0.000000
-48.568361 -64.069236 -11.519247 0.000000 41.000000 14.123012 0.000000
-49.075598 -63.378978 -11.009791 0.000000 44.000000 14.719172 21.000000
-49.139570 -65.174662 -11.934388 0.000000 46.000000 14.157202 0.000000
-47.238878 -64.436952 -10.189790 0.000000 62.000000 14.725601 27.000000
-49.684377 -66.527760 -11.950787 0.000000 40.000000 14.560394 9.000000
-51.063777 -68.299671 -13.087051 0.000000 62.000000 14.414618 7.000000
-50.381715 -66.292951 -12.777714 0.000000 34.000000 14.125197 0.000000
-49.591974 -64.226277 -11.638656 0.000000 58.000000 14.508369 23.000000
-49.039602 -64.842000 -11.987495 0.000000 36.000000 14.023468 0.000000
-49.911039 -67.905345 -12.705128 0.000000 62.000000 14.171390 0.000000
-50.948030 -67.647530 -12.972140 0.000000 64.000000 14.381937 14.000000
-50.956389 -67.438827 -13.241947 0.000000 65.000000 14.122807 0.000000
-50.106343 -68.674096 -12.924158 0.000000 55.000000 14.163516 0.000000
-48.466005 -67.046699 -11.177894 0.000000 54.000000 14.743404 29.000000
-46.563818 -67.589512 -10.859467 0.000000 35.000000 14.215143 0.000000
-46.388729 -68.717738 -10.985448 0.000000 42.000000 14.163013 0.000000
-50.639459 -67.196593 -12.778243 0.000000 63.000000 14.354811 14.000000
-49.915367 -66.400301 -12.685370 0.000000 46.000000 14.005065 0.000000
-45.850165 -66.471214 -10.406914 0.000000 46.000000 14.146721 0.000000
-47.706501 -64.075560 -10.592867 0.000000 63.000000 14.541765 28.000000
-46.114360 -65.447552 -10.250220 0.000000 58.000000 14.279755 5.000000
-45.790523 -68.568677 -10.647677 0.000000 34.000000 14.166368 0.000000
-51.559975 -67.206794 -13.150354 0.000000 72.000000 14.452426 19.000000
-50.346216 -66.888041 -12.915606 0.000000 50.000000 14.061043 0.000000
-48.618257 -63.356192 -11.368893 0.000000 44.000000 14.190195 21.000000
-48.618721 -66.749711 -11.653710 0.000000 70.000000 14.358667 29.000000
-46.473729 -69.631393 -11.205222 0.000000 31.000000 14.121609 0.000000
-50.497062 -66.436633 -12.815354 0.000000 55.000000 14.162902 0.000000
-47.621526 -65.047128 -10.847913 0.000000 79.000000 14.398287 26.000000
-50.603387 -66.574280 -12.946528 0.000000 52.000000 14.113470 0.000000
-48.559160 -69.488835 -12.408024 0.000000 26.000000 14.005978 0.000000
-51.430398 -68.120840 -13.603122 0.000000 35.000000 14.107483 0.000000
-51.290327 -67.867213 -13.489962 0.000000 65.000000 14.111240 0.000000
-45.496766 -67.038822 -10.187950 0.000000 53.000000 14.246674 10.000000
-47.041603 -70.357628 -11.580238 0.000000 30.000000 14.142760 0.000000
-47.322267 -69.973024 -10.880222 0.000000 72.000000 14.839933 4.000000
-48.477468 -65.984150 -11.423784 0.000000 56.000000 14.401384 30.000000
-46.909612 -64.965380 -10.167876 0.000000 51.000000 14.658568 25.000000
-49.123804 -66.861905 -11.723285 0.000000 67.000000 14.543727 9.000000
-49.059258 -64.048327 -11.396090 0.000000 63.000000 14.454583 23.000000
-51.039868 -67.219021 -13.232906 0.000000 55.000000 14.142047 0.000000
-50.664226 -67.561386 -13.150956 0.000000 36.000000 14.083505 0.000000
-49.146201 -69.333413 -12.426808 0.000000 37.000000 14.240388 6.000000
-50.713915 -68.111657 -13.357582 0.000000 43.000000 13.992583 0.000000
-51.581901 -67.636869 -13.668368 0.000000 47.000000 14.060113 0.000000
-51.837073 -68.043081 -13.522316 0.000000 58.000000 14.356052 7.000000
-48.510208 -64.255752 -11.404970 0.000000 45.000000 14.219746 22.000000
-47.067382 -67.137176 -10.914660 0.000000 37.000000 14.342499 15.000000
-45.900921 -65.916686 -10.116776 0.000000 51.000000 14.356762 3.000000
-51.283302 -67.138962 -13.338223 0.000000 62.000000 14.151574 0.000000
-51.144524 -67.057888 -13.277123 0.000000 50.000000 14.131441 0.000000
-51.046873 -68.238346 -13.229292 0.000000 36.000000 14.274208 7.000000
-51.458286 -68.070448 -13.584178 0.000000 58.000000 14.130754 0.000000
-49.148570 -63.854597 -11.448736 0.000000 58.000000 14.425485 23.000000
-48.402746 -63.535072 -11.408437 0.000000 37.000000 14.078338 0.000000
-50.742680 -66.808773 -13.042564 0.000000 51.000000 14.122051 0.000000
-45.181877 -65.846575 -9.980607 0.000000 38.000000 14.137002 0.000000
-47.186453 -70.450232 -11.848430 0.000000 23.000000 13.985025 0.000000
-50.488125 -68.250834 -13.260785 0.000000 33.000000 13.990976 0.000000
-50.787746 -66.994177 -12.791687 0.000000 65.000000 14.386244 14.000000
-50.206125 -66.514703 -12.745553 0.000000 50.000000 14.100044 0.000000
-50.002579 -64.835458 -12.023779 0.000000 74.000000 14.433830 23.000000
-49.980092 -66.464270 -12.684824 0.000000 46.000000 14.043218 0.000000
-46.355499 -66.516047 -10.621334 0.000000 35.000000 14.196231 0.000000
-48.391001 -67.111401 -11.043044 0.000000 42.000000 14.835444 29.000000
-49.241758 -67.067726 -11.778114 0.000000 37.000000 14.575184 9.000000
-46.258791 -65.289184 -9.809926 0.000000 64.000000 14.713799 5.000000
-49.550758 -66.629387 -12.080994 0.000000 63.000000 14.396968 9.000000
-47.747170 -65.127590 -10.773330 0.000000 74.000000 14.531601 26.000000
-50.212126 -65.221069 -12.533106 0.000000 53.000000 14.129994 0.000000
-48.010801 -69.635425 -11.959332 0.000000 38.000000 14.166272 0.000000
-45.118426 -66.952125 -10.091742 0.000000 36.000000 14.146492 0.000000
-47.791458 -67.825846 -11.710488 0.000000 39.000000 14.060886 0.000000
-48.897710 -65.900863 -11.942658 0.000000 48.000000 14.128245 0.000000
-47.670952 -63.931811 -10.771890 0.000000 59.000000 14.350266 28.000000
-45.076433 -66.042732 -9.204829 0.000000 68.000000 14.794790 2.000000
-49.882396 -66.904391 -12.305166 0.000000 67.000000 14.386383 8.000000
-47.396890 -69.179269 -11.619449 0.000000 27.000000 14.126371 0.000000
-46.923967 -65.665110 -10.420612 0.000000 74.000000 14.529286 25.000000
-48.197507 -69.815254 -12.264630 0.000000 39.000000 14.005931 0.000000
-45.140993 -65.872021 -9.590950 0.000000 45.000000 14.463936 2.000000
-48.229830 -69.909165 -12.043399 0.000000 48.000000 14.226907 17.000000
-49.920948 -66.083807 -12.595078 0.000000 28.000000 14.047974 0.000000
-50.155522 -66.648224 -12.834923 0.000000 37.000000 14.014656 0.000000
-50.025284 -65.234401 -11.941408 0.000000 74.000000 14.565922 23.000000
-46.318641 -65.366892 -10.540711 0.000000 39.000000 14.108380 0.000000
-48.780973 -64.547791 -11.214317 0.000000 69.000000 14.547988 22.000000
-46.549851 -66.404709 -10.708703 0.000000 57.000000 14.195098 0.000000
-48.467634 -63.513747 -11.494424 0.000000 39.000000 14.029957 0.000000
-46.022710 -66.433657 -10.480912 0.000000 44.000000 14.156414 0.000000
-46.155688 -69.476490 -10.990311 0.000000 34.000000 14.145126 0.000000
-47.775378 -70.105640 -11.581176 0.000000 50.000000 14.448461 17.000000
-48.987083 -67.818514 -12.340320 0.000000 34.000000 14.056317 0.000000
-51.117016 -66.520283 -13.151596 0.000000 43.000000 14.162826 0.000000
-50.760664 -66.733986 -12.602249 0.000000 49.000000 14.508245 14.000000
-47.427959 -70.825674 -11.860925 0.000000 41.000000 14.131478 0.000000
-50.295601 -68.285840 -13.019533 0.000000 44.000000 14.118834 0.000000
-47.061915 -67.147531 -10.693723 0.000000 66.000000 14.535521 15.000000
-46.167779 -68.962299 -10.947553 0.000000 24.000000 14.124844 0.000000
-49.225455 -66.878185 -11.751820 0.000000 68.000000 14.567416 9.000000
-50.632040 -68.535942 -13.326580 0.000000 52.000000 14.034517 0.000000
-48.924650 -67.129155 -11.927774 0.000000 44.000000 14.305271 9.000000
-46.806908 -67.886463 -11.065063 0.000000 40.000000 14.182858 0.000000
-48.746710 -64.712954 -11.287139 0.000000 64.000000 14.488573 22.000000
-47.285056 -69.581890 -11.459160 0.000000 54.000000 14.265523 16.000000
-50.907333 -67.082339 -12.937131 0.000000 60.000000 14.324262 14.000000
-49.599449 -67.257411 -12.393348 0.000000 62.000000 14.222218 8.000000
-51.112544 -66.992646 -13.245004 0.000000 48.000000 14.136918 0.000000
-48.418824 -63.361784 -11.455509 0.000000 36.000000 14.022967 0.000000
-48.596787 -65.043474 -11.111459 0.000000 84.000000 14.614838 30.000000
-49.914900 -67.286598 -12.558401 0.000000 57.000000 14.225837 8.000000
-47.939914 -65.759181 -11.534942 0.000000 40.000000 14.028561 0.000000
-49.535011 -66.341961 -11.634675 0.000000 52.000000 14.746687 9.000000
-46.832117 -69.692781 -11.400797 0.000000 33.000000 14.122121 0.000000
-47.527985 -65.421739 -10.751614 0.000000 61.000000 14.486138 26.000000
-50.035749 -64.757070 -11.971822 0.000000 74.000000 14.485103 23.000000
-49.469775 -64.347526 -11.419683 0.000000 64.000000 14.659635 23.000000
-49.272912 -68.732631 -12.686879 0.000000 33.000000 13.995897 0.000000
-49.323532 -63.813986 -11.336780 0.000000 79.000000 14.599413 23.000000
-47.581879 -68.518479 -11.720127 0.000000 35.000000 14.041437 0.000000
-48.982444 -65.880626 -11.437246 0.000000 63.000000 14.609118 30.000000
-50.394581 -65.083331 -12.575504 0.000000 41.000000 14.159670 0.000000
-50.271309 -65.667622 -11.887431 0.000000 73.000000 14.780028 23.000000
-50.218224 -65.753456 -12.343566 0.000000 59.000000 14.365137 23.000000
-50.059580 -67.421627 -12.860977 0.000000 53.000000 14.043025 0.000000
-45.768064 -65.512811 -9.735955 0.000000 77.000000 14.580642 3.000000
-50.196360 -67.493533 -12.922088 0.000000 54.000000 14.061098 0.000000
-45.553422 -66.093466 -9.372196 0.000000 57.000000 14.873358 2.000000
-50.339465 -67.554700 -12.964621 0.000000 53.000000 14.097091 0.000000
-49.923614 -66.546322 -12.686102 0.000000 46.000000 14.026232 0.000000
-50.474122 -67.638734 -13.059868 0.000000 49.000000 14.085670 0.000000
-48.670865 -64.105095 -11.351967 0.000000 69.000000 14.321680 22.000000
-49.736157 -65.760471 -12.512729 0.000000 41.000000 13.995464 0.000000
-49.764481 -65.304960 -11.957740 0.000000 61.000000 14.440270 23.000000
-50.344512 -66.709970 -12.831167 0.000000 46.000000 14.112532 0.000000
-49.200571 -63.758947 -11.456612 0.000000 74.000000 14.430685 23.000000
-48.862029 -69.528011 -12.406097 0.000000 55.000000 14.151858 0.000000
-47.701780 -64.076381 -10.572176 0.000000 70.000000 14.557886 28.000000
-50.891654 -66.956190 -13.150539 0.000000 48.000000 14.113845 0.000000
-49.979061 -67.185164 -12.764719 0.000000 40.000000 14.061438 0.000000
-49.135864 -63.416093 -10.923349 0.000000 63.000000 14.827484 21.000000
-49.339526 -66.683165 -11.438303 0.000000 62.000000 14.871500 9.000000
-47.366464 -68.386519 -11.444566 0.000000 34.000000 14.168330 0.000000
-51.107288 -66.887738 -13.237852 0.000000 52.000000 14.127845 0.000000
-46.648721 -69.888012 -10.810524 0.000000 63.000000 14.580824 4.000000
-49.343651 -64.364650 -11.429680 0.000000 44.000000 14.594927 23.000000
-51.058184 -67.427360 -13.292514 0.000000 55.000000 14.123767 0.000000
-45.949500 -67.374761 -10.012164 0.000000 60.000000 14.650987 10.000000
-47.174567 -69.720619 -11.532068 0.000000 44.000000 14.167698 0.000000
-47.948208 -69.103117 -11.989911 0.000000 44.000000 14.044912 0.000000
-51.112840 -67.033564 -13.262812 0.000000 51.000000 14.126446 0.000000
-46.848563 -69.091222 -11.313945 0.000000 37.000000 14.131833 0.000000
-47.812260 -69.561186 -11.869293 0.000000 44.000000 14.144930 0.000000
-46.057638 -67.830464 -10.619247 0.000000 34.000000 14.223188 10.000000
-50.972194 -68.026917 -13.269729 0.000000 62.000000 14.178209 0.000000
-49.299101 -63.478650 -11.797293 0.000000 48.000000 14.141893 0.000000
-49.373385 -63.993088 -11.189794 0.000000 69.000000 14.773685 23.000000
-50.221772 -66.960946 -12.949760 0.000000 38.000000 13.982750 0.000000
-49.426562 -68.646325 -11.944078 0.000000 65.000000 14.709053 6.000000
-50.080402 -66.941349 -12.863742 0.000000 45.000000 13.990919 0.000000
-50.165316 -69.080786 -13.021328 0.000000 61.000000 14.155389 0.000000
-48.210007 -67.099413 -11.400337 0.000000 48.000000 14.436538 29.000000
-51.590206 -67.815161 -13.471754 0.000000 58.000000 14.258803 7.000000
-48.756971 -65.831510 -11.477385 0.000000 59.000000 14.464025 30.000000
-49.947252 -68.554545 -12.823495 0.000000 35.000000 14.164075 0.000000
-49.691106 -66.832314 -12.472347 0.000000 58.000000 14.142483 0.000000
-50.088313 -67.957681 -12.845275 0.000000 59.000000 14.136188 0.000000
-48.030076 -67.451700 -11.701675 0.000000 53.000000 14.132263 0.000000
-45.886203 -67.821318 -10.062723 0.000000 72.000000 14.632505 10.000000
-49.812492 -67.924523 -12.651099 0.000000 65.000000 14.175920 0.000000
-50.417220 -68.540279 -13.080039 0.000000 44.000000 14.152984 0.000000
-49.657601 -67.948491 -12.627243 0.000000 49.000000 14.128585 0.000000
-50.415976 -66.330602 -12.809901 0.000000 57.000000 14.117306 0.000000
-48.558072 -65.098148 -11.027115 0.000000 59.000000 14.677929 30.000000
-47.269203 -70.526956 -11.377547 0.000000 51.000000 14.446588 4.000000
-49.063119 -68.025385 -12.460422 0.000000 43.000000 14.011225 0.000000
-47.326470 -65.951771 -10.637567 0.000000 58.000000 14.559089 25.000000
-49.714729 -68.687436 -12.738791 0.000000 45.000000 14.147961 0.000000
-45.952761 -67.509481 -10.562133 0.000000 40.000000 14.185549 0.000000
-49.017481 -65.844944 -11.955213 0.000000 46.000000 14.165415 0.000000
-48.412218 -68.020245 -11.971445 0.000000 67.000000 14.141040 0.000000
-47.296749 -67.009843 -10.930560 0.000000 11.000000 14.418343 24.000000
-48.151440 -68.041073 -11.793365 0.000000 62.000000 14.180201 0.000000
-47.080661 -67.466172 -10.683295 0.000000 58.000000 14.592628 11.000000
-46.094588 -66.560764 -10.515645 0.000000 33.000000 14.174629 0.000000
-48.954939 -66.283611 -11.485074 0.000000 37.000000 14.604130 9.000000
-49.002858 -64.700255 -11.903926 0.000000 40.000000 14.062552 0.000000
-49.616904 -67.475372 -12.500668 0.000000 40.000000 14.162779 0.000000
-47.444090 -68.240103 -11.560683 0.000000 39.000000 14.083886 0.000000
-47.331624 -68.242914 -11.436275 0.000000 54.000000 14.141873 0.000000
-48.807341 -67.471683 -12.199620 0.000000 34.000000 14.054535 0.000000
-49.699211 -63.239427 -11.512474 0.000000 76.000000 14.546899 18.000000
-51.287524 -67.434913 -13.268599 0.000000 58.000000 14.251247 19.000000
-50.055238 -66.013295 -12.293274 0.000000 37.000000 14.366424 23.000000
-48.903910 -69.450325 -12.375988 0.000000 46.000000 14.188015 0.000000
-46.656045 -68.475333 -11.147964 0.000000 38.000000 14.113207 0.000000
-47.267345 -66.100125 -11.036948 0.000000 53.000000 14.199034 0.000000
-50.565938 -67.938014 -13.247764 0.000000 44.000000 13.999632 0.000000
-50.221114 -65.549553 -12.488452 0.000000 54.000000 14.213919 23.000000
-50.199517 -66.226747 -12.677171 0.000000 43.000000 14.121601 0.000000
-48.494054 -68.459901 -12.105982 0.000000 25.000000 14.114645 0.000000
-46.137626 -68.679810 -10.881242 0.000000 38.000000 14.134422 0.000000
-48.322848 -64.607074 -11.019244 0.000000 70.000000 14.516035 30.000000
-50.036722 -64.720652 -11.619042 0.000000 65.000000 14.791239 23.000000
-47.396471 -67.266568 -11.304240 0.000000 40.000000 14.167342 0.000000
-51.091677 -67.694530 -13.346280 0.000000 66.000000 14.124867 0.000000
-47.883045 -69.322258 -12.005017 0.000000 26.000000 14.028685 0.000000
-51.097874 -67.317069 -13.271248 0.000000 50.000000 14.147120 0.000000
-51.091357 -67.149506 -13.276487 0.000000 48.000000 14.118842 0.000000
-50.075325 -68.491290 -12.880811 0.000000 50.000000 14.164802 0.000000
-47.911584 -65.421856 -10.626749 0.000000 68.000000 14.772437 26.000000
-47.779318 -66.969600 -10.947919 0.000000 45.000000 14.620147 24.000000
-47.654095 -66.635881 -11.400369 0.000000 42.000000 14.123542 0.000000
-47.889511 -66.424560 -11.119247 0.000000 39.000000 14.452963 29.000000
-49.373211 -62.831935 -11.695665 0.000000 52.000000 14.185558 18.000000
-50.440956 -68.786418 -13.141285 0.000000 39.000000 14.140422 0.000000
-45.888930 -66.132805 -10.351150 0.000000 46.000000 14.171835 0.000000
-48.780914 -64.864552 -11.701381 0.000000 46.000000 14.158792 0.000000
-46.096138 -66.305388 -10.497221 0.000000 40.000000 14.160034 0.000000
-51.452406 -67.054745 -13.075531 0.000000 74.000000 14.449962 19.000000
-46.429804 -66.541076 -10.695256 0.000000 48.000000 14.168512 0.000000
-48.379367 -65.927048 -11.569517 0.000000 42.000000 14.221067 30.000000
-47.305986 -65.831109 -10.539258 0.000000 63.000000 14.621216 25.000000
-50.141278 -65.424352 -12.512165 0.000000 50.000000 14.140889 0.000000
-47.093008 -67.018621 -11.206403 0.000000 36.000000 14.083148 0.000000
-47.140076 -65.202897 -10.532313 0.000000 54.000000 14.473478 25.000000
-48.223881 -63.925002 -11.280533 0.000000 47.000000 14.156609 0.000000
-50.898361 -67.637807 -13.101631 0.000000 57.000000 14.244030 14.000000
-47.857470 -67.368498 -11.606779 0.000000 51.000000 14.126019 0.000000
-48.862429 -64.744499 -11.377868 0.000000 55.000000 14.465934 22.000000
-47.287802 -70.467984 -11.313886 0.000000 63.000000 14.503843 4.000000
-47.673246 -66.425041 -11.379957 0.000000 42.000000 14.124288 0.000000
-50.535000 -65.747614 -12.765668 0.000000 48.000000 14.139034 0.000000
-47.125104 -64.773463 -10.627201 0.000000 28.000000 14.330178 27.000000
-48.778845 -67.722061 -12.142165 0.000000 52.000000 14.122833 0.000000
-47.024233 -68.631650 -11.235190 0.000000 58.000000 14.225205 1.000000
-50.668063 -66.819373 -12.822410 0.000000 51.000000 14.282598 14.000000
-50.957057 -66.264586 -13.090961 0.000000 42.000000 14.110993 0.000000
-49.847482 -66.383558 -12.650422 0.000000 36.000000 14.002494 0.000000
-51.303383 -68.245421 -13.554985 0.000000 33.000000 14.106738 0.000000
-46.995708 -69.996523 -11.013557 0.000000 52.000000 14.575345 4.000000
-50.060943 -64.188785 -12.251342 0.000000 45.000000 14.180813 0.000000
-48.373617 -65.108111 -11.113375 0.000000 70.000000 14.518446 30.000000
-45.045029 -66.475479 -9.950355 0.000000 52.000000 14.178229 0.000000
-49.315952 -68.421027 -12.626934 0.000000 51.000000 14.029963 0.000000
-51.153600 -68.060521 -13.065637 0.000000 81.000000 14.445269 7.000000
-50.037233 -68.025566 -12.834055 0.000000 56.000000 14.130926 0.000000
-47.432617 -64.378256 -10.461031 0.000000 69.000000 14.569012 27.000000
-49.351554 -68.580144 -12.635922 0.000000 46.000000 14.058072 0.000000
-49.233773 -63.409566 -11.695267 0.000000 35.000000 14.193018 21.000000
-49.949683 -64.545684 -11.575651 0.000000 78.000000 14.767757 23.000000
-46.356479 -68.448692 -10.975774 0.000000 38.000000 14.123485 0.000000
-50.442408 -68.171101 -13.229233 0.000000 38.000000 13.987846 0.000000
-50.037755 -67.065860 -12.885217 0.000000 40.000000 13.967777 0.000000
-47.492617 -65.558075 -10.249740 0.000000 46.000000 14.927959 25.000000
-48.710293 -66.775888 -11.386218 0.000000 69.000000 14.639222 29.000000
-50.734246 -68.211429 -13.402181 0.000000 38.000000 13.975033 0.000000
-50.334142 -67.055842 -12.963391 0.000000 39.000000 14.034175 0.000000
-50.896543 -68.183987 -13.400832 0.000000 46.000000 14.047508 0.000000
-46.393600 -64.607594 -10.395994 0.000000 41.000000 14.176431 0.000000
-49.343532 -64.085774 -11.248432 0.000000 53.000000 14.719827 23.000000
-50.359822 -67.134422 -12.996668 0.000000 39.000000 14.026427 0.000000
-48.461369 -63.672713 -10.995763 0.000000 80.000000 14.485135 22.000000
-50.965219 -66.206861 -13.089895 0.000000 52.000000 14.108564 0.000000
-51.349024 -67.887668 -13.522759 0.000000 63.000000 14.111933 0.000000
-50.264672 -67.096028 -12.845141 0.000000 39.000000 14.111142 0.000000
-47.792303 -67.131366 -11.256454 0.000000 74.000000 14.374802 24.000000
-47.606296 -64.879758 -10.718766 0.000000 57.000000 14.484183 27.000000
-51.068737 -66.909334 -13.235050 0.000000 50.000000 14.115236 0.000000
-49.724895 -64.926264 -11.750463 0.000000 65.000000 14.557582 23.000000
-51.168927 -67.455131 -13.361492 0.000000 55.000000 14.117498 0.000000
-46.539939 -69.205854 -11.248357 0.000000 27.000000 14.061645 0.000000
-49.232142 -68.532323 -11.957875 0.000000 66.000000 14.593403 6.000000
-48.067903 -68.557466 -11.957153 0.000000 38.000000 14.061465 0.000000
-48.147775 -68.095982 -11.833121 0.000000 40.000000 14.150333 0.000000
-47.410499 -66.145573 -11.157629 0.000000 34.000000 14.164399 0.000000
-51.410325 -68.240578 -13.609767 0.000000 56.000000 14.107177 0.000000
-49.728828 -66.797488 -12.364835 0.000000 56.000000 14.250072 8.000000
-50.413754 -65.589055 -12.655188 0.000000 40.000000 14.160825 0.000000
-50.261651 -67.310301 -12.969652 0.000000 53.000000 14.026712 0.000000
-48.754868 -65.151064 -11.212455 0.000000 49.000000 14.612045 30.000000
-48.790854 -67.217669 -12.245746 0.000000 22.000000 13.975054 0.000000
-47.876154 -65.654244 -11.416658 0.000000 23.000000 14.090279 0.000000
-45.983320 -65.751429 -10.018032 0.000000 68.000000 14.461105 3.000000
-50.297986 -68.571482 -13.052099 0.000000 64.000000 14.126539 0.000000
-49.353070 -65.461588 -12.203359 0.000000 46.000000 14.054341 0.000000
-50.031575 -68.666016 -12.902373 0.000000 70.000000 14.147272 0.000000
-50.514610 -68.301571 -13.284612 0.000000 34.000000 13.988472 0.000000
-48.193815 -66.078770 -11.444234 0.000000 52.000000 14.264568 29.000000
-50.372699 -64.927143 -12.400025 0.000000 57.000000 14.284622 20.000000
-49.207186 -67.700930 -12.429848 0.000000 46.000000 14.064363 0.000000
-49.594143 -68.930153 -12.876513 0.000000 47.000000 14.001332 0.000000
-49.740851 -66.455161 -11.910701 0.000000 75.000000 14.612665 9.000000
-47.412717 -65.969494 -11.171442 0.000000 42.000000 14.131550 0.000000
-49.189028 -65.353791 -12.101930 0.000000 32.000000 14.054746 0.000000
-46.763193 -65.907321 -10.954035 0.000000 33.000000 14.016184 0.000000
-51.596388 -68.252462 -13.237224 0.000000 47.000000 14.521811 7.000000
-51.312060 -67.618834 -13.428279 0.000000 63.000000 14.144830 0.000000
-50.653207 -65.864723 -12.854545 0.000000 47.000000 14.129725 0.000000
-47.120764 -70.947845 -11.668042 0.000000 31.000000 14.174801 0.000000
-48.917600 -64.532975 -11.947131 0.000000 25.000000 13.964697 0.000000
-49.612417 -66.234355 -11.853758 0.000000 64.000000 14.576397 9.000000
-50.041804 -63.919497 -11.679823 0.000000 35.000000 14.641291 18.000000
-50.171302 -63.783632 -11.568797 0.000000 76.000000 14.781731 18.000000
-48.587506 -69.419582 -12.256143 0.000000 55.000000 14.144017 0.000000
-49.804597 -67.335350 -12.126990 0.000000 53.000000 14.560419 8.000000
-49.908343 -65.159705 -11.803692 0.000000 75.000000 14.623987 23.000000
-46.220166 -65.248166 -9.981314 0.000000 59.000000 14.540273 5.000000
-50.940117 -66.833678 -12.751907 0.000000 55.000000 14.471526 14.000000
-48.387185 -68.701045 -11.989394 0.000000 57.000000 14.197736 0.000000
-47.674313 -68.585792 -11.776845 0.000000 37.000000 14.042403 0.000000
-45.784909 -65.173637 -9.889669 0.000000 52.000000 14.411392 5.000000
-49.788971 -65.820539 -12.237886 0.000000 54.000000 14.268831 23.000000
-49.672588 -63.123107 -11.412776 0.000000 76.000000 14.607958 18.000000
-48.117124 -64.818068 -10.916268 0.000000 58.000000 14.537954 30.000000
-47.250716 -65.962056 -10.708474 0.000000 46.000000 14.463159 25.000000
-46.911041 -71.105450 -11.559610 0.000000 37.000000 14.193090 0.000000
-49.771308 -63.776013 -11.600424 0.000000 58.000000 14.568943 18.000000
-47.226251 -68.882662 -11.457644 0.000000 46.000000 14.153531 0.000000
-51.563522 -67.404011 -13.358472 0.000000 54.000000 14.295402 19.000000
-48.464294 -67.020926 -11.412318 0.000000 60.000000 14.533319 29.000000
-46.711695 -69.332255 -11.341124 0.000000 52.000000 14.074700 0.000000
-46.186696 -66.406749 -10.559350 0.000000 39.000000 14.159579 0.000000
-49.822263 -63.378396 -11.401408 0.000000 67.000000 14.718316 18.000000
-48.855569 -64.383022 -11.510853 0.000000 62.000000 14.301253 22.000000
-47.280480 -65.329098 -10.902254 0.000000 50.000000 14.228379 25.000000
-49.006100 -63.362596 -11.400758 0.000000 39.000000 14.341416 21.000000
-47.660513 -69.338563 -11.707949 0.000000 48.000000 14.189505 0.000000
-51.359063 -68.068431 -13.544087 0.000000 59.000000 14.120103 0.000000
-51.315361 -67.878358 -13.487035 0.000000 59.000000 14.126707 0.000000
-45.286329 -66.287592 -9.536548 0.000000 56.000000 14.629911 2.000000
-48.864474 -64.149097 -11.801632 0.000000 44.000000 14.020822 0.000000
-48.476009 -67.207569 -11.909231 0.000000 38.000000 14.124826 0.000000
-48.376970 -64.881944 -10.917581 0.000000 63.000000 14.664236 30.000000
-49.389253 -69.225245 -12.059477 0.000000 52.000000 14.661848 6.000000
-50.509099 -68.432002 -13.124996 0.000000 56.000000 14.142370 0.000000
-49.347815 -65.503856 -12.075979 0.000000 35.000000 14.169137 0.000000
-48.308159 -68.169685 -11.692514 0.000000 73.000000 14.356850 13.000000
-48.760428 -66.998598 -11.674363 0.000000 46.000000 14.436415 29.000000
-49.246350 -63.375770 -10.937639 0.000000 63.000000 14.860780 21.000000
-49.935183 -65.092447 -11.798412 0.000000 48.000000 14.632681 23.000000
-51.193107 -66.968384 -13.309151 0.000000 53.000000 14.114591 0.000000
-50.685436 -65.820585 -12.902347 0.000000 46.000000 14.097078 0.000000
-51.125681 -66.805194 -13.267339 0.000000 52.000000 14.100197 0.000000
-48.702253 -65.111415 -11.580970 0.000000 46.000000 14.258928 30.000000
-47.109031 -66.048591 -10.670321 0.000000 48.000000 14.442190 25.000000
-50.774847 -67.204962 -13.070048 0.000000 42.000000 14.161566 0.000000
-47.235088 -66.924066 -10.941698 0.000000 44.000000 14.369596 15.000000
-49.686745 -63.638602 -11.664872 0.000000 72.000000 14.456417 18.000000
-49.586544 -66.658563 -12.386403 0.000000 51.000000 14.148502 0.000000
-49.477241 -64.582040 -11.815675 0.000000 47.000000 14.343828 23.000000
-49.700522 -64.045174 -11.662705 0.000000 59.000000 14.514822 23.000000
-45.718508 -68.230403 -10.131860 0.000000 56.000000 14.545031 10.000000
-49.255072 -62.875073 -11.707031 0.000000 42.000000 14.126531 0.000000
-51.328892 -67.165079 -13.034645 0.000000 47.000000 14.442693 19.000000
-48.938691 -66.860066 -11.873307 0.000000 48.000000 14.326422 9.000000
-49.093989 -63.089385 -11.655393 0.000000 47.000000 14.124259 0.000000
-50.058427 -64.626136 -11.741742 0.000000 50.000000 14.681681 23.000000
-45.993673 -68.761333 -10.813170 0.000000 49.000000 14.138099 0.000000
-49.231194 -68.537814 -12.092875 0.000000 54.000000 14.474945 6.000000
-49.690950 -69.146197 -12.852582 0.000000 37.000000 14.093570 0.000000
-45.840217 -67.756647 -10.692256 0.000000 37.000000 14.049851 0.000000
-46.319715 -69.699186 -11.118507 0.000000 40.000000 14.135355 0.000000
-47.609128 -69.652645 -11.766822 0.000000 37.000000 14.152850 0.000000
-46.400128 -68.846558 -11.022127 0.000000 43.000000 14.151901 0.000000
-47.493721 -69.423682 -11.665624 0.000000 44.000000 14.160479 0.000000
-45.857944 -66.928474 -10.410904 0.000000 45.000000 14.203208 0.000000
-47.371436 -68.521047 -11.472472 0.000000 29.000000 14.162679 0.000000
-46.543130 -67.813595 -10.955985 0.000000 49.000000 14.148408 0.000000
-48.718824 -64.135634 -11.232418 0.000000 79.000000 14.452628 22.000000
-48.411460 -67.908019 -11.973742 0.000000 34.000000 14.124825 0.000000
-47.358811 -68.977084 -11.535453 0.000000 62.000000 14.157759 0.000000
-49.470394 -65.695722 -11.749481 0.000000 69.000000 14.536282 9.000000
-48.409461 -63.845982 -11.047772 0.000000 64.000000 14.436901 22.000000
-47.639300 -68.989084 -11.673786 0.000000 43.000000 14.166665 0.000000
-48.252660 -70.512290 -11.455606 0.000000 53.000000 14.828640 17.000000
-48.850770 -65.635185 -11.851036 0.000000 41.000000 14.154427 0.000000
-50.957409 -66.797300 -13.161899 0.000000 41.000000 14.114509 0.000000
-48.538578 -63.725773 -11.571244 0.000000 37.000000 14.021215 0.000000
-50.640822 -68.185613 -13.298948 0.000000 33.000000 14.019631 0.000000
-47.814234 -70.646816 -11.691517 0.000000 61.000000 14.436090 17.000000
-45.843892 -67.070599 -10.059986 0.000000 61.000000 14.522822 10.000000
-48.129319 -69.118165 -12.185628 0.000000 36.000000 13.958014 0.000000
-47.887769 -67.859361 -11.665965 0.000000 50.000000 14.148481 0.000000
-48.293373 -69.072981 -12.189830 0.000000 34.000000 14.024228 0.000000
-49.210259 -65.578015 -11.853636 0.000000 80.000000 14.310491 9.000000
-49.967371 -64.489491 -11.509079 0.000000 34.000000 14.827496 23.000000
-48.153686 -67.849671 -11.821813 0.000000 40.000000 14.132607 0.000000
-46.248996 -67.861650 -10.469510 0.000000 72.000000 14.446737 12.000000
-49.513901 -65.866765 -11.822188 0.000000 60.000000 14.513475 9.000000
-47.921330 -69.478329 -11.847426 0.000000 41.000000 14.204117 0.000000
-48.561126 -67.807548 -12.035354 0.000000 50.000000 14.127120 0.000000
-48.599960 -64.229771 -11.250961 0.000000 76.000000 14.393248 22.000000
-48.810432 -67.805129 -12.249264 0.000000 38.000000 14.053448 0.000000
-49.301508 -68.945319 -12.657624 0.000000 40.000000 14.061019 0.000000
-47.555180 -69.019816 -10.822047 0.000000 47.000000 14.880644 1.000000
-49.371227 -64.141799 -11.279141 0.000000 57.000000 14.712481 23.000000
-49.789138 -64.406638 -11.989662 0.000000 69.000000 14.312715 23.000000
-50.049919 -65.866668 -12.164069 0.000000 59.000000 14.459489 23.000000
-46.027639 -68.603665 -10.762303 0.000000 23.000000 14.178999 0.000000
-47.548346 -65.729584 -10.962605 0.000000 56.000000 14.347974 26.000000
-47.063873 -67.725340 -10.907203 0.000000 48.000000 14.420008 11.000000
-49.511780 -63.938136 -11.564329 0.000000 64.000000 14.501273 23.000000
-50.114117 -67.992248 -12.882856 0.000000 59.000000 14.119282 0.000000
-50.029507 -68.747385 -12.911276 0.000000 72.000000 14.148531 0.000000
-45.912421 -68.204025 -10.117878 0.000000 55.000000 14.643290 10.000000
-49.187637 -63.099974 -11.706815 0.000000 30.000000 14.123441 0.000000
-48.635337 -66.657164 -11.972891 0.000000 34.000000 14.074254 0.000000
-47.284687 -66.035944 -11.057732 0.000000 41.000000 14.180820 0.000000
-46.190631 -66.975537 -10.486393 0.000000 64.000000 14.295712 12.000000
-46.165743 -67.022250 -10.375374 0.000000 56.000000 14.387638 12.000000
-48.779954 -65.076086 -11.336670 0.000000 69.000000 14.505120 30.000000
-48.028864 -65.248139 -11.122745 0.000000 46.000000 14.368861 30.000000
-50.604898 -67.004188 -12.644227 0.000000 81.000000 14.433004 14.000000
-46.995925 -68.552702 -11.309880 0.000000 39.000000 14.136769 0.000000
-50.964758 -67.121653 -13.210692 0.000000 53.000000 14.115006 0.000000
-49.364484 -66.920364 -11.658124 0.000000 50.000000 14.718971 9.000000
-50.814020 -66.997724 -13.094401 0.000000 47.000000 14.132609 0.000000
-50.816913 -67.554171 -12.861216 0.000000 38.000000 14.407621 14.000000
-49.985076 -66.735866 -12.760966 0.000000 38.000000 14.012072 0.000000
-50.270900 -64.896926 -12.525274 0.000000 46.000000 14.123930 0.000000
-50.779446 -65.996260 -12.983626 0.000000 57.000000 14.090542 0.000000
-47.741131 -67.818315 -11.736991 0.000000 33.000000 14.013499 0.000000
-47.242584 -65.349874 -10.460080 0.000000 56.000000 14.602287 25.000000
-49.250561 -67.729488 -12.485146 0.000000 40.000000 14.039223 0.000000
-48.774399 -66.849297 -11.395119 0.000000 63.000000 14.669948 29.000000
-50.539282 -65.672218 -12.746478 0.000000 49.000000 14.148575 0.000000
-47.324667 -66.559388 -10.677032 0.000000 68.000000 14.598527 24.000000
-47.535907 -64.744379 -11.152867 0.000000 34.000000 14.053410 0.000000
-46.048781 -68.556664 -10.790374 0.000000 37.000000 14.158246 0.000000
-47.787710 -69.783134 -11.819285 0.000000 50.000000 14.204987 0.000000
-47.270642 -65.865797 -11.034917 0.000000 46.000000 14.173425 0.000000
-48.899154 -67.931599 -12.380679 0.000000 42.000000 13.994327 0.000000
-49.998869 -66.816724 -12.828559 0.000000 33.000000 13.968964 0.000000
