-50.949512 -1.291231 13.650200 0.000000 41.000000 14.459326 5.000000
-54.317177 1.352381 13.236364 0.000000 30.000000 14.363249 0.000000
-50.437590 0.716784 14.357933 0.000000 52.000000 15.047557 18.000000
-50.231078 2.404558 13.778894 0.000000 24.000000 14.402122 0.000000
-53.111384 1.502954 13.388660 0.000000 26.000000 14.371396 0.000000
-50.379295 1.537613 13.721051 0.000000 32.000000 14.385741 0.000000
-54.184875 0.993589 13.230866 0.000000 32.000000 14.352472 0.000000
-54.146892 0.859133 13.192098 0.000000 33.000000 14.313320 0.000000
-54.112998 0.723631 13.158041 0.000000 34.000000 14.279346 0.000000
-53.775746 3.023359 13.812371 0.000000 57.000000 14.826605 24.000000
-50.622200 2.085513 13.875848 0.000000 60.000000 14.552277 13.000000
-54.167606 -2.908328 13.249395 0.000000 56.000000 14.476808 1.000000
-52.241793 -0.634513 13.441770 0.000000 30.000000 14.383074 0.000000
-52.881682 0.744504 13.316991 0.000000 24.000000 14.294748 0.000000
-54.021375 0.403275 13.261222 0.000000 40.000000 14.380106 0.000000
-52.308501 -1.048395 13.486995 0.000000 36.000000 14.447114 3.000000
-53.997007 0.284589 13.270620 0.000000 39.000000 14.389914 0.000000
-52.833888 0.525986 13.384585 0.000000 27.000000 14.362404 0.000000
-52.254924 3.460397 13.786266 0.000000 57.000000 14.613391 19.000000
-54.046536 -2.903824 13.826568 0.000000 33.000000 15.035843 1.000000
-50.902609 -1.107725 14.155858 0.000000 65.000000 14.950943 5.000000
-55.137056 -1.067673 13.653383 0.000000 54.000000 14.938722 4.000000
-50.918023 -0.718824 13.907718 0.000000 54.000000 14.695570 5.000000
-52.022938 3.595719 13.884657 0.000000 58.000000 14.680621 19.000000
-55.513588 0.921908 13.462407 0.000000 54.000000 14.737437 11.000000
-52.768287 -0.094052 13.380994 0.000000 30.000000 14.368431 0.000000
-51.089323 -0.890463 14.180507 0.000000 56.000000 14.990919 5.000000
-52.096679 3.696229 13.962990 0.000000 72.000000 14.764117 19.000000
-53.926207 -0.625521 13.167045 0.000000 31.000000 14.304085 0.000000
-52.763098 -0.387241 13.283685 0.000000 25.000000 14.279319 0.000000
-54.684141 0.044377 13.138556 0.000000 31.000000 14.344584 0.000000
-52.767793 -0.513866 13.274552 0.000000 25.000000 14.274294 0.000000
-53.935952 -0.858656 13.189035 0.000000 27.000000 14.333492 0.000000
-52.181024 2.200469 13.913964 0.000000 74.000000 14.766526 9.000000
-53.947777 -0.971870 13.209801 0.000000 29.000000 14.358605 0.000000
-52.795098 -0.702707 13.382435 0.000000 34.000000 14.389786 0.000000
-53.961222 -1.090438 13.211420 0.000000 32.000000 14.365041 0.000000
-53.735779 1.861077 13.553616 0.000000 46.000000 14.597217 8.000000
-53.979351 -1.208114 13.215530 0.000000 33.000000 14.374466 0.000000
-52.833776 -0.941646 13.380945 0.000000 34.000000 14.399371 0.000000
-54.001222 -1.328705 13.214045 0.000000 41.000000 14.378846 0.000000
-55.314891 1.556837 13.701108 0.000000 51.000000 14.934004 12.000000
-50.131087 3.898642 14.224577 0.000000 41.000000 14.791820 16.000000
-48.987824 -0.386734 14.605523 0.000000 4.000000 15.156909 28.000000
-51.669794 3.286401 13.718026 0.000000 52.000000 14.483036 20.000000
-52.918672 -1.301721 13.352430 0.000000 38.000000 14.390797 0.000000
-49.602281 -0.467090 14.287551 0.000000 44.000000 14.914187 17.000000
-52.955426 -1.410579 13.358868 0.000000 33.000000 14.404435 0.000000
-55.104533 -1.232113 13.144925 0.000000 47.000000 14.434647 4.000000
-52.996758 -1.520515 13.361089 0.000000 33.000000 14.414443 0.000000
-54.167152 -1.939765 13.149246 0.000000 33.000000 14.350521 0.000000
-53.041384 -1.637288 13.348733 0.000000 29.000000 14.410545 0.000000
-50.397856 0.617302 14.422699 0.000000 8.000000 15.110041 18.000000
-53.090340 -1.752006 13.333926 0.000000 27.000000 14.404655 0.000000
-52.595503 -1.271578 13.832524 0.000000 44.000000 14.829446 3.000000
-53.140180 -1.915487 13.230214 0.000000 24.000000 14.311937 0.000000
-54.317302 -2.335508 13.034880 0.000000 26.000000 14.265205 0.000000
-53.876094 0.013700 13.294410 0.000000 53.000000 14.407099 6.000000
-50.585196 1.883330 13.973752 0.000000 35.000000 14.650820 13.000000
-52.588314 3.033537 14.001719 0.000000 64.000000 14.877541 20.000000
-50.063569 2.165867 14.159851 0.000000 72.000000 14.767700 30.000000
-50.016906 1.006747 14.244911 0.000000 61.000000 14.878847 18.000000
-54.127505 3.380204 14.180784 0.000000 41.000000 15.223076 24.000000
-53.391858 -2.303222 13.241419 0.000000 27.000000 14.362782 0.000000
-54.559237 -2.705857 13.090286 0.000000 31.000000 14.358336 0.000000
-52.589315 -1.195936 13.529030 0.000000 59.000000 14.525284 3.000000
-55.950264 2.577441 13.093734 0.000000 29.000000 14.375875 0.000000
-53.541592 -2.491941 13.229729 0.000000 32.000000 14.373644 0.000000
-54.707284 -2.918624 13.053070 0.000000 33.000000 14.344323 0.000000
-52.087110 3.935934 13.677767 0.000000 45.000000 14.473171 19.000000
-53.658618 1.322805 13.696695 0.000000 47.000000 14.745287 7.000000
-53.790944 -2.759295 13.196930 0.000000 34.000000 14.377197 0.000000
-51.044009 4.133525 13.705778 0.000000 21.000000 14.375350 0.000000
-51.037648 4.038154 13.720177 0.000000 30.000000 14.391553 0.000000
-51.031179 3.936850 13.712198 0.000000 24.000000 14.385687 0.000000
-55.732373 1.964927 13.600503 0.000000 56.000000 14.870915 15.000000
-55.835163 2.425420 13.404758 0.000000 43.000000 14.675653 15.000000
-52.067595 2.851074 13.934811 0.000000 45.000000 14.756163 20.000000
-51.178555 2.908801 13.513340 0.000000 22.000000 14.233644 0.000000
-50.298538 -0.002111 14.286038 0.000000 12.000000 14.980034 27.000000
-51.264520 2.729987 13.523298 0.000000 22.000000 14.258381 0.000000
-52.779521 3.486844 13.850488 0.000000 61.000000 14.736865 19.000000
-53.472192 -0.626487 13.671497 0.000000 52.000000 14.752707 6.000000
-52.506982 2.401016 13.451610 0.000000 31.000000 14.339433 0.000000
-54.995232 1.156147 13.419818 0.000000 39.000000 14.628952 12.000000
-49.860302 0.117139 13.904942 0.000000 24.000000 14.547838 27.000000
-49.616857 -0.878127 13.968400 0.000000 38.000000 14.610332 17.000000
-52.608656 2.241762 13.487503 0.000000 32.000000 14.391191 0.000000
-51.493496 2.422208 13.642681 0.000000 33.000000 14.411815 0.000000
-53.457571 2.729518 13.887681 0.000000 44.000000 14.872857 21.000000
-50.392925 1.907146 13.896501 0.000000 40.000000 14.551304 30.000000
-50.097945 3.540012 14.470088 0.000000 60.000000 15.041704 16.000000
-55.239179 1.474212 13.649949 0.000000 47.000000 14.876768 12.000000
-49.852472 -1.679915 14.160845 0.000000 54.000000 14.850743 2.000000
-52.916743 1.819475 13.427090 0.000000 31.000000 14.378377 0.000000
-53.475240 2.471534 14.326298 0.000000 6.000000 15.317556 21.000000
-52.988250 1.742231 13.418254 0.000000 29.000000 14.379977 0.000000
-51.915466 1.920699 13.551300 0.000000 28.000000 14.383562 0.000000
-53.062005 1.659423 13.395235 0.000000 33.000000 14.367908 0.000000
-54.823739 0.658249 13.348388 0.000000 33.000000 14.552041 11.000000
-53.140427 1.581603 13.376504 0.000000 29.000000 14.360496 0.000000
-49.710311 1.146729 13.799585 0.000000 29.000000 14.397465 0.000000
-53.305654 1.442173 13.365895 0.000000 29.000000 14.372853 0.000000
-50.539430 2.552904 14.192430 0.000000 43.000000 14.844165 26.000000
-53.431847 -0.439546 13.715993 0.000000 56.000000 14.787071 6.000000
-54.505548 2.355476 13.794470 0.000000 59.000000 14.911379 22.000000
-49.052466 -0.369466 14.043612 0.000000 42.000000 14.605925 28.000000
-53.655381 0.560801 13.268244 0.000000 30.000000 14.340558 0.000000
-53.020581 -1.990169 13.274588 0.000000 31.000000 14.344286 0.000000
-53.477113 1.503224 13.583356 0.000000 55.000000 14.606846 7.000000
-54.078919 0.913882 13.172747 0.000000 27.000000 14.284760 0.000000
-54.186909 0.867701 13.175782 0.000000 31.000000 14.301492 0.000000
-53.818472 -2.500074 13.185807 0.000000 31.000000 14.362154 0.000000
-50.423814 -2.038204 14.304907 0.000000 48.000000 15.069521 29.000000
-52.504585 2.224731 13.766371 0.000000 42.000000 14.656577 9.000000
-53.652765 3.125686 13.828162 0.000000 61.000000 14.825286 24.000000
-55.005445 0.564576 13.038035 0.000000 32.000000 14.267398 0.000000
-55.201214 2.165998 13.381136 0.000000 76.000000 14.586340 15.000000
-54.193310 0.796586 13.139677 0.000000 24.000000 14.268346 0.000000
-54.326469 0.753132 13.073415 0.000000 24.000000 14.219093 0.000000
-54.453766 0.758413 13.119918 0.000000 29.000000 14.279787 0.000000
-53.300818 0.717318 13.284224 0.000000 33.000000 14.311249 0.000000
-50.328425 0.007611 14.270191 0.000000 48.000000 14.967473 27.000000
-52.551961 2.509524 13.494573 0.000000 25.000000 14.384274 0.000000
-53.675024 2.124131 13.295742 0.000000 30.000000 14.326884 0.000000
-52.393003 2.343151 13.544881 0.000000 30.000000 14.420517 0.000000
-54.141633 2.696714 13.904828 0.000000 64.000000 14.969597 22.000000
-53.092349 2.966569 13.700709 0.000000 53.000000 14.638570 21.000000
-53.715948 -2.119764 13.120456 0.000000 37.000000 14.274933 0.000000
-53.438510 1.386232 13.392848 0.000000 38.000000 14.416469 0.000000
-50.982251 3.251838 14.131671 0.000000 55.000000 14.815516 25.000000
-52.201187 1.151667 13.503365 0.000000 26.000000 14.390152 0.000000
-50.467900 2.473218 14.042508 0.000000 63.000000 14.689263 26.000000
-49.590270 1.935905 13.841568 0.000000 32.000000 14.403494 0.000000
-52.322505 2.332495 13.706675 0.000000 48.000000 14.573344 9.000000
-53.519910 1.831974 13.858173 0.000000 57.000000 14.875565 8.000000
-53.363027 0.458699 13.331441 0.000000 38.000000 14.372454 0.000000
-52.197560 0.681070 13.468491 0.000000 30.000000 14.368122 0.000000
-53.369659 0.335723 13.308321 0.000000 32.000000 14.353662 0.000000
-53.344897 2.305579 13.788519 0.000000 53.000000 14.773139 21.000000
-53.381057 0.230759 13.324813 0.000000 37.000000 14.374254 0.000000
-51.161194 3.609892 14.264433 0.000000 43.000000 14.958054 25.000000
-52.236006 0.337001 13.444466 0.000000 25.000000 14.358212 0.000000
-52.258095 0.228520 13.445509 0.000000 24.000000 14.364793 0.000000
-53.428660 1.213770 13.773767 0.000000 56.000000 14.798340 7.000000
-52.311596 -0.002761 13.411930 0.000000 24.000000 14.344012 0.000000
-52.341020 -0.129072 13.365124 0.000000 22.000000 14.304419 0.000000
-54.713110 1.481662 13.592242 0.000000 56.000000 14.758657 12.000000
-50.229880 2.213228 13.761382 0.000000 30.000000 14.389888 0.000000
-50.656270 1.974457 13.785834 0.000000 45.000000 14.469893 13.000000
-52.518432 -0.538496 13.356209 0.000000 21.000000 14.327330 0.000000
-49.260914 -0.383022 14.002750 0.000000 52.000000 14.589740 28.000000
-50.793435 3.623235 14.111583 0.000000 41.000000 14.763545 25.000000
-54.459335 2.599607 13.848187 0.000000 60.000000 14.952641 22.000000
-53.800668 -1.057658 13.229703 0.000000 32.000000 14.363792 0.000000
-56.051076 2.518375 13.398534 0.000000 40.000000 14.691776 15.000000
-53.860006 -1.153633 13.223538 0.000000 30.000000 14.367162 0.000000
-52.761441 -0.899491 13.375670 0.000000 31.000000 14.384634 0.000000
-53.420931 -0.165627 13.603661 0.000000 49.000000 14.666696 6.000000
-52.006312 2.969693 14.029615 0.000000 75.000000 14.839958 20.000000
-53.991718 -1.337538 13.218693 0.000000 40.000000 14.382611 0.000000
-52.905619 -1.078144 13.362138 0.000000 36.000000 14.392749 0.000000
-50.752295 2.577249 14.099110 0.000000 47.000000 14.775352 26.000000
-50.338659 1.962129 13.954595 0.000000 47.000000 14.601217 30.000000
-55.549920 0.833586 13.511227 0.000000 69.000000 14.792542 11.000000
-51.581375 3.048290 13.958751 0.000000 56.000000 14.718465 20.000000
-50.484877 0.840525 14.322059 0.000000 45.000000 15.013961 18.000000
-53.145680 -1.339858 13.310547 0.000000 33.000000 14.376416 0.000000
-50.469034 0.033867 14.481195 0.000000 5.000000 15.192463 27.000000
-53.234090 -1.414207 13.308727 0.000000 34.000000 14.386851 0.000000
-49.720684 0.156669 13.930304 0.000000 27.000000 14.555843 18.000000
-50.908246 3.229798 13.952788 0.000000 40.000000 14.629977 25.000000
-48.945824 -0.531854 13.891913 0.000000 41.000000 14.447501 28.000000
-50.832427 -1.963688 13.657806 0.000000 39.000000 14.471990 29.000000
-52.822240 3.111490 14.020223 0.000000 65.000000 14.920708 20.000000
-53.200456 3.475904 13.797242 0.000000 63.000000 14.732790 24.000000
-55.334353 0.944457 13.318025 0.000000 49.000000 14.572800 11.000000
-52.442862 2.322267 13.632510 0.000000 47.000000 14.513850 9.000000
-50.202043 3.968767 13.852622 0.000000 47.000000 14.428720 16.000000
-53.385331 -0.616518 13.658659 0.000000 52.000000 14.729677 6.000000
-50.012921 2.232696 13.779468 0.000000 30.000000 14.382313 0.000000
-54.090886 2.416833 13.727933 0.000000 45.000000 14.795843 22.000000
-50.215568 3.584433 14.559914 0.000000 51.000000 15.143219 16.000000
-52.014732 2.352021 13.565518 0.000000 31.000000 14.397185 0.000000
-54.922230 2.443016 13.564817 0.000000 36.000000 14.728925 22.000000
-54.282000 -2.134527 12.997542 0.000000 25.000000 14.218504 0.000000
-54.400647 -2.184176 12.971446 0.000000 25.000000 14.207634 0.000000
-54.523867 -2.224787 12.959477 0.000000 25.000000 14.211068 0.000000
-54.648683 -2.261640 12.944444 0.000000 24.000000 14.211539 0.000000
-53.909881 2.819386 13.910458 0.000000 68.000000 14.945096 22.000000
-55.264581 1.805954 13.148429 0.000000 32.000000 14.372531 0.000000
-51.708726 3.028192 13.974454 0.000000 50.000000 14.749285 20.000000
-54.905895 1.094679 13.381946 0.000000 47.000000 14.582756 11.000000
-54.561301 0.312755 13.146027 0.000000 28.000000 14.330428 0.000000
-54.517851 0.200470 13.189242 0.000000 36.000000 14.371439 0.000000
-54.477599 0.061187 13.171873 0.000000 40.000000 14.353407 0.000000
-50.838931 1.887453 13.914600 0.000000 41.000000 14.621202 13.000000
-54.406039 -0.193389 13.198056 0.000000 35.000000 14.378204 0.000000
-54.323307 -0.628760 13.132776 0.000000 26.000000 14.315895 0.000000
-51.924025 3.011378 13.953260 0.000000 68.000000 14.753508 20.000000
-54.283172 -0.908249 13.119867 0.000000 25.000000 14.306184 0.000000
-55.212728 3.164662 13.871020 0.000000 60.000000 15.046477 23.000000
-54.253678 -1.149867 13.180878 0.000000 34.000000 14.370050 0.000000
-53.471013 1.953734 13.774972 0.000000 64.000000 14.783949 8.000000
-54.239736 -1.426613 13.173183 0.000000 35.000000 14.368458 0.000000
-51.244806 0.533231 13.596693 0.000000 31.000000 14.389750 0.000000
-51.916236 1.329453 13.450028 0.000000 26.000000 14.299445 0.000000
-54.247064 -1.887113 13.082364 0.000000 35.000000 14.291860 0.000000
-53.563150 -0.717784 13.632630 0.000000 50.000000 14.727118 6.000000
-53.721183 1.423786 13.370099 0.000000 30.000000 14.425406 7.000000
-54.287321 -2.327230 13.024857 0.000000 23.000000 14.251570 0.000000
-54.306043 -2.424162 13.086239 0.000000 31.000000 14.317357 0.000000
-51.874465 -1.463616 13.474709 0.000000 22.000000 14.396397 0.000000
-55.771816 1.473726 13.575297 0.000000 60.000000 14.864017 12.000000
-54.390687 -2.811005 13.096637 0.000000 25.000000 14.348134 0.000000
-55.082901 -1.024759 13.587522 0.000000 65.000000 14.865899 4.000000
-50.645116 0.660788 14.190073 0.000000 41.000000 14.906336 18.000000
-55.450478 1.541261 13.581793 0.000000 74.000000 14.831580 12.000000
-52.574230 3.734640 13.502149 0.000000 31.000000 14.360475 0.000000
-53.836237 -0.126370 13.651010 0.000000 56.000000 14.760471 6.000000
-52.623107 3.657359 13.527507 0.000000 35.000000 14.393423 0.000000
-51.488573 3.820575 13.649914 0.000000 30.000000 14.379751 0.000000
-51.550079 3.742227 13.675691 0.000000 29.000000 14.414599 0.000000
-50.663479 0.667054 13.868289 0.000000 48.000000 14.588761 18.000000
-53.758436 2.868562 13.637457 0.000000 41.000000 14.655210 22.000000
-53.419336 2.588488 13.955421 0.000000 44.000000 14.939616 21.000000
-51.888807 3.336163 13.636444 0.000000 34.000000 14.425883 0.000000
-49.996809 -0.734934 13.747322 0.000000 22.000000 14.430622 17.000000
-49.861007 0.647127 13.926519 0.000000 57.000000 14.554684 18.000000
-52.785691 2.612195 13.420291 0.000000 22.000000 14.334601 0.000000
-53.623547 -0.308189 13.916162 0.000000 9.000000 15.004281 6.000000
-50.761619 2.414506 13.993110 0.000000 42.000000 14.675674 26.000000
-53.455534 -0.675449 13.964828 0.000000 6.000000 15.043407 6.000000
-54.661803 -0.179177 13.134182 0.000000 31.000000 14.343851 0.000000
-54.878013 1.900253 13.104028 0.000000 31.000000 14.281301 0.000000
-53.458068 -0.086216 13.761241 0.000000 67.000000 14.825248 6.000000
-50.836077 3.731895 14.015816 0.000000 49.000000 14.670359 25.000000
-54.055745 2.058023 13.147171 0.000000 26.000000 14.225048 0.000000
-52.004567 -1.134559 13.490154 0.000000 37.000000 14.417619 0.000000
-52.914526 -1.841670 13.354049 0.000000 27.000000 14.406862 0.000000
-54.310818 1.994068 13.118301 0.000000 25.000000 14.227535 0.000000
-51.106945 3.349673 14.262599 0.000000 49.000000 14.957181 25.000000
-55.490953 1.718362 13.010161 0.000000 34.000000 14.263739 0.000000
-54.703662 1.907705 13.048281 0.000000 29.000000 14.205654 0.000000
-54.831931 1.912488 13.101320 0.000000 28.000000 14.272965 0.000000
-54.961738 1.911883 13.139720 0.000000 29.000000 14.326065 0.000000
-55.231558 1.877376 13.096854 0.000000 33.000000 14.315540 0.000000
-51.621933 2.928597 13.800930 0.000000 55.000000 14.569739 20.000000
-51.877068 2.614873 13.447486 0.000000 22.000000 14.256854 0.000000
-51.861873 2.512384 13.459306 0.000000 23.000000 14.269676 0.000000
-53.203905 1.308326 13.825383 0.000000 52.000000 14.821085 7.000000
-54.661687 3.341858 13.640352 0.000000 52.000000 14.749051 24.000000
-53.422874 1.348757 13.663428 0.000000 69.000000 14.684378 7.000000
-53.029576 1.899309 13.410616 0.000000 34.000000 14.372809 0.000000
-53.165937 -0.695816 13.607029 0.000000 41.000000 14.655329 6.000000
-51.850577 2.012314 13.560928 0.000000 25.000000 14.383112 0.000000
-51.205609 0.057654 13.464450 0.000000 21.000000 14.267077 0.000000
-51.858163 1.905371 13.555088 0.000000 26.000000 14.381145 0.000000
-53.041475 1.585280 13.394096 0.000000 28.000000 14.366463 0.000000
-53.824765 1.754282 13.605314 0.000000 52.000000 14.661756 8.000000
-53.735173 0.030804 13.512515 0.000000 53.000000 14.606961 6.000000
-51.884768 1.696816 13.550449 0.000000 25.000000 14.385373 0.000000
-55.121378 -1.299960 13.449568 0.000000 58.000000 14.740961 4.000000
-51.952022 1.370356 13.504696 0.000000 23.000000 14.356720 0.000000
-50.527288 3.737216 13.960936 0.000000 42.000000 14.580145 16.000000
-53.167941 0.952680 13.324318 0.000000 30.000000 14.329243 0.000000
-52.021764 1.177720 13.514595 0.000000 22.000000 14.379912 0.000000
-50.245960 3.543118 14.390071 0.000000 52.000000 14.979216 16.000000
-52.058649 1.071898 13.490623 0.000000 21.000000 14.363285 0.000000
-53.569587 2.538347 13.606606 0.000000 48.000000 14.611954 21.000000
-52.044410 2.303508 13.679552 0.000000 47.000000 14.515177 9.000000
-51.575794 3.653327 13.644298 0.000000 27.000000 14.388849 0.000000
-52.153748 0.887345 13.503584 0.000000 26.000000 14.392215 0.000000
-53.266268 2.296006 13.740682 0.000000 67.000000 14.716846 21.000000
-52.205571 0.792094 13.494919 0.000000 31.000000 14.392216 0.000000
-53.378624 0.474738 13.312605 0.000000 36.000000 14.355104 0.000000
-52.257573 0.683743 13.450950 0.000000 28.000000 14.357545 0.000000
-55.119142 0.969642 13.373098 0.000000 63.000000 14.601995 11.000000
-52.744677 3.014980 14.001008 0.000000 56.000000 14.895362 20.000000
-53.753210 3.520541 14.132934 0.000000 58.000000 15.128562 24.000000
-51.705394 -0.172116 13.436109 0.000000 28.000000 14.302868 0.000000
-49.676519 2.471112 13.918962 0.000000 53.000000 14.475476 14.000000
-52.445747 0.414646 13.419485 0.000000 30.000000 14.355423 0.000000
-50.263582 0.549598 14.083536 0.000000 47.000000 14.759671 18.000000
-52.590985 0.243725 13.399076 0.000000 29.000000 14.356617 0.000000
-52.201381 2.288792 13.779985 0.000000 57.000000 14.633393 9.000000
-52.751755 0.089412 13.393518 0.000000 35.000000 14.373888 0.000000
-51.860373 2.975686 14.075792 0.000000 28.000000 14.868832 20.000000
-55.590175 2.966847 13.794218 0.000000 70.000000 15.019171 23.000000
-52.924456 -0.064549 13.364582 0.000000 34.000000 14.369310 0.000000
-54.067339 -0.363658 13.241482 0.000000 31.000000 14.387014 0.000000
-53.015249 -0.136458 13.350836 0.000000 41.000000 14.368109 0.000000
-49.806890 1.311005 13.826614 0.000000 44.000000 14.430886 10.000000
-50.748755 2.561537 14.004987 0.000000 47.000000 14.681919 26.000000
-50.624125 0.749752 14.146763 0.000000 42.000000 14.858452 18.000000
-50.323948 3.956227 14.157019 0.000000 57.000000 14.745364 16.000000
-56.002132 2.333190 13.688204 0.000000 65.000000 14.978889 15.000000
-54.641893 -0.834327 13.038559 0.000000 29.000000 14.264729 0.000000
-55.813772 2.851028 13.802386 0.000000 47.000000 15.056244 23.000000
-54.856862 -0.964494 12.979667 0.000000 29.000000 14.234618 0.000000
-54.966142 -0.994079 13.016209 0.000000 32.000000 14.284310 0.000000
-53.967863 -0.697092 13.158787 0.000000 25.000000 14.302664 0.000000
-53.426352 -0.854670 13.611104 0.000000 56.000000 14.693770 6.000000
-54.450234 2.445309 13.794689 0.000000 55.000000 14.902739 22.000000
-54.331393 -0.823082 13.111564 0.000000 25.000000 14.301138 0.000000
-54.455100 -0.849718 13.111873 0.000000 25.000000 14.316434 0.000000
-50.151367 2.191678 13.827142 0.000000 55.000000 14.446736 30.000000
-54.711833 -0.931382 13.038043 0.000000 24.000000 14.274959 0.000000
-50.233584 4.383445 13.844349 0.000000 43.000000 14.412669 0.000000
-54.973715 -0.986757 12.990374 0.000000 29.000000 14.259327 0.000000
-52.105144 3.888391 13.818463 0.000000 62.000000 14.616268 19.000000
-54.292074 1.972106 13.133479 0.000000 25.000000 14.241055 0.000000
-55.369481 2.370732 13.599421 0.000000 59.000000 14.816810 15.000000
-54.160201 1.807450 13.314218 0.000000 32.000000 14.409883 0.000000
-54.040278 1.562433 13.284855 0.000000 40.000000 14.373688 0.000000
-55.117010 1.714700 13.526023 0.000000 51.000000 14.732989 12.000000
-53.931703 1.320585 13.275544 0.000000 25.000000 14.358624 0.000000
-53.537600 1.150275 13.672617 0.000000 51.000000 14.712209 7.000000
-53.745931 0.797727 13.193133 0.000000 28.000000 14.269854 0.000000
-54.880090 0.384919 13.033394 0.000000 28.000000 14.253318 0.000000
-53.707579 0.695516 13.242814 0.000000 27.000000 14.317594 0.000000
-51.349947 3.468751 13.711417 0.000000 26.000000 14.434582 25.000000
-53.671818 0.573452 13.252489 0.000000 27.000000 14.326458 0.000000
-54.776636 0.285027 13.101384 0.000000 29.000000 14.311673 0.000000
-53.639769 0.467703 13.292335 0.000000 26.000000 14.365256 0.000000
-54.778470 0.064938 13.148979 0.000000 40.000000 14.365232 0.000000
-51.523862 1.248096 13.565436 0.000000 32.000000 14.371088 0.000000
-54.753934 -0.070978 13.128631 0.000000 31.000000 14.345960 0.000000
-53.585019 0.211440 13.281147 0.000000 36.000000 14.354928 0.000000
-54.731936 -0.194321 13.128988 0.000000 28.000000 14.347192 0.000000
-54.712294 -0.322338 13.125510 0.000000 37.000000 14.345017 0.000000
-54.695212 -0.445948 13.133397 0.000000 36.000000 14.354299 0.000000
-54.685824 -0.619945 13.035087 0.000000 25.000000 14.260413 0.000000
-53.191389 1.864915 13.529087 0.000000 51.000000 14.510039 8.000000
-53.268638 2.905769 13.948321 0.000000 68.000000 14.906429 21.000000
-54.665330 -0.976018 13.087250 0.000000 28.000000 14.319697 0.000000
-54.665495 -1.093671 13.100791 0.000000 28.000000 14.336416 0.000000
-53.703968 1.840463 13.761266 0.000000 68.000000 14.800310 8.000000
-53.679679 1.871983 13.780386 0.000000 55.000000 14.815625 8.000000
-54.687216 -1.444762 13.148742 0.000000 47.000000 14.396242 0.000000
-53.531336 -1.176611 13.270007 0.000000 34.000000 14.376075 0.000000
-50.994090 4.110066 13.703322 0.000000 40.000000 14.367810 0.000000
-53.549286 -1.300582 13.265588 0.000000 30.000000 14.377184 0.000000
-49.836636 2.952499 13.869218 0.000000 37.000000 14.431213 14.000000
-53.570779 -1.422371 13.264095 0.000000 32.000000 14.381546 0.000000
-55.503571 1.291411 13.615612 0.000000 50.000000 14.878188 12.000000
-53.597500 -1.548456 13.252245 0.000000 30.000000 14.376346 0.000000
-52.336849 2.225274 13.733800 0.000000 54.000000 14.604897 9.000000
-53.626402 -1.685187 13.218672 0.000000 25.000000 14.350121 0.000000
-52.386152 2.300025 13.618314 0.000000 47.000000 14.493836 9.000000
-53.659699 -1.830055 13.166652 0.000000 22.000000 14.306310 0.000000
-50.441274 4.014012 13.775731 0.000000 28.000000 14.378679 0.000000
-55.116894 -0.903186 13.469668 0.000000 45.000000 14.749428 4.000000
-53.738623 -2.095418 13.103634 0.000000 28.000000 14.260168 0.000000
-53.622937 2.564907 13.863059 0.000000 45.000000 14.872012 21.000000
-53.834775 -2.277660 13.170720 0.000000 27.000000 14.342899 0.000000
-55.465919 0.964555 13.425224 0.000000 69.000000 14.693844 11.000000
-53.949295 -2.489664 13.175701 0.000000 28.000000 14.366902 0.000000
-53.733177 2.845601 13.538326 0.000000 44.000000 14.554503 22.000000
-55.430140 1.617235 13.422206 0.000000 61.000000 14.668673 12.000000
-54.146883 -2.813649 13.135516 0.000000 28.000000 14.358725 0.000000
-54.695789 1.113456 13.560517 0.000000 76.000000 14.735344 11.000000
-52.948758 3.717043 13.449617 0.000000 33.000000 14.351947 0.000000
-51.117667 1.605710 13.615545 0.000000 29.000000 14.364158 0.000000
-53.129844 1.375145 13.725965 0.000000 57.000000 14.711987 7.000000
-51.693748 3.347830 13.620270 0.000000 28.000000 14.387029 0.000000
-51.815723 2.661537 13.614384 0.000000 22.000000 14.414219 0.000000
-52.475021 2.683132 13.819090 0.000000 62.000000 14.692839 20.000000
-51.879241 2.450318 13.545228 0.000000 22.000000 14.358710 0.000000
-53.280941 -0.319937 13.543751 0.000000 58.000000 14.595349 6.000000
-52.592064 -2.312571 13.392613 0.000000 35.000000 14.421031 0.000000
-53.687968 0.183272 13.568076 0.000000 54.000000 14.652475 6.000000
-54.539304 2.891483 13.828587 0.000000 65.000000 14.934319 22.000000
-51.202995 -0.782122 13.648148 0.000000 50.000000 14.472409 5.000000
-51.066893 -0.774654 13.738630 0.000000 47.000000 14.546367 5.000000
-55.618152 2.684850 13.597613 0.000000 50.000000 14.834974 23.000000
-55.605085 2.490794 13.336823 0.000000 41.000000 14.579883 15.000000
-52.707463 1.333255 13.415356 0.000000 24.000000 14.356065 0.000000
-52.586430 -1.196609 13.908460 0.000000 52.000000 14.901728 3.000000
-54.023158 0.889602 13.198216 0.000000 26.000000 14.304298 0.000000
-52.618707 2.137149 13.500141 0.000000 34.000000 14.407792 0.000000
-54.206037 0.731991 13.123829 0.000000 30.000000 14.255863 0.000000
-52.283803 3.492445 13.963821 0.000000 54.000000 14.792136 19.000000
-50.957497 3.438347 14.338293 0.000000 65.000000 15.012672 25.000000
-49.835790 0.087527 14.106159 0.000000 39.000000 14.745633 27.000000
-55.004172 1.765324 13.654162 0.000000 64.000000 14.845826 12.000000
-51.013951 2.900337 13.543900 0.000000 27.000000 14.245260 0.000000
-55.603005 2.435749 13.549136 0.000000 37.000000 14.791983 15.000000
-54.088694 2.896056 14.035451 0.000000 73.000000 15.087687 22.000000
-53.712539 0.687803 13.231929 0.000000 28.000000 14.307571 0.000000
-54.817859 0.385123 13.068412 0.000000 30.000000 14.280914 0.000000
-54.530384 1.041997 13.395948 0.000000 42.000000 14.554856 11.000000
-52.809967 3.270389 13.745070 0.000000 67.000000 14.641684 20.000000
-53.944336 0.580671 13.173346 0.000000 28.000000 14.279067 0.000000
-53.949215 2.801749 13.947491 0.000000 76.000000 14.986887 22.000000
-55.323035 2.377646 13.540896 0.000000 40.000000 14.753155 15.000000
-49.946143 -0.584164 13.779352 0.000000 39.000000 14.452419 17.000000
-53.063784 2.922381 13.888243 0.000000 47.000000 14.822715 21.000000
-52.829866 0.418218 13.385226 0.000000 38.000000 14.365558 0.000000
-54.308771 0.499062 13.226133 0.000000 30.000000 14.375724 0.000000
-50.278521 3.854680 14.277914 0.000000 62.000000 14.862983 16.000000
-54.433713 0.452618 13.184239 0.000000 26.000000 14.349803 0.000000
-53.750138 -0.015597 13.557136 0.000000 52.000000 14.654275 6.000000
-51.862878 3.016323 13.961762 0.000000 62.000000 14.754769 20.000000
-54.380825 2.751692 13.837688 0.000000 48.000000 14.928965 22.000000
-53.188061 -0.091751 13.601512 0.000000 72.000000 14.635691 6.000000
-50.389769 3.839036 14.034693 0.000000 60.000000 14.634724 16.000000
-49.920851 -0.865502 13.653729 0.000000 22.000000 14.332549 0.000000
-55.349949 0.262213 13.030953 0.000000 31.000000 14.308417 0.000000
-56.000297 2.402272 13.482703 0.000000 62.000000 14.772714 15.000000
-50.289970 0.244029 13.999976 0.000000 46.000000 14.688192 27.000000
-53.523543 -1.009475 13.482339 0.000000 37.000000 14.581391 6.000000
-50.291524 4.008543 14.284326 0.000000 63.000000 14.866592 16.000000
-50.517832 0.757712 14.369276 0.000000 57.000000 15.066933 18.000000
-53.885613 2.966669 13.818355 0.000000 39.000000 14.846772 22.000000
-53.689017 2.007696 13.573166 0.000000 59.000000 14.607186 8.000000
-54.407832 2.720462 13.849155 0.000000 54.000000 14.944326 22.000000
-55.370859 1.561654 13.704531 0.000000 67.000000 14.943717 12.000000
-53.945788 3.320742 14.122506 0.000000 69.000000 15.145919 24.000000
-54.207912 1.170005 13.248444 0.000000 35.000000 14.367700 0.000000
-53.030547 1.448167 13.437757 0.000000 27.000000 14.412350 0.000000
-50.424981 3.716622 14.268463 0.000000 74.000000 14.874289 16.000000
-54.154943 0.924896 13.209250 0.000000 24.000000 14.329460 0.000000
-54.133973 0.797425 13.180717 0.000000 29.000000 14.302238 0.000000
-53.564877 -0.104886 13.730850 0.000000 61.000000 14.807892 6.000000
-52.934292 0.958485 13.373113 0.000000 24.000000 14.350617 0.000000
-54.099426 0.571026 13.183590 0.000000 30.000000 14.307373 0.000000
-52.915434 0.812309 13.300539 0.000000 24.000000 14.280424 0.000000
-53.588516 2.734813 13.603276 0.000000 57.000000 14.605394 21.000000
-52.905769 0.699202 13.308179 0.000000 22.000000 14.290026 0.000000
-50.702564 -0.612191 13.954161 0.000000 58.000000 14.713915 5.000000
-52.010035 2.282788 13.795714 0.000000 58.000000 14.627134 9.000000
-54.075477 0.262873 13.269388 0.000000 40.000000 14.398331 0.000000
-52.902686 0.502331 13.390820 0.000000 26.000000 14.377175 0.000000
-53.912569 0.035564 13.241332 0.000000 28.000000 14.357993 0.000000
-52.903529 0.386634 13.392141 0.000000 30.000000 14.381784 0.000000
-50.193067 4.032443 13.796772 0.000000 38.000000 14.370468 0.000000
-52.909597 0.272733 13.391610 0.000000 36.000000 14.385106 0.000000
-54.085533 -0.096081 13.235055 0.000000 35.000000 14.375327 0.000000
-52.918460 0.155088 13.385065 0.000000 34.000000 14.382883 0.000000
-51.953208 1.662468 13.528828 0.000000 28.000000 14.372739 0.000000
-52.932403 0.042270 13.387834 0.000000 35.000000 14.390359 0.000000
-54.109602 -0.320746 13.239394 0.000000 39.000000 14.388623 0.000000
-52.950258 -0.070484 13.388225 0.000000 31.000000 14.395923 0.000000
-54.128552 -0.427677 13.250125 0.000000 29.000000 14.404419 0.000000
-53.865630 2.595744 13.808313 0.000000 65.000000 14.844758 22.000000
-50.350977 0.953586 14.009403 0.000000 66.000000 14.684954 18.000000
-52.186594 3.502964 13.894719 0.000000 49.000000 14.712031 19.000000
-54.176455 -0.690567 13.167491 0.000000 31.000000 14.335157 0.000000
-53.020204 -0.462251 13.261620 0.000000 24.000000 14.289104 0.000000
-54.205626 -0.814147 13.137490 0.000000 29.000000 14.312146 0.000000
-51.869966 0.893259 13.538681 0.000000 34.000000 14.394209 0.000000
-54.239021 -0.918483 13.143501 0.000000 28.000000 14.324848 0.000000
-53.092094 -0.678247 13.256628 0.000000 22.000000 14.298403 0.000000
-55.233780 2.430885 13.155642 0.000000 30.000000 14.358859 0.000000
-55.641479 2.476127 13.415899 0.000000 61.000000 14.663000 15.000000
-54.360328 -1.207139 13.188067 0.000000 39.000000 14.391059 0.000000
-55.512803 1.660378 13.229676 0.000000 32.000000 14.485829 12.000000
-50.003561 1.035813 14.125653 0.000000 57.000000 14.758087 18.000000
-54.462837 -1.420395 13.167969 0.000000 45.000000 14.388811 0.000000
-49.486046 -0.434002 13.996279 0.000000 66.000000 14.610660 17.000000
-55.402758 2.451489 13.184403 0.000000 46.000000 14.406315 15.000000
-53.407359 -1.256858 13.290472 0.000000 32.000000 14.384333 0.000000
-54.579441 -1.631914 13.133716 0.000000 35.000000 14.374083 0.000000
-53.472703 -1.354626 13.276952 0.000000 29.000000 14.381140 0.000000
-54.643223 -1.732376 13.119653 0.000000 32.000000 14.370245 0.000000
-53.543053 -1.446505 13.271391 0.000000 31.000000 14.386264 0.000000
-54.711816 -1.831992 13.105966 0.000000 36.000000 14.367312 0.000000
-53.617437 -1.536326 13.267921 0.000000 35.000000 14.393872 0.000000
-54.783438 -1.920129 13.107639 0.000000 39.000000 14.379663 0.000000
-50.021858 -0.442603 13.800163 0.000000 26.000000 14.477891 17.000000
-49.909686 1.418179 14.201952 0.000000 55.000000 14.812458 10.000000
-55.697003 2.740588 13.676549 0.000000 59.000000 14.920896 23.000000
-49.754044 0.735398 14.450184 0.000000 62.000000 15.059897 18.000000
-50.728126 3.703972 13.968105 0.000000 64.000000 14.611320 25.000000
-54.039213 -2.017287 13.103212 0.000000 25.000000 14.292217 0.000000
-54.134611 -2.126234 13.032971 0.000000 25.000000 14.236474 0.000000
-54.233345 -2.197361 13.021350 0.000000 24.000000 14.238277 0.000000
-51.268558 3.386562 14.132938 0.000000 42.000000 14.846031 25.000000
-53.745439 1.926476 13.500153 0.000000 54.000000 14.543434 8.000000
-54.548964 -2.389923 12.994973 0.000000 27.000000 14.253772 0.000000
-54.659529 -2.436380 13.005556 0.000000 30.000000 14.278303 0.000000
-54.773281 -2.495765 12.988263 0.000000 30.000000 14.275879 0.000000
-49.880403 -1.659121 13.947483 0.000000 44.000000 14.641526 2.000000
-52.340466 1.049005 13.490761 0.000000 32.000000 14.396521 0.000000
-55.337114 -0.067651 13.078393 0.000000 31.000000 14.363168 0.000000
-55.295984 -0.205721 13.069884 0.000000 36.000000 14.353800 0.000000
-50.445502 0.757109 14.413827 0.000000 50.000000 15.102854 18.000000
-55.220076 -0.477410 13.067693 0.000000 31.000000 14.350394 0.000000
-52.080212 3.296372 13.928976 0.000000 61.000000 14.739506 20.000000
-50.576602 -0.534787 13.641313 0.000000 36.000000 14.386618 0.000000
-53.292982 2.077564 13.465365 0.000000 41.000000 14.452587 8.000000
-54.329497 3.060621 13.817088 0.000000 79.000000 14.894052 24.000000
-53.640999 2.126628 13.288705 0.000000 26.000000 14.315907 0.000000
-54.744664 1.864386 13.154566 0.000000 30.000000 14.317113 0.000000
-53.753039 2.096442 13.344464 0.000000 37.000000 14.385016 0.000000
-54.594524 3.362852 13.748602 0.000000 40.000000 14.848221 24.000000
-53.979127 1.982750 13.285251 0.000000 25.000000 14.355411 0.000000
-54.095903 1.934570 13.272485 0.000000 28.000000 14.357520 0.000000
-54.392075 2.834888 13.923283 0.000000 67.000000 15.012952 22.000000
-54.231767 2.791283 13.892475 0.000000 51.000000 14.965099 22.000000
-52.550216 -0.360940 13.290547 0.000000 24.000000 14.260881 0.000000
-54.583442 1.760653 13.196938 0.000000 32.000000 14.343482 0.000000
-53.880947 -0.309688 13.552300 0.000000 66.000000 14.672677 6.000000
-52.378547 1.203330 13.451789 0.000000 28.000000 14.357942 0.000000
-55.596888 1.381890 13.588939 0.000000 55.000000 14.859951 12.000000
-50.696808 2.779891 14.091656 0.000000 39.000000 14.755953 26.000000
-50.516863 2.048776 14.056806 0.000000 56.000000 14.720841 13.000000
-51.178519 -0.877728 14.226618 0.000000 24.000000 15.046629 5.000000
-50.917991 -1.343535 13.952973 0.000000 47.000000 14.757782 5.000000
-53.877334 -2.832196 13.955075 0.000000 44.000000 15.141971 1.000000
-53.331140 1.184325 13.619398 0.000000 41.000000 14.634639 7.000000
-52.541526 1.643615 13.481236 0.000000 21.000000 14.393780 0.000000
-52.545833 1.522171 13.443418 0.000000 23.000000 14.360083 0.000000
-51.158819 -2.141529 13.523663 0.000000 32.000000 14.381312 0.000000
-56.003092 2.842242 13.616626 0.000000 82.000000 14.893846 23.000000
-53.353555 2.860055 13.902757 0.000000 64.000000 14.872233 21.000000
-53.776808 0.817484 13.150807 0.000000 28.000000 14.230837 0.000000
-50.264040 0.865973 14.153139 0.000000 60.000000 14.820086 18.000000
-54.724557 1.755844 13.296517 0.000000 54.000000 14.458750 12.000000
-55.245121 1.486620 13.736268 0.000000 67.000000 14.962821 12.000000
-53.828314 0.630410 13.189269 0.000000 28.000000 14.280136 0.000000
-55.429011 2.493012 13.340440 0.000000 65.000000 14.563129 15.000000
-53.860603 0.539316 13.209723 0.000000 27.000000 14.306686 0.000000
-54.762629 1.564118 13.692501 0.000000 35.000000 14.861634 12.000000
-53.896442 0.448322 13.232283 0.000000 29.000000 14.335732 0.000000
-52.750120 0.675836 13.370505 0.000000 33.000000 14.334628 0.000000
-50.183957 3.514075 14.509542 0.000000 40.000000 15.091506 16.000000
-52.793797 0.579016 13.366884 0.000000 26.000000 14.338742 0.000000
-53.976995 0.255325 13.230277 0.000000 31.000000 14.348359 0.000000
-49.602736 1.388794 14.065375 0.000000 42.000000 14.642294 10.000000
-54.024047 0.155632 13.222055 0.000000 35.000000 14.348373 0.000000
-53.078197 2.024911 13.447515 0.000000 33.000000 14.411576 0.000000
-54.034456 -2.386007 13.145426 0.000000 29.000000 14.343784 0.000000
-50.500166 -1.943608 14.157286 0.000000 54.000000 14.929119 29.000000
-53.894187 2.912451 13.930744 0.000000 49.000000 14.960857 22.000000
-50.033058 3.544752 14.403470 0.000000 51.000000 14.967949 16.000000
-51.323617 -0.277149 13.515878 0.000000 25.000000 14.340999 0.000000
-53.075650 0.107762 13.334499 0.000000 28.000000 14.352090 0.000000
-53.147444 0.053499 13.401595 0.000000 35.000000 14.428486 0.000000
-54.311195 -0.287537 13.231151 0.000000 38.000000 14.402743 0.000000
-54.553996 1.094029 13.270714 0.000000 28.000000 14.431785 11.000000
-54.451829 -0.487799 13.154620 0.000000 28.000000 14.348492 0.000000
-52.159059 2.198302 13.930938 0.000000 49.000000 14.780910 9.000000
-51.446014 1.947776 13.597003 0.000000 35.000000 14.374112 0.000000
-52.928711 3.000630 13.581466 0.000000 37.000000 14.500373 21.000000
-54.132788 0.329245 13.270492 0.000000 31.000000 14.404194 0.000000
-54.869523 -0.947822 12.985991 0.000000 28.000000 14.241895 0.000000
-55.230665 2.777860 13.535767 0.000000 41.000000 14.726351 23.000000
-54.015841 -0.788084 13.136419 0.000000 23.000000 14.288498 0.000000
-52.445784 3.598673 14.023220 0.000000 70.000000 14.866840 19.000000
-50.998830 -1.180816 14.014408 0.000000 31.000000 14.823596 5.000000
-54.338905 -0.948163 13.135314 0.000000 26.000000 14.329046 0.000000
-55.670365 1.647088 13.402338 0.000000 75.000000 14.675794 12.000000
-54.568995 -1.062292 13.093150 0.000000 26.000000 14.316843 0.000000
-54.687773 -1.105029 13.089300 0.000000 27.000000 14.327886 0.000000
-54.806592 -1.139603 13.092563 0.000000 31.000000 14.345771 0.000000
-55.200045 1.971795 13.131540 0.000000 34.000000 14.343739 0.000000
-52.745034 3.007691 14.044904 0.000000 44.000000 14.939192 20.000000
-50.149083 0.467934 14.186734 0.000000 53.000000 14.851210 18.000000
-54.503048 0.547614 13.121321 0.000000 25.000000 14.292689 0.000000
-55.492009 3.018493 13.763024 0.000000 69.000000 14.975459 23.000000
-53.901550 -0.211036 13.519896 0.000000 44.000000 14.640146 6.000000
-54.389664 0.215245 13.222553 0.000000 29.000000 14.389339 0.000000
-55.742935 1.896703 13.513573 0.000000 57.000000 14.787701 15.000000
-52.620326 3.617372 13.878395 0.000000 55.000000 14.742625 19.000000
-52.573473 3.627146 13.965860 0.000000 39.000000 14.823806 19.000000
-54.285068 -0.302742 13.204953 0.000000 30.000000 14.374140 0.000000
-54.252233 -0.560573 13.199464 0.000000 25.000000 14.372039 0.000000
-54.241496 -0.713074 13.147653 0.000000 27.000000 14.323574 0.000000
-54.234480 -0.857501 13.118089 0.000000 25.000000 14.297405 0.000000
-54.230181 -0.970283 13.146793 0.000000 23.000000 14.328531 0.000000
-54.230887 -1.087378 13.169709 0.000000 30.000000 14.354606 0.000000
-50.459701 0.101340 13.599829 0.000000 33.000000 14.314363 0.000000
-49.929707 0.942045 14.252020 0.000000 61.000000 14.877650 18.000000
-54.254983 -1.462194 13.180982 0.000000 35.000000 14.378943 0.000000
-54.270533 -1.605134 13.147155 0.000000 27.000000 14.351099 0.000000
-54.289914 -1.734844 13.133731 0.000000 22.000000 14.343590 0.000000
-54.314351 -1.883035 13.089534 0.000000 31.000000 14.306619 0.000000
-53.477052 -0.432671 13.397756 0.000000 49.000000 14.476093 6.000000
-52.361893 2.137770 13.657148 0.000000 57.000000 14.534090 9.000000
-54.410376 -2.291697 13.006646 0.000000 25.000000 14.246681 0.000000
-54.449608 -2.405074 13.014584 0.000000 25.000000 14.262218 0.000000
-54.494150 -2.490409 13.067599 0.000000 27.000000 14.322352 0.000000
-54.540674 -2.591330 13.086387 0.000000 27.000000 14.349158 0.000000
-54.239565 2.523194 13.875361 0.000000 66.000000 14.956419 22.000000
-54.649415 -2.823349 13.065996 0.000000 28.000000 14.347856 0.000000
-50.633883 -1.970562 13.981914 0.000000 42.000000 14.771132 29.000000
-53.567927 2.233566 13.289327 0.000000 30.000000 14.305149 0.000000
-50.282145 3.574834 14.561250 0.000000 60.000000 15.152481 16.000000
-53.592028 2.136386 13.287386 0.000000 30.000000 14.308686 0.000000
-52.429005 2.370013 13.484503 0.000000 23.000000 14.363969 0.000000
-50.265398 1.915152 13.967124 0.000000 41.000000 14.606517 30.000000
-51.012505 1.929641 13.660065 0.000000 37.000000 14.387289 0.000000
-52.502570 2.189364 13.509352 0.000000 27.000000 14.402114 0.000000
-51.084972 -0.809794 13.709623 0.000000 36.000000 14.520619 5.000000
-53.917136 2.956556 13.930914 0.000000 68.000000 14.962449 22.000000
-52.235043 3.247303 14.180412 0.000000 43.000000 15.008365 20.000000
-50.861348 2.768819 13.687825 0.000000 28.000000 14.374228 0.000000
-52.747281 1.720180 13.465351 0.000000 24.000000 14.399592 0.000000
-50.046546 0.453616 14.223945 0.000000 43.000000 14.876743 18.000000
-54.456395 -0.008328 13.153214 0.000000 34.000000 14.334360 0.000000
-51.254760 0.915314 13.624629 0.000000 37.000000 14.408068 0.000000
-52.869320 1.532002 13.415808 0.000000 29.000000 14.369662 0.000000
-54.038891 1.222959 13.245386 0.000000 28.000000 14.343727 0.000000
-52.530213 3.116372 13.568675 0.000000 42.000000 14.438563 20.000000
-54.103089 1.140174 13.242122 0.000000 30.000000 14.350172 0.000000
-54.170375 1.053708 13.221223 0.000000 29.000000 14.339563 0.000000
-54.240485 0.965537 13.195224 0.000000 29.000000 14.324263 0.000000
-54.586305 1.020181 13.549878 0.000000 47.000000 14.714748 11.000000
-51.224579 3.622674 13.934124 0.000000 47.000000 14.637020 25.000000
-54.474525 0.754398 13.231138 0.000000 33.000000 14.392727 0.000000
-53.844167 -0.462085 13.448845 0.000000 50.000000 14.569929 6.000000
-50.641903 1.777740 13.828977 0.000000 54.000000 14.516519 13.000000
-54.738795 0.470026 13.042580 0.000000 33.000000 14.243807 0.000000
-50.111292 -0.539056 14.204489 0.000000 45.000000 14.892340 17.000000
-54.833223 0.401218 13.028540 0.000000 28.000000 14.242648 0.000000
-50.354298 -0.686606 13.670278 0.000000 29.000000 14.393968 0.000000
-55.773610 2.058344 13.700260 0.000000 12.000000 14.972136 15.000000
-53.902714 0.587544 13.167343 0.000000 27.000000 14.268122 0.000000
-55.030722 0.281574 13.036096 0.000000 33.000000 14.276212 0.000000
-49.048016 -0.324747 14.114942 0.000000 47.000000 14.675003 28.000000
-55.131943 0.223265 13.032902 0.000000 35.000000 14.286315 0.000000
-54.120646 0.511387 13.238744 0.000000 28.000000 14.366233 0.000000
-53.925468 -0.286314 13.314626 0.000000 32.000000 14.441160 6.000000
-54.233262 0.474528 13.266476 0.000000 32.000000 14.407763 0.000000
-55.343987 0.124553 13.047420 0.000000 38.000000 14.327889 0.000000
-54.346868 0.418371 13.246902 0.000000 34.000000 14.402967 0.000000
-54.462249 0.341823 13.168897 0.000000 28.000000 14.340922 0.000000
-51.066294 -1.338314 13.755429 0.000000 54.000000 14.578570 5.000000
-51.169020 3.631374 13.937413 0.000000 62.000000 14.633645 25.000000
-54.825530 0.212643 13.136997 0.000000 35.000000 14.354671 0.000000
-54.950455 0.163006 13.104495 0.000000 30.000000 14.338162 0.000000
-54.869426 2.275046 13.658471 0.000000 32.000000 14.820483 22.000000
-50.151777 -1.895700 14.119996 0.000000 66.000000 14.850631 2.000000
-53.825012 3.451156 14.023433 0.000000 72.000000 15.030023 24.000000
-55.276533 1.846961 13.059044 0.000000 33.000000 14.284018 0.000000
-50.546208 2.791621 14.092089 0.000000 67.000000 14.738709 26.000000
-53.991166 1.956824 13.294454 0.000000 28.000000 14.366653 0.000000
-53.939057 1.849253 13.311426 0.000000 28.000000 14.380478 0.000000
-53.043992 2.489433 13.797373 0.000000 49.000000 14.742180 21.000000
-50.192634 1.061523 13.962412 0.000000 61.000000 14.617067 18.000000
-53.802730 1.506576 13.304289 0.000000 28.000000 14.367164 0.000000
-53.372015 -0.002299 13.514054 0.000000 72.000000 14.567567 6.000000
-54.799884 0.473722 13.038442 0.000000 31.000000 14.246634 0.000000
-50.147265 0.737149 14.330365 0.000000 51.000000 14.986174 18.000000
-53.598402 0.672322 13.275410 0.000000 26.000000 14.338025 0.000000
-54.764089 0.270204 13.111135 0.000000 36.000000 14.320320 0.000000
-51.780959 3.018898 13.988073 0.000000 79.000000 14.771387 20.000000
-55.451951 3.156771 13.642064 0.000000 55.000000 14.846912 23.000000
-50.881279 3.876178 13.723778 0.000000 39.000000 14.381595 0.000000
-54.741171 0.056431 13.157775 0.000000 42.000000 14.369905 0.000000
-53.564880 0.320264 13.279103 0.000000 25.000000 14.347568 0.000000
-55.093582 1.241559 13.672326 0.000000 50.000000 14.888650 12.000000
-54.212522 1.361067 13.241790 0.000000 25.000000 14.356340 0.000000
-54.735606 -0.190846 13.127844 0.000000 27.000000 14.346383 0.000000
-50.178917 0.049728 14.029622 0.000000 45.000000 14.710210 27.000000
-54.743095 -0.425362 13.126422 0.000000 34.000000 14.352320 0.000000
-54.752690 -0.559725 13.091647 0.000000 29.000000 14.322612 0.000000
-52.864071 0.948344 13.427176 0.000000 28.000000 14.396490 0.000000
-54.784486 -0.812400 13.045140 0.000000 28.000000 14.287085 0.000000
-54.200930 2.982407 13.894138 0.000000 77.000000 14.957911 22.000000
-53.406268 1.255706 13.726987 0.000000 74.000000 14.748150 7.000000
-51.792933 3.247258 13.900097 0.000000 44.000000 14.679093 20.000000
-53.407336 2.703048 13.786212 0.000000 61.000000 14.767048 21.000000
-55.361168 3.086862 13.757479 0.000000 69.000000 14.952989 23.000000
-53.830638 -1.178874 13.217687 0.000000 25.000000 14.358667 0.000000
-52.150668 3.112667 14.030344 0.000000 48.000000 14.853358 20.000000
-53.640199 -0.742637 13.547213 0.000000 51.000000 14.651866 6.000000
-53.990086 -1.499149 13.185528 0.000000 24.000000 14.353962 0.000000
-54.830271 2.586228 13.737035 0.000000 55.000000 14.885375 22.000000
-52.337579 3.082975 13.879538 0.000000 54.000000 14.725968 20.000000
-51.307764 -0.843425 13.629883 0.000000 45.000000 14.468038 5.000000
-55.955777 2.763508 13.659747 0.000000 47.000000 14.933390 23.000000
-54.332674 -2.058484 12.997602 0.000000 23.000000 14.222298 0.000000
-54.414619 -2.161143 12.968012 0.000000 23.000000 14.205196 0.000000
-51.733974 3.801922 13.812464 0.000000 43.000000 14.569943 19.000000
-53.926964 -2.835729 13.618196 0.000000 55.000000 14.813280 1.000000
-54.679275 -2.392601 12.976297 0.000000 31.000000 14.250314 0.000000
-49.799665 -0.771259 14.023499 0.000000 49.000000 14.683147 17.000000
-52.794845 1.814695 13.446325 0.000000 25.000000 14.383565 0.000000
-54.614770 1.919626 13.109041 0.000000 28.000000 14.255416 0.000000
-53.572918 2.137416 13.265835 0.000000 24.000000 14.285057 0.000000
-53.657277 2.495713 13.691684 0.000000 63.000000 14.707714 21.000000
-49.329428 -0.570404 14.293952 0.000000 26.000000 14.891967 28.000000
-52.127563 2.386089 13.479727 0.000000 25.000000 14.324054 0.000000
-50.909619 3.624498 14.331904 0.000000 64.000000 14.995664 25.000000
-53.979019 1.910997 13.295088 0.000000 32.000000 14.367151 0.000000
-55.076264 0.873709 13.249473 0.000000 52.000000 14.476955 11.000000
-52.479285 2.045287 13.626001 0.000000 39.000000 14.519244 9.000000
-50.206933 3.873773 14.327416 0.000000 51.000000 14.903361 16.000000
-54.421271 1.679763 13.210174 0.000000 28.000000 14.340180 0.000000
-50.299143 1.996395 14.034953 0.000000 41.000000 14.675509 30.000000
-53.129783 2.987814 13.788922 0.000000 73.000000 14.729887 21.000000
-54.295572 1.866116 13.222071 0.000000 27.000000 14.332357 0.000000
-54.274079 1.777991 13.272663 0.000000 32.000000 14.382554 0.000000
-53.090281 2.051588 13.449531 0.000000 28.000000 14.414232 0.000000
-53.069252 1.928388 13.411156 0.000000 25.000000 14.377112 0.000000
-55.791250 3.020995 13.801387 0.000000 58.000000 15.047956 23.000000
