-67.826967 46.408517 32.107429 0.000000 35.000000 14.107429 0.000000
-63.987964 49.053729 32.672151 0.000000 54.000000 14.672151 23.000000
-62.693468 46.633732 32.463197 0.000000 50.000000 14.463197 30.000000
-62.706043 44.337103 32.259927 0.000000 50.000000 14.259927 0.000000
-64.898741 48.449135 32.736143 0.000000 64.000000 14.736143 16.000000
-65.783395 46.079397 32.174850 0.000000 43.000000 14.174850 0.000000
-67.368992 45.712609 32.307821 0.000000 34.000000 14.307821 14.000000
-63.559791 42.339326 32.947575 0.000000 53.000000 14.947575 3.000000
-65.677726 46.400196 32.064116 0.000000 27.000000 14.064116 0.000000
-64.624570 49.452728 32.530109 0.000000 55.000000 14.530109 23.000000
-62.484322 43.226954 32.357470 0.000000 32.000000 14.357470 0.000000
-66.957813 47.478174 32.182606 0.000000 51.000000 14.182606 0.000000
-62.013817 45.836149 32.727181 0.000000 84.000000 14.727181 18.000000
-65.217054 46.799974 32.178764 0.000000 40.000000 14.178764 0.000000
-65.102913 46.938944 32.173744 0.000000 36.000000 14.173744 0.000000
-62.964399 42.710880 32.702300 0.000000 55.000000 14.702300 3.000000
-67.130356 45.463168 32.734718 0.000000 60.000000 14.734718 14.000000
-64.504155 42.617419 32.634670 0.000000 43.000000 14.634670 6.000000
-63.057432 44.664387 32.361002 0.000000 42.000000 14.361002 1.000000
-63.209784 47.801166 32.750642 0.000000 59.000000 14.750642 24.000000
-64.608801 47.640243 32.018180 0.000000 32.000000 14.018180 0.000000
-64.454074 49.472618 32.616529 0.000000 63.000000 14.616529 23.000000
-64.451124 49.200630 32.896527 0.000000 84.000000 14.896527 23.000000
-61.851954 45.598989 32.676033 0.000000 57.000000 14.676033 18.000000
-61.833069 48.046728 32.453078 0.000000 63.000000 14.453078 21.000000
-62.267519 46.530324 32.484861 0.000000 37.000000 14.484861 30.000000
-63.302010 47.800558 32.864994 0.000000 50.000000 14.864994 24.000000
-63.818003 50.040675 32.167293 0.000000 45.000000 14.167293 0.000000
-63.835440 49.839404 32.270804 0.000000 40.000000 14.270804 26.000000
-63.737607 48.710827 32.613349 0.000000 52.000000 14.613349 23.000000
-64.411423 49.721803 32.546485 0.000000 40.000000 14.546485 23.000000
-61.661920 46.637333 32.126937 0.000000 36.000000 14.126937 0.000000
-67.124593 45.313867 32.450165 0.000000 51.000000 14.450165 14.000000
-64.035802 48.402924 32.587364 0.000000 47.000000 14.587364 23.000000
-64.948087 47.333359 32.259582 0.000000 55.000000 14.259582 10.000000
-64.742168 48.473183 32.863302 0.000000 80.000000 14.863302 16.000000
-62.842803 47.634536 32.786005 0.000000 69.000000 14.786005 25.000000
-63.495959 48.103922 32.751610 0.000000 40.000000 14.751610 24.000000
-67.056657 46.450110 32.608616 0.000000 41.000000 14.608616 8.000000
-62.996825 45.549706 32.198917 0.000000 44.000000 14.198917 0.000000
-63.968960 45.044086 32.121223 0.000000 14.000000 14.121223 0.000000
-67.406024 45.454735 32.469458 0.000000 45.000000 14.469458 14.000000
-66.569490 46.781449 32.591118 0.000000 77.000000 14.591118 8.000000
-64.747116 48.537933 32.729080 0.000000 54.000000 14.729080 16.000000
-63.754652 47.317900 32.619289 0.000000 61.000000 14.619289 19.000000
-60.972885 46.823460 32.470134 0.000000 58.000000 14.470134 22.000000
-62.925888 47.664371 32.781930 0.000000 50.000000 14.781930 25.000000
-62.557330 44.273624 32.225035 0.000000 39.000000 14.225035 0.000000
-66.862391 45.744529 32.380610 0.000000 53.000000 14.380610 14.000000
-63.910862 43.448590 32.565849 0.000000 59.000000 14.565849 5.000000
-65.001629 48.841284 32.893929 0.000000 46.000000 14.893929 16.000000
-62.919982 44.093673 32.177297 0.000000 20.000000 14.177297 0.000000
-61.988562 46.077266 32.604738 0.000000 70.000000 14.604738 18.000000
-63.179680 44.015491 32.067781 0.000000 30.000000 14.067781 0.000000
-61.922189 46.981281 32.579422 0.000000 50.000000 14.579422 11.000000
-64.589278 49.401052 32.604143 0.000000 62.000000 14.604143 23.000000
-63.397647 43.825061 32.209112 0.000000 36.000000 14.209112 0.000000
-63.381020 43.253822 32.240455 0.000000 41.000000 14.240455 0.000000
-63.555505 43.738044 32.230453 0.000000 40.000000 14.230453 0.000000
-62.356782 48.251984 32.589819 0.000000 48.000000 14.589819 20.000000
-61.951765 46.425367 32.842605 0.000000 53.000000 14.842605 11.000000
-65.129912 44.456039 32.135966 0.000000 34.000000 14.135966 0.000000
-61.779579 44.146141 32.596110 0.000000 45.000000 14.596110 4.000000
-65.557633 44.299668 32.100383 0.000000 32.000000 14.100383 0.000000
-64.408510 49.745723 32.528545 0.000000 62.000000 14.528545 23.000000
-65.886546 44.135454 32.183951 0.000000 37.000000 14.183951 0.000000
-66.087804 44.060189 32.192216 0.000000 40.000000 14.192216 0.000000
-62.601528 47.109397 32.590584 0.000000 57.000000 14.590584 25.000000
-62.416895 48.643550 32.181910 0.000000 41.000000 14.181910 0.000000
-66.474158 46.646669 32.674872 0.000000 61.000000 14.674872 8.000000
-60.122014 45.897385 32.728518 0.000000 59.000000 14.728518 7.000000
-62.430911 47.262938 32.164240 0.000000 38.000000 14.164240 0.000000
-62.636755 48.617598 32.295591 0.000000 54.000000 14.295591 20.000000
-63.178723 44.804506 32.466819 0.000000 30.000000 14.466819 1.000000
-64.746492 47.834926 32.063158 0.000000 48.000000 14.063158 0.000000
-64.879440 47.748949 32.144405 0.000000 39.000000 14.144405 0.000000
-64.010180 46.779659 32.077267 0.000000 39.000000 14.077267 0.000000
-63.151978 47.871142 32.735404 0.000000 63.000000 14.735404 24.000000
-60.188925 46.735551 32.226108 0.000000 30.000000 14.226108 0.000000
-66.272030 47.456421 32.074321 0.000000 29.000000 14.074321 0.000000
-64.959767 46.496279 32.178334 0.000000 42.000000 14.178334 0.000000
-66.515487 47.412948 32.066736 0.000000 41.000000 14.066736 0.000000
-62.451374 45.795125 32.450033 0.000000 45.000000 14.450033 30.000000
-63.398551 47.760198 32.840364 0.000000 18.000000 14.840364 24.000000
-62.342494 47.339842 32.133307 0.000000 26.000000 14.133307 0.000000
-66.893421 47.298017 32.169322 0.000000 49.000000 14.169322 0.000000
-64.282002 49.110674 32.875479 0.000000 75.000000 14.875479 23.000000
-62.469164 46.959097 32.377731 0.000000 44.000000 14.377731 0.000000
-61.277760 45.869768 32.450960 0.000000 70.000000 14.450960 11.000000
-66.093423 46.294378 32.171261 0.000000 54.000000 14.171261 0.000000
-66.320993 46.258542 32.180115 0.000000 40.000000 14.180115 0.000000
-66.541979 46.223626 32.197089 0.000000 61.000000 14.197089 0.000000
-61.615292 47.277055 32.606812 0.000000 50.000000 14.606812 22.000000
-67.096897 46.182803 32.136461 0.000000 35.000000 14.136461 0.000000
-67.452492 46.181977 32.038513 0.000000 28.000000 14.038513 0.000000
-67.550262 46.128041 32.183723 0.000000 38.000000 14.183723 0.000000
-62.104735 45.770196 32.659773 0.000000 63.000000 14.659773 18.000000
-64.297923 49.070830 32.900319 0.000000 48.000000 14.900319 23.000000
-61.063454 45.517534 32.230357 0.000000 32.000000 14.230357 0.000000
-62.454185 43.375385 32.054640 0.000000 19.000000 14.054640 0.000000
-62.386972 44.314970 32.174865 0.000000 36.000000 14.174865 0.000000
-62.383723 44.472238 32.173580 0.000000 33.000000 14.173580 0.000000
-62.313351 44.620116 32.249195 0.000000 35.000000 14.249195 0.000000
-62.365556 44.791911 32.168242 0.000000 39.000000 14.168242 0.000000
-61.563398 46.680962 32.643712 0.000000 64.000000 14.643712 11.000000
-62.069147 44.326908 32.369716 0.000000 46.000000 14.369716 4.000000
-63.900828 48.357767 32.682762 0.000000 44.000000 14.682762 24.000000
-61.118388 45.089799 32.207164 0.000000 42.000000 14.207164 0.000000
-61.083312 45.242149 32.208972 0.000000 34.000000 14.208972 0.000000
-61.481175 46.323459 32.764305 0.000000 62.000000 14.764305 11.000000
-66.079349 46.781921 32.152159 0.000000 28.000000 14.152159 0.000000
-61.776101 47.479640 32.715670 0.000000 57.000000 14.715670 22.000000
-61.709762 45.447038 32.439833 0.000000 50.000000 14.439833 17.000000
-60.904557 46.005862 32.162378 0.000000 48.000000 14.162378 0.000000
-60.723172 46.440284 32.196823 0.000000 40.000000 14.196823 0.000000
-65.535828 43.415292 32.209186 0.000000 29.000000 14.209186 0.000000
-64.371296 42.223075 32.721898 0.000000 51.000000 14.721898 6.000000
-60.226695 46.719702 32.201644 0.000000 35.000000 14.201644 0.000000
-62.289583 47.899349 32.549428 0.000000 54.000000 14.549428 21.000000
-63.203327 48.823961 32.467412 0.000000 64.000000 14.467412 12.000000
-61.523593 47.894815 32.180368 0.000000 41.000000 14.180368 0.000000
-64.069400 50.238428 32.184014 0.000000 51.000000 14.184014 0.000000
-63.045158 47.875246 32.723163 0.000000 64.000000 14.723163 25.000000
-64.960516 42.968849 32.234414 0.000000 37.000000 14.234414 0.000000
-63.778841 44.411084 32.433910 0.000000 52.000000 14.433910 2.000000
-66.276902 44.434885 32.169380 0.000000 48.000000 14.169380 0.000000
-64.243032 48.872481 32.779360 0.000000 45.000000 14.779360 23.000000
-62.984033 49.180075 32.836612 0.000000 66.000000 14.836612 12.000000
-65.064941 47.615546 32.533381 0.000000 48.000000 14.533381 10.000000
-66.201484 44.949455 32.103891 0.000000 31.000000 14.103891 0.000000
-65.849827 44.498766 32.193744 0.000000 30.000000 14.193744 0.000000
-66.089397 45.106997 32.162802 0.000000 46.000000 14.162802 0.000000
-64.630421 44.429711 32.199603 0.000000 45.000000 14.199603 0.000000
-61.997779 47.045824 32.634801 0.000000 68.000000 14.634801 11.000000
-61.642799 47.562988 32.655066 0.000000 62.000000 14.655066 22.000000
-65.988793 45.438067 32.143365 0.000000 40.000000 14.143365 0.000000
-63.720222 44.154927 32.319558 0.000000 34.000000 14.319558 2.000000
-61.104980 44.548946 32.623031 0.000000 51.000000 14.623031 17.000000
-64.449581 44.901043 32.195037 0.000000 38.000000 14.195037 0.000000
-65.814670 45.755165 32.183227 0.000000 37.000000 14.183227 0.000000
-62.447784 47.941548 32.490534 0.000000 31.000000 14.490534 20.000000
-64.718512 48.512697 32.648117 0.000000 58.000000 14.648117 16.000000
-64.350407 45.219331 32.150613 0.000000 31.000000 14.150613 0.000000
-63.356624 46.117833 32.270887 0.000000 66.000000 14.270887 0.000000
-61.798754 46.835568 32.196665 0.000000 31.000000 14.196665 0.000000
-64.087274 43.771958 32.792114 0.000000 44.000000 14.792114 5.000000
-64.787575 43.116349 32.875619 0.000000 49.000000 14.875619 6.000000
-62.274815 46.936837 32.562502 0.000000 52.000000 14.562502 11.000000
-66.497434 45.677802 32.155902 0.000000 27.000000 14.155902 0.000000
-61.295692 47.378526 32.599350 0.000000 58.000000 14.599350 22.000000
-63.969555 45.807452 32.223950 0.000000 39.000000 14.223950 0.000000
-65.406658 46.723786 32.102466 0.000000 31.000000 14.102466 0.000000
-63.859365 45.949415 32.250320 0.000000 37.000000 14.250320 0.000000
-65.242391 46.856528 32.176486 0.000000 46.000000 14.176486 0.000000
-64.165048 43.803473 32.571785 0.000000 43.000000 14.571785 5.000000
-65.052022 47.158928 32.171193 0.000000 41.000000 14.171193 0.000000
-64.653206 48.182445 32.571697 0.000000 32.000000 14.571697 16.000000
-60.313010 45.838499 32.403468 0.000000 44.000000 14.403468 7.000000
-63.954964 43.840655 32.271987 0.000000 44.000000 14.271987 5.000000
-68.165089 46.034465 32.735721 0.000000 53.000000 14.735721 13.000000
-64.792401 47.615816 32.110780 0.000000 42.000000 14.110780 0.000000
-61.405480 45.273228 32.639102 0.000000 64.000000 14.639102 17.000000
-63.658039 49.687413 32.487272 0.000000 63.000000 14.487272 26.000000
-62.273518 43.729850 32.815971 0.000000 6.000000 14.815971 29.000000
-63.150936 45.046380 32.320039 0.000000 57.000000 14.320039 1.000000
-64.435181 49.548878 32.863863 0.000000 50.000000 14.863863 23.000000
-64.352612 45.192333 32.154489 0.000000 22.000000 14.154489 0.000000
-63.569551 49.547421 32.491876 0.000000 63.000000 14.491876 26.000000
-60.794514 46.026944 32.170759 0.000000 40.000000 14.170759 0.000000
-60.928440 45.913451 32.125018 0.000000 44.000000 14.125018 0.000000
-63.851456 47.190902 32.489968 0.000000 45.000000 14.489968 19.000000
-63.202507 47.790347 32.801742 0.000000 43.000000 14.801742 24.000000
-63.661159 49.603034 32.795058 0.000000 51.000000 14.795058 26.000000
-65.107448 43.140754 32.613355 0.000000 43.000000 14.613355 6.000000
-62.289289 47.275552 32.170581 0.000000 30.000000 14.170581 0.000000
-62.562284 47.320007 32.675967 0.000000 50.000000 14.675967 25.000000
-63.613766 48.318261 32.911354 0.000000 79.000000 14.911354 24.000000
-65.063845 48.018061 32.354913 0.000000 45.000000 14.354913 10.000000
-61.318083 46.848798 32.716815 0.000000 66.000000 14.716815 22.000000
-63.348237 42.739350 32.344895 0.000000 44.000000 14.344895 3.000000
-61.560330 47.510560 32.917306 0.000000 42.000000 14.917306 22.000000
-64.463559 43.423023 32.820858 0.000000 42.000000 14.820858 5.000000
-63.441981 43.647515 32.219800 0.000000 47.000000 14.219800 0.000000
-63.586105 43.548136 32.238142 0.000000 54.000000 14.238142 0.000000
-60.730298 45.656679 32.203275 0.000000 29.000000 14.203275 0.000000
-63.905238 43.353554 32.250457 0.000000 51.000000 14.250457 0.000000
-64.229184 43.271153 32.079630 0.000000 18.000000 14.079630 0.000000
-65.265108 47.368461 32.505112 0.000000 51.000000 14.505112 10.000000
-61.762431 47.646461 32.736265 0.000000 59.000000 14.736265 21.000000
-59.839779 46.039079 32.567797 0.000000 48.000000 14.567797 7.000000
-66.383061 46.641607 32.566385 0.000000 65.000000 14.566385 8.000000
-65.248695 47.542979 32.651787 0.000000 54.000000 14.651787 10.000000
-64.060168 41.885293 32.238954 0.000000 35.000000 14.238954 0.000000
-65.084732 48.903876 32.608981 0.000000 64.000000 14.608981 16.000000
-61.726584 48.065142 32.189827 0.000000 51.000000 14.189827 0.000000
-60.741139 47.133848 32.212229 0.000000 48.000000 14.212229 0.000000
-67.209841 47.188829 32.296968 0.000000 39.000000 14.296968 28.000000
-63.521205 49.118300 32.810647 0.000000 52.000000 14.810647 12.000000
-61.568967 46.692860 32.046692 0.000000 38.000000 14.046692 0.000000
-62.976690 46.978942 32.447936 0.000000 57.000000 14.447936 19.000000
-63.351122 47.032047 32.728206 0.000000 55.000000 14.728206 19.000000
-63.052927 42.635656 32.313148 0.000000 33.000000 14.313148 3.000000
-63.186579 47.099061 32.665805 0.000000 63.000000 14.665805 19.000000
-67.310082 47.044090 32.752120 0.000000 54.000000 14.752120 28.000000
-67.266129 45.731784 32.488175 0.000000 79.000000 14.488175 14.000000
-63.428683 45.642348 32.178987 0.000000 40.000000 14.178987 0.000000
-64.728956 46.477949 32.156349 0.000000 38.000000 14.156349 0.000000
-62.186874 48.522790 32.310580 0.000000 30.000000 14.310580 0.000000
-64.913052 46.400152 32.168604 0.000000 49.000000 14.168604 0.000000
-63.784481 45.491990 32.191460 0.000000 53.000000 14.191460 0.000000
-64.316166 47.813973 32.255851 0.000000 50.000000 14.255851 0.000000
-63.986918 45.423837 32.173711 0.000000 37.000000 14.173711 0.000000
-63.451716 42.227018 32.652080 0.000000 36.000000 14.652080 3.000000
-61.645346 44.219509 32.522425 0.000000 45.000000 14.522425 4.000000
-65.544683 46.193529 32.143467 0.000000 38.000000 14.143467 0.000000
-63.842900 42.364731 33.090199 0.000000 39.000000 15.090199 3.000000
-65.716629 46.119199 32.180971 0.000000 46.000000 14.180971 0.000000
-63.018992 48.186167 32.399575 0.000000 62.000000 14.399575 24.000000
-64.366012 48.990275 32.881252 0.000000 47.000000 14.881252 23.000000
-64.938408 48.715864 32.372078 0.000000 39.000000 14.372078 16.000000
-64.142076 48.127329 32.298495 0.000000 45.000000 14.298495 0.000000
-64.934943 45.085951 32.218102 0.000000 47.000000 14.218102 0.000000
-66.314854 45.917842 32.237000 0.000000 52.000000 14.237000 0.000000
-65.142937 45.024526 32.218499 0.000000 39.000000 14.218499 0.000000
-66.654033 45.881559 32.128517 0.000000 30.000000 14.128517 0.000000
-64.001174 49.206564 32.733318 0.000000 75.000000 14.733318 23.000000
-64.149130 48.808745 32.741926 0.000000 52.000000 14.741926 23.000000
-65.047749 43.533418 32.636255 0.000000 48.000000 14.636255 6.000000
-65.900090 44.874015 32.102546 0.000000 32.000000 14.102546 0.000000
-61.719819 45.561649 32.644498 0.000000 65.000000 14.644498 17.000000
-67.477747 45.646809 32.237696 0.000000 41.000000 14.237696 0.000000
-62.283341 46.230274 32.658864 0.000000 47.000000 14.658864 30.000000
-66.503500 44.717207 32.172281 0.000000 37.000000 14.172281 0.000000
-66.705458 45.519101 32.134542 0.000000 31.000000 14.134542 0.000000
-61.030477 44.842668 32.204752 0.000000 48.000000 14.204752 0.000000
-61.913901 43.706395 32.632990 0.000000 57.000000 14.632990 29.000000
-61.038508 45.154171 32.201547 0.000000 45.000000 14.201547 0.000000
-61.043002 45.312048 32.191812 0.000000 39.000000 14.191812 0.000000
-61.039084 45.469212 32.193344 0.000000 49.000000 14.193344 0.000000
-62.482771 48.443331 32.496731 0.000000 61.000000 14.496731 20.000000
-62.389229 47.756701 32.314229 0.000000 32.000000 14.314229 0.000000
-61.031041 45.948062 32.163324 0.000000 40.000000 14.163324 0.000000
-66.745204 46.647852 32.528342 0.000000 55.000000 14.528342 8.000000
-61.088566 46.292262 32.037153 0.000000 35.000000 14.037153 0.000000
-61.078364 46.454911 32.022704 0.000000 28.000000 14.022704 0.000000
-61.879978 46.921407 32.565896 0.000000 60.000000 14.565896 11.000000
-60.812495 47.190961 32.199343 0.000000 53.000000 14.199343 0.000000
-64.863785 47.741428 32.638840 0.000000 54.000000 14.638840 10.000000
-61.748790 43.891584 32.416507 0.000000 52.000000 14.416507 4.000000
-62.290453 48.515399 32.209033 0.000000 46.000000 14.209033 0.000000
-64.194838 48.818598 32.693151 0.000000 56.000000 14.693151 23.000000
-63.630968 48.303398 32.695305 0.000000 36.000000 14.695305 24.000000
-67.166168 46.104243 32.502768 0.000000 60.000000 14.502768 14.000000
-61.173386 47.472514 32.237570 0.000000 35.000000 14.237570 0.000000
-62.037897 47.111734 32.120351 0.000000 30.000000 14.120351 0.000000
-64.451843 42.994887 32.196741 0.000000 36.000000 14.196741 0.000000
-63.230829 43.038915 32.217644 0.000000 43.000000 14.217644 0.000000
-64.540175 43.152777 32.673646 0.000000 29.000000 14.673646 5.000000
-60.055973 45.741886 32.622235 0.000000 78.000000 14.622235 7.000000
-64.390760 44.132374 32.216502 0.000000 55.000000 14.216502 0.000000
-63.204857 43.519882 32.186025 0.000000 35.000000 14.186025 0.000000
-64.375438 44.297709 32.211927 0.000000 49.000000 14.211927 0.000000
-61.788213 45.816734 32.446570 0.000000 61.000000 14.446570 18.000000
-63.167846 43.839297 32.168592 0.000000 35.000000 14.168592 0.000000
-63.208681 44.006708 32.082111 0.000000 29.000000 14.082111 0.000000
-63.203759 44.169296 32.046593 0.000000 15.000000 14.046593 0.000000
-64.331427 44.962664 32.129436 0.000000 36.000000 14.129436 0.000000
-63.152266 44.326413 32.065030 0.000000 16.000000 14.065030 0.000000
-64.347677 45.133714 32.067455 0.000000 29.000000 14.067455 0.000000
-66.451761 46.464229 32.388043 0.000000 71.000000 14.388043 8.000000
-67.574647 45.639926 32.743271 0.000000 49.000000 14.743271 13.000000
-64.222998 44.527701 32.323948 0.000000 38.000000 14.323948 2.000000
-64.105661 45.600046 32.187564 0.000000 47.000000 14.187564 0.000000
-62.882819 44.939599 32.172773 0.000000 31.000000 14.172773 0.000000
-63.267752 49.558899 32.252004 0.000000 62.000000 14.252004 0.000000
-62.830012 45.092855 32.173204 0.000000 34.000000 14.173204 0.000000
-67.466972 45.743869 32.379533 0.000000 32.000000 14.379533 14.000000
-66.348851 47.334846 32.122538 0.000000 35.000000 14.122538 0.000000
-63.032538 47.033493 32.695174 0.000000 52.000000 14.695174 19.000000
-62.715163 45.398588 32.174685 0.000000 38.000000 14.174685 0.000000
-60.875355 44.965455 32.207303 0.000000 33.000000 14.207303 0.000000
-64.227409 49.422362 32.772690 0.000000 53.000000 14.772690 23.000000
-63.800138 46.736185 32.045279 0.000000 33.000000 14.045279 0.000000
-61.976698 47.020753 32.075493 0.000000 33.000000 14.075493 0.000000
-61.127722 45.912590 32.656531 0.000000 67.000000 14.656531 11.000000
-63.735971 42.903031 32.539415 0.000000 50.000000 14.539415 3.000000
-62.411909 48.695334 32.195498 0.000000 40.000000 14.195498 0.000000
-66.987903 44.981918 32.175194 0.000000 35.000000 14.175194 0.000000
-66.874880 45.138567 32.203460 0.000000 38.000000 14.203460 0.000000
-65.297053 48.130364 32.528014 0.000000 48.000000 14.528014 10.000000
-66.416858 45.918603 32.195683 0.000000 44.000000 14.195683 0.000000
-62.417403 48.456415 32.469307 0.000000 54.000000 14.469307 20.000000
-66.224893 46.220231 32.173207 0.000000 42.000000 14.173207 0.000000
-65.452909 45.503832 32.225305 0.000000 39.000000 14.225305 0.000000
-61.741375 45.678803 32.285042 0.000000 45.000000 14.285042 18.000000
-65.949959 46.667699 32.110809 0.000000 38.000000 14.110809 0.000000
-64.152085 48.838034 32.752585 0.000000 76.000000 14.752585 23.000000
-65.767822 46.962569 32.048628 0.000000 22.000000 14.048628 0.000000
-65.503679 47.059905 32.193212 0.000000 39.000000 14.193212 0.000000
-64.950076 49.076527 32.465632 0.000000 57.000000 14.465632 16.000000
-63.181946 46.676226 32.575063 0.000000 47.000000 14.575063 19.000000
-64.773125 47.846087 32.125303 0.000000 44.000000 14.125303 0.000000
-63.957224 49.996573 32.186127 0.000000 30.000000 14.186127 0.000000
-63.768512 42.815869 32.465309 0.000000 37.000000 14.465309 3.000000
-64.645900 49.829093 32.214397 0.000000 42.000000 14.214397 0.000000
-63.901188 49.491369 32.707017 0.000000 58.000000 14.707017 23.000000
-64.902359 47.501476 32.636873 0.000000 47.000000 14.636873 10.000000
-62.905978 49.091452 32.198937 0.000000 49.000000 14.198937 0.000000
-64.168911 50.131257 32.177420 0.000000 54.000000 14.177420 0.000000
-64.001549 50.223449 32.172301 0.000000 47.000000 14.172301 0.000000
-62.330666 45.376862 32.385340 0.000000 29.000000 14.385340 0.000000
-61.256693 47.433000 32.219355 0.000000 47.000000 14.219355 0.000000
-60.322131 46.528660 32.199792 0.000000 39.000000 14.199792 0.000000
-64.827901 48.647144 32.710519 0.000000 44.000000 14.710519 16.000000
-64.912706 47.411635 32.373179 0.000000 57.000000 14.373179 10.000000
-61.021243 45.864083 32.234156 0.000000 48.000000 14.234156 0.000000
-62.592636 46.609359 32.374795 0.000000 47.000000 14.374795 30.000000
-61.308008 45.659526 32.198428 0.000000 35.000000 14.198428 0.000000
-67.241451 45.597126 32.657968 0.000000 53.000000 14.657968 14.000000
-62.999651 49.449857 32.693143 0.000000 77.000000 14.693143 12.000000
-63.512245 47.586721 32.346291 0.000000 40.000000 14.346291 0.000000
-60.876437 46.745513 32.641397 0.000000 68.000000 14.641397 22.000000
-64.002546 49.330376 32.679260 0.000000 66.000000 14.679260 23.000000
-63.676014 43.463461 32.246942 0.000000 34.000000 14.246942 0.000000
-65.776231 47.495675 32.253959 0.000000 40.000000 14.253959 0.000000
-61.380030 45.409997 32.313603 0.000000 43.000000 14.313603 17.000000
-65.397225 48.979342 32.494896 0.000000 51.000000 14.494896 16.000000
-63.672513 45.664353 32.175205 0.000000 44.000000 14.175205 0.000000
-62.627604 44.772288 32.184662 0.000000 46.000000 14.184662 0.000000
-63.820735 45.567950 32.194886 0.000000 54.000000 14.194886 0.000000
-62.784467 44.679304 32.187031 0.000000 43.000000 14.187031 0.000000
-64.009455 45.480143 32.172704 0.000000 39.000000 14.172704 0.000000
-64.198133 45.392785 32.158326 0.000000 32.000000 14.158326 0.000000
-64.381755 45.306322 32.149113 0.000000 35.000000 14.149113 0.000000
-64.318981 42.310201 32.636389 0.000000 42.000000 14.636389 6.000000
-64.575726 45.221372 32.132717 0.000000 43.000000 14.132717 0.000000
-62.918645 47.778019 32.661286 0.000000 40.000000 14.661286 25.000000
-66.586283 45.697417 32.675339 0.000000 43.000000 14.675339 15.000000
-62.750188 48.552246 32.598673 0.000000 46.000000 14.598673 20.000000
-63.765047 49.726980 32.492151 0.000000 56.000000 14.492151 26.000000
-63.280563 42.543816 32.697569 0.000000 29.000000 14.697569 3.000000
-64.160161 48.719529 32.657107 0.000000 60.000000 14.657107 23.000000
-64.635547 48.605127 32.520470 0.000000 55.000000 14.520470 16.000000
-65.272557 44.879077 32.193902 0.000000 40.000000 14.193902 0.000000
-63.963468 46.644860 32.513579 0.000000 42.000000 14.513579 9.000000
-65.505809 44.805677 32.156762 0.000000 34.000000 14.156762 0.000000
-61.534804 47.512156 32.811493 0.000000 65.000000 14.811493 22.000000
-65.969851 44.664155 32.092690 0.000000 38.000000 14.092690 0.000000
-63.523838 49.202268 32.842555 0.000000 44.000000 14.842555 12.000000
-65.604881 45.727351 32.222649 0.000000 37.000000 14.222649 0.000000
-66.533630 44.436140 32.172556 0.000000 41.000000 14.172556 0.000000
-63.593191 48.641601 32.460570 0.000000 50.000000 14.460570 24.000000
-64.736399 42.706555 33.074134 0.000000 46.000000 15.074134 6.000000
-61.969326 46.937237 32.606540 0.000000 59.000000 14.606540 11.000000
-64.613669 49.283345 32.710926 0.000000 71.000000 14.710926 23.000000
-64.307248 48.346022 32.175932 0.000000 38.000000 14.175932 0.000000
-63.101565 48.824215 32.448234 0.000000 63.000000 14.448234 12.000000
-62.136233 48.098581 32.550012 0.000000 61.000000 14.550012 21.000000
-61.193015 45.732360 32.258636 0.000000 30.000000 14.258636 11.000000
-65.505195 48.028360 32.412209 0.000000 57.000000 14.412209 10.000000
-64.073833 43.695192 32.474298 0.000000 30.000000 14.474298 5.000000
-66.211723 47.874485 32.204545 0.000000 54.000000 14.204545 0.000000
-62.378347 48.193882 32.654923 0.000000 72.000000 14.654923 20.000000
-66.569155 47.873470 32.080560 0.000000 33.000000 14.080560 0.000000
-63.503977 47.039327 32.503317 0.000000 48.000000 14.503317 19.000000
-65.463797 46.862958 32.199166 0.000000 37.000000 14.199166 0.000000
-62.967310 46.807252 32.541127 0.000000 64.000000 14.541127 19.000000
-66.007714 46.815448 32.108937 0.000000 44.000000 14.108937 0.000000
-61.637022 45.929107 32.536415 0.000000 60.000000 14.536415 18.000000
-66.413937 46.736152 32.173645 0.000000 40.000000 14.173645 0.000000
-61.741888 43.883615 32.547872 0.000000 72.000000 14.547872 4.000000
-62.789981 43.002640 32.194616 0.000000 39.000000 14.194616 0.000000
-62.804918 43.158747 32.202751 0.000000 35.000000 14.202751 0.000000
-62.817496 43.313644 32.207605 0.000000 39.000000 14.207605 0.000000
-63.609747 47.362652 32.656152 0.000000 55.000000 14.656152 19.000000
-67.128694 46.982038 32.255791 0.000000 38.000000 14.255791 28.000000
-62.808784 43.780342 32.257330 0.000000 32.000000 14.257330 0.000000
-62.923006 44.108983 32.122856 0.000000 19.000000 14.122856 0.000000
-61.914803 45.828065 32.570387 0.000000 68.000000 14.570387 18.000000
-65.261295 48.683282 32.966434 0.000000 63.000000 14.966434 16.000000
-63.220987 48.943429 32.557484 0.000000 63.000000 14.557484 12.000000
-63.574707 45.389299 32.270771 0.000000 37.000000 14.270771 0.000000
-62.828879 44.897216 32.185619 0.000000 35.000000 14.185619 0.000000
-63.692134 42.409464 32.863290 0.000000 29.000000 14.863290 3.000000
-67.097250 45.266685 32.274632 0.000000 49.000000 14.274632 14.000000
-62.781326 45.377007 32.165319 0.000000 38.000000 14.165319 0.000000
-62.750083 45.537241 32.170548 0.000000 43.000000 14.170548 0.000000
-67.106044 46.617135 32.697562 0.000000 43.000000 14.697562 8.000000
-61.460116 47.514644 32.627507 0.000000 51.000000 14.627507 22.000000
-61.395749 45.802995 32.203895 0.000000 35.000000 14.203895 0.000000
-64.188453 49.608094 32.411176 0.000000 61.000000 14.411176 23.000000
-61.301672 46.436838 32.044917 0.000000 32.000000 14.044917 0.000000
-62.316048 47.276711 32.101818 0.000000 39.000000 14.101818 0.000000
-64.560229 48.347095 32.491621 0.000000 40.000000 14.491621 16.000000
-60.839169 47.108078 32.248631 0.000000 49.000000 14.248631 0.000000
-60.791576 47.257783 32.216097 0.000000 52.000000 14.216097 0.000000
-61.794265 48.121602 32.252213 0.000000 49.000000 14.252213 0.000000
-63.171713 47.366090 32.544491 0.000000 33.000000 14.544491 19.000000
-65.487985 43.737421 32.192924 0.000000 44.000000 14.192924 0.000000
-65.449687 43.899928 32.188996 0.000000 35.000000 14.188996 0.000000
-66.217249 46.525038 32.199244 0.000000 44.000000 14.199244 0.000000
-62.546874 47.306252 32.744646 0.000000 71.000000 14.744646 25.000000
-66.827081 44.896505 32.168526 0.000000 47.000000 14.168526 0.000000
-63.809690 48.773673 32.590527 0.000000 67.000000 14.590527 23.000000
-61.213580 47.035343 32.636817 0.000000 71.000000 14.636817 22.000000
-61.849871 48.146659 32.552792 0.000000 43.000000 14.552792 21.000000
-62.144445 45.778895 32.620817 0.000000 40.000000 14.620817 18.000000
-65.115913 44.865206 32.198018 0.000000 38.000000 14.198018 0.000000
-66.564514 45.732874 32.135660 0.000000 35.000000 14.135660 0.000000
-63.311609 47.316541 32.640749 0.000000 72.000000 14.640749 19.000000
-66.454460 45.890569 32.174092 0.000000 44.000000 14.174092 0.000000
-64.974604 45.179255 32.202914 0.000000 43.000000 14.202914 0.000000
-63.570454 43.568986 32.235527 0.000000 24.000000 14.235527 0.000000
-61.299326 45.025898 32.554717 0.000000 76.000000 14.554717 17.000000
-66.303378 46.214317 32.173368 0.000000 48.000000 14.173368 0.000000
-66.304931 47.472685 32.073467 0.000000 24.000000 14.073467 0.000000
-66.225183 46.376079 32.168882 0.000000 45.000000 14.168882 0.000000
-64.656835 49.036517 32.589169 0.000000 42.000000 14.589169 23.000000
-67.160792 45.812715 32.593369 0.000000 47.000000 14.593369 14.000000
-64.828520 45.830293 32.021892 0.000000 18.000000 14.021892 0.000000
-66.092858 46.699260 32.127951 0.000000 40.000000 14.127951 0.000000
-64.674853 45.964290 32.096278 0.000000 31.000000 14.096278 0.000000
-66.035487 46.863226 32.093513 0.000000 44.000000 14.093513 0.000000
-64.611241 42.804450 32.700780 0.000000 50.000000 14.700780 6.000000
-66.005513 47.034527 32.026717 0.000000 36.000000 14.026717 0.000000
-64.429539 46.243505 32.167501 0.000000 38.000000 14.167501 0.000000
-65.378823 47.873051 32.757194 0.000000 61.000000 14.757194 10.000000
-63.409916 48.451295 32.672835 0.000000 61.000000 14.672835 24.000000
-61.732152 48.019960 32.527322 0.000000 61.000000 14.527322 21.000000
-65.085480 48.007579 32.445601 0.000000 65.000000 14.445601 10.000000
-61.484978 44.220441 32.455483 0.000000 70.000000 14.455483 4.000000
-63.410076 49.645849 32.163788 0.000000 40.000000 14.163788 0.000000
-64.218547 50.110208 32.191914 0.000000 52.000000 14.191914 0.000000
-64.054309 50.186773 32.165304 0.000000 39.000000 14.165304 0.000000
-60.607110 47.142632 32.199819 0.000000 46.000000 14.199819 0.000000
-61.599352 45.846820 32.393116 0.000000 44.000000 14.393116 18.000000
-61.214323 46.556033 32.033477 0.000000 34.000000 14.033477 0.000000
-61.310359 46.430255 32.045559 0.000000 35.000000 14.045559 0.000000
-63.946266 47.350569 32.368346 0.000000 43.000000 14.368346 19.000000
-63.860123 47.501094 32.557120 0.000000 63.000000 14.557120 19.000000
-62.448120 45.276302 32.186426 0.000000 38.000000 14.186426 0.000000
-64.276992 49.683591 32.258148 0.000000 40.000000 14.258148 23.000000
-60.556563 45.140583 32.227497 0.000000 47.000000 14.227497 0.000000
-63.577734 47.343766 32.620341 0.000000 60.000000 14.620341 19.000000
-60.791606 44.911838 32.212317 0.000000 38.000000 14.212317 0.000000
-60.914158 44.800425 32.204096 0.000000 39.000000 14.204096 0.000000
-60.391501 46.245704 32.587416 0.000000 38.000000 14.587416 7.000000
-62.393587 45.238485 32.194487 0.000000 49.000000 14.194487 0.000000
-62.505120 45.122571 32.224497 0.000000 49.000000 14.224497 0.000000
-62.671514 45.019724 32.186458 0.000000 39.000000 14.186458 0.000000
-62.804722 44.911719 32.195065 0.000000 37.000000 14.195065 0.000000
-64.352311 43.622813 32.857587 0.000000 23.000000 14.857587 5.000000
-63.452832 44.506139 32.120897 0.000000 14.000000 14.120897 0.000000
-62.530096 47.884695 32.255130 0.000000 34.000000 14.255130 0.000000
-64.737604 43.111332 32.863399 0.000000 57.000000 14.863399 6.000000
-62.804380 43.324789 32.222653 0.000000 39.000000 14.222653 0.000000
-60.634247 46.436476 32.188689 0.000000 32.000000 14.188689 0.000000
-65.183283 43.395750 32.551053 0.000000 45.000000 14.551053 6.000000
-64.893262 43.132514 32.638870 0.000000 46.000000 14.638870 6.000000
-63.124188 46.715551 32.384908 0.000000 58.000000 14.384908 19.000000
-63.265986 43.045481 32.246854 0.000000 47.000000 14.246854 0.000000
-63.421565 42.954752 32.257161 0.000000 44.000000 14.257161 0.000000
-64.037666 46.506856 32.554276 0.000000 51.000000 14.554276 9.000000
-63.485305 46.197326 32.279808 0.000000 50.000000 14.279808 0.000000
-62.888461 45.374349 32.221875 0.000000 40.000000 14.221875 0.000000
-62.471928 47.621048 32.288276 0.000000 46.000000 14.288276 25.000000
-63.565281 46.183851 32.305820 0.000000 49.000000 14.305820 0.000000
-62.970902 47.820898 32.565639 0.000000 47.000000 14.565639 25.000000
-61.800482 44.575692 32.358288 0.000000 45.000000 14.358288 4.000000
-64.629975 47.218728 32.168574 0.000000 47.000000 14.168574 0.000000
-63.498677 46.285944 32.231063 0.000000 52.000000 14.231063 0.000000
-64.820327 47.144404 32.170874 0.000000 47.000000 14.170874 0.000000
-65.009015 47.071561 32.178069 0.000000 40.000000 14.178069 0.000000
-65.201197 46.999506 32.186415 0.000000 43.000000 14.186415 0.000000
-64.078621 46.079614 32.199792 0.000000 37.000000 14.199792 0.000000
-65.377187 46.923489 32.212517 0.000000 48.000000 14.212517 0.000000
-64.295864 46.019297 32.170418 0.000000 34.000000 14.170418 0.000000
-64.503559 48.352975 32.369596 0.000000 43.000000 14.369596 16.000000
-63.807881 48.974849 32.673114 0.000000 68.000000 14.673114 23.000000
-63.677719 48.210251 32.795310 0.000000 65.000000 14.795310 24.000000
-64.770467 45.907591 32.079886 0.000000 21.000000 14.079886 0.000000
-64.945130 43.127459 32.288876 0.000000 49.000000 14.288876 6.000000
-62.781417 44.698961 32.203142 0.000000 32.000000 14.203142 0.000000
-66.266443 46.682042 32.168838 0.000000 45.000000 14.168838 0.000000
-61.257465 44.618644 32.634583 0.000000 58.000000 14.634583 17.000000
-65.283635 45.706543 32.189260 0.000000 41.000000 14.189260 0.000000
-63.061353 44.248195 32.371162 0.000000 31.000000 14.371162 0.000000
-61.229337 47.716899 32.311235 0.000000 46.000000 14.311235 0.000000
-65.916227 45.542515 32.199283 0.000000 45.000000 14.199283 0.000000
-67.483755 46.425613 32.105029 0.000000 29.000000 14.105029 0.000000
-61.023002 46.805574 32.681383 0.000000 58.000000 14.681383 22.000000
-63.842133 47.892960 32.286669 0.000000 42.000000 14.286669 0.000000
-61.924067 44.526517 32.416091 0.000000 47.000000 14.416091 4.000000
-68.140345 46.272126 32.185247 0.000000 41.000000 14.185247 0.000000
-64.126638 46.678182 32.376934 0.000000 30.000000 14.376934 9.000000
-61.548746 44.388058 32.201950 0.000000 39.000000 14.201950 0.000000
-62.536474 47.620812 32.561193 0.000000 53.000000 14.561193 25.000000
-63.041441 42.754637 32.603962 0.000000 53.000000 14.603962 3.000000
-63.781182 47.619718 32.307283 0.000000 68.000000 14.307283 19.000000
-62.265582 47.199371 32.202745 0.000000 35.000000 14.202745 0.000000
-60.543663 45.305805 32.220922 0.000000 49.000000 14.220922 0.000000
-60.577149 45.472532 32.142755 0.000000 31.000000 14.142755 0.000000
-60.586591 45.634132 32.100012 0.000000 32.000000 14.100012 0.000000
-62.821396 46.490541 32.587806 0.000000 68.000000 14.587806 30.000000
-64.354540 49.783918 32.593479 0.000000 82.000000 14.593479 23.000000
-62.671645 47.520333 32.864939 0.000000 63.000000 14.864939 25.000000
-62.776430 43.979944 32.271428 0.000000 30.000000 14.271428 0.000000
-62.742390 48.964748 32.240437 0.000000 50.000000 14.240437 0.000000
-63.872058 43.469456 32.540205 0.000000 46.000000 14.540205 5.000000
-66.140543 45.402292 32.315389 0.000000 31.000000 14.315389 15.000000
-64.086762 48.985901 32.883226 0.000000 37.000000 14.883226 23.000000
-63.876819 41.847304 32.210794 0.000000 34.000000 14.210794 0.000000
-63.993364 43.125065 32.108601 0.000000 27.000000 14.108601 0.000000
-64.561870 49.553894 32.446426 0.000000 56.000000 14.446426 23.000000
-65.262037 44.073892 32.055194 0.000000 30.000000 14.055194 0.000000
-63.795517 42.966760 32.508837 0.000000 42.000000 14.508837 3.000000
-65.264588 44.241555 32.037124 0.000000 23.000000 14.037124 0.000000
-63.844167 43.603158 32.224830 0.000000 40.000000 14.224830 0.000000
-66.949170 46.931079 32.287971 0.000000 41.000000 14.287971 8.000000
-63.840573 43.764325 32.203587 0.000000 36.000000 14.203587 0.000000
-65.079581 44.557698 32.188223 0.000000 49.000000 14.188223 0.000000
-63.827091 43.927180 32.187673 0.000000 30.000000 14.187673 0.000000
-65.036419 44.719532 32.205400 0.000000 49.000000 14.205400 0.000000
-62.635741 45.605217 32.283117 0.000000 42.000000 14.283117 0.000000
-65.010212 44.885824 32.200459 0.000000 42.000000 14.200459 0.000000
-62.606983 43.574531 32.343477 0.000000 31.000000 14.343477 0.000000
-64.960321 45.046619 32.219544 0.000000 43.000000 14.219544 0.000000
-63.677875 44.399931 32.243928 0.000000 44.000000 14.243928 0.000000
-61.725478 47.805249 32.607444 0.000000 70.000000 14.607444 21.000000
-63.601463 48.577232 32.591946 0.000000 71.000000 14.591946 24.000000
-64.911824 45.380242 32.185781 0.000000 43.000000 14.185781 0.000000
-63.774448 44.743242 32.035044 0.000000 16.000000 14.035044 0.000000
-64.934796 45.555200 32.112261 0.000000 37.000000 14.112261 0.000000
-62.339029 46.428771 32.298427 0.000000 43.000000 14.298427 30.000000
-67.359914 45.312661 32.551200 0.000000 50.000000 14.551200 14.000000
-62.871100 47.637562 32.820920 0.000000 42.000000 14.820920 25.000000
-64.883813 45.887866 32.058774 0.000000 30.000000 14.058774 0.000000
-63.491809 45.189124 32.192984 0.000000 37.000000 14.192984 0.000000
-64.269258 46.619326 32.492062 0.000000 43.000000 14.492062 9.000000
-63.881573 48.906678 32.634686 0.000000 47.000000 14.634686 23.000000
-64.683970 46.190913 32.153770 0.000000 39.000000 14.153770 0.000000
-63.346859 42.418940 32.668716 0.000000 62.000000 14.668716 3.000000
-64.612158 46.345931 32.164750 0.000000 42.000000 14.164750 0.000000
-63.313863 45.649119 32.196698 0.000000 34.000000 14.196698 0.000000
-62.508050 43.579162 32.380626 0.000000 42.000000 14.380626 0.000000
-63.771625 46.075245 32.295351 0.000000 43.000000 14.295351 0.000000
-63.230240 45.962541 32.140861 0.000000 33.000000 14.140861 0.000000
-64.506351 48.798457 32.777570 0.000000 52.000000 14.777570 23.000000
-62.582000 46.331540 32.927028 0.000000 65.000000 14.927028 30.000000
-62.734826 46.826696 32.186735 0.000000 36.000000 14.186735 0.000000
-63.917087 47.718135 32.171254 0.000000 51.000000 14.171254 0.000000
-62.894928 42.882756 32.558661 0.000000 47.000000 14.558661 3.000000
-66.534613 45.483805 32.645925 0.000000 51.000000 14.645925 15.000000
-65.024040 48.765596 32.698134 0.000000 63.000000 14.698134 16.000000
-63.449376 48.611876 32.036686 0.000000 44.000000 14.036686 0.000000
-63.073218 48.811140 32.232757 0.000000 58.000000 14.232757 0.000000
-61.475411 45.530508 32.305786 0.000000 36.000000 14.305786 17.000000
-62.264399 47.933650 32.646055 0.000000 55.000000 14.646055 21.000000
-61.523644 45.633629 32.444255 0.000000 71.000000 14.444255 17.000000
-63.273782 44.518094 32.436654 0.000000 32.000000 14.436654 1.000000
-66.766161 46.934244 32.202256 0.000000 41.000000 14.202256 0.000000
-61.949091 46.774116 32.911204 0.000000 73.000000 14.911204 11.000000
-60.119546 45.883081 32.749593 0.000000 67.000000 14.749593 7.000000
-60.611489 46.662639 32.237616 0.000000 24.000000 14.237616 0.000000
-64.248087 49.013385 32.809460 0.000000 52.000000 14.809460 23.000000
-66.197320 47.644144 32.137498 0.000000 34.000000 14.137498 0.000000
-62.446442 46.093053 32.409406 0.000000 39.000000 14.409406 30.000000
-65.492001 48.274705 32.143594 0.000000 45.000000 14.143594 0.000000
-63.417816 49.607353 32.183944 0.000000 38.000000 14.183944 0.000000
-61.638770 47.686153 32.596848 0.000000 52.000000 14.596848 22.000000
-62.999778 47.142386 32.626795 0.000000 57.000000 14.626795 19.000000
-64.110174 49.318103 32.853071 0.000000 56.000000 14.853071 23.000000
-62.439533 46.237558 32.742473 0.000000 63.000000 14.742473 30.000000
-62.619194 46.445025 32.441660 0.000000 45.000000 14.441660 30.000000
-61.014666 45.225470 32.221034 0.000000 47.000000 14.221034 0.000000
-61.112192 45.100554 32.222878 0.000000 53.000000 14.222878 0.000000
-63.298411 47.878339 32.893570 0.000000 69.000000 14.893570 24.000000
-64.197889 46.006499 32.214655 0.000000 35.000000 14.214655 0.000000
-61.657186 45.648153 32.676208 0.000000 64.000000 14.676208 18.000000
-65.185977 43.366778 32.879929 0.000000 28.000000 14.879929 6.000000
-61.634433 48.094593 32.190743 0.000000 40.000000 14.190743 0.000000
-60.663426 47.162743 32.213551 0.000000 53.000000 14.213551 0.000000
-62.565812 46.281984 32.688195 0.000000 58.000000 14.688195 30.000000
-61.798448 47.533092 32.691717 0.000000 66.000000 14.691717 22.000000
-62.636471 47.826138 32.692866 0.000000 57.000000 14.692866 25.000000
-61.678317 44.000837 32.708453 0.000000 58.000000 14.708453 4.000000
-62.461584 47.454141 32.118720 0.000000 38.000000 14.118720 0.000000
-62.515285 43.648149 32.287038 0.000000 39.000000 14.287038 0.000000
-61.266944 47.202166 32.417610 0.000000 66.000000 14.417610 22.000000
-62.842978 48.558767 32.393850 0.000000 33.000000 14.393850 20.000000
-62.435377 47.401072 32.568796 0.000000 64.000000 14.568796 25.000000
-61.657180 44.139127 32.994368 0.000000 1.000000 14.994368 4.000000
-63.011554 45.435075 32.207550 0.000000 38.000000 14.207550 0.000000
-62.349419 48.697891 32.278468 0.000000 40.000000 14.278468 0.000000
-63.722125 47.210297 32.666947 0.000000 52.000000 14.666947 19.000000
-62.280912 48.261646 32.519887 0.000000 36.000000 14.519887 20.000000
-64.032414 46.411757 32.486607 0.000000 63.000000 14.486607 9.000000
-64.634500 46.080875 32.147168 0.000000 32.000000 14.147168 0.000000
-63.642589 47.507236 32.497584 0.000000 52.000000 14.497584 19.000000
-64.155826 49.086115 32.761591 0.000000 57.000000 14.761591 23.000000
-63.854950 46.631379 32.181300 0.000000 31.000000 14.181300 0.000000
-65.038914 45.917645 32.102123 0.000000 29.000000 14.102123 0.000000
-63.950379 45.016843 32.095906 0.000000 25.000000 14.095906 0.000000
-60.085757 46.625605 32.241814 0.000000 32.000000 14.241814 0.000000
-61.977065 47.776480 32.603530 0.000000 44.000000 14.603530 21.000000
-66.186290 47.973052 32.268139 0.000000 42.000000 14.268139 0.000000
-64.256235 44.845403 32.155972 0.000000 34.000000 14.155972 0.000000
-63.913506 43.591210 32.590281 0.000000 47.000000 14.590281 5.000000
-61.391565 47.515094 32.671413 0.000000 73.000000 14.671413 22.000000
-63.115070 46.767085 32.339420 0.000000 54.000000 14.339420 19.000000
-67.796501 45.823076 33.107146 0.000000 41.000000 15.107146 13.000000
-64.757183 44.603207 32.219335 0.000000 52.000000 14.219335 0.000000
-61.830125 47.982195 32.683675 0.000000 62.000000 14.683675 21.000000
-61.268637 46.253461 32.315604 0.000000 55.000000 14.315604 11.000000
-62.974102 48.048564 32.389235 0.000000 54.000000 14.389235 24.000000
-63.539695 49.229318 32.829206 0.000000 61.000000 14.829206 12.000000
-63.442157 48.734918 32.305186 0.000000 45.000000 14.305186 0.000000
-60.127079 46.309066 32.592408 0.000000 74.000000 14.592408 7.000000
-63.111891 48.863708 32.502954 0.000000 69.000000 14.502954 12.000000
-67.197535 45.081477 32.196675 0.000000 44.000000 14.196675 0.000000
-65.382811 47.989887 32.682113 0.000000 84.000000 14.682113 10.000000
-60.955914 45.526604 32.214496 0.000000 32.000000 14.214496 0.000000
-62.903858 46.952027 32.581817 0.000000 55.000000 14.581817 19.000000
-60.177839 46.256122 32.668839 0.000000 68.000000 14.668839 7.000000
-60.581662 45.512063 32.129040 0.000000 39.000000 14.129040 0.000000
-66.049323 48.062506 32.193951 0.000000 30.000000 14.193951 0.000000
-62.692512 46.384997 32.765940 0.000000 37.000000 14.765940 30.000000
-67.703902 45.638854 32.693198 0.000000 39.000000 14.693198 13.000000
-60.600578 46.900650 32.191496 0.000000 41.000000 14.191496 0.000000
-67.321130 46.027912 32.307595 0.000000 36.000000 14.307595 14.000000
-63.813188 43.809629 32.261082 0.000000 37.000000 14.261082 5.000000
-62.747377 48.045066 32.582684 0.000000 49.000000 14.582684 25.000000
-64.385640 47.827159 32.211632 0.000000 42.000000 14.211632 0.000000
-67.785965 45.732953 33.011194 0.000000 53.000000 15.011194 13.000000
-66.735736 45.162839 32.283137 0.000000 36.000000 14.283137 0.000000
-65.909447 47.544212 32.202513 0.000000 43.000000 14.202513 0.000000
-61.999363 47.949285 32.759914 0.000000 42.000000 14.759914 21.000000
-61.852836 45.608377 32.507500 0.000000 61.000000 14.507500 18.000000
-66.737302 47.492587 32.076593 0.000000 36.000000 14.076593 0.000000
-67.269572 46.945817 32.588400 0.000000 59.000000 14.588400 28.000000
-61.521536 47.705604 32.655014 0.000000 60.000000 14.655014 22.000000
-63.680536 46.251198 32.339687 0.000000 43.000000 14.339687 0.000000
-61.964157 45.820953 32.633053 0.000000 50.000000 14.633053 18.000000
-61.841024 45.717427 32.548504 0.000000 58.000000 14.548504 18.000000
-63.485716 43.729075 32.202709 0.000000 42.000000 14.202709 0.000000
-62.536793 47.416634 32.831697 0.000000 61.000000 14.831697 25.000000
-66.609948 45.103764 32.281863 0.000000 36.000000 14.281863 0.000000
-62.493782 46.502141 32.358577 0.000000 30.000000 14.358577 30.000000
-63.761403 44.268289 32.447241 0.000000 52.000000 14.447241 2.000000
-60.486556 45.871014 32.124887 0.000000 34.000000 14.124887 0.000000
-64.996542 47.857246 32.586287 0.000000 38.000000 14.586287 10.000000
-62.831998 47.642681 32.712994 0.000000 55.000000 14.712994 25.000000
-64.317916 46.963872 32.555285 0.000000 47.000000 14.555285 9.000000
-62.397143 44.386626 32.174827 0.000000 29.000000 14.174827 0.000000
-64.155094 44.560770 32.567230 0.000000 41.000000 14.567230 2.000000
-64.202766 46.582941 32.564992 0.000000 49.000000 14.564992 9.000000
-63.475734 45.335764 32.174079 0.000000 38.000000 14.174079 0.000000
-62.976083 49.152784 32.871652 0.000000 65.000000 14.871652 12.000000
-64.654788 43.962005 32.209941 0.000000 20.000000 14.209941 0.000000
-62.322062 44.856390 32.188136 0.000000 35.000000 14.188136 0.000000
-61.788958 43.941035 32.430815 0.000000 50.000000 14.430815 4.000000
-63.592199 42.780470 32.532114 0.000000 31.000000 14.532114 3.000000
-61.076362 45.064317 32.434752 0.000000 50.000000 14.434752 17.000000
-63.543187 49.624943 32.494690 0.000000 70.000000 14.494690 26.000000
-64.273945 49.372756 32.945459 0.000000 82.000000 14.945459 23.000000
-62.309484 45.341298 32.085351 0.000000 29.000000 14.085351 0.000000
-62.053926 46.981126 32.665517 0.000000 70.000000 14.665517 11.000000
-63.241887 46.281265 32.245618 0.000000 47.000000 14.245618 0.000000
-62.857806 43.438524 32.270095 0.000000 41.000000 14.270095 0.000000
-63.117009 46.756271 32.241627 0.000000 56.000000 14.241627 0.000000
-67.164543 45.231406 32.559818 0.000000 49.000000 14.559818 14.000000
-63.210989 47.745615 32.771503 0.000000 76.000000 14.771503 24.000000
-64.943086 48.621031 32.799831 0.000000 62.000000 14.799831 16.000000
-62.533271 47.485466 32.428582 0.000000 52.000000 14.428582 25.000000
-61.752326 45.790424 32.432163 0.000000 40.000000 14.432163 18.000000
-64.156332 50.235130 32.205722 0.000000 47.000000 14.205722 0.000000
-66.269502 44.189438 32.196707 0.000000 39.000000 14.196707 0.000000
-66.243195 44.357712 32.179605 0.000000 36.000000 14.179605 0.000000
-65.123014 47.815829 32.820871 0.000000 62.000000 14.820871 10.000000
-65.172065 46.548290 32.142042 0.000000 25.000000 14.142042 0.000000
-62.881551 44.298256 32.188954 0.000000 22.000000 14.188954 0.000000
-63.642312 48.266957 32.627206 0.000000 60.000000 14.627206 24.000000
-62.260541 44.807749 32.328822 0.000000 38.000000 14.328822 0.000000
-64.263896 49.595824 32.996564 0.000000 44.000000 14.996564 23.000000
-64.432020 44.130408 32.392569 0.000000 40.000000 14.392569 0.000000
-63.689548 47.433106 32.560858 0.000000 50.000000 14.560858 19.000000
-65.751907 45.650710 32.193447 0.000000 44.000000 14.193447 0.000000
-65.692335 45.810662 32.175419 0.000000 33.000000 14.175419 0.000000
-62.382202 47.989782 32.363174 0.000000 41.000000 14.363174 20.000000
-61.645052 45.603321 32.649145 0.000000 49.000000 14.649145 17.000000
-63.478570 48.958343 32.699960 0.000000 56.000000 14.699960 12.000000
