-52.720923 56.775041 -32.461941 0.000000 57.000000 14.874286 11.000000
-52.954762 56.096974 -32.219835 0.000000 53.000000 14.606874 22.000000
-52.195417 56.901960 -32.028307 0.000000 60.000000 14.457041 18.000000
-50.685259 60.134887 -31.533451 0.000000 25.000000 14.093291 0.000000
-52.996373 57.517748 -31.780147 0.000000 31.000000 14.208399 0.000000
-51.321578 60.037863 -31.644417 0.000000 47.000000 14.186375 0.000000
-54.965026 58.099145 -31.866037 0.000000 60.000000 14.265135 24.000000
-51.854926 59.919367 -31.683661 0.000000 38.000000 14.209574 0.000000
-49.906839 59.232763 -31.945478 0.000000 33.000000 14.496715 5.000000
-51.996963 59.837300 -31.595309 0.000000 35.000000 14.115531 0.000000
-51.366941 58.108755 -31.713688 0.000000 33.000000 14.197671 0.000000
-50.217590 57.657617 -32.256795 0.000000 42.000000 14.754085 29.000000
-49.351201 60.154709 -32.672778 0.000000 2.000000 15.263720 6.000000
-53.162379 57.167631 -32.037011 0.000000 64.000000 14.450862 11.000000
-51.195620 55.834733 -31.785809 0.000000 40.000000 14.206737 0.000000
-53.001660 59.564189 -31.677025 0.000000 36.000000 14.165545 0.000000
-52.732710 56.454629 -32.083984 0.000000 44.000000 14.486876 11.000000
-53.495326 58.186469 -32.367899 0.000000 45.000000 14.803727 19.000000
-51.739464 58.657364 -31.673556 0.000000 44.000000 14.164990 0.000000
-52.295439 62.479706 -31.915988 0.000000 44.000000 14.506858 14.000000
-51.992137 58.582234 -31.693970 0.000000 39.000000 14.177242 0.000000
-52.611026 57.576063 -32.202835 0.000000 55.000000 14.641555 30.000000
-52.226193 58.500627 -31.702666 0.000000 37.000000 14.178030 0.000000
-53.782274 59.231828 -31.607713 0.000000 34.000000 14.068155 0.000000
-54.804569 59.871389 -32.049873 0.000000 54.000000 14.504845 16.000000
-53.732193 57.237468 -32.160703 0.000000 51.000000 14.563144 25.000000
-48.726307 59.109255 -32.087463 0.000000 65.000000 14.662681 3.000000
-52.164410 54.998787 -32.245111 0.000000 69.000000 14.618323 7.000000
-56.139163 58.163583 -31.787658 0.000000 40.000000 14.161138 0.000000
-54.408424 57.835075 -32.043882 0.000000 56.000000 14.448141 24.000000
-52.656995 56.808829 -32.326513 0.000000 68.000000 14.741451 11.000000
-53.421280 57.187716 -31.854617 0.000000 41.000000 14.263110 0.000000
-54.040802 61.355915 -31.587836 0.000000 40.000000 14.104829 0.000000
-51.188896 56.922249 -31.912456 0.000000 35.000000 14.365507 0.000000
-54.388007 57.145089 -32.183713 0.000000 52.000000 14.568014 20.000000
-54.643848 61.035911 -31.677930 0.000000 46.000000 14.171265 0.000000
-53.259763 59.564687 -31.737465 0.000000 35.000000 14.219896 0.000000
-54.987614 60.810637 -31.696684 0.000000 44.000000 14.175293 0.000000
-50.781465 56.776298 -31.891940 0.000000 44.000000 14.350271 4.000000
-52.882897 57.834647 -32.141782 0.000000 50.000000 14.581783 30.000000
-54.211753 60.890613 -31.703089 0.000000 35.000000 14.202271 0.000000
-51.885101 54.972600 -32.258104 0.000000 66.000000 14.637094 7.000000
-52.069135 55.579051 -31.725595 0.000000 32.000000 14.118517 0.000000
-55.047762 57.549116 -32.307649 0.000000 66.000000 14.688278 20.000000
-53.554816 56.233883 -32.311102 0.000000 73.000000 14.688021 22.000000
-53.405317 56.082681 -31.835843 0.000000 44.000000 14.212153 0.000000
-54.399793 57.470133 -32.262526 0.000000 68.000000 14.656075 25.000000
-52.287548 55.203896 -31.990244 0.000000 56.000000 14.366791 7.000000
-54.416643 57.561180 -31.682691 0.000000 29.000000 14.078940 0.000000
-49.034236 59.146326 -32.275724 0.000000 58.000000 14.844670 3.000000
-53.224799 61.635921 -32.112536 0.000000 46.000000 14.656571 8.000000
-52.129364 61.146119 -31.715155 0.000000 33.000000 14.270760 0.000000
-53.779160 58.856546 -31.688245 0.000000 35.000000 14.137641 0.000000
-52.073497 58.193811 -31.709021 0.000000 39.000000 14.178923 0.000000
-53.586358 58.993946 -31.559814 0.000000 22.000000 14.017879 0.000000
-53.914987 61.581161 -31.945301 0.000000 74.000000 14.471634 8.000000
-55.044864 59.560300 -32.393546 0.000000 60.000000 14.833462 16.000000
-55.918139 59.361948 -31.910569 0.000000 43.000000 14.324474 27.000000
-53.607496 59.363403 -31.698387 0.000000 41.000000 14.166747 0.000000
-56.435533 59.163825 -31.988079 0.000000 41.000000 14.383940 0.000000
-53.558700 59.533974 -31.704127 0.000000 42.000000 14.178656 0.000000
-51.833460 58.905148 -31.703860 0.000000 43.000000 14.200369 0.000000
-53.498001 59.704360 -31.693660 0.000000 37.000000 14.174644 0.000000
-54.353839 58.015191 -32.383048 0.000000 60.000000 14.793656 24.000000
-51.791789 56.945655 -32.327297 0.000000 50.000000 14.766585 18.000000
-49.059512 58.472555 -32.070827 0.000000 37.000000 14.619465 3.000000
-53.396474 60.046611 -31.678748 0.000000 35.000000 14.172215 0.000000
-52.186975 58.178737 -31.874954 0.000000 57.000000 14.341629 0.000000
-52.149189 56.256683 -32.219029 0.000000 72.000000 14.629694 11.000000
-51.900150 59.063580 -31.649442 0.000000 22.000000 14.149093 0.000000
-53.155147 60.369394 -31.513105 0.000000 21.000000 14.021871 0.000000
-52.355482 61.308571 -31.994274 0.000000 39.000000 14.549159 15.000000
-53.129243 60.545093 -31.515185 0.000000 23.000000 14.029736 0.000000
-53.126520 59.024380 -31.975299 0.000000 53.000000 14.444764 9.000000
-54.209310 57.574460 -31.932288 0.000000 30.000000 14.333620 25.000000
-51.536343 60.167812 -31.656118 0.000000 44.000000 14.196855 0.000000
-50.325841 61.014704 -31.622521 0.000000 37.000000 14.216671 0.000000
-51.535537 60.353625 -31.670294 0.000000 42.000000 14.216517 0.000000
-54.698761 57.969386 -32.372978 0.000000 40.000000 14.774144 24.000000
-49.565986 58.763169 -31.717748 0.000000 41.000000 14.263309 0.000000
-53.186095 61.263179 -31.644086 0.000000 37.000000 14.178377 0.000000
-52.702279 62.453865 -31.889993 0.000000 39.000000 14.470566 14.000000
-51.384544 60.885078 -31.553049 0.000000 21.000000 14.118566 0.000000
-51.352070 61.063338 -31.521531 0.000000 29.000000 14.093087 0.000000
-51.418284 61.251244 -31.570447 0.000000 38.000000 14.145952 0.000000
-56.046992 59.221324 -32.067714 0.000000 65.000000 14.474337 23.000000
-54.935500 57.339244 -32.079394 0.000000 61.000000 14.456635 20.000000
-51.739292 55.591328 -31.707215 0.000000 29.000000 14.108257 0.000000
-51.518607 61.966489 -31.586886 0.000000 34.000000 14.181105 0.000000
-54.226696 60.226175 -31.990782 0.000000 69.000000 14.469824 10.000000
-52.520042 62.242922 -31.953856 0.000000 53.000000 14.532445 14.000000
-53.723886 56.167789 -31.892168 0.000000 51.000000 14.263466 22.000000
-56.102273 58.246801 -31.788734 0.000000 41.000000 14.165533 0.000000
-56.140784 58.435578 -31.856205 0.000000 49.000000 14.237616 0.000000
-50.438411 59.630461 -32.040136 0.000000 28.000000 14.590545 5.000000
-56.073527 59.275096 -31.839633 0.000000 58.000000 14.247380 0.000000
-51.918984 60.074688 -31.696755 0.000000 34.000000 14.225733 0.000000
-50.686008 56.736772 -31.899080 0.000000 48.000000 14.358483 4.000000
-55.182344 59.502576 -32.411488 0.000000 64.000000 14.846461 16.000000
-51.343426 57.472637 -31.676156 0.000000 33.000000 14.141968 0.000000
-53.486038 56.398719 -32.289598 0.000000 38.000000 14.673006 22.000000
-52.680403 57.298835 -31.745717 0.000000 36.000000 14.174961 0.000000
-52.888581 55.777981 -32.004392 0.000000 50.000000 14.383736 22.000000
-51.480797 56.342204 -31.800889 0.000000 41.000000 14.230067 0.000000
-53.746599 58.607544 -32.274692 0.000000 51.000000 14.717097 19.000000
-54.819514 58.206280 -32.337110 0.000000 70.000000 14.742448 24.000000
-53.830943 58.032036 -32.081353 0.000000 46.000000 14.504951 19.000000
-54.604192 56.906878 -31.864382 0.000000 50.000000 14.236812 0.000000
-52.190375 56.877992 -32.081706 0.000000 51.000000 14.509814 18.000000
-50.700027 61.256646 -31.604653 0.000000 37.000000 14.197159 0.000000
-54.499965 58.266323 -32.357467 0.000000 52.000000 14.772064 24.000000
-51.191071 61.157025 -31.593109 0.000000 37.000000 14.171156 0.000000
-51.361531 61.095699 -31.525846 0.000000 27.000000 14.098130 0.000000
-52.073415 54.724229 -32.379317 0.000000 62.000000 14.746478 7.000000
-51.651724 61.044484 -31.569122 0.000000 33.000000 14.133051 0.000000
-50.084279 60.218056 -31.573663 0.000000 29.000000 14.150039 0.000000
-52.955282 57.865251 -32.135746 0.000000 66.000000 14.574953 30.000000
-50.255037 60.143286 -31.498384 0.000000 26.000000 14.068599 0.000000
-51.064182 59.519783 -31.744587 0.000000 62.000000 14.277248 0.000000
-51.371546 58.985545 -32.064960 0.000000 80.000000 14.574429 2.000000
-52.460421 60.867833 -31.666273 0.000000 50.000000 14.205936 0.000000
-55.409592 58.884469 -32.314757 0.000000 67.000000 14.726244 23.000000
-52.662750 60.797479 -31.643011 0.000000 32.000000 14.175865 0.000000
-51.207367 59.966061 -31.664635 0.000000 43.000000 14.207145 0.000000
-53.036951 63.119391 -32.130517 0.000000 57.000000 14.722676 13.000000
-56.236886 58.234708 -32.276542 0.000000 83.000000 14.649477 26.000000
-53.028227 60.646260 -31.569445 0.000000 30.000000 14.089312 0.000000
-51.681268 59.819066 -31.665505 0.000000 43.000000 14.192553 0.000000
-52.524391 56.985308 -32.059631 0.000000 35.000000 14.483074 30.000000
-53.562982 56.091938 -32.245926 0.000000 62.000000 14.618515 22.000000
-53.490607 60.497966 -31.602973 0.000000 22.000000 14.107587 0.000000
-52.046945 59.644620 -31.575244 0.000000 26.000000 14.088627 0.000000
-51.093601 58.222187 -32.175652 0.000000 53.000000 14.669069 1.000000
-52.280401 59.562818 -31.583136 0.000000 26.000000 14.088620 0.000000
-52.599152 59.498427 -31.676531 0.000000 34.000000 14.172565 0.000000
-55.846205 58.996474 -32.506057 0.000000 46.000000 14.910456 23.000000
-54.658752 60.111113 -31.771058 0.000000 42.000000 14.236719 0.000000
-53.515914 59.027654 -31.565818 0.000000 30.000000 14.026527 0.000000
-53.829938 58.961175 -31.686541 0.000000 39.000000 14.137830 0.000000
-55.578040 58.328204 -32.255366 0.000000 67.000000 14.646543 23.000000
-54.256288 58.779630 -31.738831 0.000000 37.000000 14.174720 0.000000
-53.293276 62.200703 -31.818221 0.000000 26.000000 14.377505 0.000000
-52.913811 62.320528 -31.892785 0.000000 54.000000 14.464458 14.000000
-54.861841 58.129002 -32.245166 0.000000 57.000000 14.647298 24.000000
-55.098475 58.578882 -32.301750 0.000000 47.000000 14.711545 23.000000
-53.317121 59.155359 -31.962563 0.000000 62.000000 14.431422 9.000000
-53.369508 62.962464 -31.634416 0.000000 35.000000 14.214493 0.000000
-55.854492 58.696347 -32.193008 0.000000 63.000000 14.588589 23.000000
-55.727630 58.527336 -32.190525 0.000000 65.000000 14.584105 23.000000
-54.802811 58.218343 -32.347559 0.000000 66.000000 14.753637 24.000000
-51.708131 58.086332 -31.720180 0.000000 36.000000 14.195486 0.000000
-51.588833 58.250218 -31.689431 0.000000 27.000000 14.172390 0.000000
-53.578384 57.366267 -32.177309 0.000000 62.000000 14.587147 25.000000
-53.332334 56.302217 -32.222159 0.000000 62.000000 14.606380 22.000000
-51.284906 58.751889 -31.620688 0.000000 25.000000 14.125620 0.000000
-53.517568 58.985933 -31.794620 0.000000 42.000000 14.253897 9.000000
-51.121031 58.945366 -32.366011 0.000000 2.000000 14.879965 2.000000
-51.172962 59.294415 -31.685145 0.000000 37.000000 14.208651 0.000000
-49.151655 58.588535 -31.685143 0.000000 41.000000 14.235310 0.000000
-51.105332 59.471396 -31.669345 0.000000 39.000000 14.199667 0.000000
-56.011329 59.418644 -32.046492 0.000000 47.000000 14.459784 27.000000
-51.392142 56.384461 -31.895052 0.000000 50.000000 14.327491 17.000000
-55.643421 58.123396 -32.243478 0.000000 59.000000 14.627092 12.000000
-50.294198 60.035687 -32.183956 0.000000 34.000000 14.749593 5.000000
-50.733356 60.341445 -31.506886 0.000000 22.000000 14.071704 0.000000
-53.636527 61.954269 -31.809665 0.000000 55.000000 14.353630 8.000000
-50.700305 60.523507 -31.496504 0.000000 23.000000 14.067471 0.000000
-50.799402 60.715863 -31.595124 0.000000 38.000000 14.169364 0.000000
-53.073176 57.694355 -31.939389 0.000000 66.000000 14.370930 30.000000
-54.439848 57.741667 -31.853247 0.000000 31.000000 14.254150 24.000000
-53.099360 62.862483 -31.929238 0.000000 79.000000 14.512502 13.000000
-56.728731 58.504239 -31.837279 0.000000 37.000000 14.206920 0.000000
-54.582000 57.866217 -31.799432 0.000000 44.000000 14.200706 0.000000
-53.247167 62.988821 -32.138454 0.000000 76.000000 14.721823 13.000000
-55.932887 58.801392 -32.334507 0.000000 43.000000 14.731242 23.000000
-55.743928 60.041015 -31.797891 0.000000 61.000000 14.235983 0.000000
-54.316043 59.593583 -31.774869 0.000000 32.000000 14.233320 0.000000
-49.013389 59.969382 -32.466742 0.000000 46.000000 15.060301 6.000000
-52.910605 62.640382 -32.331448 0.000000 69.000000 14.912313 13.000000
-54.225367 61.666948 -31.678779 0.000000 28.000000 14.200541 0.000000
-52.375186 56.478430 -32.438368 0.000000 54.000000 14.850106 11.000000
-53.570629 56.086215 -32.292665 0.000000 54.000000 14.664873 22.000000
-54.013378 56.782952 -32.209790 0.000000 53.000000 14.592196 21.000000
-54.679371 59.280455 -31.844355 0.000000 59.000000 14.284996 16.000000
-55.037896 57.511293 -32.284136 0.000000 55.000000 14.663899 20.000000
-52.405488 55.135972 -31.807952 0.000000 38.000000 14.179857 0.000000
-52.671975 55.130172 -31.813660 0.000000 35.000000 14.179132 0.000000
-49.851214 60.277708 -32.406018 0.000000 36.000000 14.989034 6.000000
-49.781859 58.744642 -31.653324 0.000000 40.000000 14.193316 0.000000
-54.331516 57.087336 -32.083923 0.000000 54.000000 14.467920 20.000000
-50.337102 58.696678 -31.649307 0.000000 39.000000 14.174849 0.000000
-54.658039 59.454333 -31.869886 0.000000 52.000000 14.316134 16.000000
-52.878373 56.837847 -32.421729 0.000000 37.000000 14.832256 11.000000
-54.028601 57.526205 -32.490929 0.000000 68.000000 14.894685 25.000000
-56.251240 58.517766 -32.044692 0.000000 66.000000 14.425797 26.000000
-51.679302 58.529220 -31.673481 0.000000 38.000000 14.162551 0.000000
-52.893052 56.993370 -32.215078 0.000000 42.000000 14.629991 11.000000
-50.418526 57.556399 -31.697927 0.000000 41.000000 14.187912 0.000000
-49.953478 59.493780 -32.486440 0.000000 46.000000 15.043891 5.000000
-50.669587 57.504945 -31.681962 0.000000 29.000000 14.164546 0.000000
-52.511196 58.414382 -31.755032 0.000000 47.000000 14.221124 0.000000
-54.789353 56.935604 -32.125790 0.000000 71.000000 14.494533 20.000000
-52.642390 58.337923 -31.657422 0.000000 36.000000 14.118249 0.000000
-49.968143 60.225152 -32.429101 0.000000 19.000000 15.007805 6.000000
-52.874864 62.364810 -31.986953 0.000000 74.000000 14.560779 14.000000
-53.254785 56.813540 -31.623739 0.000000 31.000000 14.025277 0.000000
-51.477561 59.172483 -31.568148 0.000000 24.000000 14.080990 0.000000
-54.040800 57.933249 -32.427841 0.000000 65.000000 14.843353 25.000000
-53.801989 61.680531 -31.798803 0.000000 43.000000 14.330822 8.000000
-52.692253 58.805529 -31.833330 0.000000 42.000000 14.306643 0.000000
-54.564529 59.609826 -32.131164 0.000000 59.000000 14.584006 16.000000
-51.800712 61.052364 -31.565415 0.000000 26.000000 14.126081 0.000000
-48.688474 59.032192 -32.220528 0.000000 45.000000 14.794268 3.000000
-54.893576 57.467189 -32.365132 0.000000 55.000000 14.746926 20.000000
-56.025141 58.666460 -32.711495 0.000000 1.000000 15.101819 23.000000
-53.939118 61.709836 -31.678807 0.000000 40.000000 14.208555 0.000000
-51.010595 56.201841 -32.176817 0.000000 68.000000 14.612633 17.000000
-56.246745 58.750518 -31.734110 0.000000 23.000000 14.122402 0.000000
-52.795794 60.777558 -31.658336 0.000000 33.000000 14.187468 0.000000
-54.271471 61.558464 -31.606072 0.000000 33.000000 14.123605 0.000000
-52.988745 60.698503 -31.640255 0.000000 36.000000 14.162539 0.000000
-54.434779 61.476499 -31.570833 0.000000 33.000000 14.082140 0.000000
-53.269961 58.802384 -32.106963 0.000000 57.000000 14.566423 9.000000
-52.774765 62.209211 -32.229836 0.000000 51.000000 14.801254 14.000000
-52.346561 61.667241 -32.108369 0.000000 52.000000 14.673954 15.000000
-53.653736 60.459060 -31.689499 0.000000 34.000000 14.189074 0.000000
-53.910115 60.381392 -31.750451 0.000000 34.000000 14.241673 0.000000
-56.047460 59.221715 -31.821452 0.000000 54.000000 14.228251 0.000000
-56.174118 59.109718 -31.796439 0.000000 40.000000 14.196980 0.000000
-56.251139 58.982533 -31.716861 0.000000 38.000000 14.111901 0.000000
-56.367458 58.864400 -31.684806 0.000000 32.000000 14.073655 0.000000
-55.493861 59.817804 -32.432400 0.000000 61.000000 14.869335 16.000000
-49.168703 59.007974 -32.594361 0.000000 1.000000 15.155845 3.000000
-51.751623 56.783861 -32.112914 0.000000 48.000000 14.548529 17.000000
-52.919387 56.562704 -31.681255 0.000000 30.000000 14.083235 0.000000
-55.033755 58.178366 -32.314359 0.000000 62.000000 14.713859 24.000000
-49.763231 59.468504 -32.298689 0.000000 45.000000 14.859995 5.000000
-49.491944 58.966836 -31.776073 0.000000 30.000000 14.329335 0.000000
-50.716022 56.799087 -31.940706 0.000000 59.000000 14.401211 4.000000
-54.109195 58.698898 -31.769171 0.000000 40.000000 14.206113 0.000000
-56.209884 59.403219 -32.014547 0.000000 53.000000 14.422744 27.000000
-51.204141 58.150048 -31.855117 0.000000 46.000000 14.344040 1.000000
-52.902664 57.338347 -31.872302 0.000000 46.000000 14.297401 30.000000
-54.296045 58.721972 -31.764950 0.000000 33.000000 14.198187 0.000000
-55.074993 57.283167 -31.977403 0.000000 55.000000 14.349788 0.000000
-53.812711 59.174440 -31.604484 0.000000 28.000000 14.062522 0.000000
-52.296951 58.499291 -31.707577 0.000000 38.000000 14.181236 0.000000
-53.789687 59.349999 -31.618739 0.000000 28.000000 14.082482 0.000000
-52.213951 62.525335 -32.115686 0.000000 28.000000 14.709673 14.000000
-56.029008 58.158312 -32.240111 0.000000 63.000000 14.615701 26.000000
-51.953590 56.966605 -32.272807 0.000000 61.000000 14.708952 18.000000
-53.506611 56.941208 -31.690924 0.000000 31.000000 14.090264 0.000000
-49.743518 60.217290 -32.196316 0.000000 31.000000 14.780229 6.000000
-52.081668 59.376866 -31.615152 0.000000 36.000000 14.119799 0.000000
-49.243194 59.255607 -32.311759 0.000000 54.000000 14.878993 3.000000
-49.994499 60.215334 -31.934442 0.000000 36.000000 14.512589 6.000000
-52.020896 59.726837 -31.572793 0.000000 26.000000 14.089213 0.000000
-52.292186 55.133640 -32.053327 0.000000 57.000000 14.427649 7.000000
-52.083655 59.914617 -31.632038 0.000000 43.000000 14.152477 0.000000
-48.701141 59.343233 -32.239599 0.000000 46.000000 14.822196 3.000000
-52.506628 57.057389 -31.926689 0.000000 39.000000 14.352768 30.000000
-53.743128 58.075868 -32.105169 0.000000 61.000000 14.532105 19.000000
-55.866887 57.894308 -32.075149 0.000000 48.000000 14.446882 12.000000
-50.385319 57.826978 -31.991167 0.000000 30.000000 14.489699 29.000000
-52.083369 54.845707 -32.337132 0.000000 44.000000 14.707670 7.000000
-53.687000 61.244347 -31.637182 0.000000 36.000000 14.159160 0.000000
-53.906863 58.563272 -32.151670 0.000000 57.000000 14.589094 19.000000
-53.496984 61.206261 -31.675347 0.000000 26.000000 14.200637 0.000000
-49.446342 58.676712 -31.723202 0.000000 36.000000 14.269021 0.000000
-54.322371 57.917717 -32.261616 0.000000 49.000000 14.670177 24.000000
-49.082401 59.925901 -32.273075 0.000000 54.000000 14.863870 6.000000
-53.784269 61.753695 -31.675236 0.000000 36.000000 14.209915 0.000000
-53.571831 58.587418 -32.093005 0.000000 18.000000 14.539050 19.000000
-53.804801 61.918523 -31.666677 0.000000 43.000000 14.205739 0.000000
-52.065256 61.294606 -31.450152 0.000000 20.000000 14.011827 0.000000
-53.029670 59.914540 -31.650414 0.000000 30.000000 14.148622 0.000000
-52.362116 61.645636 -31.635542 0.000000 31.000000 14.200461 0.000000
-52.422115 61.807997 -31.643078 0.000000 48.000000 14.211368 0.000000
-52.187066 54.796763 -32.141156 0.000000 41.000000 14.507955 7.000000
-54.616904 58.319651 -32.307077 0.000000 62.000000 14.720536 24.000000
-52.155134 59.685356 -31.574840 0.000000 24.000000 14.086883 0.000000
-52.395727 61.265830 -32.016945 0.000000 61.000000 14.569609 15.000000
-53.053286 63.153497 -31.589625 0.000000 41.000000 14.182790 0.000000
-56.607870 58.357913 -31.813718 0.000000 34.000000 14.181901 0.000000
-49.445759 60.110402 -31.920464 0.000000 46.000000 14.508414 6.000000
-55.849323 58.601493 -32.363591 0.000000 63.000000 14.756376 23.000000
-54.975251 59.544622 -32.186282 0.000000 28.000000 14.627518 16.000000
-54.539151 59.957549 -31.945613 0.000000 67.000000 14.409432 10.000000
-51.919181 57.178863 -32.351007 0.000000 27.000000 14.794161 18.000000
-56.203484 58.564728 -32.161013 0.000000 35.000000 14.544542 23.000000
-53.824551 56.154466 -31.819384 0.000000 35.000000 14.187977 0.000000
-54.333316 56.744251 -32.354919 0.000000 67.000000 14.728568 21.000000
-53.565702 62.064373 -32.123011 0.000000 32.000000 14.671662 8.000000
-49.934588 60.249161 -31.628439 0.000000 28.000000 14.209208 0.000000
-50.154255 60.224300 -31.589219 0.000000 23.000000 14.164124 0.000000
-51.059940 56.387077 -32.201597 0.000000 48.000000 14.641696 17.000000
-51.268287 56.407399 -32.179820 0.000000 56.000000 14.615641 17.000000
-53.474458 57.804099 -31.922881 0.000000 52.000000 14.348245 19.000000
-51.271642 60.127943 -31.658967 0.000000 39.000000 14.204743 0.000000
-51.526089 60.092656 -31.664425 0.000000 38.000000 14.203182 0.000000
-50.651876 57.063558 -31.974026 0.000000 56.000000 14.443809 4.000000
-50.281869 59.143548 -31.683680 0.000000 42.000000 14.223666 0.000000
-49.901530 59.712832 -31.862537 0.000000 55.000000 14.428107 5.000000
-50.235524 57.999629 -31.792779 0.000000 23.000000 14.300059 0.000000
-50.898732 59.032878 -31.940131 0.000000 30.000000 14.462187 2.000000
-52.643437 59.854883 -31.593101 0.000000 25.000000 14.098661 0.000000
-51.164987 58.923216 -31.556456 0.000000 22.000000 14.069300 0.000000
-52.946188 59.815054 -31.666018 0.000000 29.000000 14.163243 0.000000
-53.146836 56.979014 -32.402767 0.000000 61.000000 14.811164 11.000000
-53.170300 59.757126 -31.668650 0.000000 35.000000 14.158903 0.000000
-55.222471 59.106114 -32.308953 0.000000 70.000000 14.731371 23.000000
-52.784513 56.846099 -32.481931 0.000000 78.000000 14.894863 11.000000
-52.092583 58.789666 -31.738962 0.000000 39.000000 14.225957 0.000000
-49.419802 58.803230 -31.898323 0.000000 42.000000 14.448370 3.000000
-52.311009 56.361681 -32.366568 0.000000 60.000000 14.776423 11.000000
-54.355612 58.224794 -32.452864 0.000000 60.000000 14.869559 24.000000
-54.718351 57.914665 -31.839202 0.000000 41.000000 14.238674 0.000000
-55.965011 58.733840 -31.689941 0.000000 35.000000 14.084389 0.000000
-56.151945 58.648030 -31.704150 0.000000 42.000000 14.091669 0.000000
-52.494524 62.720852 -31.990855 0.000000 51.000000 14.584105 13.000000
-56.567067 58.488896 -31.795874 0.000000 38.000000 14.168889 0.000000
-53.211052 57.944504 -32.087279 0.000000 41.000000 14.522850 19.000000
-54.514541 59.834651 -32.175714 0.000000 49.000000 14.636325 10.000000
-54.867166 58.542334 -32.283006 0.000000 40.000000 14.697169 24.000000
-54.086888 61.964218 -31.661031 0.000000 34.000000 14.194819 0.000000
-54.281867 61.892552 -31.660404 0.000000 40.000000 14.187502 0.000000
-50.150392 59.428054 -32.761817 0.000000 19.000000 15.312510 5.000000
-52.534902 57.160866 -31.785603 0.000000 39.000000 14.214169 0.000000
-52.017206 57.963470 -31.683470 0.000000 33.000000 14.147922 0.000000
-53.428422 58.866853 -32.121410 0.000000 52.000000 14.579039 9.000000
-53.336558 60.572730 -31.542445 0.000000 25.000000 14.052923 0.000000
-51.840393 58.487515 -31.697744 0.000000 26.000000 14.181784 0.000000
-50.261647 57.572290 -32.229092 0.000000 39.000000 14.722852 29.000000
-55.951571 59.747060 -31.999678 0.000000 65.000000 14.424086 16.000000
-51.779756 55.043489 -32.357236 0.000000 41.000000 14.740719 7.000000
-49.765108 58.051199 -31.636718 0.000000 30.000000 14.156675 0.000000
-51.719347 59.021002 -31.724334 0.000000 27.000000 14.226923 0.000000
-53.752299 62.200280 -31.882023 0.000000 31.000000 14.430470 28.000000
-53.984141 57.882491 -32.366368 0.000000 45.000000 14.781759 25.000000
-51.293073 56.494338 -32.115993 0.000000 57.000000 14.553840 17.000000
-51.472681 59.343692 -31.570056 0.000000 26.000000 14.088058 0.000000
-54.087067 56.558185 -32.097001 0.000000 65.000000 14.471132 21.000000
-52.337755 55.250533 -32.127646 0.000000 38.000000 14.504291 7.000000
-53.060999 58.303799 -31.838815 0.000000 33.000000 14.288677 19.000000
-51.538162 59.718446 -31.676742 0.000000 33.000000 14.204177 0.000000
-49.703554 59.002337 -31.706466 0.000000 41.000000 14.255854 0.000000
-52.371957 57.695011 -32.073003 0.000000 35.000000 14.520935 30.000000
-51.486309 60.071689 -31.660710 0.000000 38.000000 14.199786 0.000000
-52.992658 55.841620 -32.258731 0.000000 59.000000 14.637326 22.000000
-51.474092 60.427762 -31.663063 0.000000 37.000000 14.212919 0.000000
-51.428929 60.596460 -31.620918 0.000000 31.000000 14.176837 0.000000
-51.402157 60.767298 -31.590382 0.000000 27.000000 14.151987 0.000000
-49.275960 59.420794 -32.105164 0.000000 51.000000 14.676644 3.000000
-54.077823 57.781096 -32.396305 0.000000 55.000000 14.806486 25.000000
-51.377165 61.110187 -31.540716 0.000000 24.000000 14.113050 0.000000
-52.995575 62.888483 -32.187243 0.000000 56.000000 14.773528 13.000000
-54.562060 60.626948 -31.775599 0.000000 36.000000 14.258731 0.000000
-51.607623 61.958219 -31.591255 0.000000 23.000000 14.183137 0.000000
-55.236659 57.387147 -31.874539 0.000000 34.000000 14.246266 0.000000
-56.536354 58.274587 -31.874675 0.000000 31.000000 14.242038 0.000000
-56.440287 58.418651 -31.808138 0.000000 38.000000 14.182051 0.000000
-56.380511 58.575800 -31.783491 0.000000 37.000000 14.163457 0.000000
-55.342567 58.932514 -32.351637 0.000000 49.000000 14.766088 23.000000
-50.819499 59.150957 -31.871397 0.000000 27.000000 14.398843 2.000000
-49.954912 59.071239 -31.717205 0.000000 55.000000 14.262714 0.000000
-56.233096 59.229792 -31.745602 0.000000 31.000000 14.148333 0.000000
-50.297160 57.774532 -31.980484 0.000000 27.000000 14.479548 29.000000
-52.553191 56.243342 -31.701850 0.000000 28.000000 14.103002 0.000000
-54.935333 60.417043 -31.730702 0.000000 35.000000 14.198914 0.000000
-54.963966 60.585085 -31.730019 0.000000 46.000000 14.202512 0.000000
-51.922724 57.783080 -31.726564 0.000000 29.000000 14.187887 0.000000
-56.253073 58.214965 -32.625363 0.000000 68.000000 14.997088 26.000000
-55.074744 59.287668 -32.087156 0.000000 58.000000 14.518552 16.000000
-49.648763 58.176239 -31.705353 0.000000 30.000000 14.231679 0.000000
-49.864630 58.157196 -31.648525 0.000000 25.000000 14.169261 0.000000
-50.145085 58.148027 -31.644177 0.000000 25.000000 14.158060 0.000000
-55.680607 58.654090 -32.354185 0.000000 77.000000 14.752489 23.000000
-51.292676 58.096717 -31.702748 0.000000 40.000000 14.188128 0.000000
-48.762390 59.121842 -32.110439 0.000000 62.000000 14.685164 3.000000
-51.823170 58.048122 -31.713527 0.000000 37.000000 14.185010 0.000000
-52.045758 58.010682 -31.686224 0.000000 35.000000 14.151395 0.000000
-53.594219 58.127497 -32.274784 0.000000 41.000000 14.706618 19.000000
-50.851356 56.997796 -31.715145 0.000000 37.000000 14.178489 0.000000
-54.224872 57.633013 -31.766257 0.000000 38.000000 14.169067 0.000000
-52.714288 57.393428 -32.145226 0.000000 59.000000 14.576179 30.000000
-54.412821 57.566148 -31.736274 0.000000 32.000000 14.132721 0.000000
-49.019888 59.378003 -32.145528 0.000000 46.000000 14.721732 3.000000
-54.085756 56.356975 -31.830413 0.000000 34.000000 14.198833 0.000000
-51.486638 61.822058 -31.630009 0.000000 33.000000 14.220691 0.000000
-54.689158 60.917416 -31.714498 0.000000 31.000000 14.203251 0.000000
-54.138819 60.039490 -32.152431 0.000000 9.000000 14.627919 10.000000
-51.851923 56.767164 -31.840349 0.000000 34.000000 14.273310 17.000000
-52.322627 61.700251 -31.542013 0.000000 25.000000 14.109536 0.000000
-53.924801 56.441344 -31.883575 0.000000 40.000000 14.258224 22.000000
-53.201219 58.721612 -32.084935 0.000000 52.000000 14.543644 9.000000
-51.515683 60.743203 -31.662685 0.000000 45.000000 14.220862 0.000000
-53.495426 62.271112 -31.878463 0.000000 32.000000 14.435032 28.000000
-52.012139 60.646789 -31.683552 0.000000 40.000000 14.227214 0.000000
-52.243548 60.593641 -31.685888 0.000000 44.000000 14.222548 0.000000
-53.775359 61.429153 -31.674870 0.000000 43.000000 14.200193 0.000000
-52.463919 60.534318 -31.676131 0.000000 43.000000 14.205874 0.000000
-52.513124 56.463135 -32.261343 0.000000 52.000000 14.669516 11.000000
-55.704532 59.668394 -32.119825 0.000000 62.000000 14.547630 16.000000
-54.137120 61.305947 -31.618604 0.000000 40.000000 14.131840 0.000000
-53.771730 59.987526 -31.737112 0.000000 28.000000 14.219984 0.000000
-54.791308 58.050441 -32.390364 0.000000 71.000000 14.791733 24.000000
-53.050608 60.334540 -31.602722 0.000000 35.000000 14.112852 0.000000
-54.619514 61.182867 -31.701679 0.000000 33.000000 14.199900 0.000000
-50.848589 57.191194 -31.884490 0.000000 65.000000 14.353479 4.000000
-54.851539 61.119520 -31.739850 0.000000 46.000000 14.230728 0.000000
-51.819631 56.820613 -32.022570 0.000000 65.000000 14.457735 17.000000
-51.588570 57.912259 -31.786931 0.000000 41.000000 14.259866 0.000000
-56.303040 58.893367 -31.731726 0.000000 42.000000 14.122908 0.000000
-56.500043 58.801773 -31.781394 0.000000 37.000000 14.165215 0.000000
-49.140622 58.532459 -31.971249 0.000000 35.000000 14.519819 3.000000
-48.955514 59.809588 -31.648672 0.000000 31.000000 14.239461 0.000000
-53.753129 56.156068 -31.834437 0.000000 36.000000 14.204744 0.000000
-55.133316 57.293557 -31.836837 0.000000 34.000000 14.208259 0.000000
-53.190271 58.873842 -31.885198 0.000000 60.000000 14.348793 9.000000
-53.986184 56.974675 -32.137533 0.000000 40.000000 14.526280 21.000000
-53.313481 56.967651 -31.763889 0.000000 40.000000 14.168492 0.000000
-53.306983 57.154083 -31.817091 0.000000 39.000000 14.227304 0.000000
-51.969933 55.441207 -32.102113 0.000000 51.000000 14.493034 7.000000
-54.960120 58.009789 -31.955254 0.000000 49.000000 14.351770 24.000000
-53.428272 56.960137 -32.192326 0.000000 70.000000 14.593707 11.000000
-55.120853 57.423465 -32.053879 0.000000 61.000000 14.429268 20.000000
-51.054856 56.131545 -31.836441 0.000000 40.000000 14.269387 17.000000
-51.996723 58.521044 -31.716367 0.000000 29.000000 14.197711 0.000000
-53.562652 56.377646 -32.337271 0.000000 57.000000 14.718225 22.000000
-56.203638 58.992211 -32.131439 0.000000 58.000000 14.527585 23.000000
-53.575540 61.684159 -32.015324 0.000000 74.000000 14.552614 8.000000
-52.719717 57.358674 -32.085727 0.000000 66.000000 14.515570 30.000000
-51.293483 58.240653 -31.864383 0.000000 47.000000 14.353872 1.000000
-56.093833 59.237364 -32.240576 0.000000 52.000000 14.646449 23.000000
-54.183125 61.261868 -31.568101 0.000000 29.000000 14.078994 0.000000
-52.837660 60.618673 -31.666444 0.000000 23.000000 14.189904 0.000000
-53.372698 57.014795 -32.146693 0.000000 64.000000 14.551023 11.000000
-54.501804 59.994570 -32.166088 0.000000 77.000000 14.631718 10.000000
-55.077084 59.366873 -32.133335 0.000000 58.000000 14.566978 16.000000
-52.931263 60.954444 -31.687164 0.000000 40.000000 14.218308 0.000000
-54.375273 61.762749 -31.679319 0.000000 33.000000 14.200384 0.000000
-52.966193 61.117956 -31.678711 0.000000 36.000000 14.213860 0.000000
-53.006637 61.280094 -31.671905 0.000000 35.000000 14.210889 0.000000
-50.958335 56.198222 -31.772301 0.000000 35.000000 14.209525 0.000000
-52.929237 55.725256 -32.104279 0.000000 67.000000 14.481043 22.000000
-52.109557 56.196741 -31.829013 0.000000 40.000000 14.239119 0.000000
-53.402167 56.110248 -31.861869 0.000000 36.000000 14.239047 0.000000
-52.460688 57.005045 -31.918523 0.000000 54.000000 14.344144 18.000000
-52.480871 55.000008 -31.830830 0.000000 41.000000 14.196941 0.000000
-49.151561 60.072356 -31.624110 0.000000 27.000000 14.218058 0.000000
-50.421677 59.778899 -31.857344 0.000000 67.000000 14.412651 5.000000
-50.121408 60.052167 -31.533700 0.000000 21.000000 14.104342 0.000000
-52.755263 62.652954 -32.220518 0.000000 56.000000 14.805480 13.000000
-54.333004 60.161464 -32.213351 0.000000 53.000000 14.687831 10.000000
-51.074917 60.025641 -31.681682 0.000000 42.000000 14.229046 0.000000
-55.399829 57.694658 -32.036052 0.000000 50.000000 14.412896 12.000000
-52.855196 55.820387 -32.039784 0.000000 51.000000 14.421137 22.000000
-56.170489 59.087006 -32.052720 0.000000 60.000000 14.452495 23.000000
-54.700869 57.812608 -31.859086 0.000000 45.000000 14.255946 24.000000
-56.061760 59.479473 -32.255119 0.000000 70.000000 14.668871 27.000000
-56.074515 59.258905 -31.959066 0.000000 50.000000 14.366228 23.000000
-52.478426 61.483376 -31.625076 0.000000 26.000000 14.182489 0.000000
-50.836974 58.935112 -31.662987 0.000000 37.000000 14.183809 0.000000
-53.781970 61.968399 -31.917402 0.000000 54.000000 14.458292 8.000000
-53.937683 58.539459 -32.192311 0.000000 65.000000 14.628280 19.000000
-52.733715 59.784489 -31.647354 0.000000 24.000000 14.148681 0.000000
-51.324620 58.844026 -31.644241 0.000000 25.000000 14.150940 0.000000
-55.556038 59.168159 -32.397118 0.000000 52.000000 14.813469 23.000000
-51.651332 58.810880 -31.713280 0.000000 39.000000 14.211280 0.000000
-53.273242 59.702977 -31.726563 0.000000 41.000000 14.212761 0.000000
-51.893630 58.758652 -31.708566 0.000000 37.000000 14.199340 0.000000
-49.141048 59.138200 -32.389077 0.000000 38.000000 14.955194 3.000000
-55.952620 59.545851 -32.108761 0.000000 58.000000 14.527136 27.000000
-52.360232 62.478416 -31.945367 0.000000 46.000000 14.534657 14.000000
-55.038832 60.959440 -31.738247 0.000000 38.000000 14.220010 0.000000
-53.856012 57.663878 -32.411863 0.000000 53.000000 14.823786 25.000000
-53.397281 61.310609 -31.846340 0.000000 44.000000 14.376926 8.000000
-56.516124 58.611755 -31.826161 0.000000 38.000000 14.203972 0.000000
-52.325344 61.499490 -32.020713 0.000000 52.000000 14.581914 15.000000
-53.135525 63.239281 -31.625883 0.000000 41.000000 14.219620 0.000000
-56.132159 59.097626 -32.165720 0.000000 65.000000 14.566627 23.000000
-53.781437 62.041771 -31.688208 0.000000 43.000000 14.231436 0.000000
-53.961364 61.982362 -31.666571 0.000000 31.000000 14.203838 0.000000
-54.165983 61.920857 -31.674500 0.000000 41.000000 14.205143 0.000000
-52.336818 57.910989 -31.826711 0.000000 37.000000 14.282009 0.000000
-53.646814 56.156714 -31.844910 0.000000 36.000000 14.217725 0.000000
-51.441638 55.683474 -31.754970 0.000000 42.000000 14.165684 0.000000
-51.058225 56.584756 -32.289647 0.000000 65.000000 14.735551 17.000000
-48.772858 58.803024 -32.025110 0.000000 28.000000 14.590253 3.000000
-51.189213 56.203618 -31.786710 0.000000 28.000000 14.218661 0.000000
-51.657467 55.184189 -32.180596 0.000000 52.000000 14.571223 7.000000
-50.858638 56.902006 -31.779912 0.000000 34.000000 14.240216 0.000000
-52.486656 57.270068 -32.209811 0.000000 68.000000 14.642427 30.000000
-52.585800 58.062122 -31.808197 0.000000 53.000000 14.262116 0.000000
-49.004272 58.482675 -32.167829 0.000000 39.000000 14.717994 3.000000
-49.154175 58.788258 -32.212734 0.000000 39.000000 14.768354 3.000000
-54.737046 58.308071 -32.245418 0.000000 55.000000 14.655758 24.000000
-50.430667 57.963186 -31.697162 0.000000 37.000000 14.198853 0.000000
-52.251387 58.925405 -31.743647 0.000000 39.000000 14.230910 0.000000
-52.227723 59.103349 -31.754683 0.000000 39.000000 14.247739 0.000000
-50.281347 58.315593 -31.626675 0.000000 29.000000 14.142310 0.000000
-55.588016 59.663981 -32.185384 0.000000 39.000000 14.615749 16.000000
-51.806555 57.112419 -32.111947 0.000000 39.000000 14.555957 18.000000
-52.056553 59.434291 -31.651182 0.000000 34.000000 14.158086 0.000000
-54.666431 60.523311 -31.711327 0.000000 28.000000 14.188999 0.000000
-52.192938 61.373593 -31.694341 0.000000 38.000000 14.255173 15.000000
-50.304064 58.882427 -31.696217 0.000000 41.000000 14.227976 0.000000
-51.957280 59.774925 -31.596374 0.000000 20.000000 14.115688 0.000000
-55.212204 58.384961 -32.144259 0.000000 43.000000 14.545779 23.000000
-49.006014 59.784501 -32.282056 0.000000 58.000000 14.870470 6.000000
-52.213621 57.498954 -32.190403 0.000000 56.000000 14.636191 30.000000
-52.034518 60.314222 -31.682708 0.000000 44.000000 14.216043 0.000000
-54.183822 57.992310 -32.372536 0.000000 25.000000 14.786470 25.000000
-52.046348 60.659904 -31.680593 0.000000 37.000000 14.223841 0.000000
-53.204536 57.045741 -32.358783 0.000000 54.000000 14.767823 11.000000
-52.059354 60.830095 -31.679104 0.000000 38.000000 14.227064 0.000000
-52.961890 55.711898 -31.979281 0.000000 37.000000 14.354974 22.000000
-52.062512 60.998113 -31.662163 0.000000 34.000000 14.215013 0.000000
-50.233443 60.300910 -31.554587 0.000000 29.000000 14.129915 0.000000
-52.132019 57.021310 -32.203683 0.000000 65.000000 14.637299 18.000000
-54.758233 56.803504 -31.949674 0.000000 41.000000 14.315379 0.000000
-52.012256 61.328890 -31.563517 0.000000 26.000000 14.127367 0.000000
-53.653221 58.409587 -32.311297 0.000000 55.000000 14.750034 19.000000
-55.062381 59.451444 -32.429484 0.000000 49.000000 14.865755 16.000000
-52.289276 54.889430 -31.957249 0.000000 31.000000 14.324510 7.000000
-49.112342 59.971333 -31.672867 0.000000 34.000000 14.264724 6.000000
-51.018658 59.016358 -32.110131 0.000000 48.000000 14.628763 2.000000
-52.602060 62.746466 -31.633980 0.000000 26.000000 14.225713 0.000000
-49.974148 59.907088 -31.810144 0.000000 30.000000 14.379772 5.000000
-55.545761 57.600282 -31.843511 0.000000 40.000000 14.214283 0.000000
-56.765979 58.643165 -31.832276 0.000000 34.000000 14.205141 0.000000
-50.163802 59.317014 -32.191584 0.000000 59.000000 14.739095 5.000000
-53.856169 58.466557 -32.156786 0.000000 52.000000 14.592546 19.000000
-49.394173 58.066269 -31.676245 0.000000 41.000000 14.205329 0.000000
-53.892822 62.111199 -31.862793 0.000000 50.000000 14.405328 28.000000
-54.694360 59.501706 -32.174042 0.000000 34.000000 14.620618 16.000000
-50.262287 58.068890 -31.694577 0.000000 29.000000 14.203339 0.000000
-55.230055 59.539245 -32.340083 0.000000 63.000000 14.775067 16.000000
-52.559781 58.802301 -31.866094 0.000000 37.000000 14.342400 0.000000
-53.247408 59.537752 -31.734470 0.000000 29.000000 14.216399 0.000000
-51.346011 58.015557 -31.697787 0.000000 35.000000 14.179526 0.000000
-48.615042 59.351031 -32.338069 0.000000 64.000000 14.922848 3.000000
-51.609143 56.808928 -32.091075 0.000000 54.000000 14.530790 17.000000
-53.253551 61.836002 -31.920946 0.000000 46.000000 14.470340 8.000000
-51.473221 57.280852 -31.747848 0.000000 30.000000 14.204909 0.000000
-50.103336 60.574642 -32.024098 0.000000 54.000000 14.610216 6.000000
-54.878990 57.106510 -31.906699 0.000000 31.000000 14.278530 20.000000
-53.769532 55.864450 -32.016964 0.000000 41.000000 14.378160 0.000000
-56.232683 59.125210 -31.871111 0.000000 64.000000 14.270680 23.000000
-50.465250 60.834636 -31.622796 0.000000 26.000000 14.208364 0.000000
-54.300207 58.193368 -32.447492 0.000000 65.000000 14.864566 24.000000
-55.766448 58.943057 -32.507580 0.000000 56.000000 14.912277 23.000000
-54.262365 60.654670 -31.717159 0.000000 36.000000 14.208188 0.000000
-54.139068 57.434609 -32.029703 0.000000 59.000000 14.428493 25.000000
-51.955493 61.317291 -31.730734 0.000000 46.000000 14.295456 0.000000
-52.866967 58.942406 -31.979481 0.000000 55.000000 14.452622 9.000000
-53.662619 62.106988 -31.842001 0.000000 34.000000 14.389832 28.000000
-52.642284 56.605754 -32.425897 0.000000 62.000000 14.835124 11.000000
-49.075046 58.874280 -31.930600 0.000000 35.000000 14.490814 3.000000
-49.217569 58.958695 -32.320711 0.000000 45.000000 14.879789 3.000000
-49.539974 59.132313 -31.953618 0.000000 44.000000 14.510503 3.000000
-52.451748 60.517956 -31.672819 0.000000 38.000000 14.202368 0.000000
-54.030487 60.293023 -31.853315 0.000000 43.000000 14.339033 0.000000
-52.653199 60.461278 -31.650658 0.000000 25.000000 14.173822 0.000000
-54.121143 61.305014 -31.612973 0.000000 35.000000 14.126561 0.000000
-49.388776 58.708887 -32.024529 0.000000 51.000000 14.572434 3.000000
-54.295191 61.243460 -31.582126 0.000000 32.000000 14.089834 0.000000
-53.024385 60.333588 -31.585089 0.000000 24.000000 14.095819 0.000000
-53.756158 58.451539 -32.403150 0.000000 44.000000 14.840641 19.000000
-53.209274 57.848981 -31.946526 0.000000 59.000000 14.379423 19.000000
-54.352023 58.791963 -31.835833 0.000000 42.000000 14.269768 0.000000
-55.412054 58.537021 -32.234249 0.000000 71.000000 14.635494 23.000000
-56.333493 58.959875 -31.734040 0.000000 41.000000 14.126466 0.000000
-56.518710 58.866522 -31.768725 0.000000 34.000000 14.154025 0.000000
-56.724040 58.779492 -31.830166 0.000000 40.000000 14.208036 0.000000
-49.684689 58.166935 -31.688110 0.000000 34.000000 14.213331 0.000000
-49.622850 58.347273 -31.672353 0.000000 30.000000 14.204353 0.000000
-49.587454 58.528787 -31.675043 0.000000 28.000000 14.213222 0.000000
-50.198327 57.608008 -32.152763 0.000000 46.000000 14.649117 29.000000
-49.569425 58.901040 -31.704731 0.000000 39.000000 14.254284 0.000000
-55.381452 57.752178 -32.079026 0.000000 59.000000 14.457967 12.000000
-52.556335 57.243148 -32.086356 0.000000 55.000000 14.516630 30.000000
-53.868362 56.425804 -31.826412 0.000000 42.000000 14.201969 0.000000
-53.112328 58.808875 -31.626125 0.000000 32.000000 14.089820 0.000000
-54.640278 56.896515 -32.074177 0.000000 55.000000 14.445305 20.000000
-53.225139 59.533636 -31.735757 0.000000 39.000000 14.218087 0.000000
-49.119486 60.078124 -32.090383 0.000000 40.000000 14.684923 6.000000
-49.361410 59.001763 -31.935553 0.000000 46.000000 14.492796 3.000000
-52.171720 56.284980 -32.359545 0.000000 65.000000 14.770415 11.000000
-55.383082 58.587841 -32.290350 0.000000 56.000000 14.693733 23.000000
-51.979968 57.315447 -32.116052 0.000000 53.000000 14.561971 18.000000
-53.350509 61.654039 -32.105470 0.000000 51.000000 14.647092 8.000000
-54.708060 60.878388 -31.734990 0.000000 36.000000 14.222134 0.000000
-53.217823 60.209354 -31.654153 0.000000 30.000000 14.156630 0.000000
-55.343979 58.312510 -32.139708 0.000000 53.000000 14.536001 23.000000
-53.146913 60.365601 -31.557647 0.000000 21.000000 14.066463 0.000000
-52.536389 62.721235 -32.213845 0.000000 56.000000 14.805964 13.000000
-54.971120 59.364679 -31.907238 0.000000 53.000000 14.343465 16.000000
-54.705445 61.365948 -31.654808 0.000000 30.000000 14.156441 0.000000
-53.229485 60.704737 -31.564324 0.000000 24.000000 14.081192 0.000000
-52.828095 57.595913 -32.181573 0.000000 47.000000 14.615795 30.000000
-54.010561 62.048878 -31.777596 0.000000 59.000000 14.315589 28.000000
-50.943664 59.183144 -31.933916 0.000000 29.000000 14.459350 2.000000
-50.555447 56.652711 -31.735555 0.000000 26.000000 14.195662 0.000000
-53.628934 61.518284 -31.695904 0.000000 33.000000 14.227278 0.000000
-50.313451 60.340977 -32.236332 0.000000 54.000000 14.810478 6.000000
-52.863339 55.677230 -32.066801 0.000000 63.000000 14.443724 22.000000
-52.279904 55.097351 -31.937487 0.000000 31.000000 14.311111 7.000000
-49.031168 59.264651 -32.379006 0.000000 42.000000 14.951438 3.000000
-50.740724 56.826743 -32.013479 0.000000 61.000000 14.474167 4.000000
-52.551788 57.196495 -32.104468 0.000000 54.000000 14.533461 30.000000
-52.074396 55.998538 -31.762269 0.000000 27.000000 14.167406 0.000000
-52.693283 57.453851 -32.062488 0.000000 63.000000 14.495774 30.000000
-55.897205 58.398692 -32.360998 0.000000 61.000000 14.746683 26.000000
-55.935317 57.757630 -32.164243 0.000000 77.000000 14.530277 12.000000
-50.624329 59.912788 -31.669019 0.000000 28.000000 14.223647 0.000000
-55.380851 59.747330 -32.032337 0.000000 66.000000 14.470132 16.000000
-50.879137 56.355126 -32.094676 0.000000 53.000000 14.538155 17.000000
-54.352564 57.588631 -32.226627 0.000000 49.000000 14.624804 25.000000
-52.632142 56.781185 -32.436651 0.000000 56.000000 14.851280 11.000000
-55.153293 59.398284 -32.285854 0.000000 52.000000 14.718525 16.000000
-52.590290 62.514588 -31.867764 0.000000 41.000000 14.452772 14.000000
-55.764641 57.769087 -31.897872 0.000000 43.000000 14.268441 12.000000
-50.411717 58.874579 -31.688990 0.000000 31.000000 14.217995 0.000000
-49.850067 59.548218 -32.162311 0.000000 56.000000 14.724025 5.000000
-50.024939 60.318622 -32.251587 0.000000 51.000000 14.831839 6.000000
-52.401811 59.744426 -31.709341 0.000000 26.000000 14.217237 0.000000
-54.649258 56.906800 -31.911735 0.000000 41.000000 14.283071 20.000000
-52.675097 62.260180 -31.994913 0.000000 56.000000 14.570341 14.000000
-53.541496 58.321946 -32.208407 0.000000 48.000000 14.647257 19.000000
-52.854886 59.660413 -31.697622 0.000000 26.000000 14.192411 0.000000
-50.281490 60.299624 -32.187552 0.000000 51.000000 14.761265 6.000000
-52.195568 58.787695 -31.740516 0.000000 41.000000 14.225033 0.000000
-51.724117 58.678874 -31.719985 0.000000 37.000000 14.212381 0.000000
-53.374018 59.576842 -31.758180 0.000000 41.000000 14.238271 0.000000
-51.969843 58.628404 -31.720618 0.000000 34.000000 14.205755 0.000000
-53.505349 58.601061 -31.811382 0.000000 37.000000 14.259590 19.000000
-52.228190 58.580449 -31.738998 0.000000 28.000000 14.216642 0.000000
-52.652883 56.519472 -32.303554 0.000000 69.000000 14.710076 11.000000
-53.925902 59.399165 -31.657409 0.000000 31.000000 14.119375 0.000000
-55.260843 57.811697 -32.241604 0.000000 67.000000 14.625016 12.000000
-56.057582 58.735066 -31.829432 0.000000 47.000000 14.221643 0.000000
-50.258551 59.401714 -31.891898 0.000000 39.000000 14.439893 5.000000
-50.977069 59.036291 -32.107133 0.000000 44.000000 14.627331 2.000000
-54.478366 59.578070 -31.960877 0.000000 53.000000 14.414927 10.000000
-52.790342 58.548941 -31.802412 0.000000 50.000000 14.265881 0.000000
-56.763996 58.399712 -31.842239 0.000000 38.000000 14.207968 0.000000
-53.002495 63.063195 -31.638181 0.000000 35.000000 14.229843 0.000000
-53.225971 59.090615 -31.932459 0.000000 47.000000 14.401572 9.000000
-52.131938 57.264744 -32.153373 0.000000 46.000000 14.594202 18.000000
-54.021364 61.852764 -31.690315 0.000000 43.000000 14.222336 0.000000
-54.212818 61.794743 -31.685167 0.000000 36.000000 14.210986 0.000000
-51.445722 59.345597 -31.668836 0.000000 36.000000 14.187457 0.000000
-55.542879 57.695733 -32.465478 0.000000 41.000000 14.838690 12.000000
-50.329451 59.676229 -32.502345 0.000000 58.000000 15.056333 5.000000
-53.859883 56.107981 -31.873062 0.000000 40.000000 14.239417 0.000000
-54.592638 60.287371 -31.911649 0.000000 46.000000 14.383957 10.000000
-51.869246 55.521211 -31.838592 0.000000 29.000000 14.234423 0.000000
-55.690419 57.689574 -32.389961 0.000000 56.000000 14.759580 12.000000
-52.974823 56.809839 -32.362165 0.000000 55.000000 14.769644 11.000000
-55.069314 58.699586 -32.227674 0.000000 72.000000 14.641764 23.000000
-54.782678 58.394885 -32.379271 0.000000 57.000000 14.791003 24.000000
-51.117247 57.076448 -31.769473 0.000000 29.000000 14.228853 0.000000
-51.084458 57.262974 -31.785862 0.000000 35.000000 14.251498 0.000000
-54.521476 60.177020 -32.103889 0.000000 45.000000 14.574479 10.000000
-52.637222 58.371045 -31.668167 0.000000 33.000000 14.130084 0.000000
-50.933033 57.608798 -31.729084 0.000000 28.000000 14.208509 0.000000
-54.102096 59.979803 -32.098876 0.000000 63.000000 14.573505 10.000000
-50.833650 57.966404 -31.699476 0.000000 36.000000 14.191797 0.000000
-52.048157 56.414140 -32.181051 0.000000 54.000000 14.598756 11.000000
-52.506887 59.429966 -31.703614 0.000000 36.000000 14.199778 0.000000
-50.629536 58.676466 -31.579635 0.000000 23.000000 14.097763 0.000000
-55.967815 58.494676 -32.279123 0.000000 77.000000 14.666037 23.000000
-50.726425 58.879426 -31.664339 0.000000 27.000000 14.186114 0.000000
-52.425767 59.772196 -31.641368 0.000000 19.000000 14.149568 0.000000
-52.350341 59.935753 -31.572064 0.000000 26.000000 14.086906 0.000000
-52.413343 60.119997 -31.627597 0.000000 26.000000 14.146350 0.000000
-54.278143 58.807773 -31.847837 0.000000 43.000000 14.283965 0.000000
-56.270306 58.259806 -31.906536 0.000000 53.000000 14.279689 26.000000
-52.487103 60.472030 -31.671731 0.000000 36.000000 14.199097 0.000000
-55.535754 59.053367 -32.474574 0.000000 43.000000 14.887963 23.000000
-49.194702 60.117742 -32.495773 0.000000 36.000000 15.089427 6.000000
