-1.521018 -44.163617 31.678602 0.000000 38.000000 14.051534 0.000000
-2.273151 -42.854770 31.125850 0.000000 42.000000 14.210807 0.000000
-2.329662 -45.032999 33.153637 0.000000 47.000000 14.568940 17.000000
-2.067773 -43.730383 29.866599 0.000000 12.000000 14.942779 24.000000
0.506221 -45.015577 28.038324 0.000000 70.000000 14.214470 23.000000
-1.325472 -44.365534 31.677563 0.000000 39.000000 13.996112 0.000000
-1.967982 -43.881956 31.919353 0.000000 48.000000 14.177830 0.000000
-0.832230 -44.254675 29.044447 0.000000 63.000000 14.527395 30.000000
0.078880 -44.315889 27.042512 0.000000 63.000000 14.578919 23.000000
0.201891 -45.658795 30.097022 0.000000 45.000000 14.006817 0.000000
0.121044 -44.910267 28.142280 0.000000 70.000000 14.428793 23.000000
0.223624 -45.795444 30.156417 0.000000 35.000000 14.034429 0.000000
0.327981 -46.260380 30.509034 0.000000 39.000000 14.048607 0.000000
-2.449010 -41.416128 29.832405 0.000000 40.000000 14.125709 0.000000
-0.611535 -44.939181 29.659965 0.000000 67.000000 14.459606 9.000000
-1.024911 -42.682790 27.258964 0.000000 65.000000 14.572688 28.000000
0.283485 -44.607314 26.366606 0.000000 72.000000 14.810000 18.000000
-2.711785 -42.618840 31.836144 0.000000 39.000000 14.178987 0.000000
-2.190363 -43.464914 30.737892 0.000000 42.000000 14.587234 11.000000
-0.245464 -44.629229 28.689062 0.000000 73.000000 14.378504 9.000000
-1.641095 -42.159069 29.294936 0.000000 34.000000 14.049564 0.000000
-1.922134 -44.602367 32.704535 0.000000 30.000000 14.202880 0.000000
0.337007 -45.745209 30.024589 0.000000 36.000000 13.969131 0.000000
-0.769715 -42.543132 27.964480 0.000000 36.000000 14.041573 0.000000
-0.185238 -44.002621 27.742090 0.000000 60.000000 14.375411 22.000000
-0.983905 -43.801876 28.146692 0.000000 81.000000 14.758408 30.000000
-3.471313 -40.762671 29.516902 0.000000 52.000000 14.730820 2.000000
-0.375132 -46.362723 31.953012 0.000000 41.000000 14.119320 0.000000
0.119585 -45.139331 28.833914 0.000000 53.000000 14.285752 23.000000
-0.028362 -44.461685 27.700275 0.000000 57.000000 14.491297 23.000000
-0.246229 -43.825579 28.313295 0.000000 29.000000 14.125546 0.000000
-1.628578 -44.631265 32.424706 0.000000 36.000000 14.088726 0.000000
0.221071 -45.074323 29.309215 0.000000 37.000000 13.997798 0.000000
-1.314345 -43.692145 30.347373 0.000000 42.000000 14.150860 0.000000
0.245621 -44.890767 28.935385 0.000000 37.000000 14.027144 0.000000
-0.798286 -44.874713 29.510423 0.000000 48.000000 14.631011 9.000000
-1.905620 -42.473760 29.053593 0.000000 50.000000 14.501687 25.000000
-1.517809 -44.537276 31.538134 0.000000 46.000000 14.283612 13.000000
0.676370 -45.060882 27.921970 0.000000 47.000000 14.145285 0.000000
-2.509334 -42.127548 30.862334 0.000000 37.000000 14.139603 0.000000
0.069658 -44.985854 27.884767 0.000000 55.000000 14.601687 23.000000
-0.590606 -43.911031 28.180156 0.000000 68.000000 14.488659 30.000000
-0.495810 -43.874739 28.084340 0.000000 74.000000 14.431520 30.000000
-2.658772 -42.946841 32.288606 0.000000 39.000000 14.129834 0.000000
-1.795215 -45.107268 32.782424 0.000000 48.000000 14.320501 17.000000
0.270465 -44.065843 27.833951 0.000000 45.000000 14.012292 0.000000
0.178502 -44.548003 26.284272 0.000000 66.000000 14.894442 18.000000
-0.399920 -43.665670 27.008288 0.000000 42.000000 14.652093 22.000000
-2.493838 -41.977142 30.699369 0.000000 36.000000 14.114213 0.000000
0.018361 -47.428242 30.702344 0.000000 74.000000 14.792308 7.000000
-2.531162 -42.387713 31.351168 0.000000 37.000000 14.102954 0.000000
0.713149 -45.759007 28.741135 0.000000 47.000000 14.154024 0.000000
-2.584946 -42.813674 31.959618 0.000000 39.000000 14.128271 0.000000
-2.582340 -43.046146 32.337422 0.000000 37.000000 14.099903 0.000000
-2.600424 -43.274027 32.661503 0.000000 34.000000 14.105532 0.000000
-1.214038 -45.286220 32.149557 0.000000 37.000000 14.183199 0.000000
0.374244 -44.319958 26.724839 0.000000 51.000000 14.465219 18.000000
0.481769 -45.508829 28.951682 0.000000 46.000000 14.136585 0.000000
-0.322527 -44.346681 29.083730 0.000000 36.000000 14.155155 0.000000
-0.258587 -43.991951 27.989518 0.000000 59.000000 14.336512 22.000000
-1.547121 -44.314453 30.103546 0.000000 62.000000 14.729144 29.000000
0.684821 -45.789810 28.803020 0.000000 48.000000 14.168538 0.000000
-1.074316 -45.588368 32.441721 0.000000 34.000000 14.112276 0.000000
0.069834 -46.836656 31.641502 0.000000 39.000000 14.114763 0.000000
0.286932 -46.871421 31.402473 0.000000 50.000000 14.048767 0.000000
0.467529 -47.224256 29.850671 0.000000 74.000000 14.653189 19.000000
-2.632351 -41.446682 30.200777 0.000000 45.000000 14.149057 0.000000
-1.536164 -44.118889 31.793754 0.000000 28.000000 13.998997 0.000000
-1.147830 -43.252178 28.899194 0.000000 50.000000 14.340615 26.000000
-2.253562 -43.083100 31.681530 0.000000 38.000000 14.101128 0.000000
-2.176348 -43.015988 31.314403 0.000000 34.000000 14.143292 0.000000
-1.146759 -44.110594 30.604281 0.000000 50.000000 14.127814 0.000000
0.400779 -45.812534 29.843574 0.000000 32.000000 14.018686 0.000000
0.083489 -45.281546 28.837927 0.000000 60.000000 14.382277 23.000000
0.089937 -44.495811 27.178001 0.000000 70.000000 14.607931 23.000000
-1.459391 -43.146920 29.525772 0.000000 59.000000 14.303268 24.000000
0.183092 -45.310212 28.230967 0.000000 61.000000 14.542373 23.000000
-0.887220 -44.605594 29.596740 0.000000 67.000000 14.537791 9.000000
-1.477428 -44.995376 31.121645 0.000000 32.000000 14.629807 13.000000
0.490118 -46.848712 31.143249 0.000000 34.000000 13.973156 0.000000
-0.717605 -43.127454 28.735068 0.000000 33.000000 14.000579 0.000000
0.193484 -43.403556 27.201418 0.000000 40.000000 13.983710 0.000000
-0.437315 -43.863978 28.212151 0.000000 64.000000 14.332721 30.000000
-1.029141 -43.834386 28.242866 0.000000 56.000000 14.774414 30.000000
0.673191 -45.759714 28.950479 0.000000 34.000000 14.108410 0.000000
-0.647938 -43.559720 28.107124 0.000000 53.000000 14.389321 30.000000
0.475405 -43.870608 26.718580 0.000000 54.000000 14.168039 0.000000
-0.926682 -43.289452 29.073301 0.000000 43.000000 14.119652 0.000000
-1.947465 -43.577937 29.881268 0.000000 27.000000 14.767810 24.000000
-1.399400 -42.152077 28.349738 0.000000 55.000000 14.205243 0.000000
-0.051705 -45.543030 28.545011 0.000000 66.000000 14.725330 23.000000
-2.277003 -43.257524 30.653662 0.000000 61.000000 14.585526 11.000000
-1.366411 -44.828372 32.535012 0.000000 30.000000 13.937092 0.000000
0.217176 -43.746839 26.387770 0.000000 67.000000 14.434059 21.000000
-1.343546 -44.407953 31.289956 0.000000 54.000000 14.174659 0.000000
-1.445882 -43.044919 28.331653 0.000000 70.000000 14.684963 26.000000
-1.241847 -45.479955 32.572983 0.000000 38.000000 14.143035 0.000000
-0.881267 -44.016422 29.272662 0.000000 68.000000 14.365193 29.000000
0.575625 -44.058021 26.902399 0.000000 36.000000 14.112378 0.000000
0.069947 -43.521904 27.430832 0.000000 38.000000 14.054176 0.000000
-2.608114 -42.282468 30.313923 0.000000 59.000000 14.496431 12.000000
0.233201 -46.841361 30.173347 0.000000 64.000000 14.531700 14.000000
-0.488406 -44.648226 29.362550 0.000000 45.000000 14.330297 9.000000
0.718801 -46.453393 29.803323 0.000000 39.000000 14.095529 0.000000
-0.367652 -45.032071 29.118819 0.000000 64.000000 14.512736 9.000000
-1.401125 -43.955606 29.421062 0.000000 55.000000 14.691194 29.000000
0.798781 -46.100283 29.060737 0.000000 52.000000 14.134791 0.000000
-1.562891 -42.541813 27.841412 0.000000 75.000000 14.713094 27.000000
-2.240692 -44.027956 33.102959 0.000000 31.000000 14.026291 0.000000
-1.329191 -44.753453 31.463061 0.000000 45.000000 14.268048 13.000000
-0.328965 -42.895455 27.117876 0.000000 35.000000 14.179078 0.000000
-1.809850 -42.245425 29.418026 0.000000 47.000000 14.179492 0.000000
-1.076078 -44.543843 31.024625 0.000000 49.000000 14.128029 0.000000
-2.245820 -41.431872 29.193970 0.000000 51.000000 14.209315 0.000000
-1.274257 -45.545819 32.832437 0.000000 42.000000 14.104741 0.000000
0.195862 -44.820070 28.677343 0.000000 27.000000 14.127465 0.000000
-0.313663 -43.905311 28.509557 0.000000 49.000000 14.145100 0.000000
-0.516559 -45.658046 31.712613 0.000000 29.000000 13.975718 0.000000
0.458570 -47.436018 31.130455 0.000000 43.000000 14.289813 7.000000
-3.139228 -40.677205 29.273165 0.000000 74.000000 14.516978 2.000000
-1.182955 -44.450237 29.772901 0.000000 63.000000 14.630261 29.000000
-0.907433 -43.377727 28.168235 0.000000 72.000000 14.482752 30.000000
-1.972725 -44.245726 32.465348 0.000000 52.000000 14.157144 0.000000
0.216486 -45.093390 29.301477 0.000000 37.000000 14.013602 0.000000
0.184121 -44.443146 26.410509 0.000000 62.000000 14.792013 18.000000
-0.008876 -45.393092 28.553127 0.000000 68.000000 14.615221 23.000000
-0.419966 -45.368380 30.812257 0.000000 45.000000 14.091285 0.000000
-0.328336 -43.872956 27.591393 0.000000 70.000000 14.480899 22.000000
-2.370774 -41.995451 30.404560 0.000000 44.000000 14.135118 0.000000
-1.314614 -43.338908 28.410590 0.000000 49.000000 14.695695 26.000000
-1.336336 -44.363335 29.481136 0.000000 70.000000 14.817010 29.000000
-1.584662 -44.218432 31.523825 0.000000 41.000000 14.185914 0.000000
-2.039625 -45.133702 33.233617 0.000000 61.000000 14.359409 17.000000
0.544192 -47.621723 30.726646 0.000000 57.000000 14.462462 7.000000
-0.213202 -44.152890 28.607586 0.000000 36.000000 14.150419 0.000000
-1.371168 -44.737604 31.753420 0.000000 36.000000 14.185937 0.000000
-2.582344 -43.458176 32.886087 0.000000 41.000000 14.098068 0.000000
-1.155447 -44.169142 30.673233 0.000000 48.000000 14.137753 0.000000
0.204993 -44.942167 26.993020 0.000000 74.000000 14.803662 18.000000
-0.395846 -44.173318 29.111703 0.000000 38.000000 14.118000 0.000000
-2.484020 -43.091360 32.046714 0.000000 39.000000 14.151984 0.000000
-2.422878 -43.353989 32.546751 0.000000 40.000000 14.046846 0.000000
-2.414934 -43.594521 32.908405 0.000000 39.000000 14.024180 0.000000
-0.155422 -43.997272 28.047130 0.000000 43.000000 14.236279 22.000000
0.626694 -47.509576 30.647506 0.000000 54.000000 14.371792 7.000000
0.341357 -46.461127 29.802865 0.000000 58.000000 14.397650 14.000000
-2.452011 -41.632809 29.373303 0.000000 56.000000 14.403981 3.000000
-3.294353 -42.493679 30.850343 0.000000 76.000000 14.943107 10.000000
-0.561274 -45.367410 31.121677 0.000000 43.000000 14.087855 0.000000
-0.746725 -42.608377 27.986559 0.000000 32.000000 14.047118 0.000000
-2.852380 -42.498934 32.055661 0.000000 38.000000 14.150168 0.000000
-0.277041 -46.142991 31.425870 0.000000 41.000000 14.129669 0.000000
0.710900 -45.514033 28.143610 0.000000 63.000000 14.257368 20.000000
-0.254284 -46.436324 31.723158 0.000000 47.000000 14.144940 0.000000
0.420533 -45.478470 29.242118 0.000000 25.000000 14.062568 0.000000
-0.266870 -44.861999 28.829198 0.000000 74.000000 14.457266 9.000000
-3.164178 -41.924512 31.055644 0.000000 39.000000 14.486110 10.000000
-0.893694 -44.059259 28.272461 0.000000 66.000000 14.766343 30.000000
0.196958 -46.129779 30.678800 0.000000 42.000000 14.025423 0.000000
0.028586 -45.823527 30.396786 0.000000 45.000000 14.113214 0.000000
-0.407139 -44.097536 28.958555 0.000000 33.000000 14.146603 0.000000
-1.228707 -43.241778 29.448047 0.000000 46.000000 14.196170 0.000000
0.289150 -43.949272 27.013755 0.000000 31.000000 14.244306 23.000000
-1.509622 -44.990044 32.953548 0.000000 34.000000 13.974235 0.000000
0.701015 -45.355302 28.339118 0.000000 48.000000 14.115210 0.000000
-0.949192 -44.210264 30.327480 0.000000 39.000000 14.122952 0.000000
-1.301008 -44.454358 31.178240 0.000000 57.000000 14.205102 0.000000
-0.754700 -43.767274 29.356335 0.000000 36.000000 14.112472 0.000000
-0.400859 -42.998184 27.516124 0.000000 31.000000 14.138591 0.000000
0.483324 -44.393055 26.364187 0.000000 61.000000 14.548326 18.000000
0.415542 -47.087043 31.065514 0.000000 42.000000 14.177320 0.000000
-0.191050 -43.882938 26.451203 0.000000 60.000000 14.799564 21.000000
-2.248325 -44.269877 32.552796 0.000000 71.000000 14.354279 16.000000
0.734969 -46.069248 29.171855 0.000000 46.000000 14.128886 0.000000
0.376419 -43.882009 26.802893 0.000000 39.000000 14.220584 21.000000
0.252586 -43.925055 26.527110 0.000000 71.000000 14.441574 21.000000
0.351644 -47.158296 31.457547 0.000000 29.000000 14.117438 0.000000
-1.535049 -44.317563 32.046681 0.000000 21.000000 14.001536 0.000000
0.200019 -45.653333 29.936515 0.000000 35.000000 14.065067 0.000000
0.281823 -44.182073 27.745007 0.000000 45.000000 14.093056 0.000000
-1.478587 -44.324223 31.881609 0.000000 36.000000 14.021319 0.000000
-0.013512 -44.344556 27.378584 0.000000 50.000000 14.541459 23.000000
0.061523 -46.888702 31.654980 0.000000 47.000000 14.141770 0.000000
0.072201 -44.620188 27.731850 0.000000 65.000000 14.477618 23.000000
-1.788303 -43.668326 31.294595 0.000000 36.000000 14.162857 0.000000
-1.106211 -45.398554 32.258205 0.000000 34.000000 14.112677 0.000000
-2.950372 -42.158727 30.575607 0.000000 63.000000 14.609431 10.000000
0.238305 -46.599633 31.255669 0.000000 37.000000 14.008733 0.000000
-0.026478 -44.431665 27.310800 0.000000 75.000000 14.619372 23.000000
-0.108567 -46.418058 31.393264 0.000000 39.000000 14.143069 0.000000
-0.803157 -43.464671 27.774949 0.000000 77.000000 14.588506 30.000000
-1.976627 -43.012404 28.726525 0.000000 75.000000 14.942119 25.000000
0.809603 -46.567667 29.781820 0.000000 38.000000 14.087602 0.000000
0.857268 -46.860748 30.031434 0.000000 32.000000 14.100729 0.000000
-2.792249 -43.155793 32.883189 0.000000 36.000000 14.117197 0.000000
0.682298 -46.954726 30.434777 0.000000 50.000000 14.135507 0.000000
0.127463 -44.982042 27.650737 0.000000 41.000000 14.640826 23.000000
-0.336882 -44.368383 29.291171 0.000000 30.000000 14.100280 0.000000
0.458130 -44.076433 27.058142 0.000000 49.000000 14.156518 0.000000
-2.169356 -42.795987 30.857702 0.000000 36.000000 14.199388 0.000000
-0.783752 -42.805186 28.406199 0.000000 24.000000 14.017140 0.000000
0.449101 -45.541012 28.818735 0.000000 46.000000 14.227352 23.000000
-1.667283 -42.555290 29.875810 0.000000 34.000000 14.048760 0.000000
-0.518658 -43.941636 27.613756 0.000000 74.000000 14.656530 22.000000
-0.068434 -44.107842 28.064262 0.000000 43.000000 14.215248 22.000000
-1.918066 -42.864962 29.993879 0.000000 37.000000 14.354475 15.000000
0.312022 -44.735805 27.028821 0.000000 68.000000 14.605012 18.000000
-0.885656 -45.938669 32.520894 0.000000 30.000000 14.105101 0.000000
-0.128599 -46.556679 31.631818 0.000000 41.000000 14.138291 0.000000
-0.943535 -44.877622 29.383857 0.000000 74.000000 14.794047 9.000000
-0.891429 -43.547659 29.111208 0.000000 49.000000 14.203942 29.000000
-0.166634 -45.912748 30.103873 0.000000 67.000000 14.419505 8.000000
-0.046027 -43.876390 27.043845 0.000000 56.000000 14.462330 23.000000
-2.176360 -43.169104 30.282633 0.000000 20.000000 14.600214 15.000000
0.227406 -44.917712 27.266523 0.000000 66.000000 14.672721 18.000000
0.392805 -45.390171 29.012624 0.000000 24.000000 14.126311 0.000000
-1.834506 -42.331740 28.895221 0.000000 47.000000 14.434757 25.000000
-0.184350 -43.925894 27.024354 0.000000 73.000000 14.603011 23.000000
-0.750234 -45.036195 31.180668 0.000000 40.000000 14.053429 0.000000
0.833953 -45.979373 28.705566 0.000000 51.000000 14.179450 0.000000
-2.913274 -41.412930 30.470205 0.000000 49.000000 14.254711 10.000000
-1.433220 -43.780011 29.100418 0.000000 67.000000 14.749484 29.000000
-2.307560 -42.132107 30.277210 0.000000 41.000000 14.199120 0.000000
0.408615 -45.264678 28.407977 0.000000 52.000000 14.276413 23.000000
-2.252039 -41.823293 29.889613 0.000000 33.000000 14.147888 0.000000
-1.331941 -45.007725 32.179863 0.000000 32.000000 14.129025 0.000000
-1.474986 -42.407250 29.292632 0.000000 34.000000 14.040473 0.000000
0.091104 -45.191038 27.565457 0.000000 50.000000 14.803260 23.000000
0.012873 -46.481743 31.248639 0.000000 50.000000 14.131813 0.000000
-2.524131 -44.075365 33.523031 0.000000 41.000000 14.117806 0.000000
-1.545259 -43.901208 29.132104 0.000000 54.000000 14.885483 29.000000
0.173952 -45.210837 28.938598 0.000000 57.000000 14.238979 23.000000
-1.414771 -42.834801 28.095682 0.000000 37.000000 14.645095 27.000000
-1.450648 -44.300386 31.832982 0.000000 34.000000 14.005605 0.000000
-2.248180 -43.251713 30.662632 0.000000 55.000000 14.556595 11.000000
0.243351 -44.577364 26.439429 0.000000 74.000000 14.800102 18.000000
-1.895598 -43.788591 31.671021 0.000000 40.000000 14.166987 0.000000
-0.304883 -42.921529 27.248135 0.000000 32.000000 14.124557 0.000000
-2.517684 -44.237412 32.861036 0.000000 39.000000 14.437053 16.000000
-1.533449 -44.268231 29.522766 0.000000 57.000000 14.910834 29.000000
-2.423909 -41.397206 28.508389 0.000000 66.000000 14.586949 5.000000
-0.190189 -45.756621 30.018421 0.000000 35.000000 14.393464 8.000000
-0.247001 -45.568526 30.655673 0.000000 38.000000 14.110438 0.000000
-0.357498 -44.380053 29.284557 0.000000 41.000000 14.124718 0.000000
-1.623393 -43.778004 31.033907 0.000000 41.000000 14.182717 0.000000
-1.537545 -42.183613 27.922338 0.000000 63.000000 14.488062 27.000000
0.189144 -45.593777 29.141504 0.000000 48.000000 14.338967 23.000000
-0.169061 -44.508941 28.894794 0.000000 49.000000 14.183179 0.000000
-1.939522 -42.968985 30.266155 0.000000 59.000000 14.321427 15.000000
-1.994114 -43.718571 29.944020 0.000000 33.000000 14.850147 24.000000
-0.876405 -43.207973 28.060237 0.000000 37.000000 14.415281 30.000000
-2.433278 -42.826696 30.777252 0.000000 72.000000 14.452680 12.000000
-0.002633 -44.435836 28.692801 0.000000 41.000000 14.090784 0.000000
-2.997430 -41.284360 30.573821 0.000000 34.000000 14.219992 0.000000
-2.628568 -41.225259 29.818415 0.000000 45.000000 14.179464 0.000000
0.105061 -47.258886 30.711600 0.000000 82.000000 14.637630 7.000000
-1.477909 -44.344448 29.481885 0.000000 59.000000 14.919342 29.000000
-2.974221 -43.469513 32.907938 0.000000 65.000000 14.405090 4.000000
-1.419226 -42.795325 28.109470 0.000000 76.000000 14.624218 27.000000
-1.190242 -44.020903 30.380056 0.000000 25.000000 14.201372 0.000000
-0.770134 -43.282951 28.295478 0.000000 55.000000 14.280853 30.000000
-2.005364 -43.171310 29.848905 0.000000 57.000000 14.626828 24.000000
-0.666400 -46.031628 32.306206 0.000000 51.000000 14.056823 0.000000
0.477839 -45.577581 29.068712 0.000000 49.000000 14.129947 0.000000
0.137803 -46.607090 31.284657 0.000000 31.000000 14.081036 0.000000
-1.264601 -45.490624 32.978161 0.000000 30.000000 14.016177 0.000000
-2.320696 -41.465167 28.533719 0.000000 48.000000 14.529243 5.000000
-0.255782 -43.098208 27.361013 0.000000 42.000000 14.130304 0.000000
0.227652 -46.614489 29.719542 0.000000 58.000000 14.593274 14.000000
-1.896828 -41.662974 28.564742 0.000000 43.000000 14.279570 5.000000
0.217113 -45.507789 28.798674 0.000000 74.000000 14.401811 23.000000
-1.417532 -44.576412 30.049250 0.000000 51.000000 14.774890 29.000000
-1.959573 -44.036937 32.030844 0.000000 43.000000 14.205633 0.000000
-0.916541 -44.821104 30.991640 0.000000 51.000000 14.149702 0.000000
0.910005 -46.253577 29.074183 0.000000 55.000000 14.116857 0.000000
0.436559 -46.112372 30.161766 0.000000 25.000000 14.019108 0.000000
-2.131973 -43.198109 31.405728 0.000000 42.000000 14.163413 0.000000
-1.232599 -43.109384 29.508108 0.000000 33.000000 14.112306 0.000000
-1.265875 -43.308404 29.768585 0.000000 34.000000 14.139387 0.000000
-1.419867 -44.197721 29.403992 0.000000 64.000000 14.830635 29.000000
-1.191779 -43.471768 29.728902 0.000000 34.000000 14.175379 0.000000
-3.113013 -42.498448 30.724400 0.000000 76.000000 14.848823 12.000000
-2.651887 -42.049358 30.614363 0.000000 33.000000 14.305838 10.000000
-0.743884 -45.910431 32.170032 0.000000 58.000000 14.109238 0.000000
0.177168 -44.621448 27.304278 0.000000 80.000000 14.553652 23.000000
-1.856907 -42.151487 28.936526 0.000000 41.000000 14.349073 25.000000
-1.356546 -44.192466 31.379055 0.000000 21.000000 14.046631 0.000000
-1.585858 -43.361186 29.513861 0.000000 40.000000 14.512290 24.000000
0.585805 -45.085580 27.726906 0.000000 57.000000 14.301135 18.000000
-2.288188 -43.431723 32.232249 0.000000 43.000000 14.094897 0.000000
-2.138086 -43.812557 29.851661 0.000000 3.000000 15.044012 24.000000
0.508258 -45.873234 29.380880 0.000000 35.000000 14.134789 0.000000
-0.464820 -45.414590 30.708056 0.000000 31.000000 14.187888 0.000000
-2.893073 -42.100869 30.493890 0.000000 52.000000 14.566154 10.000000
-2.380265 -43.781560 32.992910 0.000000 40.000000 14.056899 0.000000
-2.366407 -42.647274 31.238052 0.000000 31.000000 14.141530 0.000000
-2.547113 -42.754894 30.891283 0.000000 73.000000 14.465290 12.000000
-2.663485 -41.031680 28.939510 0.000000 58.000000 14.437932 3.000000
-1.743942 -41.647581 28.522528 0.000000 40.000000 14.166904 0.000000
-0.966425 -43.700665 29.143907 0.000000 41.000000 14.325847 29.000000
0.743037 -45.465681 28.408818 0.000000 39.000000 14.110140 0.000000
-1.665015 -43.338982 29.629998 0.000000 40.000000 14.520964 24.000000
-1.524252 -42.266721 29.347349 0.000000 36.000000 13.990457 0.000000
0.875067 -46.921355 30.008731 0.000000 49.000000 14.124692 0.000000
-1.423072 -45.074983 32.790735 0.000000 32.000000 14.007662 0.000000
0.416928 -46.324968 30.337682 0.000000 49.000000 14.073358 0.000000
-0.309873 -45.439388 30.486416 0.000000 33.000000 14.159680 0.000000
-0.441367 -43.964468 27.864093 0.000000 70.000000 14.513922 22.000000
-1.505314 -42.739761 27.862392 0.000000 58.000000 14.756571 27.000000
0.047272 -44.579403 28.695452 0.000000 43.000000 14.120535 0.000000
0.292919 -46.462518 30.943629 0.000000 39.000000 14.014142 0.000000
-1.076559 -43.128092 28.420793 0.000000 55.000000 14.400840 26.000000
0.306577 -46.254984 30.535850 0.000000 39.000000 14.052947 0.000000
-0.016769 -45.295661 29.797803 0.000000 48.000000 14.112911 0.000000
-1.600949 -43.361337 30.683781 0.000000 39.000000 14.091035 0.000000
0.399219 -45.882219 29.877605 0.000000 37.000000 14.041369 0.000000
-2.513870 -44.971660 33.346406 0.000000 48.000000 14.613099 17.000000
0.572263 -44.370117 27.307562 0.000000 31.000000 14.117502 0.000000
-0.667361 -42.592687 27.602258 0.000000 59.000000 14.119072 0.000000
-0.338570 -43.701413 28.068273 0.000000 58.000000 14.228555 30.000000
-2.090144 -44.870243 33.006516 0.000000 48.000000 14.354675 17.000000
-1.307716 -44.702191 32.004521 0.000000 33.000000 14.025517 0.000000
-0.941026 -42.679246 27.960675 0.000000 28.000000 14.244829 27.000000
-1.175306 -45.083296 31.266801 0.000000 26.000000 14.380346 6.000000
-2.297735 -41.452016 28.373382 0.000000 64.000000 14.564054 5.000000
-1.741040 -43.710511 29.714251 0.000000 54.000000 14.731375 24.000000
-2.163971 -42.168069 30.071001 0.000000 34.000000 14.179626 0.000000
-0.432006 -45.721775 31.197335 0.000000 31.000000 14.130885 0.000000
-0.716355 -44.984337 29.440461 0.000000 74.000000 14.645765 9.000000
-2.333903 -44.219019 33.494071 0.000000 36.000000 14.048454 0.000000
-2.220725 -42.967428 31.309767 0.000000 36.000000 14.156335 0.000000
-0.082830 -45.267969 28.402878 0.000000 77.000000 14.668140 23.000000
-0.272796 -43.022262 27.299605 0.000000 34.000000 14.129374 0.000000
-2.529556 -41.001543 29.658423 0.000000 37.000000 14.051174 0.000000
0.159288 -47.363691 30.971414 0.000000 63.000000 14.549791 7.000000
0.507117 -45.985977 29.481458 0.000000 39.000000 14.153538 0.000000
-0.946370 -42.985318 27.779989 0.000000 56.000000 14.465530 30.000000
-0.004919 -44.094971 26.887614 0.000000 75.000000 14.594526 23.000000
-0.152831 -44.129048 28.536710 0.000000 39.000000 14.117324 0.000000
-1.574617 -42.308061 29.357780 0.000000 30.000000 14.046582 0.000000
-0.114797 -44.371465 28.811865 0.000000 44.000000 14.103842 0.000000
-1.960887 -45.179680 32.905165 0.000000 56.000000 14.441310 17.000000
0.776328 -45.351247 27.920171 0.000000 62.000000 14.208878 18.000000
-1.260438 -42.933442 29.291762 0.000000 45.000000 14.128439 0.000000
-1.160162 -44.160327 30.717175 0.000000 47.000000 14.120897 0.000000
-1.982838 -42.643478 29.151428 0.000000 62.000000 14.609392 25.000000
0.077475 -43.511425 27.400136 0.000000 36.000000 14.054477 0.000000
-0.653351 -44.247012 29.933818 0.000000 42.000000 14.052984 0.000000
-2.996506 -41.027948 29.756216 0.000000 61.000000 14.396741 2.000000
0.464113 -45.624373 27.737283 0.000000 50.000000 14.656717 18.000000
-0.689021 -43.393504 27.788759 0.000000 72.000000 14.458449 30.000000
-1.607002 -44.173507 29.801587 0.000000 67.000000 14.819396 29.000000
0.172882 -45.677330 29.973694 0.000000 43.000000 14.084462 0.000000
-1.706865 -41.604240 28.468824 0.000000 39.000000 14.136323 0.000000
-1.598367 -44.848715 32.696344 0.000000 26.000000 14.070527 0.000000
0.459878 -47.276011 29.953062 0.000000 63.000000 14.646607 19.000000
0.147565 -45.214226 28.875002 0.000000 60.000000 14.285031 23.000000
0.015556 -44.598325 27.449582 0.000000 71.000000 14.616213 23.000000
-0.120870 -45.316413 28.322694 0.000000 73.000000 14.751558 23.000000
0.379188 -44.674657 26.585912 0.000000 24.000000 14.686091 18.000000
-2.112192 -44.305095 32.660781 0.000000 44.000000 14.223958 16.000000
0.325158 -46.632528 31.104539 0.000000 40.000000 14.012163 0.000000
-0.115600 -43.950688 26.785005 0.000000 74.000000 14.649453 21.000000
0.103321 -44.564653 27.188662 0.000000 73.000000 14.627051 23.000000
-0.656089 -45.358057 31.469908 0.000000 39.000000 14.029227 0.000000
-0.253814 -46.341558 31.524427 0.000000 50.000000 14.171855 0.000000
-0.279436 -44.295908 29.069296 0.000000 34.000000 14.101648 0.000000
0.318401 -46.596668 31.105289 0.000000 34.000000 13.999699 0.000000
-0.043510 -43.385160 27.250015 0.000000 40.000000 14.143944 0.000000
0.089216 -44.759719 28.916961 0.000000 45.000000 14.093484 0.000000
0.590700 -45.138811 28.237980 0.000000 41.000000 14.134017 0.000000
-1.674043 -43.467725 29.732553 0.000000 67.000000 14.553029 24.000000
0.597023 -45.976607 29.301307 0.000000 54.000000 14.144650 0.000000
-1.151513 -43.653768 29.991661 0.000000 34.000000 14.135201 0.000000
0.362850 -46.095273 30.279860 0.000000 38.000000 14.025247 0.000000
-2.573144 -44.055686 33.613462 0.000000 35.000000 14.113420 0.000000
-2.700987 -41.202004 29.796235 0.000000 38.000000 14.233524 2.000000
0.547288 -47.411430 30.851716 0.000000 55.000000 14.310936 7.000000
0.512495 -46.616175 30.180814 0.000000 52.000000 14.198258 14.000000
0.844711 -46.424165 29.430487 0.000000 52.000000 14.119850 0.000000
-1.502428 -42.288281 27.574286 0.000000 78.000000 14.640361 27.000000
0.868599 -46.362205 29.235630 0.000000 40.000000 14.142862 0.000000
0.542090 -45.106025 27.559973 0.000000 73.000000 14.407480 18.000000
-1.471645 -42.550097 27.513629 0.000000 58.000000 14.766446 27.000000
0.674036 -47.747047 30.633209 0.000000 76.000000 14.455732 7.000000
-1.260275 -45.596863 31.565737 0.000000 54.000000 14.587729 6.000000
-2.774941 -43.123919 32.808256 0.000000 33.000000 14.115698 0.000000
-1.500915 -43.920901 31.548517 0.000000 32.000000 13.965218 0.000000
-2.574811 -43.024063 32.141559 0.000000 37.000000 14.155697 0.000000
0.076565 -43.737511 27.085957 0.000000 55.000000 14.282024 23.000000
-2.600451 -40.566532 29.057556 0.000000 26.000000 14.117119 0.000000
-3.170134 -43.838684 32.713159 0.000000 30.000000 14.812391 4.000000
-2.113516 -44.494172 32.933458 0.000000 44.000000 14.216420 0.000000
-1.982396 -44.417552 32.653727 0.000000 39.000000 14.178988 0.000000
0.230233 -46.683162 31.070823 0.000000 48.000000 14.124380 0.000000
0.007941 -44.987314 27.776405 0.000000 75.000000 14.691284 23.000000
-1.700246 -42.909478 29.076022 0.000000 65.000000 14.544062 25.000000
0.426651 -46.887735 31.215601 0.000000 49.000000 14.015568 0.000000
-1.271964 -45.516841 32.884802 0.000000 39.000000 14.069377 0.000000
-2.559569 -41.484991 30.287486 0.000000 38.000000 14.078171 0.000000
-0.809090 -43.349164 28.421175 0.000000 52.000000 14.297435 30.000000
-3.347405 -40.950867 29.408122 0.000000 65.000000 14.765184 2.000000
-0.509744 -44.922061 30.354653 0.000000 42.000000 14.113568 0.000000
-3.227405 -41.854345 30.492309 0.000000 71.000000 14.710387 10.000000
0.369456 -46.460321 29.769426 0.000000 42.000000 14.387441 14.000000
-0.061960 -46.296752 31.112245 0.000000 35.000000 14.151041 0.000000
-1.241240 -44.127349 29.322213 0.000000 57.000000 14.685421 29.000000
-1.026558 -42.514576 27.459840 0.000000 53.000000 14.417400 28.000000
-0.381092 -44.924834 28.868381 0.000000 68.000000 14.563694 9.000000
-0.056153 -44.171060 26.996235 0.000000 78.000000 14.631956 23.000000
-0.006046 -45.259722 29.665449 0.000000 46.000000 14.135891 0.000000
-2.349411 -42.722484 30.539559 0.000000 51.000000 14.423525 12.000000
-1.901978 -42.858990 29.935288 0.000000 38.000000 14.360546 15.000000
0.562140 -46.160256 29.596627 0.000000 50.000000 14.152585 0.000000
-2.627374 -41.483594 29.438884 0.000000 36.000000 14.445311 3.000000
0.558655 -46.037832 29.443419 0.000000 33.000000 14.152251 0.000000
0.515400 -43.658320 26.411826 0.000000 44.000000 14.146305 0.000000
0.444355 -45.960182 29.630654 0.000000 35.000000 14.135262 0.000000
-1.720822 -41.697953 28.547444 0.000000 49.000000 14.164029 0.000000
-1.772139 -45.165597 33.150363 0.000000 54.000000 14.194518 0.000000
-1.795167 -42.002148 29.152082 0.000000 46.000000 14.147498 0.000000
-2.402013 -44.173827 33.676594 0.000000 28.000000 14.012582 0.000000
-2.172901 -44.442551 32.744292 0.000000 57.000000 14.308160 16.000000
-1.582617 -43.613989 31.063432 0.000000 32.000000 14.059422 0.000000
-0.494739 -43.921100 29.222217 0.000000 37.000000 14.031946 0.000000
-2.092492 -43.428624 31.717264 0.000000 44.000000 14.129500 0.000000
-2.009120 -42.512797 30.285759 0.000000 43.000000 14.146224 0.000000
-0.072984 -44.180316 28.442559 0.000000 42.000000 14.114166 0.000000
-2.346389 -41.139588 28.891341 0.000000 47.000000 14.258003 3.000000
-1.945670 -42.512190 28.507706 0.000000 45.000000 14.754260 25.000000
0.142117 -44.109188 28.097197 0.000000 34.000000 14.037380 0.000000
-3.524048 -44.248268 32.916303 0.000000 5.000000 15.216896 4.000000
-0.431974 -42.755989 27.247104 0.000000 47.000000 14.144444 0.000000
0.429377 -46.069245 29.949697 0.000000 34.000000 14.082241 0.000000
-1.775969 -43.117961 29.992197 0.000000 42.000000 14.366478 24.000000
-1.790790 -43.415341 30.868767 0.000000 35.000000 14.198890 0.000000
-0.701501 -44.385555 30.003046 0.000000 51.000000 14.133086 0.000000
-1.453868 -42.368313 28.134965 0.000000 47.000000 14.433475 27.000000
0.345793 -47.285526 31.264301 0.000000 47.000000 14.255797 7.000000
-0.218287 -43.579378 27.925032 0.000000 44.000000 14.126946 0.000000
-0.256672 -45.430643 30.380512 0.000000 36.000000 14.152598 0.000000
-3.017384 -42.537365 31.118109 0.000000 64.000000 14.646496 10.000000
0.146916 -44.773765 27.491831 0.000000 73.000000 14.582528 23.000000
-1.344375 -44.269031 30.001223 0.000000 61.000000 14.584676 29.000000
-0.621978 -44.609359 29.279876 0.000000 60.000000 14.447439 9.000000
-0.133838 -46.524228 31.633245 0.000000 41.000000 14.126044 0.000000
0.785343 -46.088796 29.033718 0.000000 25.000000 14.149799 0.000000
-1.017915 -43.139083 28.552452 0.000000 53.000000 14.311126 26.000000
0.053693 -45.611309 28.710426 0.000000 31.000000 14.614176 23.000000
-0.672134 -42.547174 27.735917 0.000000 25.000000 14.051105 0.000000
-2.708817 -43.020474 32.448983 0.000000 37.000000 14.145959 0.000000
-2.550223 -41.408622 29.958607 0.000000 52.000000 14.155261 0.000000
0.349044 -46.614236 31.072263 0.000000 44.000000 13.996307 0.000000
-1.075379 -43.286986 28.746906 0.000000 67.000000 14.356787 26.000000
-0.934588 -43.838824 28.125642 0.000000 60.000000 14.745300 30.000000
-2.002227 -42.617937 30.242338 0.000000 47.000000 14.208237 0.000000
-1.739252 -42.509743 29.817235 0.000000 33.000000 14.105048 0.000000
-2.623154 -42.431950 30.371631 0.000000 56.000000 14.559989 12.000000
-1.306816 -45.363764 32.693559 0.000000 39.000000 14.092928 0.000000
-2.409800 -42.716616 30.958465 0.000000 47.000000 14.313232 12.000000
-2.240419 -41.292653 28.419478 0.000000 57.000000 14.423830 5.000000
-1.318722 -43.026531 29.506519 0.000000 39.000000 14.140442 0.000000
-0.260324 -45.589659 30.645603 0.000000 42.000000 14.135019 0.000000
-0.512857 -46.083831 32.023525 0.000000 40.000000 14.065722 0.000000
0.452863 -44.326616 26.271555 0.000000 66.000000 14.574227 18.000000
-0.402418 -45.748165 31.294172 0.000000 38.000000 14.084546 0.000000
0.111669 -43.716548 27.067919 0.000000 36.000000 14.250729 23.000000
-0.278301 -43.352791 27.783163 0.000000 34.000000 14.116167 0.000000
-3.242050 -41.725164 30.325715 0.000000 54.000000 14.720523 10.000000
-0.112590 -44.058866 28.349435 0.000000 33.000000 14.120591 0.000000
-1.147617 -44.337328 29.985686 0.000000 61.000000 14.468371 29.000000
-2.305716 -41.613704 28.458114 0.000000 65.000000 14.617992 5.000000
0.102683 -43.204442 26.956395 0.000000 34.000000 14.048878 0.000000
0.118753 -43.603677 27.228747 0.000000 36.000000 14.130418 0.000000
-2.618057 -41.393125 30.039158 0.000000 49.000000 14.171445 0.000000
0.006183 -45.135641 27.731363 0.000000 44.000000 14.781836 23.000000
0.106634 -44.579473 27.644212 0.000000 68.000000 14.462974 23.000000
-0.602044 -44.908443 30.737745 0.000000 38.000000 14.037960 0.000000
-0.034754 -45.547094 28.387911 0.000000 65.000000 14.772103 23.000000
-1.239570 -44.401865 29.879571 0.000000 58.000000 14.611844 29.000000
0.669263 -45.881408 28.549045 0.000000 56.000000 14.319643 20.000000
-1.429068 -43.530034 30.347046 0.000000 28.000000 14.162391 0.000000
-2.786447 -41.522717 30.455802 0.000000 48.000000 14.213503 0.000000
0.189655 -45.436333 29.686267 0.000000 34.000000 14.059886 0.000000
-1.385617 -42.500215 28.296649 0.000000 45.000000 14.384139 27.000000
0.274909 -46.041147 30.307158 0.000000 44.000000 14.058160 0.000000
-2.831734 -44.419690 33.202110 0.000000 69.000000 14.647911 4.000000
-0.802828 -42.891429 28.418751 0.000000 31.000000 14.069705 0.000000
-1.920957 -43.964314 31.909005 0.000000 54.000000 14.184759 0.000000
0.617264 -44.685279 27.629586 0.000000 42.000000 14.116709 0.000000
-1.561095 -44.289167 29.753776 0.000000 45.000000 14.857355 29.000000
-2.520250 -44.197510 33.782106 0.000000 22.000000 14.078486 0.000000
-0.309793 -43.877688 28.114732 0.000000 59.000000 14.274757 22.000000
-0.323871 -45.684485 30.975464 0.000000 41.000000 14.109403 0.000000
-2.340671 -43.942561 33.149879 0.000000 37.000000 14.046166 0.000000
-0.152092 -44.152287 28.477364 0.000000 46.000000 14.150074 0.000000
-1.723975 -43.391515 30.826954 0.000000 35.000000 14.149949 0.000000
-0.223800 -43.456440 27.731286 0.000000 49.000000 14.142975 0.000000
-3.195409 -40.687353 29.291883 0.000000 59.000000 14.559386 2.000000
0.730846 -47.514491 31.085127 0.000000 47.000000 14.129855 0.000000
-1.169191 -44.465199 31.102715 0.000000 50.000000 14.134236 0.000000
-0.880086 -43.662722 28.465471 0.000000 61.000000 14.490342 30.000000
-1.445152 -44.162693 29.718240 0.000000 68.000000 14.717119 29.000000
0.638524 -44.490483 27.227577 0.000000 42.000000 14.153598 0.000000
0.342191 -46.521987 30.913282 0.000000 38.000000 14.015517 0.000000
-1.863468 -44.171724 32.000742 0.000000 51.000000 14.206726 0.000000
0.402629 -46.151692 30.237860 0.000000 42.000000 14.036946 0.000000
-1.074927 -45.921363 31.718199 0.000000 56.000000 14.543421 6.000000
-0.989606 -43.888459 28.356449 0.000000 52.000000 14.727545 30.000000
0.142863 -44.567660 28.024788 0.000000 51.000000 14.287646 23.000000
-0.072571 -44.112404 27.872985 0.000000 61.000000 14.291580 22.000000
-1.397837 -43.783544 29.527667 0.000000 59.000000 14.565037 29.000000
0.572664 -47.458246 31.118305 0.000000 47.000000 14.215042 7.000000
0.433359 -46.677830 31.034365 0.000000 29.000000 13.974812 0.000000
-0.418513 -43.483331 26.868835 0.000000 53.000000 14.629321 22.000000
0.052658 -45.122041 28.046605 0.000000 66.000000 14.621733 23.000000
-1.934705 -42.898288 30.295626 0.000000 52.000000 14.272161 15.000000
-2.098445 -41.453826 28.463810 0.000000 69.000000 14.374016 5.000000
-1.252662 -43.778971 30.302161 0.000000 42.000000 14.161304 0.000000
-1.821087 -43.460275 31.123870 0.000000 37.000000 14.150311 0.000000
-0.525834 -44.147959 29.320096 0.000000 21.000000 14.131121 0.000000
-1.710214 -42.495022 29.839483 0.000000 32.000000 14.066676 0.000000
0.100195 -44.950071 27.557334 0.000000 70.000000 14.681334 23.000000
-1.689025 -41.497445 28.348596 0.000000 42.000000 14.114565 0.000000
-0.383485 -46.385271 32.006093 0.000000 56.000000 14.117281 0.000000
-2.085372 -43.736550 29.888774 0.000000 5.000000 14.951483 24.000000
-1.336479 -43.236336 28.574933 0.000000 71.000000 14.601984 26.000000
-0.750293 -43.226598 28.835432 0.000000 37.000000 14.037683 0.000000
-1.903249 -42.276596 29.604407 0.000000 56.000000 14.199486 0.000000
-0.545720 -45.008831 30.687909 0.000000 32.000000 14.060977 0.000000
0.189403 -47.405920 30.983833 0.000000 62.000000 14.542038 7.000000
-0.568830 -43.747790 27.819691 0.000000 72.000000 14.525175 30.000000
-2.009907 -43.626399 31.821895 0.000000 46.000000 14.122158 0.000000
-0.209538 -44.149950 27.034243 0.000000 73.000000 14.728735 23.000000
-2.046777 -44.753233 33.023572 0.000000 67.000000 14.256921 17.000000
-2.120226 -44.483079 32.984629 0.000000 50.000000 14.197350 0.000000
-1.875187 -42.691547 28.981035 0.000000 77.000000 14.610941 25.000000
0.655606 -46.465915 29.816613 0.000000 40.000000 14.146649 0.000000
-0.293420 -43.512740 27.417094 0.000000 70.000000 14.341837 22.000000
0.342851 -44.397884 26.458054 0.000000 62.000000 14.626895 18.000000
-2.840479 -42.802277 32.410769 0.000000 37.000000 14.157495 0.000000
-0.281756 -44.572410 29.419622 0.000000 33.000000 14.108864 0.000000
0.142366 -44.399191 27.100291 0.000000 56.000000 14.548077 23.000000
-0.226206 -43.490082 27.857539 0.000000 42.000000 14.114560 0.000000
-1.390166 -44.893534 32.425062 0.000000 33.000000 14.028417 0.000000
-0.202575 -43.916167 28.319628 0.000000 43.000000 14.132983 0.000000
0.407794 -44.577480 26.540480 0.000000 66.000000 14.632831 18.000000
-1.393461 -42.539122 29.291487 0.000000 39.000000 14.040935 0.000000
-1.244441 -45.745197 31.286475 0.000000 71.000000 14.751124 6.000000
-0.124930 -44.375316 28.868186 0.000000 41.000000 14.092872 0.000000
-0.184179 -46.063883 31.120323 0.000000 46.000000 14.130804 0.000000
-0.148410 -46.342673 31.440601 0.000000 44.000000 14.120176 0.000000
-3.269235 -41.105882 29.490735 0.000000 66.000000 14.748588 2.000000
-2.792591 -42.864708 32.461737 0.000000 37.000000 14.131297 0.000000
-1.586279 -43.442456 29.680832 0.000000 84.000000 14.490503 24.000000
0.323651 -46.989412 31.633279 0.000000 30.000000 13.991946 0.000000
-2.289695 -43.698870 31.932709 0.000000 39.000000 14.337561 1.000000
-1.616236 -43.037287 29.511890 0.000000 57.000000 14.378738 24.000000
-2.448915 -43.728895 33.045404 0.000000 38.000000 14.065955 0.000000
-1.899482 -42.225974 29.581711 0.000000 49.000000 14.180177 0.000000
0.083226 -45.375833 28.368394 0.000000 57.000000 14.602440 23.000000
0.271188 -44.426151 26.446162 0.000000 73.000000 14.701724 18.000000
-3.202947 -43.849493 32.801706 0.000000 68.000000 14.810802 4.000000
-1.795671 -41.731350 28.817922 0.000000 41.000000 14.139312 0.000000
-1.432978 -42.685229 28.560173 0.000000 60.000000 14.414374 25.000000
-1.619424 -41.609506 28.305007 0.000000 40.000000 14.130486 0.000000
-1.514968 -43.066312 30.310431 0.000000 33.000000 14.017204 0.000000
-0.997957 -42.982428 27.409262 0.000000 56.000000 14.642160 30.000000
-0.866484 -42.986155 27.929106 0.000000 51.000000 14.347609 30.000000
-0.505439 -46.094553 32.247345 0.000000 20.000000 13.982214 0.000000
-0.833630 -43.797028 29.322464 0.000000 50.000000 14.201909 29.000000
-0.591309 -44.999169 30.646640 0.000000 36.000000 14.107553 0.000000
0.036999 -45.103069 28.560698 0.000000 74.000000 14.434451 23.000000
-0.426607 -44.899683 29.752543 0.000000 61.000000 14.259933 9.000000
-0.985693 -42.360657 27.586955 0.000000 52.000000 14.262828 27.000000
-1.496200 -44.280959 29.621076 0.000000 72.000000 14.851221 29.000000
-0.494473 -44.026249 27.630191 0.000000 66.000000 14.672685 22.000000
-1.331708 -45.645573 31.503795 0.000000 52.000000 14.690901 6.000000
-1.687574 -43.252425 29.647749 0.000000 41.000000 14.489913 24.000000
-0.825552 -43.736672 28.960824 0.000000 30.000000 14.299957 30.000000
0.618688 -47.070090 30.729172 0.000000 62.000000 14.133111 0.000000
0.399666 -45.272725 28.314769 0.000000 34.000000 14.321932 23.000000
-1.336919 -43.301706 29.543669 0.000000 49.000000 14.275529 24.000000
-2.648234 -41.434635 30.277958 0.000000 38.000000 14.127135 0.000000
-1.304285 -44.126706 29.311969 0.000000 73.000000 14.738704 29.000000
-2.510315 -41.849723 30.600034 0.000000 33.000000 14.101751 0.000000
-0.981973 -45.212966 31.246403 0.000000 38.000000 14.298536 6.000000
-1.187923 -44.224997 29.406591 0.000000 54.000000 14.659772 29.000000
-1.046053 -45.006613 31.640696 0.000000 36.000000 14.102303 0.000000
-0.088033 -46.691818 31.745158 0.000000 62.000000 14.130311 0.000000
-2.192046 -41.853336 28.578147 0.000000 42.000000 14.600845 5.000000
0.148482 -45.029249 28.869602 0.000000 54.000000 14.195914 23.000000
-0.152907 -44.166909 27.021580 0.000000 73.000000 14.696975 23.000000
-1.337321 -45.009638 32.137969 0.000000 51.000000 14.149724 0.000000
-3.243081 -43.727906 33.058069 0.000000 71.000000 14.688154 4.000000
0.418287 -45.661960 29.475881 0.000000 35.000000 14.067440 0.000000
-2.690811 -41.497513 28.920506 0.000000 74.000000 14.694195 3.000000
-1.359470 -45.721077 31.247851 0.000000 38.000000 14.844512 6.000000
0.083748 -44.295904 28.301870 0.000000 37.000000 14.098936 0.000000
-0.188361 -46.675166 31.950132 0.000000 58.000000 14.125523 0.000000
0.232344 -44.866047 26.782711 0.000000 72.000000 14.822741 18.000000
-0.155154 -45.101837 29.145484 0.000000 54.000000 14.369085 9.000000
0.646965 -46.408982 29.882758 0.000000 35.000000 14.101158 0.000000
0.699142 -46.688956 30.139478 0.000000 36.000000 14.101684 0.000000
0.924516 -46.201743 29.011511 0.000000 39.000000 14.103273 0.000000
-2.421827 -44.439124 32.681804 0.000000 73.000000 14.526272 16.000000
-1.963287 -43.721790 30.128607 0.000000 66.000000 14.759010 24.000000
-0.544192 -43.995421 29.433005 0.000000 35.000000 14.029271 0.000000
-1.561328 -42.839389 27.937425 0.000000 68.000000 14.821719 27.000000
0.774874 -46.410660 29.566663 0.000000 38.000000 14.117991 0.000000
-2.393873 -41.621844 28.754555 0.000000 76.000000 14.581832 5.000000
-1.726057 -42.894895 28.926585 0.000000 41.000000 14.612665 25.000000
-2.485376 -41.835818 30.516397 0.000000 34.000000 14.106227 0.000000
0.266693 -44.379961 26.413949 0.000000 61.000000 14.694633 18.000000
0.437693 -45.781791 29.688017 0.000000 38.000000 14.032108 0.000000
-1.298363 -44.938928 32.490565 0.000000 23.000000 13.953820 0.000000
0.775619 -45.365422 28.015106 0.000000 71.000000 14.181208 0.000000
-0.349360 -43.097179 27.587392 0.000000 37.000000 14.119892 0.000000
0.000442 -45.188888 28.426188 0.000000 75.000000 14.555080 23.000000
0.103681 -43.959522 26.800733 0.000000 65.000000 14.474719 21.000000
-1.315527 -44.175493 30.911010 0.000000 29.000000 14.179261 0.000000
-1.475256 -44.753770 31.211970 0.000000 53.000000 14.476576 13.000000
0.396864 -46.423745 30.260876 0.000000 37.000000 14.165921 0.000000
-2.455848 -42.525545 31.256844 0.000000 42.000000 14.145741 0.000000
-2.234771 -41.732356 29.384784 0.000000 29.000000 14.276761 3.000000
-2.946681 -41.664355 30.326175 0.000000 75.000000 14.457302 10.000000
0.481579 -47.482662 31.055874 0.000000 39.000000 14.322049 7.000000
-1.472016 -42.742367 29.018087 0.000000 49.000000 14.303558 25.000000
0.421147 -46.699658 31.036980 0.000000 26.000000 13.994157 0.000000
-1.681275 -43.307892 30.117152 0.000000 50.000000 14.338210 24.000000
0.774552 -46.344360 29.417354 0.000000 40.000000 14.141140 0.000000
-0.226197 -44.789303 28.760918 0.000000 68.000000 14.414897 9.000000
0.802845 -47.544146 30.856722 0.000000 43.000000 14.172052 0.000000
0.628508 -44.394971 27.167608 0.000000 40.000000 14.137044 0.000000
-1.369862 -42.411459 27.509954 0.000000 67.000000 14.619652 27.000000
-1.674317 -42.903806 28.557313 0.000000 71.000000 14.712897 25.000000
-1.649485 -42.536505 29.586178 0.000000 32.000000 14.132778 0.000000
-1.695499 -42.696139 29.863930 0.000000 33.000000 14.144277 0.000000
-0.115033 -44.326235 28.681293 0.000000 52.000000 14.130281 0.000000
-1.612799 -41.722908 28.506297 0.000000 43.000000 14.106125 0.000000
-1.180466 -44.065109 30.177229 0.000000 46.000000 14.290362 29.000000
-1.617202 -42.049866 29.151468 0.000000 30.000000 14.030455 0.000000
-1.099553 -44.253682 30.634721 0.000000 46.000000 14.149172 0.000000
0.953249 -47.182969 30.324218 0.000000 27.000000 14.073940 0.000000
0.044738 -44.939118 27.748431 0.000000 69.000000 14.649023 23.000000
-1.757247 -42.539003 29.877752 0.000000 37.000000 14.111151 0.000000
-1.951515 -43.979448 32.035822 0.000000 51.000000 14.169331 0.000000
-2.124921 -42.948258 30.281541 0.000000 45.000000 14.452062 15.000000
0.470349 -47.336383 31.254042 0.000000 25.000000 14.186052 0.000000
-3.174716 -41.477809 30.427230 0.000000 65.000000 14.508863 10.000000
-2.392215 -41.739373 29.496581 0.000000 67.000000 14.363165 3.000000
-0.938982 -43.433313 27.896693 0.000000 73.000000 14.635396 30.000000
-1.297490 -44.355510 29.574736 0.000000 75.000000 14.747836 29.000000
-0.482036 -44.902870 28.851759 0.000000 61.000000 14.638859 9.000000
-0.208408 -44.140764 28.614232 0.000000 45.000000 14.138246 0.000000
-1.970834 -44.531436 32.791178 0.000000 38.000000 14.174604 0.000000
-0.094072 -45.536455 28.571307 0.000000 51.000000 14.745847 23.000000
-0.080347 -45.355083 28.537272 0.000000 68.000000 14.658978 23.000000
-2.600234 -44.253647 32.506180 0.000000 58.000000 14.641611 16.000000
-0.409573 -43.370773 27.099893 0.000000 61.000000 14.481689 22.000000
0.045188 -45.034799 27.847873 0.000000 45.000000 14.658597 23.000000
0.558903 -44.121439 26.718002 0.000000 30.000000 14.224864 18.000000
0.346213 -45.456013 29.209444 0.000000 37.000000 14.122405 0.000000
-0.403188 -46.104201 30.077312 0.000000 47.000000 14.709770 8.000000
-2.769307 -41.099294 29.055776 0.000000 71.000000 14.511514 3.000000
-1.339185 -43.746245 29.136351 0.000000 53.000000 14.645391 29.000000
-0.237043 -45.336913 30.223780 0.000000 54.000000 14.149330 0.000000
-0.137267 -44.429834 28.831260 0.000000 58.000000 14.142934 0.000000
1.042620 -47.705780 30.848434 0.000000 28.000000 14.064690 0.000000
-3.254465 -41.894184 30.422277 0.000000 74.000000 14.777166 10.000000
0.759647 -45.876935 28.893440 0.000000 52.000000 14.118517 0.000000
0.274543 -46.476627 31.066390 0.000000 30.000000 13.990091 0.000000
0.146453 -46.629662 30.024398 0.000000 65.000000 14.551938 14.000000
0.322859 -47.005225 31.498913 0.000000 38.000000 14.050057 0.000000
-0.165876 -46.369717 31.465110 0.000000 49.000000 14.138112 0.000000
-0.815348 -43.339075 28.604251 0.000000 59.000000 14.229650 30.000000
-0.441130 -43.888935 28.563604 0.000000 52.000000 14.217779 30.000000
0.371509 -45.527070 29.625266 0.000000 26.000000 13.983157 0.000000
-1.000265 -43.831892 28.268228 0.000000 77.000000 14.740992 30.000000
-1.932288 -41.759652 28.665649 0.000000 46.000000 14.317457 5.000000
0.700302 -47.308526 30.910340 0.000000 47.000000 14.118063 0.000000
-1.999201 -43.717244 31.841016 0.000000 51.000000 14.151012 0.000000
-0.722773 -44.417950 29.813003 0.000000 42.000000 14.236099 29.000000
-0.705858 -44.127600 29.678696 0.000000 43.000000 14.130589 0.000000
-1.860072 -42.270109 29.519059 0.000000 51.000000 14.193814 0.000000
-1.676044 -43.479501 31.010322 0.000000 34.000000 14.087175 0.000000
-1.591549 -41.947389 28.892632 0.000000 30.000000 14.055965 0.000000
0.282440 -46.168700 29.860599 0.000000 61.000000 14.279912 14.000000
0.715182 -43.885290 26.385157 0.000000 43.000000 14.109270 0.000000
0.045633 -44.366375 27.361351 0.000000 60.000000 14.511780 23.000000
-0.687361 -44.457348 29.491804 0.000000 61.000000 14.346325 9.000000
-0.722241 -43.626715 27.739588 0.000000 59.000000 14.616865 30.000000
-1.294539 -43.293979 28.415735 0.000000 43.000000 14.655975 26.000000
-0.210904 -43.415576 27.062595 0.000000 46.000000 14.360451 22.000000
