11.245897 -18.899907 -13.736109 0.000000 52.000000 14.502431 0.000000
11.820949 -17.264120 -12.110542 0.000000 51.000000 14.382888 0.000000
11.282886 -18.645491 -13.407884 0.000000 46.000000 14.401798 0.000000
11.964207 -17.112668 -11.988888 0.000000 48.000000 14.464044 0.000000
12.608434 -18.113647 -10.776376 0.000000 24.000000 14.337195 0.000000
11.536928 -13.478623 -12.650303 0.000000 71.000000 14.779975 25.000000
12.986480 -17.409308 -10.599202 0.000000 49.000000 14.651711 6.000000
10.913819 -18.773691 -14.142343 0.000000 45.000000 14.422658 0.000000
12.927952 -17.615584 -10.113393 0.000000 43.000000 14.345228 0.000000
11.108276 -14.203954 -14.264978 0.000000 77.000000 15.113776 30.000000
10.922112 -19.915858 -14.283039 0.000000 26.000000 14.382177 0.000000
11.316136 -14.580771 -13.887397 0.000000 66.000000 15.073982 29.000000
11.456033 -16.384806 -12.639384 0.000000 53.000000 14.410051 0.000000
11.873842 -20.169645 -12.511363 0.000000 22.000000 14.328295 0.000000
11.813056 -17.362028 -12.052878 0.000000 45.000000 14.338252 0.000000
12.541180 -15.564170 -10.298195 0.000000 34.000000 14.305871 0.000000
11.941706 -17.186374 -11.921690 0.000000 48.000000 14.404548 0.000000
10.826984 -19.122428 -14.355625 0.000000 42.000000 14.414859 0.000000
12.059382 -16.918319 -11.479084 0.000000 43.000000 14.320213 0.000000
11.975256 -19.006350 -12.283265 0.000000 44.000000 14.424102 0.000000
12.677978 -18.544406 -10.865438 0.000000 22.000000 14.397082 0.000000
11.596961 -19.923814 -13.121230 0.000000 36.000000 14.407014 0.000000
11.328003 -13.824136 -13.023913 0.000000 37.000000 14.743777 27.000000
10.508295 -19.217545 -14.915686 0.000000 54.000000 14.398630 0.000000
12.644241 -18.005660 -10.765202 0.000000 31.000000 14.373874 0.000000
12.292599 -16.745267 -11.171051 0.000000 40.000000 14.391753 0.000000
13.219974 -16.472559 -9.703161 0.000000 39.000000 14.516764 0.000000
10.303445 -18.857629 -15.418273 0.000000 71.000000 14.499720 0.000000
11.671469 -19.612830 -12.942746 0.000000 38.000000 14.417079 0.000000
12.923808 -16.724148 -10.245270 0.000000 60.000000 14.495605 0.000000
12.152515 -18.466182 -11.852012 0.000000 35.000000 14.424625 0.000000
12.769861 -16.829946 -10.472823 0.000000 34.000000 14.460936 0.000000
12.031411 -18.578281 -12.102019 0.000000 38.000000 14.428729 0.000000
9.854236 -17.794101 -16.334267 0.000000 52.000000 14.659260 11.000000
10.264932 -14.703541 -14.737552 0.000000 47.000000 14.558036 30.000000
11.777110 -16.023762 -12.185661 0.000000 57.000000 14.506657 0.000000
10.810868 -15.853947 -15.148261 0.000000 37.000000 15.114748 22.000000
11.728704 -14.260889 -12.469129 0.000000 35.000000 14.780019 4.000000
10.758548 -13.805180 -13.566623 0.000000 36.000000 14.512629 30.000000
11.933377 -17.571740 -11.901572 0.000000 49.000000 14.348561 0.000000
10.534365 -14.733316 -14.755944 0.000000 60.000000 14.798230 30.000000
10.007907 -18.127097 -15.675999 0.000000 58.000000 14.441178 0.000000
11.242276 -19.386964 -13.740864 0.000000 52.000000 14.452256 0.000000
10.677885 -17.396071 -14.328126 0.000000 67.000000 14.446724 0.000000
11.071880 -19.007981 -13.872576 0.000000 46.000000 14.406072 0.000000
10.068141 -15.212253 -15.248400 0.000000 42.000000 14.582163 24.000000
11.505567 -18.205743 -13.002929 0.000000 43.000000 14.444360 0.000000
10.806920 -13.797380 -13.338100 0.000000 39.000000 14.445088 0.000000
11.389319 -18.342194 -13.226450 0.000000 54.000000 14.437425 0.000000
13.257489 -16.671659 -9.335289 0.000000 27.000000 14.351510 0.000000
10.577955 -16.898950 -15.612616 0.000000 55.000000 15.030692 12.000000
10.749674 -15.072042 -14.682561 0.000000 71.000000 14.915729 28.000000
12.498975 -16.919262 -11.157851 0.000000 41.000000 14.547240 13.000000
10.848247 -19.044599 -14.315201 0.000000 47.000000 14.421703 0.000000
10.794857 -19.245755 -14.632332 0.000000 63.000000 14.508106 0.000000
11.212791 -13.662266 -13.127739 0.000000 61.000000 14.710128 27.000000
11.003358 -17.448048 -13.509628 0.000000 55.000000 14.329107 0.000000
10.210632 -17.598423 -16.114351 0.000000 74.000000 14.882790 11.000000
10.505814 -18.690288 -14.718609 0.000000 42.000000 14.354658 0.000000
11.543436 -15.969395 -12.357701 0.000000 38.000000 14.392051 0.000000
10.492572 -15.856803 -14.055979 0.000000 40.000000 14.309960 0.000000
10.832383 -15.727464 -14.664438 0.000000 65.000000 14.912534 22.000000
10.769107 -17.806596 -13.976400 0.000000 44.000000 14.314569 0.000000
10.919108 -18.671886 -14.276269 0.000000 39.000000 14.502266 0.000000
11.196366 -14.689350 -12.949840 0.000000 67.000000 14.505892 0.000000
10.934452 -12.880268 -13.214543 0.000000 49.000000 14.589183 1.000000
11.261236 -17.770464 -13.354398 0.000000 52.000000 14.445740 0.000000
10.863907 -15.921255 -15.318469 0.000000 69.000000 15.236287 22.000000
11.076066 -16.883579 -13.319566 0.000000 49.000000 14.357683 0.000000
9.705612 -17.202184 -16.012378 0.000000 32.000000 14.434441 0.000000
11.151026 -16.639672 -13.149928 0.000000 63.000000 14.365623 0.000000
10.627719 -18.041419 -14.409012 0.000000 46.000000 14.376820 0.000000
11.228649 -16.393287 -12.986352 0.000000 54.000000 14.379058 0.000000
12.576035 -17.132608 -10.830122 0.000000 35.000000 14.434328 0.000000
11.322409 -16.169432 -12.863684 0.000000 52.000000 14.424008 0.000000
10.776634 -17.617726 -14.165227 0.000000 59.000000 14.431463 0.000000
10.459290 -15.658007 -15.378289 0.000000 57.000000 14.939952 24.000000
10.193554 -17.373384 -15.533580 0.000000 66.000000 14.610157 12.000000
11.574922 -19.775792 -13.127573 0.000000 40.000000 14.405901 0.000000
10.004118 -15.896292 -15.946274 0.000000 60.000000 14.794355 23.000000
9.726455 -17.009191 -16.615150 0.000000 52.000000 14.763310 9.000000
10.943776 -12.797112 -13.258076 0.000000 47.000000 14.626744 1.000000
12.344751 -19.162275 -12.210129 0.000000 48.000000 14.694326 18.000000
11.001803 -13.320404 -12.929233 0.000000 56.000000 14.465354 0.000000
11.139269 -16.126088 -13.245216 0.000000 67.000000 14.453439 0.000000
11.139398 -18.420325 -13.727112 0.000000 38.000000 14.454028 0.000000
10.648016 -16.221406 -14.990119 0.000000 60.000000 14.859508 22.000000
11.304537 -15.300842 -12.759640 0.000000 49.000000 14.446160 0.000000
11.374441 -15.040404 -12.635102 0.000000 57.000000 14.473164 0.000000
11.429483 -14.752991 -12.477507 0.000000 46.000000 14.474004 0.000000
11.077784 -12.884930 -13.272181 0.000000 58.000000 14.741210 1.000000
10.987272 -14.719332 -14.138771 0.000000 62.000000 14.895379 28.000000
9.913498 -16.347895 -15.963581 0.000000 64.000000 14.678173 9.000000
11.861112 -14.388285 -11.885614 0.000000 76.000000 14.600378 3.000000
11.557251 -13.414810 -12.920042 0.000000 71.000000 14.934422 25.000000
10.187028 -16.049133 -15.266425 0.000000 53.000000 14.609519 22.000000
10.820237 -13.581394 -13.543903 0.000000 51.000000 14.577964 30.000000
11.177139 -14.964590 -14.129958 0.000000 61.000000 15.031411 28.000000
11.571654 -18.707865 -12.769959 0.000000 27.000000 14.338440 0.000000
11.595965 -16.843166 -12.542468 0.000000 41.000000 14.438512 0.000000
10.180896 -18.082703 -15.337879 0.000000 36.000000 14.432776 0.000000
11.557683 -17.481135 -12.700084 0.000000 38.000000 14.416758 0.000000
11.304134 -17.449100 -13.277018 0.000000 61.000000 14.478209 0.000000
11.189227 -17.613514 -13.451904 0.000000 47.000000 14.446113 0.000000
10.038211 -17.299038 -16.994778 0.000000 3.000000 15.188487 10.000000
11.577271 -15.172282 -12.176675 0.000000 45.000000 14.414743 0.000000
10.795935 -14.825236 -14.549759 0.000000 71.000000 14.916799 30.000000
11.001413 -17.990814 -13.876362 0.000000 43.000000 14.449620 0.000000
10.165371 -17.658201 -15.843564 0.000000 47.000000 14.706556 11.000000
11.350071 -20.341927 -13.841191 0.000000 53.000000 14.497767 0.000000
10.783156 -16.061291 -14.970908 0.000000 76.000000 14.983971 22.000000
11.622841 -17.460549 -12.616205 0.000000 26.000000 14.434988 0.000000
11.247326 -16.831312 -13.023322 0.000000 46.000000 14.368805 0.000000
11.234226 -19.366221 -13.589200 0.000000 27.000000 14.374087 0.000000
11.160228 -17.050814 -13.252303 0.000000 44.000000 14.381448 0.000000
9.969935 -17.571802 -16.686233 0.000000 50.000000 14.952428 10.000000
11.145575 -14.769121 -12.999678 0.000000 67.000000 14.477718 0.000000
11.009796 -18.951028 -14.021457 0.000000 47.000000 14.429769 0.000000
10.258349 -16.866135 -15.835727 0.000000 45.000000 14.863841 12.000000
11.045057 -14.290675 -14.196332 0.000000 45.000000 15.016850 30.000000
10.100190 -17.218336 -15.887209 0.000000 74.000000 14.715497 12.000000
11.823893 -17.656616 -12.125955 0.000000 42.000000 14.353148 0.000000
10.258682 -17.574546 -16.025042 0.000000 54.000000 14.883851 11.000000
10.680027 -18.040356 -14.180380 0.000000 38.000000 14.311967 0.000000
11.536760 -15.186802 -12.319763 0.000000 35.000000 14.447166 0.000000
11.511678 -15.198459 -12.494191 0.000000 62.000000 14.508438 26.000000
11.566662 -17.929882 -12.795748 0.000000 35.000000 14.425340 0.000000
10.416875 -15.528449 -15.631399 0.000000 51.000000 15.038460 24.000000
12.042909 -15.521735 -11.490581 0.000000 44.000000 14.452866 0.000000
9.607985 -17.070527 -16.509947 0.000000 37.000000 14.603242 9.000000
11.407840 -13.591494 -12.142859 0.000000 51.000000 14.411133 0.000000
12.436242 -15.602469 -10.817082 0.000000 37.000000 14.461402 0.000000
10.463607 -16.951362 -14.596642 0.000000 52.000000 14.435122 0.000000
9.986111 -18.313113 -15.771950 0.000000 50.000000 14.449739 0.000000
9.833948 -16.211575 -15.627370 0.000000 57.000000 14.460371 0.000000
9.984464 -18.048275 -15.628899 0.000000 41.000000 14.406018 0.000000
10.528620 -15.910661 -15.599022 0.000000 61.000000 15.081298 23.000000
9.961929 -17.753182 -15.447766 0.000000 39.000000 14.328797 0.000000
10.553433 -16.159939 -14.263670 0.000000 51.000000 14.432529 0.000000
9.961728 -17.481144 -15.311352 0.000000 36.000000 14.290269 0.000000
10.831606 -13.113782 -13.205111 0.000000 50.000000 14.471536 0.000000
11.362688 -15.900226 -12.475255 0.000000 58.000000 14.298650 0.000000
12.079121 -15.719786 -12.015990 0.000000 53.000000 14.718127 5.000000
11.351569 -17.404661 -13.220318 0.000000 66.000000 14.496571 0.000000
11.228029 -14.290395 -12.653510 0.000000 32.000000 14.430673 0.000000
11.786771 -15.066953 -11.607276 0.000000 53.000000 14.332534 0.000000
11.885845 -14.737803 -12.220943 0.000000 80.000000 14.748490 3.000000
10.961016 -15.052379 -13.247566 0.000000 31.000000 14.408280 0.000000
12.797725 -17.287178 -10.728915 0.000000 59.000000 14.562585 6.000000
9.836180 -16.494241 -16.075377 0.000000 62.000000 14.650120 9.000000
11.125147 -13.902334 -13.947838 0.000000 73.000000 15.005783 30.000000
11.282532 -13.810196 -12.339820 0.000000 42.000000 14.375159 0.000000
11.497055 -17.189765 -12.777688 0.000000 54.000000 14.431027 0.000000
11.823629 -13.994670 -12.561587 0.000000 57.000000 14.934199 4.000000
11.006053 -13.179697 -13.278540 0.000000 72.000000 14.652049 1.000000
11.141253 -14.422378 -12.809219 0.000000 39.000000 14.417063 0.000000
10.917445 -14.640814 -14.610776 0.000000 74.000000 15.070627 30.000000
11.071868 -14.713768 -13.026935 0.000000 53.000000 14.432389 0.000000
10.763628 -14.271855 -14.609449 0.000000 51.000000 14.973576 30.000000
10.383911 -19.097970 -14.848627 0.000000 42.000000 14.270168 0.000000
12.062538 -16.124866 -11.550376 0.000000 38.000000 14.437748 0.000000
10.570901 -15.411589 -13.810718 0.000000 37.000000 14.304682 0.000000
10.405775 -17.053548 -14.733381 0.000000 49.000000 14.440537 0.000000
11.366758 -14.629934 -13.765178 0.000000 64.000000 15.053985 29.000000
9.613934 -17.330326 -16.375545 0.000000 64.000000 14.517179 10.000000
9.951381 -16.623340 -16.119287 0.000000 67.000000 14.758448 9.000000
10.949699 -17.601395 -13.628132 0.000000 40.000000 14.324160 0.000000
10.706719 -15.294488 -13.576417 0.000000 39.000000 14.321469 0.000000
10.202094 -17.335594 -15.657902 0.000000 36.000000 14.681470 12.000000
12.509148 -15.921927 -10.515436 0.000000 26.000000 14.346733 0.000000
10.555521 -16.836816 -14.448973 0.000000 46.000000 14.455320 0.000000
12.225108 -19.175671 -11.761297 0.000000 34.000000 14.372088 0.000000
10.493220 -17.079421 -14.591258 0.000000 53.000000 14.445307 0.000000
10.447572 -17.335375 -14.756310 0.000000 57.000000 14.459424 0.000000
10.401213 -17.582624 -14.911170 0.000000 53.000000 14.468881 0.000000
12.133267 -15.662593 -11.314933 0.000000 42.000000 14.432330 0.000000
10.316411 -18.073736 -15.213228 0.000000 48.000000 14.491321 0.000000
10.505759 -16.335528 -15.195604 0.000000 41.000000 14.823501 22.000000
10.117082 -16.468379 -15.120906 0.000000 35.000000 14.435933 0.000000
11.012701 -16.706610 -13.615856 0.000000 57.000000 14.463634 0.000000
9.675366 -17.827893 -16.466544 0.000000 35.000000 14.564180 10.000000
10.987168 -14.289816 -13.683369 0.000000 65.000000 14.718780 29.000000
10.797221 -15.571904 -13.596588 0.000000 39.000000 14.381830 0.000000
10.822823 -19.512127 -14.439955 0.000000 41.000000 14.412517 0.000000
11.191301 -20.151343 -13.843833 0.000000 41.000000 14.380263 0.000000
11.366957 -20.164162 -13.788625 0.000000 56.000000 14.505060 0.000000
11.472364 -20.089791 -13.551398 0.000000 49.000000 14.489659 0.000000
10.786304 -13.280347 -13.260398 0.000000 41.000000 14.441979 0.000000
10.553504 -15.466428 -15.506422 0.000000 43.000000 15.103190 24.000000
10.853993 -16.013901 -13.764667 0.000000 50.000000 14.467644 0.000000
11.886346 -16.092528 -11.917379 0.000000 35.000000 14.465089 0.000000
10.487364 -18.908388 -15.248830 0.000000 67.000000 14.572675 8.000000
10.439733 -15.568145 -15.604445 0.000000 71.000000 15.041299 24.000000
11.205825 -17.859960 -13.494325 0.000000 47.000000 14.456085 0.000000
11.453658 -20.369328 -13.483526 0.000000 47.000000 14.412294 0.000000
11.802837 -20.774159 -13.113964 0.000000 36.000000 14.496442 0.000000
10.738959 -15.740529 -13.780056 0.000000 35.000000 14.402718 0.000000
11.254998 -13.935534 -13.411590 0.000000 65.000000 14.856290 27.000000
11.652995 -16.705774 -12.388927 0.000000 39.000000 14.427848 0.000000
10.474027 -16.176526 -14.532230 0.000000 55.000000 14.491531 0.000000
9.746639 -15.941692 -15.738140 0.000000 51.000000 14.465282 0.000000
10.570711 -16.607088 -14.343775 0.000000 44.000000 14.440973 0.000000
11.553274 -15.152150 -12.338016 0.000000 68.000000 14.473856 0.000000
11.515257 -14.309724 -12.185204 0.000000 41.000000 14.452278 0.000000
11.600244 -17.295467 -12.565156 0.000000 43.000000 14.407392 0.000000
11.242212 -17.897154 -13.310646 0.000000 25.000000 14.395229 0.000000
12.030837 -19.974039 -12.254043 0.000000 50.000000 14.360329 0.000000
11.932537 -17.855757 -12.004063 0.000000 20.000000 14.368583 0.000000
10.565876 -15.785470 -15.737631 0.000000 75.000000 15.193338 23.000000
11.800897 -14.423036 -11.837505 0.000000 67.000000 14.521249 3.000000
10.229070 -17.020838 -16.049420 0.000000 74.000000 14.925946 12.000000
10.270747 -17.595407 -15.121734 0.000000 49.000000 14.455846 0.000000
10.427126 -17.762106 -14.824645 0.000000 36.000000 14.431442 0.000000
11.105445 -15.654802 -13.143953 0.000000 52.000000 14.422828 0.000000
10.854024 -19.582725 -14.415616 0.000000 42.000000 14.420745 0.000000
11.895617 -18.984807 -12.358144 0.000000 42.000000 14.393196 0.000000
10.397324 -16.172704 -15.038494 0.000000 63.000000 14.669785 22.000000
10.406085 -15.242754 -15.241396 0.000000 60.000000 14.869598 24.000000
11.318819 -18.835144 -13.208710 0.000000 52.000000 14.317623 0.000000
11.726935 -14.861950 -12.155339 0.000000 39.000000 14.566023 3.000000
10.958305 -19.949315 -14.139427 0.000000 46.000000 14.340888 0.000000
11.801881 -14.621465 -12.104650 0.000000 64.000000 14.631067 3.000000
12.180721 -15.664344 -11.971995 0.000000 52.000000 14.790848 5.000000
11.366769 -14.230757 -13.565498 0.000000 38.000000 14.997953 29.000000
11.305600 -14.461113 -13.843764 0.000000 71.000000 15.055857 29.000000
11.778333 -18.228937 -12.336080 0.000000 42.000000 14.357079 0.000000
11.297449 -13.189421 -12.718886 0.000000 58.000000 14.634121 25.000000
12.326665 -15.620163 -11.011865 0.000000 51.000000 14.458411 0.000000
10.882623 -14.115220 -14.616201 0.000000 31.000000 15.096189 30.000000
11.486240 -19.227384 -13.138584 0.000000 50.000000 14.389629 0.000000
10.490880 -18.422040 -14.819446 0.000000 43.000000 14.417548 0.000000
10.152151 -17.898612 -16.327408 0.000000 69.000000 14.904458 11.000000
11.567601 -15.867203 -12.267025 0.000000 45.000000 14.379610 0.000000
11.747587 -19.647329 -12.780021 0.000000 27.000000 14.401173 0.000000
10.979357 -19.801456 -14.080583 0.000000 40.000000 14.345742 0.000000
12.218806 -17.812138 -11.661615 0.000000 53.000000 14.456529 0.000000
10.793510 -15.194914 -14.261961 0.000000 49.000000 14.738220 28.000000
12.237298 -18.016527 -11.613707 0.000000 45.000000 14.428770 0.000000
13.006004 -16.367814 -9.969028 0.000000 42.000000 14.469723 0.000000
12.193062 -18.282127 -12.451256 0.000000 67.000000 14.768020 14.000000
11.400842 -16.049377 -12.452257 0.000000 42.000000 14.305618 0.000000
12.574883 -17.427867 -10.932722 0.000000 49.000000 14.452992 0.000000
11.681157 -13.227698 -12.723148 0.000000 79.000000 14.966011 25.000000
10.378124 -17.052260 -15.408045 0.000000 68.000000 14.742548 12.000000
11.101375 -19.182110 -13.892667 0.000000 42.000000 14.423796 0.000000
10.012482 -18.217521 -15.715839 0.000000 40.000000 14.455247 0.000000
10.198494 -17.275841 -15.754976 0.000000 56.000000 14.731286 12.000000
11.474898 -18.519559 -12.763781 0.000000 59.000000 14.270376 0.000000
10.181899 -18.100687 -15.351330 0.000000 35.000000 14.438325 0.000000
10.127208 -17.065523 -16.185871 0.000000 59.000000 14.898752 12.000000
12.040213 -19.605578 -12.458195 0.000000 67.000000 14.504421 0.000000
10.455123 -16.688509 -14.553747 0.000000 50.000000 14.433639 0.000000
12.466319 -18.155938 -11.344852 0.000000 65.000000 14.483947 0.000000
11.152385 -14.127355 -14.211215 0.000000 45.000000 15.133920 30.000000
12.323767 -18.228839 -11.556160 0.000000 37.000000 14.454671 0.000000
11.641707 -19.762773 -13.008231 0.000000 38.000000 14.407648 0.000000
10.711358 -15.929692 -13.878945 0.000000 33.000000 14.407331 0.000000
10.564743 -15.319983 -13.893037 0.000000 41.000000 14.348371 0.000000
12.079499 -18.435267 -12.083012 0.000000 44.000000 14.475850 0.000000
12.372308 -15.788415 -10.712974 0.000000 41.000000 14.336676 0.000000
11.831328 -18.629379 -12.559453 0.000000 52.000000 14.470529 0.000000
11.176378 -20.058761 -13.837949 0.000000 49.000000 14.373817 0.000000
11.680561 -18.687606 -12.712666 0.000000 52.000000 14.407529 0.000000
11.011796 -20.079979 -13.922502 0.000000 34.000000 14.269380 0.000000
12.471536 -19.311922 -11.500068 0.000000 40.000000 14.446407 0.000000
10.091263 -17.250434 -15.139672 0.000000 26.000000 14.343349 0.000000
11.103571 -14.771161 -13.880912 0.000000 72.000000 14.866704 29.000000
11.890997 -14.674449 -11.254862 0.000000 41.000000 14.292675 0.000000
11.121446 -19.223391 -13.872140 0.000000 49.000000 14.427155 0.000000
11.014735 -19.331733 -14.091830 0.000000 49.000000 14.429510 0.000000
11.872515 -16.140334 -11.935644 0.000000 40.000000 14.457042 0.000000
10.798393 -19.547824 -14.513086 0.000000 51.000000 14.422985 0.000000
10.533532 -19.292220 -14.951071 0.000000 69.000000 14.430111 0.000000
10.895655 -17.939409 -13.868201 0.000000 31.000000 14.358907 0.000000
12.544258 -18.742324 -11.077942 0.000000 41.000000 14.363405 0.000000
10.798501 -18.756495 -14.432634 0.000000 60.000000 14.464347 0.000000
12.056993 -19.609966 -12.232363 0.000000 30.000000 14.409472 0.000000
11.124701 -17.946314 -13.657370 0.000000 51.000000 14.455554 0.000000
11.026038 -14.534420 -14.107151 0.000000 65.000000 14.932544 30.000000
10.708765 -19.012970 -14.600217 0.000000 51.000000 14.441291 0.000000
12.917200 -17.813109 -11.099582 0.000000 62.000000 14.792301 6.000000
10.650484 -15.343420 -13.648958 0.000000 41.000000 14.302652 0.000000
11.304941 -14.186346 -13.687528 0.000000 83.000000 15.007632 29.000000
10.629033 -17.496045 -14.413435 0.000000 36.000000 14.435327 0.000000
10.205109 -15.960484 -15.417762 0.000000 61.000000 14.707332 23.000000
11.354414 -17.936383 -13.151030 0.000000 49.000000 14.411728 0.000000
9.696041 -17.309172 -16.676746 0.000000 74.000000 14.736238 10.000000
11.186914 -17.789366 -13.605577 0.000000 49.000000 14.500533 0.000000
11.252028 -17.549913 -13.403972 0.000000 53.000000 14.484015 0.000000
12.086560 -19.057567 -12.240361 0.000000 56.000000 14.494989 0.000000
11.448145 -16.807720 -12.797019 0.000000 52.000000 14.436517 0.000000
11.697107 -16.083882 -12.294055 0.000000 46.000000 14.483356 0.000000
11.778801 -15.832494 -12.124325 0.000000 50.000000 14.497865 0.000000
11.845910 -15.545588 -11.910611 0.000000 46.000000 14.482038 0.000000
11.797412 -14.874809 -11.517770 0.000000 60.000000 14.318005 0.000000
12.018228 -17.489682 -11.752284 0.000000 36.000000 14.358544 0.000000
11.449606 -13.433180 -13.070538 0.000000 55.000000 14.911649 25.000000
12.124979 -16.303647 -11.232784 0.000000 21.000000 14.320519 0.000000
12.709901 -16.559189 -10.524884 0.000000 40.000000 14.461358 0.000000
10.088471 -14.497935 -14.577452 0.000000 55.000000 14.348047 0.000000
11.567464 -20.966718 -13.098347 0.000000 27.000000 14.264696 0.000000
10.973629 -13.533572 -13.122974 0.000000 54.000000 14.512862 27.000000
12.024208 -17.232410 -11.651973 0.000000 47.000000 14.341338 0.000000
9.543059 -16.774392 -16.624623 0.000000 69.000000 14.632165 9.000000
12.500416 -15.696327 -10.544100 0.000000 49.000000 14.375832 0.000000
12.483984 -16.973440 -11.179265 0.000000 43.000000 14.539061 13.000000
11.895765 -19.721348 -12.669006 0.000000 45.000000 14.468915 0.000000
10.454953 -15.631009 -15.665431 0.000000 56.000000 15.077632 23.000000
12.271193 -16.117643 -11.168500 0.000000 50.000000 14.435461 0.000000
11.739006 -19.763748 -12.885641 0.000000 59.000000 14.432946 0.000000
11.504630 -18.074072 -12.967944 0.000000 45.000000 14.439977 0.000000
12.044963 -16.517270 -11.735870 0.000000 57.000000 14.472337 0.000000
10.528685 -18.517896 -15.055754 0.000000 43.000000 14.554880 8.000000
11.913228 -16.678076 -11.948275 0.000000 49.000000 14.444097 0.000000
10.671340 -15.435387 -15.207166 0.000000 74.000000 15.064244 24.000000
10.904551 -15.821683 -14.473729 0.000000 67.000000 14.873626 22.000000
11.167187 -18.509480 -13.576710 0.000000 45.000000 14.396509 0.000000
9.862537 -16.858238 -16.474033 0.000000 80.000000 14.828771 9.000000
11.536056 -15.411184 -12.259518 0.000000 42.000000 14.394728 0.000000
11.562690 -17.206781 -12.639793 0.000000 46.000000 14.419769 0.000000
10.982065 -18.840787 -14.036796 0.000000 42.000000 14.424226 0.000000
11.456975 -17.392895 -12.878696 0.000000 49.000000 14.424396 0.000000
9.974582 -18.044118 -16.207829 0.000000 35.000000 14.677525 11.000000
11.397725 -14.446795 -13.733165 0.000000 55.000000 15.083998 29.000000
10.795793 -19.154354 -14.452656 0.000000 49.000000 14.431375 0.000000
11.345441 -16.733416 -12.840868 0.000000 28.000000 14.375904 0.000000
10.715161 -19.322757 -14.676532 0.000000 56.000000 14.452350 0.000000
11.187910 -17.989784 -13.645486 0.000000 47.000000 14.500384 0.000000
12.785624 -17.243574 -10.688464 0.000000 35.000000 14.536934 6.000000
10.766738 -18.642512 -14.376175 0.000000 46.000000 14.420990 0.000000
10.657939 -18.789280 -14.525294 0.000000 46.000000 14.383545 0.000000
11.221050 -19.152632 -13.512188 0.000000 42.000000 14.347053 0.000000
9.615110 -17.353649 -16.608728 0.000000 49.000000 14.628489 10.000000
11.039364 -14.772938 -13.761815 0.000000 79.000000 14.753149 29.000000
10.504884 -16.226506 -14.997546 0.000000 82.000000 14.738099 22.000000
10.516542 -18.021169 -14.751728 0.000000 59.000000 14.447746 0.000000
10.555122 -17.773904 -14.589725 0.000000 49.000000 14.428075 0.000000
10.594474 -17.516880 -14.425966 0.000000 49.000000 14.409215 0.000000
10.640380 -16.783967 -14.261176 0.000000 50.000000 14.443748 0.000000
12.265929 -14.729893 -11.342704 0.000000 62.000000 14.655572 2.000000
10.718555 -17.055779 -14.202840 0.000000 63.000000 14.456029 0.000000
10.219244 -18.375607 -15.339643 0.000000 57.000000 14.437318 0.000000
10.748033 -16.779987 -14.024046 0.000000 52.000000 14.423219 0.000000
10.267634 -18.159663 -15.240222 0.000000 50.000000 14.453240 0.000000
10.229947 -17.361471 -15.762680 0.000000 70.000000 14.753691 11.000000
10.286920 -17.902696 -15.082646 0.000000 41.000000 14.419909 0.000000
11.193879 -16.437825 -12.891857 0.000000 36.000000 14.298658 0.000000
11.858523 -19.059068 -12.485066 0.000000 38.000000 14.414732 0.000000
11.107653 -17.950493 -13.572071 0.000000 25.000000 14.399097 0.000000
10.803742 -15.261196 -13.411689 0.000000 32.000000 14.329641 0.000000
10.812854 -16.155395 -13.826432 0.000000 58.000000 14.447376 0.000000
10.458486 -16.957616 -14.656996 0.000000 46.000000 14.459192 0.000000
11.028264 -15.151037 -13.185985 0.000000 45.000000 14.427024 0.000000
10.592729 -15.407820 -15.469105 0.000000 63.000000 15.125211 24.000000
11.082843 -14.884873 -13.074696 0.000000 52.000000 14.447681 0.000000
10.536021 -16.461348 -14.442632 0.000000 45.000000 14.473319 0.000000
11.089589 -14.528775 -12.846543 0.000000 43.000000 14.379388 0.000000
10.566680 -16.193618 -14.319207 0.000000 51.000000 14.467469 0.000000
12.798006 -18.230450 -10.634593 0.000000 39.000000 14.421741 0.000000
10.514951 -15.802892 -14.018531 0.000000 39.000000 14.316792 0.000000
12.263676 -17.933116 -11.570692 0.000000 43.000000 14.439377 0.000000
10.858748 -13.269229 -13.144253 0.000000 41.000000 14.449999 0.000000
11.646758 -14.997390 -12.068362 0.000000 37.000000 14.440560 0.000000
11.125523 -16.392156 -13.367590 0.000000 55.000000 14.473659 0.000000
12.332961 -16.077057 -10.825115 0.000000 48.000000 14.327401 0.000000
11.265059 -15.933932 -12.989708 0.000000 50.000000 14.458861 0.000000
10.988824 -14.728069 -14.128503 0.000000 61.000000 14.890884 28.000000
11.091842 -16.398134 -13.426902 0.000000 52.000000 14.472416 0.000000
11.516346 -13.282163 -12.964584 0.000000 70.000000 14.933798 25.000000
10.394148 -18.646197 -15.378730 0.000000 57.000000 14.580912 8.000000
11.912352 -14.397984 -11.365154 0.000000 29.000000 14.392525 0.000000
10.586458 -16.085201 -14.736150 0.000000 63.000000 14.697073 22.000000
12.675027 -16.543265 -10.650881 0.000000 50.000000 14.493509 0.000000
12.010434 -16.699404 -11.641122 0.000000 24.000000 14.378092 0.000000
11.277751 -13.439237 -13.110901 0.000000 76.000000 14.781074 25.000000
9.893059 -17.405588 -16.284632 0.000000 38.000000 14.708389 11.000000
11.045816 -16.205499 -13.407051 0.000000 50.000000 14.442305 0.000000
10.616736 -15.616901 -15.108232 0.000000 52.000000 14.950580 24.000000
10.090245 -15.909393 -15.921210 0.000000 48.000000 14.855824 23.000000
11.616567 -20.170598 -13.135707 0.000000 32.000000 14.406068 0.000000
11.378727 -14.422953 -13.555059 0.000000 37.000000 14.983848 29.000000
11.782301 -15.082063 -12.733701 0.000000 35.000000 14.871290 26.000000
10.680656 -17.392572 -14.345206 0.000000 62.000000 14.457740 0.000000
12.946417 -16.469726 -10.079217 0.000000 49.000000 14.460813 0.000000
10.542034 -17.842234 -14.673911 0.000000 54.000000 14.450444 0.000000
11.003029 -18.978981 -14.008540 0.000000 48.000000 14.414814 0.000000
10.039940 -18.509647 -15.725349 0.000000 56.000000 14.454138 0.000000
10.518297 -19.256604 -14.908286 0.000000 62.000000 14.399798 0.000000
12.361066 -15.477746 -10.980177 0.000000 47.000000 14.487444 0.000000
10.020478 -17.720415 -15.374452 0.000000 40.000000 14.347617 0.000000
9.995144 -17.432307 -15.228493 0.000000 38.000000 14.284247 0.000000
11.837668 -16.721010 -12.031503 0.000000 44.000000 14.414243 0.000000
10.259097 -17.196362 -14.987142 0.000000 44.000000 14.421101 0.000000
11.537264 -20.556292 -13.441776 0.000000 59.000000 14.445903 0.000000
11.922471 -20.306438 -12.372473 0.000000 26.000000 14.289637 0.000000
12.092368 -20.316564 -12.278113 0.000000 43.000000 14.390784 0.000000
10.970110 -17.157411 -13.504056 0.000000 54.000000 14.326931 0.000000
10.686507 -17.359821 -14.312756 0.000000 58.000000 14.450468 0.000000
11.176249 -14.544489 -12.822100 0.000000 37.000000 14.441355 0.000000
12.723346 -18.414172 -10.856644 0.000000 39.000000 14.445478 0.000000
11.798890 -13.861008 -12.210496 0.000000 56.000000 14.756608 4.000000
11.898120 -20.728862 -12.698106 0.000000 48.000000 14.382995 0.000000
11.621801 -20.713644 -13.408903 0.000000 61.000000 14.487608 0.000000
11.216269 -13.496059 -13.148676 0.000000 76.000000 14.740099 25.000000
9.453337 -16.713108 -16.404121 0.000000 49.000000 14.453817 0.000000
10.974629 -19.848948 -14.289521 0.000000 56.000000 14.437759 0.000000
12.310700 -15.000570 -10.869489 0.000000 45.000000 14.438489 0.000000
12.457535 -16.038041 -10.586991 0.000000 25.000000 14.324656 0.000000
12.146408 -15.761201 -11.858295 0.000000 45.000000 14.696271 5.000000
10.652223 -15.419744 -13.622808 0.000000 28.000000 14.283802 0.000000
11.504584 -19.307739 -13.166648 0.000000 51.000000 14.411003 0.000000
11.353220 -18.855917 -12.992649 0.000000 24.000000 14.241059 0.000000
9.894335 -17.809401 -16.414354 0.000000 81.000000 14.731275 11.000000
11.259308 -20.299374 -13.835050 0.000000 44.000000 14.420174 0.000000
11.743945 -17.452862 -12.413413 0.000000 31.000000 14.443121 0.000000
11.961592 -18.804595 -12.223688 0.000000 38.000000 14.403868 0.000000
11.974091 -18.851816 -12.751398 0.000000 47.000000 14.664891 14.000000
11.974842 -17.864139 -12.012643 0.000000 33.000000 14.408672 0.000000
12.054537 -15.728045 -11.950380 0.000000 45.000000 14.664215 5.000000
10.692667 -16.923400 -15.757469 0.000000 79.000000 15.197958 12.000000
11.681378 -19.814833 -12.962582 0.000000 55.000000 14.414824 0.000000
12.551165 -16.862352 -10.790222 0.000000 29.000000 14.420791 0.000000
11.799570 -19.693888 -12.758857 0.000000 41.000000 14.431443 0.000000
12.544524 -16.685351 -10.979852 0.000000 45.000000 14.524549 13.000000
10.957712 -15.154061 -14.487492 0.000000 68.000000 14.994115 28.000000
11.142826 -16.762422 -13.102353 0.000000 59.000000 14.323077 0.000000
12.922007 -17.529135 -10.097600 0.000000 49.000000 14.341182 0.000000
11.265986 -19.244809 -13.586378 0.000000 47.000000 14.412640 0.000000
11.509667 -14.519113 -12.235145 0.000000 56.000000 14.450339 0.000000
10.557970 -14.916986 -14.839150 0.000000 54.000000 14.840356 30.000000
10.558792 -18.791080 -14.541649 0.000000 44.000000 14.305037 0.000000
9.694112 -17.600970 -16.733016 0.000000 66.000000 14.732195 10.000000
12.121021 -17.863662 -11.859631 0.000000 37.000000 14.461930 0.000000
12.537780 -18.921436 -11.138581 0.000000 44.000000 14.368928 0.000000
11.302638 -15.125322 -14.197913 0.000000 21.000000 15.157109 28.000000
11.557758 -20.554744 -13.400570 0.000000 50.000000 14.443977 0.000000
12.089147 -19.195966 -12.244952 0.000000 54.000000 14.485441 0.000000
11.337139 -15.051457 -12.674245 0.000000 30.000000 14.458514 0.000000
12.371735 -15.114381 -11.450301 0.000000 52.000000 14.760635 2.000000
11.112654 -14.373648 -14.064757 0.000000 56.000000 15.003673 30.000000
11.390475 -16.378424 -12.613292 0.000000 37.000000 14.341077 0.000000
11.588302 -13.173363 -12.754107 0.000000 42.000000 14.905714 25.000000
11.457024 -19.440177 -13.264421 0.000000 44.000000 14.403463 0.000000
10.926746 -14.416689 -12.950466 0.000000 37.000000 14.299320 0.000000
11.248052 -19.595825 -13.746394 0.000000 58.000000 14.438801 0.000000
13.018267 -16.056021 -9.803755 0.000000 46.000000 14.432119 0.000000
11.046692 -19.758958 -14.219040 0.000000 47.000000 14.475495 0.000000
10.281914 -16.978572 -15.257818 0.000000 35.000000 14.593763 12.000000
10.123402 -16.892710 -15.973314 0.000000 57.000000 14.810256 12.000000
10.766361 -19.287300 -14.661902 0.000000 71.000000 14.493401 0.000000
11.161481 -14.402939 -14.245132 0.000000 72.000000 15.130310 30.000000
11.018372 -14.389689 -13.891776 0.000000 62.000000 14.836485 30.000000
10.999093 -18.739608 -13.967293 0.000000 53.000000 14.415704 0.000000
11.245085 -18.024036 -13.366223 0.000000 52.000000 14.411728 0.000000
9.736103 -17.673586 -16.686543 0.000000 61.000000 14.738910 10.000000
11.760764 -17.168118 -12.290043 0.000000 48.000000 14.426984 0.000000
10.081066 -18.391243 -15.621711 0.000000 34.000000 14.451828 0.000000
10.811456 -19.458204 -14.483545 0.000000 49.000000 14.429149 0.000000
11.018681 -19.572466 -13.895344 0.000000 28.000000 14.313642 0.000000
10.885704 -19.272791 -14.270373 0.000000 45.000000 14.409515 0.000000
11.481314 -17.822982 -12.936329 0.000000 45.000000 14.429854 0.000000
10.767901 -15.431019 -14.360332 0.000000 56.000000 14.739561 28.000000
11.583618 -17.630100 -12.733649 0.000000 54.000000 14.440445 0.000000
9.799263 -16.372268 -15.692624 0.000000 42.000000 14.445457 0.000000
11.425895 -19.442437 -13.306385 0.000000 31.000000 14.396435 0.000000
10.865223 -14.663582 -13.055005 0.000000 30.000000 14.271315 0.000000
11.422313 -15.457812 -12.624173 0.000000 36.000000 14.467249 0.000000
9.799954 -16.671037 -15.771886 0.000000 37.000000 14.454095 0.000000
11.323939 -18.342738 -13.306149 0.000000 49.000000 14.419012 0.000000
10.850104 -14.283127 -14.700215 0.000000 80.000000 15.091491 30.000000
11.516010 -17.956904 -12.943021 0.000000 55.000000 14.449699 0.000000
10.690692 -15.557190 -13.658212 0.000000 30.000000 14.320444 0.000000
10.384128 -16.226132 -14.323929 0.000000 23.000000 14.307693 0.000000
9.651051 -16.758170 -16.582344 0.000000 75.000000 14.707302 9.000000
10.475303 -15.846783 -15.581483 0.000000 56.000000 15.032925 23.000000
11.761060 -17.279204 -12.273095 0.000000 44.000000 14.407804 0.000000
11.224412 -14.006054 -12.422935 0.000000 42.000000 14.344931 0.000000
10.903049 -16.101789 -13.649474 0.000000 47.000000 14.445758 0.000000
12.331550 -15.882178 -11.071843 0.000000 48.000000 14.465102 0.000000
12.434636 -15.643582 -10.886739 0.000000 47.000000 14.489494 0.000000
10.183219 -17.859565 -16.076465 0.000000 51.000000 14.814202 11.000000
10.229504 -16.796607 -15.526424 0.000000 72.000000 14.696372 12.000000
12.803050 -17.557467 -10.237493 0.000000 37.000000 14.302440 0.000000
12.351712 -18.094574 -11.473643 0.000000 38.000000 14.452707 0.000000
12.982769 -16.436369 -10.090891 0.000000 48.000000 14.501445 0.000000
11.385960 -17.978370 -13.084614 0.000000 36.000000 14.402826 0.000000
11.347562 -15.150906 -12.654245 0.000000 49.000000 14.447845 0.000000
12.094293 -18.299706 -11.928947 0.000000 38.000000 14.428015 0.000000
10.617791 -18.001416 -14.512128 0.000000 33.000000 14.422052 0.000000
10.834326 -13.342559 -13.918000 0.000000 45.000000 14.795129 30.000000
10.946689 -17.029605 -13.607695 0.000000 44.000000 14.369573 0.000000
11.363831 -16.765345 -12.850140 0.000000 33.000000 14.393144 0.000000
12.395351 -15.708025 -10.760651 0.000000 31.000000 14.387889 0.000000
11.446563 -18.792767 -12.932062 0.000000 40.000000 14.299364 0.000000
12.225945 -16.272448 -11.644056 0.000000 55.000000 14.610173 20.000000
10.556065 -15.512104 -13.918332 0.000000 40.000000 14.333589 0.000000
12.377926 -15.617078 -10.978162 0.000000 59.000000 14.487023 0.000000
10.899887 -15.222128 -14.363084 0.000000 67.000000 14.876831 28.000000
11.778700 -14.073988 -12.639617 0.000000 47.000000 14.924790 4.000000
10.635733 -14.811416 -14.971067 0.000000 72.000000 14.982405 30.000000
11.631434 -17.740169 -12.478152 0.000000 30.000000 14.347453 0.000000
10.685654 -18.740407 -15.335708 0.000000 65.000000 14.804107 8.000000
13.210746 -16.648377 -10.156163 0.000000 65.000000 14.709778 15.000000
10.452153 -15.331132 -15.509598 0.000000 67.000000 15.030281 24.000000
11.460485 -18.100128 -13.077496 0.000000 51.000000 14.451871 0.000000
10.874131 -19.591083 -14.368651 0.000000 39.000000 14.414696 0.000000
10.250470 -17.171249 -15.790400 0.000000 74.000000 14.804194 12.000000
9.992810 -16.495797 -16.086949 0.000000 74.000000 14.791772 9.000000
10.232218 -16.737207 -15.744291 0.000000 54.000000 14.809999 12.000000
9.851351 -17.986045 -16.160832 0.000000 23.000000 14.553528 11.000000
11.017187 -18.657476 -13.923601 0.000000 50.000000 14.418650 0.000000
10.134709 -16.616201 -14.985850 0.000000 29.000000 14.371049 0.000000
9.924698 -16.470064 -15.837632 0.000000 58.000000 14.614697 9.000000
11.299542 -19.264457 -13.347240 0.000000 48.000000 14.324307 0.000000
10.426634 -18.904033 -15.114674 0.000000 64.000000 14.455488 0.000000
10.883018 -14.553473 -14.507095 0.000000 78.000000 14.999443 30.000000
11.447786 -16.847614 -12.793637 0.000000 29.000000 14.430531 0.000000
10.573217 -18.215698 -14.530704 0.000000 46.000000 14.370560 0.000000
10.647383 -18.005163 -14.386225 0.000000 52.000000 14.386585 0.000000
10.714442 -17.785211 -14.229180 0.000000 41.000000 14.391310 0.000000
10.714549 -19.355759 -14.676837 0.000000 48.000000 14.448624 0.000000
11.763501 -18.606608 -12.547874 0.000000 36.000000 14.408253 0.000000
10.918054 -17.098699 -13.757547 0.000000 41.000000 14.410065 0.000000
10.994480 -16.872354 -13.621000 0.000000 49.000000 14.433488 0.000000
10.107812 -17.678896 -16.271995 0.000000 74.000000 14.861376 11.000000
10.972444 -12.720404 -13.165492 0.000000 50.000000 14.614717 1.000000
10.176858 -17.135596 -15.949736 0.000000 46.000000 14.820759 12.000000
10.529614 -15.842331 -15.713046 0.000000 68.000000 15.144167 23.000000
11.206502 -16.143082 -13.166130 0.000000 66.000000 14.471984 0.000000
11.706830 -14.458314 -11.966910 0.000000 58.000000 14.498382 0.000000
11.843086 -14.698918 -11.421272 0.000000 46.000000 14.328922 0.000000
10.733170 -17.314449 -14.268401 0.000000 63.000000 14.474218 0.000000
11.416035 -13.751830 -12.198373 0.000000 44.000000 14.428843 0.000000
11.248164 -14.851235 -13.865710 0.000000 53.000000 14.977002 29.000000
9.537470 -15.983490 -15.786103 0.000000 23.000000 14.302308 0.000000
10.701206 -15.365535 -15.068224 0.000000 58.000000 15.030170 24.000000
9.956846 -16.625089 -16.313011 0.000000 58.000000 14.856611 9.000000
11.117962 -14.990563 -13.769308 0.000000 46.000000 14.803086 28.000000
10.876746 -15.888328 -15.189410 0.000000 77.000000 15.188439 22.000000
11.655972 -14.184545 -11.979093 0.000000 34.000000 14.487761 0.000000
11.089616 -14.519607 -14.282753 0.000000 51.000000 15.074170 30.000000
11.067415 -15.497471 -13.198537 0.000000 43.000000 14.432055 0.000000
11.120689 -15.233597 -13.066434 0.000000 44.000000 14.441290 0.000000
9.978621 -16.636270 -16.482441 0.000000 67.000000 14.956268 9.000000
11.265213 -14.012028 -12.375642 0.000000 28.000000 14.356964 0.000000
10.939902 -19.812070 -14.385086 0.000000 52.000000 14.457458 0.000000
12.544496 -18.345765 -10.896345 0.000000 28.000000 14.316040 0.000000
12.261914 -15.363730 -11.071136 0.000000 49.000000 14.456700 0.000000
12.134171 -15.542231 -11.296285 0.000000 36.000000 14.436296 0.000000
9.848076 -16.992906 -16.388561 0.000000 67.000000 14.761266 9.000000
11.700988 -16.355214 -12.321289 0.000000 48.000000 14.472411 0.000000
11.414659 -18.492525 -12.979032 0.000000 44.000000 14.324712 0.000000
12.505028 -19.121037 -11.297968 0.000000 42.000000 14.397231 0.000000
11.910671 -15.288677 -11.739248 0.000000 52.000000 14.481591 0.000000
11.207421 -14.729096 -12.934895 0.000000 70.000000 14.504262 0.000000
11.149852 -17.254320 -13.329823 0.000000 59.000000 14.389266 0.000000
11.619537 -15.610147 -12.021744 0.000000 42.000000 14.332314 0.000000
9.593846 -17.136688 -16.444964 0.000000 58.000000 14.552853 10.000000
12.112932 -14.631224 -12.052076 0.000000 58.000000 14.875199 3.000000
10.969472 -17.643723 -13.763777 0.000000 41.000000 14.402600 0.000000
11.167316 -16.248371 -13.286838 0.000000 66.000000 14.485556 0.000000
10.842913 -17.781639 -13.878075 0.000000 44.000000 14.333784 0.000000
12.923074 -17.680375 -10.758484 0.000000 54.000000 14.646067 6.000000
10.742903 -17.953565 -14.050570 0.000000 43.000000 14.312728 0.000000
11.210505 -16.476320 -12.910775 0.000000 46.000000 14.318359 0.000000
10.657745 -18.142223 -14.246375 0.000000 43.000000 14.314156 0.000000
12.126765 -16.823769 -11.325087 0.000000 34.000000 14.313994 0.000000
10.431453 -17.439243 -14.771420 0.000000 57.000000 14.442187 0.000000
11.545651 -18.450580 -12.622043 0.000000 33.000000 14.270421 0.000000
10.426378 -16.680677 -15.721204 0.000000 49.000000 14.973429 12.000000
10.261206 -17.665015 -15.887864 0.000000 43.000000 14.810614 11.000000
11.718355 -13.971286 -12.138050 0.000000 59.000000 14.640401 4.000000
11.384052 -15.717922 -12.751340 0.000000 55.000000 14.469068 0.000000
10.982470 -13.446442 -12.972625 0.000000 52.000000 14.456740 0.000000
11.607206 -21.020965 -13.004245 0.000000 25.000000 14.248305 0.000000
11.950817 -19.740049 -12.606514 0.000000 58.000000 14.484710 0.000000
11.595691 -18.074008 -12.478110 0.000000 34.000000 14.282541 0.000000
10.622875 -18.925455 -14.641761 0.000000 36.000000 14.395526 0.000000
11.122273 -16.323710 -13.317004 0.000000 58.000000 14.453327 0.000000
10.158194 -18.313560 -15.456257 0.000000 60.000000 14.446842 0.000000
10.188035 -18.078968 -15.349924 0.000000 57.000000 14.445182 0.000000
10.483090 -18.609326 -15.072938 0.000000 53.000000 14.514270 8.000000
9.658460 -16.527672 -16.168592 0.000000 43.000000 14.537205 9.000000
11.374857 -14.592296 -12.580843 0.000000 57.000000 14.492691 0.000000
9.769657 -18.082573 -15.800364 0.000000 38.000000 14.298564 0.000000
12.025421 -20.603044 -13.516196 0.000000 52.000000 14.901666 7.000000
11.562612 -13.534489 -12.600828 0.000000 71.000000 14.772754 25.000000
11.645712 -17.496172 -12.615594 0.000000 58.000000 14.450977 0.000000
10.844264 -15.647674 -14.491198 0.000000 69.000000 14.847254 22.000000
11.192076 -13.849150 -12.685551 0.000000 46.000000 14.459567 0.000000
10.928471 -14.516251 -14.471241 0.000000 52.000000 15.025422 30.000000
10.656466 -15.303197 -13.741336 0.000000 41.000000 14.356555 0.000000
11.799999 -13.346547 -12.620509 0.000000 63.000000 15.007746 25.000000
11.192958 -13.908850 -14.371794 0.000000 62.000000 15.268909 30.000000
12.439774 -14.764289 -11.290426 0.000000 63.000000 14.778024 2.000000
10.404781 -16.311552 -14.485589 0.000000 43.000000 14.395103 0.000000
10.743469 -13.832505 -14.315385 0.000000 55.000000 14.858473 30.000000
10.678689 -15.220136 -13.610407 0.000000 37.000000 14.321041 0.000000
10.671066 -14.946278 -15.043592 0.000000 43.000000 15.034513 24.000000
11.182725 -18.008584 -13.615193 0.000000 54.000000 14.479337 0.000000
10.301722 -17.468442 -15.805335 0.000000 70.000000 14.825887 11.000000
10.552376 -17.106194 -15.518996 0.000000 55.000000 14.942232 12.000000
11.621724 -17.812452 -12.522262 0.000000 21.000000 14.352998 0.000000
12.877016 -15.941471 -10.167075 0.000000 54.000000 14.496392 0.000000
12.076479 -16.644912 -11.673264 0.000000 37.000000 14.456576 0.000000
12.245896 -15.630538 -11.104843 0.000000 44.000000 14.432034 0.000000
10.783228 -13.471071 -14.113831 0.000000 59.000000 14.832281 30.000000
9.731621 -16.739482 -16.496597 0.000000 71.000000 14.737841 9.000000
10.369325 -16.811149 -14.651570 0.000000 39.000000 14.393860 0.000000
9.663548 -17.051804 -16.366818 0.000000 70.000000 14.584316 9.000000
12.034177 -15.578133 -11.518317 0.000000 36.000000 14.452960 0.000000
11.737680 -16.293899 -12.252361 0.000000 54.000000 14.477233 0.000000
10.098609 -18.505287 -15.656551 0.000000 59.000000 14.472368 0.000000
12.770804 -17.882213 -11.268800 0.000000 61.000000 14.739732 6.000000
11.193640 -13.973249 -13.367726 0.000000 47.000000 14.777918 27.000000
11.266262 -20.030514 -13.752334 0.000000 45.000000 14.413488 0.000000
10.656307 -19.401404 -14.813912 0.000000 46.000000 14.459570 0.000000
10.201140 -18.003921 -16.392480 0.000000 45.000000 14.967834 11.000000
10.612272 -15.088055 -15.195665 0.000000 65.000000 15.042490 24.000000
11.267877 -18.930063 -13.290140 0.000000 42.000000 14.303046 0.000000
10.128216 -15.248521 -15.408465 0.000000 51.000000 14.708064 24.000000
12.993819 -16.769835 -10.292766 0.000000 84.000000 14.574812 15.000000
12.688301 -16.834119 -11.100182 0.000000 39.000000 14.692657 13.000000
12.200171 -19.359890 -11.963944 0.000000 46.000000 14.429644 0.000000
12.033232 -17.894068 -11.953049 0.000000 22.000000 14.427632 0.000000
12.439223 -19.140335 -11.457620 0.000000 46.000000 14.415174 0.000000
9.865531 -16.559865 -15.636631 0.000000 37.000000 14.457042 0.000000
11.914238 -20.239708 -12.324554 0.000000 29.000000 14.266085 0.000000
12.135245 -20.161918 -12.149496 0.000000 39.000000 14.381600 0.000000
10.543482 -15.599671 -13.844514 0.000000 39.000000 14.278117 0.000000
10.953383 -13.563416 -13.155101 0.000000 44.000000 14.507751 27.000000
10.629940 -19.139148 -14.771675 0.000000 61.000000 14.442791 0.000000
10.263624 -18.446248 -15.399848 0.000000 60.000000 14.497847 0.000000
12.032112 -18.653792 -12.114785 0.000000 39.000000 14.427858 0.000000
11.230168 -14.999795 -14.032753 0.000000 39.000000 15.027005 28.000000
11.520815 -18.616934 -12.747692 0.000000 45.000000 14.292677 0.000000
9.856809 -16.823522 -16.249315 0.000000 63.000000 14.718744 9.000000
12.582812 -17.200359 -10.833819 0.000000 35.000000 14.435147 0.000000
11.190369 -14.022310 -14.339045 0.000000 77.000000 15.239347 30.000000
9.606077 -16.806100 -16.519620 0.000000 62.000000 14.633033 9.000000
11.160693 -14.174650 -14.386714 0.000000 70.000000 15.221140 30.000000
10.900189 -14.965901 -13.174281 0.000000 38.000000 14.328732 0.000000
11.560304 -14.198309 -12.125387 0.000000 41.000000 14.473840 0.000000
11.063784 -14.088328 -14.114329 0.000000 71.000000 15.014012 30.000000
10.962418 -14.652715 -14.641723 0.000000 66.000000 15.123485 30.000000
10.939489 -19.247036 -14.151120 0.000000 45.000000 14.401289 0.000000
10.081765 -17.980183 -16.073831 0.000000 35.000000 14.712481 11.000000
11.252361 -18.832821 -13.548713 0.000000 46.000000 14.424315 0.000000
9.759742 -17.929965 -16.428136 0.000000 41.000000 14.608670 11.000000
12.221603 -15.162187 -11.588984 0.000000 53.000000 14.692223 2.000000
10.872982 -14.460493 -14.428502 0.000000 45.000000 14.962163 30.000000
11.823986 -20.481190 -12.642932 0.000000 36.000000 14.316948 0.000000
9.709433 -16.978099 -16.567072 0.000000 86.000000 14.728427 9.000000
10.571297 -15.705181 -15.582858 0.000000 53.000000 15.131413 24.000000
11.448421 -13.500314 -12.445520 0.000000 60.000000 14.601875 25.000000
11.189099 -19.466847 -13.855060 0.000000 53.000000 14.453087 0.000000
11.565412 -18.083114 -12.610777 0.000000 39.000000 14.319377 0.000000
9.400235 -16.904129 -16.464745 0.000000 48.000000 14.417577 0.000000
11.635667 -14.044869 -11.969505 0.000000 44.000000 14.479614 0.000000
10.437901 -18.463856 -14.818048 0.000000 23.000000 14.366564 0.000000
12.368644 -18.092954 -11.418305 0.000000 44.000000 14.440863 0.000000
11.381141 -18.862961 -12.995772 0.000000 39.000000 14.266136 0.000000
12.082307 -17.442054 -11.682061 0.000000 35.000000 14.385172 0.000000
11.528548 -18.754081 -12.904807 0.000000 54.000000 14.361416 0.000000
11.215627 -14.383001 -13.723637 0.000000 62.000000 14.927486 29.000000
11.178421 -13.198156 -12.884706 0.000000 58.000000 14.609826 25.000000
11.576874 -14.136845 -12.368556 0.000000 74.000000 14.611949 4.000000
11.867316 -18.280527 -12.380092 0.000000 42.000000 14.450505 0.000000
11.246425 -17.854798 -13.309091 0.000000 33.000000 14.402431 0.000000
12.786621 -16.237778 -10.271505 0.000000 32.000000 14.438221 0.000000
12.901522 -15.998822 -9.997637 0.000000 33.000000 14.430043 0.000000
12.476773 -17.065379 -11.015878 0.000000 42.000000 14.444547 0.000000
9.806820 -16.878843 -16.489656 0.000000 81.000000 14.785776 9.000000
9.745487 -16.590333 -15.887383 0.000000 43.000000 14.470694 0.000000
10.940012 -13.193576 -13.284856 0.000000 45.000000 14.596259 1.000000
10.527655 -15.076117 -15.323845 0.000000 67.000000 15.032032 24.000000
10.907862 -14.011994 -13.735687 0.000000 45.000000 14.703217 30.000000
10.584097 -15.844719 -14.828912 0.000000 54.000000 14.764186 22.000000
10.254971 -17.893728 -15.241964 0.000000 60.000000 14.469998 0.000000
10.544816 -18.449692 -14.469588 0.000000 42.000000 14.292640 0.000000
12.887568 -17.300988 -10.489500 0.000000 41.000000 14.523661 6.000000
9.979076 -17.498078 -15.311187 0.000000 37.000000 14.303562 0.000000
11.760376 -14.171028 -11.769277 0.000000 49.000000 14.478567 0.000000
11.751757 -19.203143 -12.674450 0.000000 33.000000 14.398779 0.000000
