-20.511372 -2.991063 37.677652 0.000000 48.000000 14.393532 0.000000
-20.388408 -3.224182 37.513447 0.000000 41.000000 14.396652 0.000000
-21.133620 -3.952296 35.750413 0.000000 61.000000 14.838633 17.000000
-21.931481 -1.466522 38.070295 0.000000 58.000000 14.609100 14.000000
-21.264227 -2.481285 36.927385 0.000000 38.000000 14.394276 0.000000
-21.094512 -2.721270 37.869542 0.000000 69.000000 14.710399 13.000000
-18.219440 -4.403898 40.415090 0.000000 41.000000 14.446260 0.000000
-19.928812 -4.884109 35.042709 0.000000 42.000000 14.317565 0.000000
-19.585211 -3.546131 39.142196 0.000000 72.000000 14.516106 24.000000
-20.010770 -4.303247 36.464903 0.000000 54.000000 14.460732 0.000000
-20.006398 -2.220633 40.471563 0.000000 47.000000 14.419220 0.000000
-17.318694 -7.240865 37.585902 0.000000 43.000000 14.659122 26.000000
-19.866321 -2.618739 39.602825 0.000000 70.000000 14.293042 0.000000
-21.118336 -2.720717 37.816577 0.000000 67.000000 14.710942 13.000000
-19.895775 -4.613292 36.115582 0.000000 37.000000 14.459552 0.000000
-19.951065 -2.343952 40.151421 0.000000 54.000000 14.355659 0.000000
-20.255879 -3.815482 36.848519 0.000000 44.000000 14.457774 0.000000
-17.503979 -6.518572 38.136342 0.000000 54.000000 14.520344 26.000000
-21.423548 -2.338415 37.883298 0.000000 60.000000 14.718227 12.000000
-18.024819 -3.525103 42.041630 0.000000 36.000000 14.268981 0.000000
-18.397665 -4.294910 40.917256 0.000000 60.000000 14.664191 6.000000
-20.346818 -3.058241 37.951552 0.000000 46.000000 14.400233 0.000000
-22.156035 -1.438353 38.380443 0.000000 64.000000 14.850823 15.000000
-20.656316 -3.983517 35.485585 0.000000 48.000000 14.429407 0.000000
-20.617950 -2.628044 37.827461 0.000000 28.000000 14.294257 0.000000
-20.114474 -4.202387 35.900658 0.000000 31.000000 14.299241 0.000000
-19.417312 -4.648003 36.887828 0.000000 47.000000 14.372880 0.000000
-20.115777 -4.217891 36.294297 0.000000 45.000000 14.431647 0.000000
-20.770345 -2.174342 38.250303 0.000000 26.000000 14.257096 0.000000
-19.882444 -4.281715 37.529079 0.000000 46.000000 14.684024 8.000000
-21.109263 -4.314152 35.344506 0.000000 45.000000 14.917529 17.000000
-20.228186 -3.124701 38.065378 0.000000 43.000000 14.390234 0.000000
-20.627453 -2.457618 38.967429 0.000000 59.000000 14.549574 7.000000
-20.874556 -4.181351 35.602319 0.000000 67.000000 14.745481 20.000000
-20.512035 -5.153762 35.226371 0.000000 34.000000 14.963355 20.000000
-18.741077 -5.068330 37.745387 0.000000 46.000000 14.406019 0.000000
-20.188609 -1.993120 40.166352 0.000000 31.000000 14.317131 0.000000
-21.363738 -3.848001 35.725597 0.000000 76.000000 14.933864 17.000000
-21.361827 -2.625784 37.546621 0.000000 56.000000 14.745693 13.000000
-18.857658 -4.898392 37.850470 0.000000 45.000000 14.418769 0.000000
-18.319502 -5.084408 38.766521 0.000000 44.000000 14.426277 0.000000
-19.487827 -2.616281 40.772969 0.000000 40.000000 14.379335 0.000000
-21.714086 -1.016607 39.219651 0.000000 36.000000 14.530964 15.000000
-18.038457 -4.763761 40.040324 0.000000 49.000000 14.419918 0.000000
-19.784590 -2.939394 39.489465 0.000000 59.000000 14.395612 0.000000
-17.627859 -6.460416 37.985760 0.000000 27.000000 14.527868 26.000000
-18.549907 -6.059079 36.222765 0.000000 40.000000 14.404305 0.000000
-18.465888 -3.397449 41.732521 0.000000 56.000000 14.414881 0.000000
-18.719077 -4.338384 39.301048 0.000000 34.000000 14.423498 0.000000
-19.192294 -3.736730 39.276769 0.000000 31.000000 14.389754 0.000000
-16.856043 -7.270969 37.547265 0.000000 40.000000 14.329911 0.000000
-18.252409 -4.342312 40.294521 0.000000 27.000000 14.395001 0.000000
-19.040308 -5.703958 35.705586 0.000000 44.000000 14.381807 0.000000
-18.136813 -4.588102 40.034963 0.000000 50.000000 14.381715 0.000000
-21.018917 -4.434293 35.893194 0.000000 47.000000 15.095740 20.000000
-21.077454 -2.290953 38.296252 0.000000 50.000000 14.565833 12.000000
-21.714233 -1.482143 39.458051 0.000000 73.000000 14.890921 11.000000
-17.864069 -5.430152 39.107325 0.000000 48.000000 14.413756 0.000000
-19.384727 -3.967355 38.170083 0.000000 48.000000 14.328272 0.000000
-20.787822 -2.057794 38.895315 0.000000 47.000000 14.397979 0.000000
-20.119777 -4.085838 36.359097 0.000000 42.000000 14.373495 0.000000
-20.599586 -1.649077 40.051166 0.000000 42.000000 14.368325 0.000000
-20.491517 -2.079658 39.676087 0.000000 62.000000 14.438244 0.000000
-20.303448 -3.281136 37.696460 0.000000 51.000000 14.426678 0.000000
-19.915384 -3.719432 38.106590 0.000000 48.000000 14.541380 9.000000
-21.514965 -3.466750 36.248991 0.000000 55.000000 14.971513 16.000000
-19.934631 -3.537537 38.143343 0.000000 71.000000 14.454985 0.000000
-19.782580 -2.751395 39.431786 0.000000 58.000000 14.260789 0.000000
-19.678887 -2.972368 39.119871 0.000000 54.000000 14.224676 0.000000
-21.896959 -1.911428 37.910591 0.000000 63.000000 14.807907 14.000000
-20.576765 -2.335464 38.932649 0.000000 51.000000 14.426971 0.000000
-21.300419 -2.517340 37.573492 0.000000 66.000000 14.642831 13.000000
-18.159492 -5.698785 37.398048 0.000000 37.000000 14.263701 0.000000
-19.368380 -4.053194 37.701922 0.000000 35.000000 14.224124 0.000000
-19.931608 -2.247777 40.210999 0.000000 51.000000 14.300909 0.000000
-19.735929 -2.836161 39.768804 0.000000 70.000000 14.383408 0.000000
-19.329415 -5.620489 35.694601 0.000000 44.000000 14.536925 29.000000
-20.479331 -2.995796 37.837519 0.000000 40.000000 14.422709 0.000000
-20.174449 -2.901734 38.768795 0.000000 54.000000 14.432151 0.000000
-20.559521 -2.839134 37.821191 0.000000 55.000000 14.379598 0.000000
-21.318897 -4.157465 35.105053 0.000000 41.000000 14.899221 17.000000
-21.219333 -2.729625 36.513065 0.000000 39.000000 14.385923 0.000000
-21.351122 -3.753407 35.880183 0.000000 49.000000 14.914480 16.000000
-19.952352 -3.672289 37.540744 0.000000 30.000000 14.363965 0.000000
-18.956431 -2.990314 40.807970 0.000000 23.000000 14.234342 0.000000
-19.910026 -4.042592 36.970181 0.000000 35.000000 14.384007 0.000000
-21.660498 -2.027003 37.782530 0.000000 62.000000 14.667646 14.000000
-20.121955 -3.171080 38.204531 0.000000 36.000000 14.384742 0.000000
-21.307095 -3.329446 37.046409 0.000000 48.000000 14.983324 19.000000
-19.850332 -4.790196 35.769880 0.000000 44.000000 14.428170 0.000000
-19.772393 -5.184046 35.058679 0.000000 40.000000 14.393269 0.000000
-20.239495 -1.923019 40.255220 0.000000 43.000000 14.338519 0.000000
-17.861556 -4.579126 40.701218 0.000000 46.000000 14.382835 0.000000
-17.142528 -6.401485 38.857411 0.000000 37.000000 14.409474 0.000000
-18.835025 -5.646085 36.419214 0.000000 28.000000 14.418339 0.000000
-17.390331 -5.860404 39.029571 0.000000 37.000000 14.310214 0.000000
-18.352412 -3.835379 41.055930 0.000000 45.000000 14.391994 0.000000
-21.233485 -3.458642 37.075611 0.000000 66.000000 15.018324 19.000000
-20.349018 -2.986930 38.099057 0.000000 45.000000 14.403712 0.000000
-21.528695 -1.229490 38.786301 0.000000 46.000000 14.392977 0.000000
-21.228550 -3.935878 35.026069 0.000000 57.000000 14.673059 17.000000
-21.132034 -3.792570 36.643478 0.000000 67.000000 15.015993 19.000000
-21.408487 -1.569616 38.383533 0.000000 40.000000 14.389939 0.000000
-21.042050 -3.247342 37.453787 0.000000 75.000000 14.866736 19.000000
-18.849541 -3.448461 40.390941 0.000000 32.000000 14.309056 0.000000
-17.204232 -6.323842 38.538707 0.000000 41.000000 14.307828 0.000000
-20.137362 -3.547303 37.536582 0.000000 57.000000 14.420149 0.000000
-19.319317 -2.703550 40.902540 0.000000 29.000000 14.350801 0.000000
-21.338804 -1.695432 38.222816 0.000000 31.000000 14.366881 0.000000
-19.951569 -4.564500 35.562902 0.000000 42.000000 14.298864 0.000000
-21.281718 -2.522863 36.782868 0.000000 42.000000 14.387745 0.000000
-18.278522 -3.960158 41.108416 0.000000 63.000000 14.431289 0.000000
-17.191194 -6.470543 38.325503 0.000000 28.000000 14.322450 0.000000
-22.228834 -1.503346 38.642327 0.000000 65.000000 15.024702 15.000000
-18.534017 -5.777261 36.737034 0.000000 35.000000 14.378940 0.000000
-21.162670 -3.312639 37.412716 0.000000 81.000000 14.981661 19.000000
-21.518180 -3.350208 36.374239 0.000000 70.000000 14.941045 16.000000
-21.179237 -4.385028 34.897287 0.000000 58.000000 14.873318 17.000000
-20.290620 -3.576868 36.904184 0.000000 28.000000 14.353634 0.000000
-18.538411 -3.371082 41.568148 0.000000 45.000000 14.400394 0.000000
-18.330729 -6.127038 36.616358 0.000000 47.000000 14.408924 0.000000
-18.915121 -5.609613 36.188690 0.000000 40.000000 14.382648 0.000000
-20.431728 -4.731378 34.558650 0.000000 38.000000 14.438747 0.000000
-18.373303 -3.700408 41.370322 0.000000 60.000000 14.421621 0.000000
-19.674176 -3.405086 38.498411 0.000000 43.000000 14.294593 0.000000
-19.111749 -5.055268 36.587395 0.000000 37.000000 14.308279 0.000000
-21.461327 -4.467052 34.992309 0.000000 72.000000 15.157852 17.000000
-19.288175 -4.377005 38.004254 0.000000 72.000000 14.458508 0.000000
-19.497464 -4.447116 37.238759 0.000000 37.000000 14.416334 0.000000
-20.608893 -1.976101 39.615695 0.000000 58.000000 14.441094 0.000000
-17.867647 -6.531630 36.653428 0.000000 50.000000 14.332919 0.000000
-17.448240 -5.622296 39.354320 0.000000 36.000000 14.306551 0.000000
-21.218461 -3.830039 35.150356 0.000000 71.000000 14.639215 17.000000
-21.729021 -1.726559 37.447129 0.000000 33.000000 14.428898 0.000000
-18.195740 -3.375606 42.136503 0.000000 42.000000 14.330559 0.000000
-20.680030 -2.763749 38.504062 0.000000 66.000000 14.632266 7.000000
-19.515499 -5.047226 36.026045 0.000000 60.000000 14.422446 0.000000
-19.999420 -3.778971 38.053533 0.000000 71.000000 14.622507 9.000000
-21.011822 -2.884267 37.358533 0.000000 47.000000 14.592237 19.000000
-19.673132 -4.782359 36.132603 0.000000 49.000000 14.407123 0.000000
-21.375970 -2.920689 37.708914 0.000000 46.000000 14.987405 13.000000
-19.243487 -3.160395 40.280721 0.000000 48.000000 14.383820 0.000000
-22.167135 -0.818986 38.674515 0.000000 58.000000 14.569460 15.000000
-19.083492 -3.611185 39.830445 0.000000 49.000000 14.405178 0.000000
-19.614601 -2.351122 40.926877 0.000000 37.000000 14.356107 0.000000
-19.560687 -2.551423 40.724570 0.000000 44.000000 14.377370 0.000000
-21.440742 -2.493793 37.663320 0.000000 59.000000 14.758021 13.000000
-20.650689 -3.997065 35.436327 0.000000 43.000000 14.418389 0.000000
-20.187591 -3.961923 36.623425 0.000000 66.000000 14.428458 0.000000
-21.253592 -4.285674 34.791739 0.000000 39.000000 14.833542 17.000000
-20.697194 -2.661104 37.625430 0.000000 47.000000 14.309492 0.000000
-19.751703 -4.458070 37.169539 0.000000 58.000000 14.586119 8.000000
-21.053834 -4.594234 34.751736 0.000000 62.000000 14.865755 17.000000
-19.466758 -3.832525 38.623850 0.000000 51.000000 14.445529 0.000000
-21.866705 -1.907515 38.033684 0.000000 74.000000 14.821678 14.000000
-18.351908 -5.565410 37.665993 0.000000 39.000000 14.404395 0.000000
-21.165704 -3.378221 36.996453 0.000000 51.000000 14.895210 19.000000
-18.133432 -5.875354 37.210966 0.000000 38.000000 14.295315 0.000000
-18.410429 -4.760218 39.423117 0.000000 59.000000 14.496485 23.000000
-17.985434 -6.161459 36.830098 0.000000 31.000000 14.245705 0.000000
-22.214668 -1.134102 39.001100 0.000000 65.000000 14.898711 15.000000
-19.365639 -4.087604 37.864025 0.000000 48.000000 14.293489 0.000000
-19.738879 -3.990312 37.596601 0.000000 56.000000 14.421733 0.000000
-18.810006 -4.698233 38.150647 0.000000 35.000000 14.354204 0.000000
-20.761454 -2.880251 37.526821 0.000000 46.000000 14.460212 0.000000
-20.768535 -2.434390 37.875652 0.000000 40.000000 14.299490 0.000000
-20.782782 -2.670608 38.588270 0.000000 59.000000 14.675694 7.000000
-21.235711 -3.529932 36.810829 0.000000 68.000000 14.981717 19.000000
-20.775054 -2.109552 38.905306 0.000000 50.000000 14.423606 0.000000
-20.867682 -4.273479 35.868464 0.000000 69.000000 14.879534 20.000000
-21.377670 -2.370981 38.307738 0.000000 55.000000 14.836418 12.000000
-20.222390 -3.256940 37.841540 0.000000 45.000000 14.397933 0.000000
-17.802576 -4.536396 40.854166 0.000000 53.000000 14.361160 0.000000
-21.398839 -3.648442 35.582030 0.000000 50.000000 14.792264 17.000000
-20.839617 -1.782394 39.432256 0.000000 50.000000 14.432699 0.000000
-18.508123 -3.535244 41.346683 0.000000 43.000000 14.410666 0.000000
-17.576058 -6.354709 37.912033 0.000000 40.000000 14.402498 0.000000
-19.614610 -4.743139 36.385705 0.000000 43.000000 14.418962 0.000000
-18.878896 -5.565937 36.731097 0.000000 61.000000 14.497547 25.000000
-21.471157 -2.142341 38.388598 0.000000 66.000000 14.788842 12.000000
-20.602254 -2.194863 39.088451 0.000000 56.000000 14.407351 0.000000
-20.942936 -1.420107 39.316011 0.000000 36.000000 14.249094 0.000000
-20.425691 -3.098251 37.644598 0.000000 46.000000 14.386967 0.000000
-21.360425 -4.612936 35.054201 0.000000 75.000000 15.193426 17.000000
-19.960400 -3.900295 38.051557 0.000000 69.000000 14.668115 9.000000
-19.897473 -4.665098 35.853986 0.000000 44.000000 14.411578 0.000000
-17.488452 -6.884954 37.751555 0.000000 47.000000 14.614971 26.000000
-17.062149 -6.744741 38.458268 0.000000 25.000000 14.438384 0.000000
-20.259424 -3.674957 36.607748 0.000000 35.000000 14.299432 0.000000
-20.955602 -2.012751 38.343822 0.000000 49.000000 14.321229 0.000000
-18.540291 -4.814932 38.706775 0.000000 45.000000 14.402440 0.000000
-19.988696 -4.300539 36.499826 0.000000 51.000000 14.453867 0.000000
-18.376733 -5.983344 36.879810 0.000000 55.000000 14.435637 0.000000
-20.989105 -3.055628 36.406908 0.000000 37.000000 14.386248 0.000000
-18.925796 -5.141177 36.792489 0.000000 20.000000 14.289645 0.000000
-21.390791 -3.699013 35.479697 0.000000 72.000000 14.785793 17.000000
-19.807886 -5.161376 35.038552 0.000000 46.000000 14.398863 0.000000
-20.713860 -3.971686 35.791150 0.000000 52.000000 14.558552 20.000000
-20.000158 -3.970169 37.018361 0.000000 43.000000 14.419845 0.000000
-18.419099 -4.991863 38.714772 0.000000 51.000000 14.425669 0.000000
-18.534949 -4.736795 38.843452 0.000000 50.000000 14.392897 0.000000
-17.742507 -4.670114 40.748164 0.000000 43.000000 14.366883 0.000000
-21.306303 -1.944573 37.975902 0.000000 42.000000 14.419871 0.000000
-20.798658 -2.000254 38.516454 0.000000 40.000000 14.253135 0.000000
-18.076056 -6.001332 37.142335 0.000000 39.000000 14.309813 0.000000
-18.204929 -5.802818 37.202076 0.000000 35.000000 14.299882 0.000000
-21.755631 -1.554430 39.089479 0.000000 53.000000 14.851203 11.000000
-21.227234 -2.976960 37.221767 0.000000 84.000000 14.763139 19.000000
-20.632447 -2.671703 37.743708 0.000000 41.000000 14.305656 0.000000
-18.793840 -4.811351 38.100077 0.000000 32.000000 14.396302 0.000000
-22.173779 -1.081195 38.596780 0.000000 64.000000 14.711291 15.000000
-19.998286 -2.319494 39.899627 0.000000 51.000000 14.296903 0.000000
-20.617101 -5.070327 35.251451 0.000000 75.000000 14.996109 20.000000
-20.152513 -3.726064 37.175278 0.000000 60.000000 14.429047 0.000000
-20.855857 -4.780532 35.624653 0.000000 47.000000 15.106938 20.000000
-19.518672 -3.480254 39.180988 0.000000 57.000000 14.439363 0.000000
-21.163572 -3.019630 36.946051 0.000000 69.000000 14.657748 19.000000
-21.854904 -2.024119 37.679587 0.000000 72.000000 14.775063 14.000000
-19.997123 -4.443197 35.539731 0.000000 26.000000 14.250221 0.000000
-21.045854 -2.608237 37.211321 0.000000 44.000000 14.401753 0.000000
-19.653216 -3.039795 39.229080 0.000000 47.000000 14.281300 0.000000
-19.745464 -2.786240 40.292383 0.000000 54.000000 14.521844 21.000000
-19.137723 -3.392544 40.040029 0.000000 44.000000 14.375132 0.000000
-21.209354 -3.427921 37.182609 0.000000 44.000000 15.015084 19.000000
-20.043265 -4.233158 35.908003 0.000000 32.000000 14.268745 0.000000
-20.138840 -3.980027 36.147117 0.000000 31.000000 14.256659 0.000000
-21.303453 -3.084359 37.139570 0.000000 80.000000 14.858970 19.000000
-21.533935 -2.304257 38.526794 0.000000 78.000000 14.976681 12.000000
-19.746917 -4.700404 36.240304 0.000000 62.000000 14.443680 0.000000
-21.139805 -2.436812 38.113045 0.000000 61.000000 14.643938 12.000000
-19.874792 -3.815085 37.648988 0.000000 62.000000 14.428939 0.000000
-19.274912 -3.309478 39.930038 0.000000 51.000000 14.389584 0.000000
-18.536172 -3.918577 40.506458 0.000000 42.000000 14.406251 0.000000
-21.666316 -1.703028 39.113526 0.000000 76.000000 14.885129 11.000000
-21.325407 -3.209565 36.443217 0.000000 45.000000 14.736115 16.000000
-21.085131 -3.104910 36.284615 0.000000 52.000000 14.448328 0.000000
-20.550984 -4.450411 34.779794 0.000000 42.000000 14.421179 0.000000
-19.031160 -5.641825 36.686870 0.000000 65.000000 14.640965 25.000000
-21.035432 -2.734705 37.842260 0.000000 37.000000 14.667329 13.000000
-21.442008 -1.530352 38.394472 0.000000 45.000000 14.393531 0.000000
-19.935265 -4.769951 35.575528 0.000000 37.000000 14.417164 0.000000
-18.489559 -4.714918 38.895650 0.000000 56.000000 14.362687 0.000000
-18.609026 -5.691418 36.787269 0.000000 44.000000 14.396196 0.000000
-19.260671 -4.966387 36.633331 0.000000 39.000000 14.375974 0.000000
-17.632226 -5.989407 38.657133 0.000000 50.000000 14.449639 0.000000
-20.079182 -2.968218 38.810335 0.000000 65.000000 14.416730 0.000000
-19.345182 -4.735837 36.849339 0.000000 46.000000 14.362574 0.000000
-18.051275 -5.017260 39.372909 0.000000 30.000000 14.378215 0.000000
-21.320297 -2.150059 37.758134 0.000000 27.000000 14.488811 12.000000
-17.874652 -5.502296 38.887695 0.000000 35.000000 14.397724 0.000000
-17.779009 -5.755324 38.623967 0.000000 36.000000 14.402073 0.000000
-20.930446 -1.637671 38.954627 0.000000 40.000000 14.261748 0.000000
-18.136998 -5.698205 37.808794 0.000000 46.000000 14.374256 0.000000
-18.087641 -6.166224 37.847456 0.000000 46.000000 14.637944 1.000000
-17.400885 -6.784805 37.517080 0.000000 39.000000 14.417266 0.000000
-19.948725 -3.778407 37.453633 0.000000 46.000000 14.399544 0.000000
-18.304262 -4.691695 39.618968 0.000000 43.000000 14.438012 0.000000
-18.072797 -3.672282 41.905502 0.000000 54.000000 14.352050 0.000000
-20.041218 -3.564773 37.658177 0.000000 50.000000 14.398778 0.000000
-18.895687 -4.143962 40.401021 0.000000 73.000000 14.772950 5.000000
-21.391210 -4.522064 34.853496 0.000000 69.000000 15.097767 17.000000
-20.514956 -1.916888 40.084060 0.000000 37.000000 14.481630 4.000000
-20.098645 -4.236902 36.206855 0.000000 43.000000 14.403808 0.000000
-19.444731 -2.897970 40.510762 0.000000 54.000000 14.439896 0.000000
-19.674412 -3.108082 38.950950 0.000000 44.000000 14.252479 0.000000
-18.807980 -3.491517 40.728797 0.000000 44.000000 14.410004 0.000000
-18.299239 -4.375075 40.220290 0.000000 45.000000 14.426119 0.000000
-19.560578 -3.730361 38.217479 0.000000 54.000000 14.324968 0.000000
-17.716229 -5.514145 39.301698 0.000000 50.000000 14.418283 0.000000
-21.381974 -3.919779 35.751014 0.000000 48.000000 14.999068 17.000000
-20.255549 -2.527951 39.354908 0.000000 51.000000 14.442926 0.000000
-18.277671 -4.162090 41.166390 0.000000 43.000000 14.572688 6.000000
-19.289336 -4.069909 38.625954 0.000000 59.000000 14.463266 0.000000
-19.325585 -3.103318 40.292917 0.000000 43.000000 14.412110 0.000000
-21.485657 -2.126079 38.644135 0.000000 77.000000 14.868530 12.000000
-19.961936 -3.658466 37.671510 0.000000 31.000000 14.402935 0.000000
-21.363460 -3.635493 35.452441 0.000000 67.000000 14.718493 17.000000
-19.899491 -4.036604 37.096391 0.000000 37.000000 14.411779 0.000000
-20.568447 -2.811184 37.440879 0.000000 38.000000 14.251097 0.000000
-17.850427 -5.108041 39.800364 0.000000 35.000000 14.420646 0.000000
-20.599180 -2.593581 38.290192 0.000000 37.000000 14.402802 0.000000
-20.994198 -4.442595 35.941184 0.000000 73.000000 15.097768 20.000000
-20.188825 -3.961354 36.403813 0.000000 56.000000 14.360977 0.000000
-19.768742 -5.002526 36.721195 0.000000 47.000000 14.794091 2.000000
-18.862892 -5.790181 36.520552 0.000000 66.000000 14.558478 25.000000
-17.783217 -6.641307 36.827973 0.000000 38.000000 14.393098 0.000000
-20.798933 -4.251036 36.080877 0.000000 40.000000 14.881654 20.000000
-20.148633 -2.185904 39.975110 0.000000 48.000000 14.347318 0.000000
-19.613540 -4.935653 36.603419 0.000000 45.000000 14.603897 2.000000
-21.205801 -3.418177 36.617718 0.000000 71.000000 14.831535 19.000000
-18.139360 -5.867432 37.358200 0.000000 45.000000 14.340357 0.000000
-17.666137 -6.284481 37.850310 0.000000 31.000000 14.405602 0.000000
-17.783187 -5.827637 38.535798 0.000000 36.000000 14.422219 0.000000
-17.918704 -5.556025 38.669247 0.000000 33.000000 14.395034 0.000000
-19.510805 -2.473654 40.966587 0.000000 47.000000 14.368363 0.000000
-20.505368 -5.028650 35.292417 0.000000 71.000000 14.902112 20.000000
-18.860432 -3.213359 40.685204 0.000000 24.000000 14.263676 0.000000
-17.962970 -6.328380 37.475787 0.000000 65.000000 14.531964 1.000000
-18.523037 -4.883672 38.515709 0.000000 25.000000 14.372964 0.000000
-20.045028 -2.389244 40.760808 0.000000 37.000000 14.640439 21.000000
-19.864478 -4.843887 35.596037 0.000000 50.000000 14.417570 0.000000
-22.225963 -1.425704 38.603912 0.000000 54.000000 14.963020 15.000000
-21.442908 -3.607092 35.600437 0.000000 62.000000 14.804543 16.000000
-19.183810 -3.805959 39.189104 0.000000 26.000000 14.398973 0.000000
-18.819013 -5.791127 36.258130 0.000000 47.000000 14.445928 0.000000
-19.853587 -4.207943 37.354791 0.000000 49.000000 14.563772 8.000000
-21.073805 -4.402476 35.347041 0.000000 66.000000 14.946845 17.000000
-17.683901 -6.794925 36.853576 0.000000 47.000000 14.423332 0.000000
-21.394670 -3.773432 35.962674 0.000000 71.000000 14.983937 16.000000
-20.611661 -4.480114 34.585061 0.000000 37.000000 14.423138 0.000000
-17.250912 -6.215121 38.647204 0.000000 28.000000 14.308519 0.000000
-18.506966 -5.227204 37.983959 0.000000 21.000000 14.407635 0.000000
-20.870666 -4.180975 35.682394 0.000000 46.000000 14.767231 20.000000
-20.681030 -2.190712 38.521624 0.000000 35.000000 14.286384 0.000000
-19.136582 -3.253881 40.250979 0.000000 26.000000 14.354461 0.000000
-19.790570 -2.736853 39.535360 0.000000 73.000000 14.289737 0.000000
-18.959832 -5.241321 36.470904 0.000000 44.000000 14.276253 0.000000
-20.824686 -4.994490 35.426132 0.000000 71.000000 15.154270 20.000000
-20.818479 -1.812285 39.310205 0.000000 47.000000 14.397916 0.000000
-21.255721 -3.732403 36.956840 0.000000 66.000000 15.165855 19.000000
-18.659663 -3.735943 40.691762 0.000000 48.000000 14.441065 0.000000
-21.302887 -3.173931 37.143682 0.000000 67.000000 14.914861 19.000000
-21.760237 -2.121927 37.300867 0.000000 63.000000 14.649140 14.000000
-20.418963 -2.446233 39.031611 0.000000 52.000000 14.411163 0.000000
-20.219858 -2.452613 39.618300 0.000000 45.000000 14.452332 0.000000
-20.756510 -4.923954 34.511200 0.000000 69.000000 14.778047 18.000000
-20.021936 -2.583621 40.314579 0.000000 58.000000 14.604871 21.000000
-19.949402 -4.309788 37.431681 0.000000 72.000000 14.719691 8.000000
-18.940258 -4.765267 37.937083 0.000000 42.000000 14.423754 0.000000
-21.596164 -0.967765 39.114970 0.000000 42.000000 14.382956 0.000000
-20.735544 -1.596139 39.900425 0.000000 46.000000 14.387771 0.000000
-20.819210 -4.801814 35.600448 0.000000 60.000000 15.085921 20.000000
-18.595364 -3.186806 41.700693 0.000000 37.000000 14.369571 0.000000
-21.110843 -2.885584 37.635180 0.000000 35.000000 14.750600 13.000000
-18.942760 -4.778812 37.840510 0.000000 51.000000 14.403976 0.000000
-21.673537 -1.552558 39.122929 0.000000 50.000000 14.800840 11.000000
-20.731121 -1.825046 39.557378 0.000000 51.000000 14.418927 0.000000
-21.098663 -3.661428 36.430980 0.000000 57.000000 14.845385 19.000000
-21.515376 -1.350415 38.604227 0.000000 32.000000 14.401202 0.000000
-18.888915 -3.481046 40.143792 0.000000 22.000000 14.281090 0.000000
-21.654968 -1.696070 37.406903 0.000000 32.000000 14.343967 0.000000
-18.591464 -3.122083 41.763657 0.000000 39.000000 14.346482 0.000000
-19.159663 -3.647681 39.836698 0.000000 50.000000 14.484813 22.000000
-21.388783 -4.558549 35.039883 0.000000 70.000000 15.176157 17.000000
-18.751923 -3.449600 41.004536 0.000000 34.000000 14.428987 0.000000
-20.113803 -2.461215 40.534467 0.000000 53.000000 14.664450 21.000000
-17.790533 -4.607674 40.764856 0.000000 51.000000 14.368545 0.000000
-19.777138 -5.210331 35.301855 0.000000 48.000000 14.488189 3.000000
-18.278066 -3.609133 41.765925 0.000000 49.000000 14.418979 0.000000
-18.085196 -3.863005 41.524919 0.000000 37.000000 14.360328 0.000000
-19.783041 -4.561255 36.429855 0.000000 64.000000 14.443125 0.000000
-20.982249 -3.532141 35.962910 0.000000 58.000000 14.536486 16.000000
-19.301662 -2.628904 41.022409 0.000000 34.000000 14.329261 0.000000
-21.944322 -1.986205 37.465525 0.000000 19.000000 14.750351 14.000000
-21.336511 -4.265725 35.293599 0.000000 70.000000 15.036918 17.000000
-20.216291 -2.611388 39.478727 0.000000 38.000000 14.504052 10.000000
-20.674954 -2.658830 37.654045 0.000000 43.000000 14.300819 0.000000
-19.304830 -3.327459 39.790199 0.000000 47.000000 14.379025 0.000000
-19.514550 -4.715999 36.811707 0.000000 50.000000 14.461637 0.000000
-20.498581 -2.929042 37.339446 0.000000 38.000000 14.241382 0.000000
-19.083505 -3.561397 39.922048 0.000000 28.000000 14.402976 0.000000
-17.557176 -6.532611 38.488721 0.000000 64.000000 14.676728 26.000000
-17.513131 -5.085900 40.079284 0.000000 41.000000 14.248674 0.000000
-19.899308 -4.802471 35.614363 0.000000 39.000000 14.423078 0.000000
-20.004746 -3.641040 37.650343 0.000000 49.000000 14.416739 0.000000
-20.634307 -2.157869 39.893304 0.000000 60.000000 14.657199 4.000000
-19.518708 -2.963980 40.013113 0.000000 61.000000 14.379978 0.000000
-18.731138 -4.762400 38.277508 0.000000 44.000000 14.375689 0.000000
-20.276698 -3.712471 36.918444 0.000000 49.000000 14.431257 0.000000
-20.755655 -2.116190 38.412064 0.000000 43.000000 14.260818 0.000000
-18.359403 -4.331685 40.988584 0.000000 56.000000 14.681112 6.000000
-21.581994 -1.421737 39.568109 0.000000 61.000000 14.791940 11.000000
-18.213527 -4.432076 40.717937 0.000000 40.000000 14.553092 6.000000
-17.301579 -6.437254 38.488933 0.000000 33.000000 14.432727 0.000000
-19.422736 -4.111248 37.692507 0.000000 25.000000 14.296320 0.000000
-20.940827 -1.556636 39.502489 0.000000 32.000000 14.389205 0.000000
-21.078773 -2.600489 37.199317 0.000000 35.000000 14.417163 0.000000
-18.088231 -6.341784 36.438068 0.000000 39.000000 14.309649 0.000000
-18.977527 -4.487680 38.241179 0.000000 35.000000 14.374461 0.000000
-18.337411 -6.160106 36.549465 0.000000 51.000000 14.413367 0.000000
-17.536972 -6.555478 37.590261 0.000000 23.000000 14.397803 0.000000
-18.737007 -5.179609 37.373536 0.000000 28.000000 14.356244 0.000000
-21.125016 -3.932240 36.731290 0.000000 80.000000 15.123909 19.000000
-18.590290 -5.654776 36.767886 0.000000 30.000000 14.354085 0.000000
-18.545598 -5.883042 36.491055 0.000000 40.000000 14.376136 0.000000
-20.697540 -5.087541 35.136350 0.000000 80.000000 15.029403 20.000000
-19.388933 -2.825767 40.772788 0.000000 49.000000 14.436212 0.000000
-20.129836 -4.055079 36.330298 0.000000 28.000000 14.352978 0.000000
-19.784264 -4.559320 36.372595 0.000000 64.000000 14.425086 0.000000
-17.365439 -5.835468 39.152199 0.000000 35.000000 14.314817 0.000000
-21.895009 -1.887242 38.054081 0.000000 36.000000 14.836081 14.000000
-17.645911 -5.524905 39.393057 0.000000 35.000000 14.402164 0.000000
-20.660661 -2.727364 38.545243 0.000000 65.000000 14.608613 7.000000
-18.644095 -3.420478 41.303476 0.000000 46.000000 14.425448 0.000000
-20.321763 -3.177617 37.836603 0.000000 41.000000 14.419784 0.000000
-18.564844 -4.966297 39.237495 0.000000 65.000000 14.677648 23.000000
-21.049886 -4.142194 35.532518 0.000000 61.000000 14.827036 17.000000
-20.151583 -4.042982 36.394797 0.000000 49.000000 14.381306 0.000000
-20.623408 -2.902539 38.205216 0.000000 52.000000 14.583870 7.000000
-17.550314 -4.992115 40.543497 0.000000 27.000000 14.361837 0.000000
-19.045676 -4.959193 37.245710 0.000000 39.000000 14.405229 0.000000
-19.489561 -3.611046 38.343149 0.000000 39.000000 14.239058 0.000000
-19.465503 -2.536303 41.034041 0.000000 42.000000 14.394872 0.000000
-20.575176 -1.775002 39.883246 0.000000 45.000000 14.375958 0.000000
-19.852556 -2.405362 39.968906 0.000000 36.000000 14.265364 0.000000
-20.526955 -2.128270 39.424287 0.000000 55.000000 14.415826 0.000000
-18.256575 -5.352801 38.466650 0.000000 35.000000 14.452612 0.000000
-19.973719 -2.531701 39.573271 0.000000 42.000000 14.308352 0.000000
-20.088875 -2.940560 38.923216 0.000000 53.000000 14.441739 0.000000
-20.321603 -2.868478 38.306811 0.000000 46.000000 14.375401 0.000000
-20.396614 -2.941000 38.194320 0.000000 56.000000 14.439544 0.000000
-18.127367 -4.572419 40.186147 0.000000 42.000000 14.412057 0.000000
-20.252328 -3.239303 37.750398 0.000000 51.000000 14.380590 0.000000
-20.850294 -1.746775 39.241931 0.000000 44.000000 14.359608 0.000000
-20.817240 -4.542113 35.593104 0.000000 70.000000 14.922669 20.000000
-20.799291 -1.913075 38.950741 0.000000 35.000000 14.334563 0.000000
-19.592422 -3.386964 38.602496 0.000000 42.000000 14.256373 0.000000
-17.891477 -6.456723 37.180378 0.000000 49.000000 14.467423 0.000000
-20.228279 -3.788844 36.957280 0.000000 53.000000 14.455070 0.000000
-19.945903 -4.725857 35.232055 0.000000 40.000000 14.291398 0.000000
-20.063488 -2.064879 40.247692 0.000000 47.000000 14.295614 0.000000
-20.687578 -3.152290 37.358457 0.000000 57.000000 14.521576 19.000000
-20.088538 -4.201327 36.224794 0.000000 35.000000 14.380174 0.000000
-18.766188 -3.923834 39.673461 0.000000 46.000000 14.318365 0.000000
-19.689686 -3.017333 39.065236 0.000000 48.000000 14.243213 0.000000
-20.850478 -4.600732 35.513952 0.000000 56.000000 14.958283 20.000000
-19.889379 -4.639395 35.379565 0.000000 30.000000 14.242954 0.000000
-20.229112 -3.656934 36.749354 0.000000 38.000000 14.310227 0.000000
-21.519309 -3.020940 36.173083 0.000000 73.000000 14.677267 16.000000
-19.560768 -3.390894 39.044198 0.000000 41.000000 14.372641 0.000000
-21.174187 -4.242707 34.927111 0.000000 55.000000 14.791456 17.000000
-20.862044 -4.834714 35.288542 0.000000 79.000000 15.040600 20.000000
-18.479438 -5.532192 37.473587 0.000000 46.000000 14.416933 0.000000
-18.554347 -4.862545 38.554116 0.000000 54.000000 14.394603 0.000000
-21.294085 -2.204924 37.437448 0.000000 42.000000 14.404159 0.000000
-20.648987 -5.058551 35.126451 0.000000 77.000000 14.973294 20.000000
-20.110349 -3.661044 37.323466 0.000000 32.000000 14.404408 0.000000
-18.908336 -5.592751 36.093140 0.000000 51.000000 14.337767 0.000000
-21.256033 -2.567256 37.690052 0.000000 79.000000 14.677393 13.000000
-18.517075 -5.898901 36.524951 0.000000 38.000000 14.375680 0.000000
-18.669049 -5.605419 36.771015 0.000000 37.000000 14.381885 0.000000
-20.708653 -3.878279 35.485083 0.000000 57.000000 14.402579 0.000000
-21.311633 -2.604821 36.539521 0.000000 36.000000 14.384425 0.000000
-19.277220 -3.867865 39.914043 0.000000 65.000000 14.729352 22.000000
-17.470328 -5.685966 39.201273 0.000000 26.000000 14.314288 0.000000
-19.717337 -3.007139 39.351814 0.000000 47.000000 14.345788 0.000000
-20.667159 -2.380453 38.286971 0.000000 50.000000 14.320199 0.000000
-19.747702 -2.792924 39.453686 0.000000 59.000000 14.267776 0.000000
-19.305398 -4.236670 37.903043 0.000000 52.000000 14.353439 0.000000
-20.006827 -3.973405 36.959442 0.000000 39.000000 14.408422 0.000000
-19.365607 -3.996965 38.061960 0.000000 48.000000 14.299095 0.000000
-18.431817 -4.989714 39.341192 0.000000 40.000000 14.627621 23.000000
-21.323207 -1.711516 38.353520 0.000000 45.000000 14.405932 0.000000
-20.030192 -4.125672 36.693790 0.000000 44.000000 14.436633 0.000000
-19.538739 -3.505065 38.444742 0.000000 42.000000 14.241106 0.000000
-20.196280 -1.896807 40.252220 0.000000 41.000000 14.290126 0.000000
-20.880829 -1.761289 38.827679 0.000000 22.000000 14.262362 0.000000
-21.308211 -2.769492 37.818700 0.000000 67.000000 14.879353 13.000000
-18.805828 -3.358349 41.028775 0.000000 47.000000 14.419553 0.000000
-20.105831 -2.530839 39.489109 0.000000 41.000000 14.377623 0.000000
-21.469898 -1.318186 38.680194 0.000000 39.000000 14.371932 0.000000
-21.491274 -1.436471 38.420900 0.000000 35.000000 14.379793 0.000000
-21.395843 -3.746011 35.901914 0.000000 72.000000 14.949121 16.000000
-18.128892 -3.646083 41.887822 0.000000 44.000000 14.371185 0.000000
-18.538315 -5.112003 38.234381 0.000000 45.000000 14.437181 0.000000
-18.137290 -3.527220 41.814120 0.000000 49.000000 14.281425 0.000000
-20.683328 -4.861254 35.701886 0.000000 42.000000 15.055254 20.000000
-17.990287 -3.967956 41.716118 0.000000 48.000000 14.415158 0.000000
-20.233716 -2.802360 38.819967 0.000000 55.000000 14.429961 0.000000
-21.304434 -2.407016 37.008382 0.000000 30.000000 14.402916 0.000000
-21.886938 -1.744393 37.880876 0.000000 68.000000 14.688812 14.000000
-17.922830 -6.432538 37.231978 0.000000 56.000000 14.491301 1.000000
-20.703593 -2.357123 38.508390 0.000000 41.000000 14.400894 0.000000
-21.453890 -1.691380 38.078164 0.000000 39.000000 14.403100 0.000000
-18.649511 -4.030261 39.920517 0.000000 51.000000 14.375608 0.000000
-19.204421 -2.639093 41.167076 0.000000 40.000000 14.309768 0.000000
-20.954415 -4.731302 35.669988 0.000000 70.000000 15.162260 20.000000
-20.528985 -4.266169 35.963594 0.000000 52.000000 14.658724 20.000000
-20.786148 -4.200786 35.301345 0.000000 52.000000 14.600033 17.000000
-19.403425 -3.878299 38.058381 0.000000 51.000000 14.252528 0.000000
-20.794106 -2.211080 38.208612 0.000000 40.000000 14.283994 0.000000
-18.707858 -3.762506 40.228674 0.000000 26.000000 14.348909 0.000000
-17.939715 -5.577568 38.625041 0.000000 35.000000 14.409822 0.000000
-18.607371 -3.996245 40.024931 0.000000 26.000000 14.356474 0.000000
-18.345639 -3.932284 40.932439 0.000000 40.000000 14.408359 0.000000
-20.059231 -4.366513 36.185498 0.000000 42.000000 14.448217 0.000000
-17.558628 -6.413301 37.872161 0.000000 32.000000 14.413494 0.000000
-17.477722 -6.686163 37.656093 0.000000 38.000000 14.455485 0.000000
-17.699647 -5.964335 38.436082 0.000000 29.000000 14.414688 0.000000
-18.043316 -5.445466 38.728284 0.000000 34.000000 14.435828 0.000000
-17.905032 -5.714982 38.443667 0.000000 32.000000 14.412891 0.000000
-17.802818 -5.972166 38.195029 0.000000 34.000000 14.419699 0.000000
-17.689427 -6.237770 37.923642 0.000000 31.000000 14.416521 0.000000
-20.786879 -1.997623 39.086155 0.000000 48.000000 14.419445 0.000000
-20.783774 -2.554761 38.775403 0.000000 72.000000 14.663210 7.000000
-21.474252 -2.361873 38.304641 0.000000 52.000000 14.899952 12.000000
-17.611757 -6.557298 37.443814 0.000000 34.000000 14.407827 0.000000
-19.960822 -4.955495 35.780173 0.000000 76.000000 14.613091 3.000000
-17.509226 -5.288827 40.059874 0.000000 43.000000 14.364496 0.000000
-18.097046 -4.625822 40.182868 0.000000 47.000000 14.421846 0.000000
-18.486990 -3.264504 41.798123 0.000000 49.000000 14.368840 0.000000
-19.932101 -3.175183 38.710275 0.000000 48.000000 14.406150 0.000000
-21.550944 -3.395274 35.969866 0.000000 75.000000 14.867248 16.000000
-17.974883 -5.371300 38.916319 0.000000 27.000000 14.398850 0.000000
-18.528036 -3.798127 40.702088 0.000000 38.000000 14.386947 0.000000
-18.716173 -3.550597 40.842212 0.000000 45.000000 14.414809 0.000000
-18.412881 -5.514508 37.640849 0.000000 47.000000 14.409582 0.000000
-18.857194 -3.120653 40.902670 0.000000 29.000000 14.271735 0.000000
-18.386312 -6.018797 36.676994 0.000000 41.000000 14.401544 0.000000
-19.217414 -2.649588 41.196346 0.000000 50.000000 14.334711 0.000000
-20.696001 -1.814695 39.631936 0.000000 63.000000 14.410177 0.000000
-20.457182 -5.317336 34.946216 0.000000 51.000000 14.937259 20.000000
-21.254526 -4.209417 34.826691 0.000000 66.000000 14.798199 17.000000
-21.342601 -3.582734 37.013137 0.000000 69.000000 15.154392 19.000000
-19.673835 -3.726609 38.097074 0.000000 45.000000 14.367553 0.000000
-19.688893 -2.958639 39.155533 0.000000 57.000000 14.234549 0.000000
-18.544730 -4.377114 39.635174 0.000000 52.000000 14.424271 0.000000
-19.527545 -3.393942 38.627619 0.000000 32.000000 14.221363 0.000000
-21.055861 -3.924071 36.388819 0.000000 45.000000 14.962620 19.000000
-20.315092 -2.111613 40.061870 0.000000 39.000000 14.449348 0.000000
-20.451251 -4.892580 35.295182 0.000000 34.000000 14.780101 20.000000
-19.172940 -3.334483 40.117725 0.000000 39.000000 14.389086 0.000000
-19.367654 -4.041841 37.887848 0.000000 48.000000 14.274217 0.000000
-17.561783 -5.338883 39.682567 0.000000 35.000000 14.316511 0.000000
-19.211213 -4.498698 37.302618 0.000000 35.000000 14.260078 0.000000
-20.124966 -3.434030 37.744665 0.000000 49.000000 14.406021 0.000000
-17.902190 -4.180370 41.295355 0.000000 45.000000 14.351387 0.000000
-19.735884 -3.938252 37.929413 0.000000 43.000000 14.490670 9.000000
-20.353708 -3.514723 36.811493 0.000000 48.000000 14.332525 0.000000
-20.114349 -3.846783 37.036384 0.000000 55.000000 14.432492 0.000000
-18.952206 -5.432954 36.100756 0.000000 38.000000 14.273790 0.000000
-19.893169 -3.650220 38.047862 0.000000 64.000000 14.464547 0.000000
-19.512429 -4.727529 36.849128 0.000000 61.000000 14.478773 2.000000
-18.070254 -5.474655 38.642794 0.000000 44.000000 14.446826 0.000000
-19.976508 -4.556051 35.809665 0.000000 43.000000 14.388210 0.000000
-20.093233 -2.395766 40.803915 0.000000 67.000000 14.692780 21.000000
-17.503388 -6.228567 38.375509 0.000000 44.000000 14.415835 0.000000
-20.034980 -3.125824 38.712080 0.000000 56.000000 14.451042 0.000000
-19.500063 -5.295075 35.625257 0.000000 63.000000 14.439361 0.000000
-19.481704 -5.498537 35.328338 0.000000 44.000000 14.459061 0.000000
-19.453429 -3.616815 38.629190 0.000000 36.000000 14.304988 0.000000
-17.602637 -6.252690 38.084894 0.000000 33.000000 14.412656 0.000000
-20.081821 -2.616082 40.123899 0.000000 61.000000 14.609205 21.000000
-17.929580 -5.700576 38.404409 0.000000 34.000000 14.409694 0.000000
-17.688239 -6.146608 38.080472 0.000000 39.000000 14.408234 0.000000
-19.087700 -3.888309 39.259016 0.000000 57.000000 14.401475 0.000000
-21.333269 -4.086876 35.474575 0.000000 80.000000 14.980749 17.000000
-21.177724 -3.740282 36.768740 0.000000 42.000000 15.055829 19.000000
-21.254813 -2.339959 37.541351 0.000000 51.000000 14.490805 13.000000
-18.075582 -5.811404 37.473016 0.000000 37.000000 14.295219 0.000000
-18.311222 -5.500305 37.763582 0.000000 46.000000 14.365102 0.000000
-19.173045 -3.627312 39.781896 0.000000 53.000000 14.465034 0.000000
-19.236595 -3.403570 39.872925 0.000000 44.000000 14.401892 0.000000
-21.139398 -2.156383 38.497752 0.000000 56.000000 14.590529 12.000000
-21.169256 -3.767559 37.127483 0.000000 63.000000 15.177567 19.000000
-18.799543 -4.658963 38.413050 0.000000 46.000000 14.403769 0.000000
-21.253063 -2.620060 36.728267 0.000000 46.000000 14.409751 0.000000
-18.926559 -4.399842 38.594679 0.000000 45.000000 14.393013 0.000000
-20.795470 -3.234569 37.412323 0.000000 67.000000 14.667106 19.000000
-22.167278 -1.269373 38.594464 0.000000 74.000000 14.821464 15.000000
-19.067701 -3.999328 39.002110 0.000000 62.000000 14.375587 0.000000
-21.924474 -1.845009 38.126463 0.000000 53.000000 14.853939 14.000000
-20.202850 -1.953127 40.234431 0.000000 43.000000 14.323984 0.000000
-20.190056 -3.606585 37.350423 0.000000 55.000000 14.437143 0.000000
-20.346549 -3.240626 37.655037 0.000000 60.000000 14.420238 0.000000
-21.346600 -2.190236 38.240297 0.000000 50.000000 14.681940 12.000000
-19.984563 -2.045863 40.353278 0.000000 53.000000 14.259364 0.000000
-19.316946 -3.340253 39.812782 0.000000 45.000000 14.402673 0.000000
-19.934150 -3.869033 37.329775 0.000000 47.000000 14.406277 0.000000
-18.984146 -5.596940 36.530049 0.000000 54.000000 14.530694 25.000000
-19.386097 -4.191620 37.587727 0.000000 43.000000 14.286650 0.000000
-20.275333 -3.493477 37.426865 0.000000 67.000000 14.453218 0.000000
-21.452332 -2.347221 38.395483 0.000000 73.000000 14.903182 12.000000
-20.705871 -2.492922 37.864351 0.000000 44.000000 14.286475 0.000000
-19.246628 -3.396984 39.858138 0.000000 48.000000 14.400546 0.000000
-20.628655 -2.622415 37.793651 0.000000 52.000000 14.288095 0.000000
-21.370080 -1.849286 37.881166 0.000000 30.000000 14.378268 0.000000
-19.090046 -3.316649 40.232164 0.000000 29.000000 14.353424 0.000000
-20.739438 -2.325038 39.965201 0.000000 41.000000 14.858463 4.000000
-19.724132 -4.403310 36.755252 0.000000 29.000000 14.404138 0.000000
-20.497279 -4.987248 35.271987 0.000000 55.000000 14.864478 20.000000
-19.434853 -2.874391 40.540746 0.000000 52.000000 14.427529 0.000000
-20.535762 -2.084418 39.539939 0.000000 68.000000 14.431102 0.000000
-19.533343 -5.221372 35.688330 0.000000 54.000000 14.437770 0.000000
-17.355201 -6.874261 37.419593 0.000000 25.000000 14.408874 0.000000
-18.510750 -3.656827 40.984550 0.000000 22.000000 14.375091 0.000000
-21.631127 -1.485832 39.522980 0.000000 77.000000 14.852992 11.000000
-19.451555 -5.496640 35.440337 0.000000 42.000000 14.470710 29.000000
-18.971068 -4.816891 37.791428 0.000000 58.000000 14.432708 0.000000
-19.810675 -4.432905 36.478765 0.000000 31.000000 14.399476 0.000000
-18.042385 -3.891364 41.838573 0.000000 46.000000 14.443842 0.000000
-18.166867 -3.748101 41.764148 0.000000 35.000000 14.423108 0.000000
-20.747044 -3.364347 37.247009 0.000000 64.000000 14.660486 19.000000
-19.684555 -3.143766 39.087604 0.000000 55.000000 14.324092 0.000000
-20.812879 -3.789175 36.012745 0.000000 29.000000 14.586924 19.000000
-20.204671 -3.447805 37.582764 0.000000 49.000000 14.422173 0.000000
-17.611081 -4.861630 40.662054 0.000000 23.000000 14.362494 0.000000
-20.273538 -3.220973 37.823725 0.000000 50.000000 14.407434 0.000000
-18.838683 -5.776482 35.742605 0.000000 28.000000 14.291514 0.000000
-20.893688 -1.490995 39.812855 0.000000 50.000000 14.410811 0.000000
-21.845962 -1.894651 37.797685 0.000000 46.000000 14.725618 14.000000
-20.745763 -1.949161 39.355061 0.000000 54.000000 14.443131 0.000000
-19.581524 -4.568757 36.827588 0.000000 60.000000 14.424700 0.000000
-20.830028 -1.574905 39.780332 0.000000 54.000000 14.406090 0.000000
-21.773541 -1.996612 37.874915 0.000000 49.000000 14.759626 14.000000
-19.010945 -2.918814 41.508369 0.000000 55.000000 14.446934 0.000000
-19.276368 -4.184133 38.508991 0.000000 41.000000 14.487798 27.000000
-19.583035 -3.320872 39.077686 0.000000 39.000000 14.356154 0.000000
-20.775564 -2.397073 38.931330 0.000000 67.000000 14.608677 7.000000
-20.468610 -2.258933 39.257290 0.000000 35.000000 14.402030 0.000000
-20.544458 -2.768714 37.980350 0.000000 45.000000 14.374706 0.000000
-20.295946 -2.738062 39.356927 0.000000 67.000000 14.601949 10.000000
-20.113143 -4.070325 36.232853 0.000000 42.000000 14.320045 0.000000
-19.372318 -4.145344 37.691394 0.000000 30.000000 14.280334 0.000000
-19.709753 -2.898233 39.768185 0.000000 69.000000 14.402354 0.000000
-18.302028 -6.291117 36.459715 0.000000 54.000000 14.440376 0.000000
-18.883414 -3.150831 40.962363 0.000000 22.000000 14.327793 0.000000
-17.488715 -5.445267 39.688998 0.000000 34.000000 14.330837 0.000000
-19.231168 -3.608191 39.524249 0.000000 46.000000 14.415656 0.000000
-19.967331 -3.566590 37.762090 0.000000 48.000000 14.378464 0.000000
-17.242777 -5.984943 39.329313 0.000000 49.000000 14.372498 0.000000
-17.838028 -4.651606 40.525950 0.000000 45.000000 14.355996 0.000000
-19.754170 -4.472397 36.658624 0.000000 37.000000 14.438448 0.000000
-17.526498 -5.175899 40.081872 0.000000 50.000000 14.314466 0.000000
-17.626971 -5.651394 39.260395 0.000000 43.000000 14.425035 0.000000
-19.401994 -4.133381 38.593623 0.000000 55.000000 14.573999 27.000000
-17.820649 -4.229771 41.369187 0.000000 41.000000 14.345434 0.000000
-20.833204 -2.543115 38.857179 0.000000 74.000000 14.717258 7.000000
-20.915930 -3.253126 37.394911 0.000000 51.000000 14.760529 19.000000
-18.542468 -3.323766 41.675353 0.000000 49.000000 14.407477 0.000000
-18.648417 -3.118614 41.692426 0.000000 38.000000 14.363615 0.000000
-18.232136 -5.511974 37.944853 0.000000 40.000000 14.371031 0.000000
-19.474598 -3.121370 39.888245 0.000000 56.000000 14.405982 0.000000
-19.356645 -3.351313 39.641335 0.000000 37.000000 14.385168 0.000000
-19.241736 -3.585858 39.391344 0.000000 40.000000 14.368436 0.000000
-19.156537 -3.812885 39.171063 0.000000 48.000000 14.377848 0.000000
-21.178020 -4.214926 35.470560 0.000000 50.000000 14.945512 17.000000
-20.963470 -3.777506 36.187220 0.000000 42.000000 14.743082 19.000000
-19.512836 -5.200016 36.436201 0.000000 49.000000 14.641432 2.000000
-20.895435 -4.767093 35.653638 0.000000 52.000000 15.136382 20.000000
-18.479047 -5.079151 38.235313 0.000000 37.000000 14.374278 0.000000
-18.424147 -5.531232 37.608597 0.000000 42.000000 14.418041 0.000000
-18.673079 -3.586996 40.850560 0.000000 43.000000 14.408484 0.000000
-20.237533 -2.928740 38.421187 0.000000 46.000000 14.386844 0.000000
-19.269297 -3.665425 39.135466 0.000000 30.000000 14.358057 0.000000
-21.194398 -2.165081 38.420255 0.000000 60.000000 14.611779 12.000000
-18.403025 -4.792366 39.427680 0.000000 30.000000 14.512276 23.000000
-20.314729 -3.522977 36.815151 0.000000 37.000000 14.310442 0.000000
-17.343221 -5.648948 39.516110 0.000000 32.000000 14.296831 0.000000
-18.294471 -6.047637 36.778117 0.000000 37.000000 14.383939 0.000000
-19.066762 -4.316115 38.418251 0.000000 32.000000 14.388666 0.000000
-21.545243 -1.640778 38.611454 0.000000 34.000000 14.603501 11.000000
-21.599968 -2.206551 37.395695 0.000000 51.000000 14.614199 14.000000
-18.896021 -5.682839 35.817066 0.000000 59.000000 14.298658 0.000000
-18.962432 -5.245920 36.932664 0.000000 62.000000 14.424002 0.000000
-18.710081 -5.245558 37.273054 0.000000 26.000000 14.346094 0.000000
-18.837017 -4.516722 38.599468 0.000000 60.000000 14.401323 0.000000
-18.580852 -5.712703 36.712654 0.000000 34.000000 14.365715 0.000000
-17.810164 -6.633477 36.944938 0.000000 41.000000 14.444074 0.000000
-19.459693 -3.890098 38.243509 0.000000 47.000000 14.357954 0.000000
-19.772134 -2.929697 39.466624 0.000000 67.000000 14.373541 0.000000
-17.523695 -5.387594 39.766229 0.000000 34.000000 14.344713 0.000000
-20.717521 -4.707513 35.626080 0.000000 77.000000 14.962133 20.000000
-16.975389 -6.909760 38.087354 0.000000 37.000000 14.361908 0.000000
-17.941052 -4.854412 40.082591 0.000000 48.000000 14.418017 0.000000
-20.734125 -1.759154 39.623967 0.000000 57.000000 14.401252 0.000000
-20.824768 -4.641489 35.683022 0.000000 68.000000 15.017037 20.000000
-20.732812 -2.278631 38.501184 0.000000 54.000000 14.371643 0.000000
-18.106983 -5.804585 37.426214 0.000000 43.000000 14.299319 0.000000
-19.424913 -5.300247 35.911131 0.000000 39.000000 14.476557 29.000000
-20.040788 -4.235543 35.944335 0.000000 28.000000 14.279667 0.000000
-17.770627 -5.741817 38.767434 0.000000 35.000000 14.432133 0.000000
-20.692043 -4.968710 34.563729 0.000000 55.000000 14.775033 18.000000
-21.348022 -2.869905 37.653139 0.000000 49.000000 14.918647 13.000000
-20.496193 -2.325052 39.777320 0.000000 67.000000 14.623754 4.000000
-18.061979 -5.211897 39.023460 0.000000 33.000000 14.397312 0.000000
-19.769808 -2.806075 39.679741 0.000000 61.000000 14.361921 0.000000
-18.829296 -3.231979 40.752531 0.000000 28.000000 14.273376 0.000000
-19.695951 -4.357567 37.046904 0.000000 51.000000 14.445928 0.000000
-20.514108 -2.721237 38.508621 0.000000 51.000000 14.487154 7.000000
-19.418825 -3.816634 38.182607 0.000000 58.000000 14.264300 0.000000
-18.553228 -5.549988 37.155985 0.000000 43.000000 14.383032 0.000000
-19.062944 -3.198529 40.311009 0.000000 29.000000 14.285613 0.000000
-19.258842 -2.553071 41.146601 0.000000 34.000000 14.290070 0.000000
-18.756729 -3.941950 39.703036 0.000000 51.000000 14.331792 0.000000
-18.838683 -3.709460 39.790125 0.000000 30.000000 14.275411 0.000000
-20.502426 -4.797033 34.429217 0.000000 68.000000 14.490293 18.000000
-19.230712 -3.200887 40.215905 0.000000 43.000000 14.379348 0.000000
-21.212038 -2.954925 37.746479 0.000000 60.000000 14.901111 13.000000
-21.337303 -3.516193 37.035996 0.000000 74.000000 15.116749 19.000000
-19.481770 -4.223545 37.517468 0.000000 37.000000 14.353928 0.000000
-18.108145 -6.180717 36.712497 0.000000 23.000000 14.310157 0.000000
-19.559838 -3.306947 39.056854 0.000000 30.000000 14.324313 0.000000
