-21.348072 -22.054180 -65.932526 0.000000 45.000000 14.084944 0.000000
-20.796388 -18.149896 -67.124426 0.000000 52.000000 14.143656 0.000000
-21.308388 -20.924283 -61.321618 0.000000 56.000000 14.460868 20.000000
-20.881051 -19.106880 -64.778993 0.000000 30.000000 14.179270 0.000000
-21.858598 -22.128516 -61.528759 0.000000 46.000000 14.788957 21.000000
-21.029083 -18.482933 -61.997492 0.000000 46.000000 14.565594 4.000000
-21.229324 -21.482731 -65.017653 0.000000 41.000000 14.109064 0.000000
-21.372392 -21.718826 -64.739266 0.000000 24.000000 14.223538 0.000000
-20.871375 -18.295377 -62.256845 0.000000 46.000000 14.429432 4.000000
-20.569581 -17.796962 -65.172440 0.000000 36.000000 14.074875 0.000000
-20.868648 -16.983068 -63.446160 0.000000 42.000000 14.590698 10.000000
-20.821205 -20.394785 -61.243741 0.000000 28.000000 14.074530 0.000000
-21.251695 -21.532207 -65.490978 0.000000 21.000000 14.099725 0.000000
-20.533597 -17.523713 -63.734397 0.000000 60.000000 14.155505 0.000000
-20.897466 -19.514128 -64.890732 0.000000 32.000000 14.121186 0.000000
-21.307603 -21.646145 -64.139620 0.000000 27.000000 14.201179 0.000000
-20.665888 -19.110296 -60.962743 0.000000 30.000000 14.152333 0.000000
-21.219477 -20.906811 -63.306246 0.000000 42.000000 14.279851 27.000000
-20.605272 -18.886704 -60.935610 0.000000 32.000000 14.131761 0.000000
-21.240361 -22.027659 -63.684936 0.000000 27.000000 14.092613 0.000000
-20.965954 -19.879752 -63.486875 0.000000 40.000000 14.195046 0.000000
-21.867595 -21.522446 -63.078033 0.000000 75.000000 14.824937 16.000000
-21.019210 -20.021929 -63.907993 0.000000 49.000000 14.202984 0.000000
-20.613631 -17.702440 -61.180430 0.000000 63.000000 14.328202 13.000000
-21.387205 -21.852949 -63.171354 0.000000 25.000000 14.291649 16.000000
-20.944000 -19.808955 -63.042196 0.000000 39.000000 14.207006 0.000000
-20.739152 -18.318328 -67.011146 0.000000 47.000000 14.064355 0.000000
-20.505312 -17.780844 -62.744057 0.000000 36.000000 14.132337 0.000000
-20.360596 -17.619760 -62.771367 0.000000 31.000000 14.015768 0.000000
-20.657931 -16.978201 -63.702098 0.000000 56.000000 14.371649 10.000000
-21.520393 -21.961058 -60.416998 0.000000 50.000000 14.538343 25.000000
-20.797647 -18.586905 -66.869782 0.000000 44.000000 14.083426 0.000000
-21.730011 -21.913077 -64.518541 0.000000 36.000000 14.553488 7.000000
-21.604999 -21.012841 -62.520602 0.000000 72.000000 14.679630 28.000000
-21.605468 -21.166486 -61.405154 0.000000 28.000000 14.708334 20.000000
-20.885979 -20.527536 -60.619168 0.000000 35.000000 14.146215 0.000000
-21.789982 -21.854945 -62.601483 0.000000 50.000000 14.715507 17.000000
-20.920553 -20.688141 -60.147528 0.000000 46.000000 14.176032 0.000000
-21.690101 -22.592273 -63.398317 0.000000 55.000000 14.453870 23.000000
-20.341690 -16.790496 -61.816877 0.000000 43.000000 14.183663 0.000000
-20.341473 -17.563311 -62.962376 0.000000 33.000000 13.997199 0.000000
-20.397199 -17.768276 -63.273680 0.000000 37.000000 14.002296 0.000000
-20.793163 -18.435967 -67.079557 0.000000 37.000000 14.094323 0.000000
-20.757348 -16.797210 -62.425362 0.000000 65.000000 14.562143 11.000000
-20.212670 -17.077129 -61.742362 0.000000 33.000000 14.011841 0.000000
-20.255569 -17.260647 -62.041341 0.000000 34.000000 14.008533 0.000000
-20.808551 -17.506420 -63.818457 0.000000 43.000000 14.425013 9.000000
-20.764709 -18.712088 -64.811340 0.000000 40.000000 14.129878 0.000000
-20.884526 -17.261087 -62.900092 0.000000 77.000000 14.585887 10.000000
-20.814456 -18.933576 -65.189746 0.000000 38.000000 14.123037 0.000000
-21.566021 -22.233160 -61.268089 0.000000 30.000000 14.495923 21.000000
-20.883804 -19.134246 -65.542404 0.000000 42.000000 14.140258 0.000000
-20.861169 -18.464658 -62.426185 0.000000 47.000000 14.382551 4.000000
-21.029374 -18.914136 -66.008334 0.000000 46.000000 14.298112 0.000000
-20.911634 -18.821264 -67.029150 0.000000 27.000000 14.148292 0.000000
-20.712184 -18.119209 -63.638319 0.000000 52.000000 14.235356 0.000000
-20.761575 -18.751187 -64.842579 0.000000 36.000000 14.118668 0.000000
-21.067022 -18.380422 -61.657694 0.000000 54.000000 14.636776 4.000000
-20.758896 -18.551258 -64.026089 0.000000 37.000000 14.189491 0.000000
-20.918631 -19.247873 -65.915195 0.000000 43.000000 14.137228 0.000000
-21.019934 -20.931501 -60.837649 0.000000 46.000000 14.199206 0.000000
-20.947293 -20.725137 -60.877307 0.000000 30.000000 14.160640 0.000000
-20.305887 -16.446737 -61.484209 0.000000 50.000000 14.222671 0.000000
-21.683403 -23.054734 -63.208222 0.000000 35.000000 14.378371 22.000000
-21.839804 -22.030205 -60.142389 0.000000 47.000000 14.854439 24.000000
-21.228836 -20.308430 -60.772642 0.000000 63.000000 14.513295 3.000000
-20.879845 -16.818497 -63.392997 0.000000 42.000000 14.632112 10.000000
-20.646977 -18.989361 -60.690451 0.000000 44.000000 14.167382 0.000000
-21.205010 -21.822630 -61.373233 0.000000 29.000000 14.204795 0.000000
-20.706032 -19.198165 -60.849226 0.000000 29.000000 14.182520 0.000000
-20.688189 -19.081288 -61.735114 0.000000 39.000000 14.141654 0.000000
-21.006559 -20.821084 -64.123836 0.000000 26.000000 14.045005 0.000000
-21.234210 -21.365640 -64.780095 0.000000 38.000000 14.145203 0.000000
-21.219113 -20.645437 -60.084578 0.000000 60.000000 14.480215 8.000000
-20.546266 -18.065186 -61.133734 0.000000 43.000000 14.202861 0.000000
-21.870602 -22.742856 -62.714630 0.000000 57.000000 14.639340 22.000000
-21.520197 -21.161236 -60.037195 0.000000 27.000000 14.691755 8.000000
-20.944654 -19.697116 -65.101712 0.000000 27.000000 14.126465 0.000000
-21.678804 -21.354971 -63.200246 0.000000 46.000000 14.661447 16.000000
-20.813310 -19.617826 -64.378336 0.000000 25.000000 14.045718 0.000000
-20.756432 -18.714718 -63.896036 0.000000 38.000000 14.165765 0.000000
-21.414143 -22.479403 -64.576640 0.000000 48.000000 14.144023 0.000000
-20.862805 -20.245801 -60.502947 0.000000 54.000000 14.176655 0.000000
-21.045545 -18.314869 -61.397879 0.000000 74.000000 14.639336 4.000000
-20.574095 -17.976266 -63.586949 0.000000 36.000000 14.126068 0.000000
-20.570697 -17.266553 -65.117742 0.000000 39.000000 14.168257 0.000000
-20.533061 -17.712729 -63.442620 0.000000 36.000000 14.137217 0.000000
-20.724907 -18.451074 -66.232983 0.000000 42.000000 14.065717 0.000000
-21.558099 -23.306064 -65.395847 0.000000 43.000000 14.106244 0.000000
-21.099017 -20.268439 -64.574507 0.000000 34.000000 14.207505 0.000000
-20.670686 -17.810950 -65.740856 0.000000 41.000000 14.144420 0.000000
-20.621684 -17.522065 -65.532630 0.000000 40.000000 14.155113 0.000000
-20.732038 -19.247502 -62.315082 0.000000 36.000000 14.128551 0.000000
-20.578004 -17.295660 -64.973933 0.000000 49.000000 14.177520 0.000000
-20.670621 -18.874623 -61.702779 0.000000 31.000000 14.160852 0.000000
-21.177295 -20.610637 -65.359460 0.000000 33.000000 14.188596 0.000000
-20.735129 -17.314312 -61.290822 0.000000 81.000000 14.508026 13.000000
-20.823603 -17.864299 -67.318537 0.000000 36.000000 14.209272 0.000000
-21.543309 -21.784401 -60.596249 0.000000 41.000000 14.582041 25.000000
-20.672710 -18.962553 -62.260006 0.000000 32.000000 14.120972 0.000000
-20.770778 -16.948172 -63.060169 0.000000 74.000000 14.519006 10.000000
-20.531708 -18.076298 -64.570686 0.000000 29.000000 14.019634 0.000000
-21.954878 -22.003036 -61.429173 0.000000 52.000000 14.909780 21.000000
-21.123176 -21.120038 -63.791750 0.000000 29.000000 14.125427 0.000000
-20.838645 -19.729101 -62.540192 0.000000 38.000000 14.141181 0.000000
-20.798507 -17.032520 -63.232567 0.000000 58.000000 14.523673 10.000000
-20.748609 -18.658202 -64.105000 0.000000 36.000000 14.157459 0.000000
-20.602819 -18.133188 -62.599438 0.000000 29.000000 14.175817 0.000000
-20.944377 -20.119404 -63.162802 0.000000 46.000000 14.149059 0.000000
-21.400578 -21.839402 -66.050868 0.000000 46.000000 14.167173 0.000000
-20.988332 -20.322094 -63.494027 0.000000 39.000000 14.141984 0.000000
-21.021088 -20.541773 -63.856018 0.000000 36.000000 14.119518 0.000000
-22.036190 -22.532952 -62.235817 0.000000 64.000000 14.861083 17.000000
-20.892360 -18.156132 -60.872176 0.000000 65.000000 14.540906 13.000000
-21.069693 -21.266981 -65.079357 0.000000 26.000000 13.985377 0.000000
-20.813266 -18.514077 -63.110581 0.000000 54.000000 14.293786 18.000000
-20.564921 -17.068513 -63.325852 0.000000 56.000000 14.283111 10.000000
-21.332088 -21.684318 -65.966140 0.000000 40.000000 14.130072 0.000000
-21.388163 -22.801987 -64.858729 0.000000 31.000000 14.050232 0.000000
-21.534101 -22.195685 -60.124588 0.000000 48.000000 14.526400 24.000000
-21.939420 -21.577425 -62.833124 0.000000 34.000000 14.898254 16.000000
-20.935155 -20.712362 -62.558288 0.000000 24.000000 14.069162 0.000000
-21.315629 -21.832968 -64.568717 0.000000 42.000000 14.156659 0.000000
-20.850951 -17.985345 -66.165296 0.000000 67.000000 14.271783 2.000000
-20.961893 -19.886824 -63.500469 0.000000 37.000000 14.189193 0.000000
-21.192545 -21.293465 -64.473198 0.000000 35.000000 14.131296 0.000000
-20.768981 -19.571839 -61.560761 0.000000 29.000000 14.146770 0.000000
-21.082667 -21.094503 -64.505723 0.000000 37.000000 14.055170 0.000000
-20.816369 -19.627926 -61.842535 0.000000 26.000000 14.170250 0.000000
-21.091513 -20.727676 -64.314018 0.000000 41.000000 14.135177 0.000000
-20.852923 -19.623091 -60.710293 0.000000 34.000000 14.262073 0.000000
-20.615543 -17.643787 -65.246874 0.000000 39.000000 14.142386 0.000000
-21.017763 -20.121868 -64.077613 0.000000 40.000000 14.176430 0.000000
-20.948418 -19.863175 -64.008822 0.000000 37.000000 14.155220 0.000000
-21.217407 -18.618945 -65.606114 0.000000 65.000000 14.552641 6.000000
-22.005767 -22.457700 -64.109161 0.000000 82.000000 14.752816 23.000000
-20.676476 -18.494805 -63.469544 0.000000 35.000000 14.144939 0.000000
-21.266138 -20.614889 -60.237839 0.000000 51.000000 14.524221 8.000000
-20.833363 -18.139000 -61.798435 0.000000 44.000000 14.440712 4.000000
-20.712794 -17.022147 -63.001389 0.000000 38.000000 14.452282 10.000000
-20.382868 -16.898049 -62.644053 0.000000 47.000000 14.165830 0.000000
-21.752138 -22.829236 -63.839795 0.000000 46.000000 14.453447 23.000000
-20.764316 -20.250985 -60.793055 0.000000 33.000000 14.064726 0.000000
-21.419497 -21.568417 -61.534831 0.000000 23.000000 14.451043 21.000000
-21.154317 -21.350523 -62.007371 0.000000 38.000000 14.203850 0.000000
-20.549167 -17.756166 -63.317775 0.000000 51.000000 14.151799 0.000000
-21.299657 -22.555839 -64.416393 0.000000 18.000000 14.026193 0.000000
-20.954306 -20.801663 -60.802054 0.000000 31.000000 14.158269 0.000000
-21.064352 -20.931349 -60.981803 0.000000 52.000000 14.235953 0.000000
-21.647194 -21.871013 -64.210835 0.000000 63.000000 14.494022 7.000000
-20.298904 -16.617591 -61.919526 0.000000 43.000000 14.165772 0.000000
-20.348155 -16.720944 -61.456053 0.000000 49.000000 14.219315 0.000000
-20.509832 -17.910949 -63.926051 0.000000 37.000000 14.057364 0.000000
-20.279226 -16.778537 -61.692691 0.000000 43.000000 14.130228 0.000000
-21.146135 -21.013537 -61.553370 0.000000 45.000000 14.274799 20.000000
-20.759665 -18.159076 -64.368578 0.000000 40.000000 14.239873 0.000000
-22.066686 -22.046217 -62.338905 0.000000 44.000000 14.968341 17.000000
-20.322030 -17.386637 -62.732517 0.000000 35.000000 14.019083 0.000000
-20.318404 -17.609901 -63.123003 0.000000 41.000000 13.958812 0.000000
-20.434809 -17.705711 -63.326354 0.000000 32.000000 14.047332 0.000000
-21.014655 -19.342272 -66.552593 0.000000 30.000000 14.184830 0.000000
-20.478117 -17.876658 -63.655030 0.000000 37.000000 14.045107 0.000000
-20.771696 -18.713665 -64.021208 0.000000 37.000000 14.174887 0.000000
-20.525740 -18.186729 -60.938652 0.000000 39.000000 14.171597 0.000000
-21.071198 -18.184268 -62.286819 0.000000 41.000000 14.643460 4.000000
-20.729995 -18.473273 -64.891475 0.000000 39.000000 14.132165 0.000000
-20.931551 -20.024636 -62.779278 0.000000 43.000000 14.171083 0.000000
-21.235624 -18.215776 -61.947371 0.000000 64.000000 14.816495 4.000000
-21.604198 -21.026121 -60.082558 0.000000 55.000000 14.795074 8.000000
-20.725091 -18.314465 -61.160410 0.000000 52.000000 14.335482 4.000000
-20.714689 -19.146545 -61.201188 0.000000 34.000000 14.182661 0.000000
-21.623819 -23.562477 -65.776788 0.000000 24.000000 14.109100 0.000000
-21.493795 -20.364180 -61.059407 0.000000 69.000000 14.750772 3.000000
-21.523214 -23.075322 -65.776015 0.000000 30.000000 14.092417 0.000000
-20.668817 -18.119400 -61.255818 0.000000 55.000000 14.308409 4.000000
-21.570367 -21.669098 -63.217343 0.000000 34.000000 14.500789 16.000000
-21.358432 -22.329689 -65.726517 0.000000 36.000000 14.058599 0.000000
-21.328337 -22.039851 -65.644834 0.000000 37.000000 14.081918 0.000000
-21.526031 -21.579080 -63.174697 0.000000 41.000000 14.474427 16.000000
-21.915260 -22.918485 -64.708358 0.000000 82.000000 14.556739 26.000000
-21.202806 -21.107881 -61.585914 0.000000 57.000000 14.313064 20.000000
-21.812066 -21.585035 -64.701429 0.000000 77.000000 14.680808 7.000000
-20.603478 -18.226467 -64.637509 0.000000 27.000000 14.061664 0.000000
-21.828143 -21.466410 -62.407987 0.000000 63.000000 14.828128 28.000000
-21.089934 -20.009089 -64.909848 0.000000 41.000000 14.226091 0.000000
-20.934921 -19.876106 -64.996626 0.000000 32.000000 14.091747 0.000000
-20.733667 -17.988585 -63.909093 0.000000 40.000000 14.265418 5.000000
-21.645899 -22.595327 -61.808170 0.000000 67.000000 14.487115 17.000000
-21.522785 -20.916852 -63.249311 0.000000 41.000000 14.579505 27.000000
-20.770973 -18.770351 -64.472111 0.000000 38.000000 14.142685 0.000000
-21.226302 -20.452129 -65.956843 0.000000 32.000000 14.234594 0.000000
-20.932300 -18.985180 -67.010637 0.000000 42.000000 14.141839 0.000000
-20.844350 -18.724843 -66.873844 0.000000 43.000000 14.105896 0.000000
-21.027967 -20.935209 -63.345170 0.000000 28.000000 14.084635 0.000000
-21.709281 -21.326342 -62.369044 0.000000 47.000000 14.736679 28.000000
-20.520017 -17.022018 -62.816618 0.000000 38.000000 14.271509 10.000000
-20.638435 -17.555231 -66.027729 0.000000 40.000000 14.141939 0.000000
-21.899876 -22.155843 -62.193652 0.000000 86.000000 14.792664 17.000000
-21.087998 -18.636019 -65.236223 0.000000 38.000000 14.440338 6.000000
-20.799945 -19.124083 -62.741816 0.000000 36.000000 14.195518 0.000000
-20.859603 -19.348209 -63.043157 0.000000 49.000000 14.201731 0.000000
-21.852154 -21.598502 -62.992158 0.000000 51.000000 14.801058 16.000000
-20.743485 -18.218003 -62.119293 0.000000 37.000000 14.323293 4.000000
-21.001952 -20.076461 -64.057766 0.000000 39.000000 14.169502 0.000000
-20.605684 -17.479109 -64.643279 0.000000 35.000000 14.189839 0.000000
-20.545960 -17.626431 -62.038418 0.000000 36.000000 14.232735 0.000000
-21.126395 -20.538352 -64.732540 0.000000 41.000000 14.181169 0.000000
-21.217828 -21.277871 -64.356134 0.000000 39.000000 14.164510 0.000000
-20.686595 -18.480905 -62.614435 0.000000 48.000000 14.198804 0.000000
-20.953375 -18.099592 -61.619648 0.000000 40.000000 14.574202 4.000000
-21.132573 -21.165701 -65.661415 0.000000 43.000000 14.036106 0.000000
-20.903879 -19.585562 -62.992669 0.000000 47.000000 14.207664 0.000000
-21.773256 -22.208439 -61.898840 0.000000 54.000000 14.673455 17.000000
-20.950276 -19.875353 -62.837261 0.000000 41.000000 14.211924 0.000000
-20.971103 -20.008167 -63.674899 0.000000 51.000000 14.169279 0.000000
-21.613747 -22.070202 -63.049202 0.000000 47.000000 14.483888 17.000000
-21.048297 -20.429824 -64.374051 0.000000 33.000000 14.140047 0.000000
-21.130709 -20.581239 -64.661383 0.000000 42.000000 14.181626 0.000000
-21.141040 -20.824256 -65.080755 0.000000 42.000000 14.130353 0.000000
-21.713388 -21.849343 -64.431469 0.000000 46.000000 14.552125 7.000000
-21.549617 -21.298905 -62.933161 0.000000 44.000000 14.556725 16.000000
-20.592832 -17.996234 -62.792820 0.000000 37.000000 14.179729 0.000000
-21.232993 -18.259961 -65.100170 0.000000 78.000000 14.653229 6.000000
-20.841938 -18.920874 -64.623006 0.000000 33.000000 14.179777 0.000000
-21.170290 -21.228878 -62.497925 0.000000 36.000000 14.216290 0.000000
-20.670894 -17.873599 -61.683387 0.000000 55.000000 14.331211 19.000000
-21.087121 -21.034461 -62.532791 0.000000 29.000000 14.165574 0.000000
-21.591430 -23.087931 -64.502543 0.000000 37.000000 14.219324 0.000000
-21.139767 -20.116261 -66.224256 0.000000 49.000000 14.193165 0.000000
-20.955087 -19.688885 -65.265733 0.000000 29.000000 14.130157 0.000000
-20.924814 -20.629983 -62.574008 0.000000 31.000000 14.072139 0.000000
-21.342977 -22.216701 -65.571542 0.000000 44.000000 14.070008 0.000000
-21.581238 -20.780062 -63.754818 0.000000 78.000000 14.635595 27.000000
-21.317972 -21.892013 -65.449283 0.000000 40.000000 14.106198 0.000000
-21.414381 -20.426605 -61.177805 0.000000 69.000000 14.656293 3.000000
-21.252344 -21.618749 -65.391620 0.000000 31.000000 14.090569 0.000000
-20.858539 -19.797118 -62.311622 0.000000 28.000000 14.160379 0.000000
-21.146759 -21.400423 -65.404152 0.000000 24.000000 14.022911 0.000000
-20.556438 -17.256161 -64.339105 0.000000 48.000000 14.193813 0.000000
-21.156344 -21.024131 -65.194347 0.000000 38.000000 14.106125 0.000000
-20.795040 -19.266856 -62.140581 0.000000 45.000000 14.195781 0.000000
-20.758329 -18.061241 -66.875408 0.000000 32.000000 14.133270 0.000000
-21.749863 -21.755913 -64.345794 0.000000 51.000000 14.607983 7.000000
-21.009021 -20.660623 -61.253333 0.000000 33.000000 14.214034 0.000000
-21.058803 -20.085231 -64.776321 0.000000 40.000000 14.189067 0.000000
-20.811010 -19.347476 -62.276977 0.000000 56.000000 14.191251 0.000000
-20.876746 -19.609088 -64.674921 0.000000 39.000000 14.095230 0.000000
-22.847414 -23.055534 -64.124204 0.000000 3.000000 15.479602 15.000000
-20.819761 -17.214505 -63.710347 0.000000 59.000000 14.490628 9.000000
-21.452597 -23.005965 -65.395712 0.000000 32.000000 14.053100 0.000000
-21.040225 -19.736527 -66.595592 0.000000 27.000000 14.141294 0.000000
-20.868270 -19.162825 -64.806159 0.000000 41.000000 14.155916 0.000000
-21.799559 -21.659604 -64.658975 0.000000 69.000000 14.657958 7.000000
-20.763060 -19.557170 -60.597073 0.000000 48.000000 14.190251 0.000000
-20.854247 -19.116424 -64.735568 0.000000 31.000000 14.153382 0.000000
-21.944518 -22.291028 -62.967139 0.000000 61.000000 14.776181 17.000000
-21.404477 -21.461212 -61.364978 0.000000 62.000000 14.462626 20.000000
-20.892945 -19.170315 -64.930569 0.000000 28.000000 14.172895 0.000000
-21.710126 -22.015103 -62.508666 0.000000 56.000000 14.614343 17.000000
-21.893706 -22.441155 -62.879271 0.000000 51.000000 14.705062 17.000000
-20.908762 -19.677414 -63.944487 0.000000 40.000000 14.150697 0.000000
-21.161678 -21.314402 -62.039587 0.000000 49.000000 14.215634 0.000000
-20.726849 -18.030450 -64.028197 0.000000 38.000000 14.245844 5.000000
-21.486847 -22.115246 -63.086448 0.000000 33.000000 14.349544 17.000000
-21.532125 -22.940561 -64.942098 0.000000 33.000000 14.164484 0.000000
-20.311095 -16.642735 -62.015329 0.000000 40.000000 14.168869 0.000000
-21.323108 -21.961581 -63.257293 0.000000 54.000000 14.206019 0.000000
-20.800426 -17.154864 -64.271435 0.000000 56.000000 14.454405 9.000000
-20.838807 -17.846033 -60.886703 0.000000 78.000000 14.539880 13.000000
-20.458491 -18.004571 -64.459616 0.000000 28.000000 13.965075 0.000000
-21.573011 -23.100085 -64.980193 0.000000 26.000000 14.175927 0.000000
-20.603141 -18.283654 -65.054631 0.000000 31.000000 14.031399 0.000000
-20.898638 -19.039221 -66.769647 0.000000 40.000000 14.111280 0.000000
-20.859005 -18.119977 -64.080731 0.000000 56.000000 14.358261 5.000000
-21.068299 -21.894574 -60.082878 0.000000 26.000000 14.120762 0.000000
-21.043824 -21.658582 -60.095140 0.000000 34.000000 14.135949 0.000000
-21.926426 -21.797506 -62.511076 0.000000 83.000000 14.863925 17.000000
-20.874304 -20.508841 -60.128272 0.000000 28.000000 14.161736 0.000000
-21.019826 -20.810370 -64.063650 0.000000 17.000000 14.062801 0.000000
-20.949964 -20.685467 -60.307631 0.000000 37.000000 14.197655 0.000000
-21.038393 -20.938228 -62.604345 0.000000 37.000000 14.130389 0.000000
-20.940079 -20.740680 -62.643137 0.000000 29.000000 14.065102 0.000000
-20.888362 -20.482603 -62.603070 0.000000 35.000000 14.059746 0.000000
-20.911577 -20.126455 -62.437861 0.000000 36.000000 14.150807 0.000000
-20.860593 -19.867245 -62.386407 0.000000 42.000000 14.146917 0.000000
-20.774394 -16.847507 -62.120501 0.000000 62.000000 14.585239 29.000000
-21.333499 -21.031796 -60.458321 0.000000 46.000000 14.509373 8.000000
-20.716609 -19.083950 -62.189200 0.000000 35.000000 14.147116 0.000000
-21.743194 -22.072896 -60.485960 0.000000 41.000000 14.735424 25.000000
-20.595540 -17.688771 -61.600052 0.000000 38.000000 14.292311 0.000000
-20.582766 -17.142516 -63.492963 0.000000 56.000000 14.280053 10.000000
-20.994538 -16.886775 -63.503494 0.000000 75.000000 14.728111 10.000000
-21.300668 -21.395351 -65.167197 0.000000 30.000000 14.186794 0.000000
-20.925197 -20.402613 -63.068520 0.000000 29.000000 14.086904 0.000000
-20.639452 -17.562868 -65.271754 0.000000 33.000000 14.178387 0.000000
-21.166301 -20.524291 -66.293192 0.000000 37.000000 14.146989 0.000000
-21.123063 -20.234900 -66.162448 0.000000 41.000000 14.159678 0.000000
-21.766197 -21.924972 -60.473397 0.000000 46.000000 14.783674 25.000000
-20.922734 -19.127472 -65.636703 0.000000 40.000000 14.175144 0.000000
-20.871695 -20.567735 -62.393165 0.000000 29.000000 14.039153 0.000000
-20.489079 -16.966799 -62.996058 0.000000 50.000000 14.241664 10.000000
-21.036083 -21.476624 -60.155682 0.000000 34.000000 14.156133 0.000000
-21.278290 -20.762585 -65.652231 0.000000 37.000000 14.248116 0.000000
-21.133598 -18.270689 -65.030576 0.000000 55.000000 14.556952 6.000000
-21.228059 -22.109825 -60.060988 0.000000 35.000000 14.242725 0.000000
-20.999842 -17.224048 -64.120257 0.000000 58.000000 14.646371 9.000000
-20.573329 -17.909477 -65.304218 0.000000 27.000000 14.053149 0.000000
-21.187336 -21.292378 -65.343812 0.000000 14.000000 14.084045 0.000000
-20.690532 -19.061789 -63.235787 0.000000 36.000000 14.074330 0.000000
-20.774510 -19.260923 -63.498373 0.000000 38.000000 14.110592 0.000000
-21.294088 -20.475108 -60.956605 0.000000 43.000000 14.540427 3.000000
-21.306833 -18.345876 -65.206932 0.000000 56.000000 14.706214 6.000000
-20.960669 -19.936411 -64.425493 0.000000 35.000000 14.134658 0.000000
-21.038135 -20.147831 -64.729208 0.000000 39.000000 14.160433 0.000000
-21.108120 -20.367362 -65.050913 0.000000 41.000000 14.176600 0.000000
-20.903906 -18.746330 -66.103447 0.000000 30.000000 14.198331 0.000000
-20.806820 -19.306757 -63.095914 0.000000 49.000000 14.154211 0.000000
-21.624029 -23.274830 -64.521310 0.000000 36.000000 14.218922 0.000000
-20.864885 -19.490937 -63.385970 0.000000 37.000000 14.166155 0.000000
-20.753693 -17.938857 -60.885751 0.000000 57.000000 14.440454 13.000000
-20.902405 -19.706059 -63.724543 0.000000 35.000000 14.150287 0.000000
-21.410506 -21.645999 -61.003016 0.000000 23.000000 14.454926 25.000000
-21.003111 -20.100927 -64.373782 0.000000 34.000000 14.151153 0.000000
-21.064910 -20.282539 -64.686738 0.000000 41.000000 14.166093 0.000000
-21.123139 -20.468145 -65.016105 0.000000 39.000000 14.176047 0.000000
-21.158218 -20.685606 -65.392167 0.000000 38.000000 14.155559 0.000000
-20.910829 -18.317047 -61.799740 0.000000 44.000000 14.486822 4.000000
-20.872211 -17.050820 -62.903290 0.000000 67.000000 14.609138 10.000000
-21.174185 -22.168182 -60.040414 0.000000 35.000000 14.180829 0.000000
-21.037349 -18.127726 -63.767639 0.000000 59.000000 14.547732 5.000000
-21.067412 -21.765457 -60.165721 0.000000 33.000000 14.137680 0.000000
-21.719290 -22.138461 -62.854905 0.000000 62.000000 14.585694 17.000000
-20.812659 -18.654746 -66.493612 0.000000 34.000000 14.105021 0.000000
-20.915578 -18.845354 -66.582588 0.000000 34.000000 14.169805 0.000000
-21.002037 -17.424377 -63.953262 0.000000 72.000000 14.622797 9.000000
-20.792612 -20.140822 -60.278624 0.000000 33.000000 14.136195 0.000000
-20.693875 -16.888778 -62.302739 0.000000 64.000000 14.490145 11.000000
-21.910179 -21.638542 -62.797134 0.000000 45.000000 14.860891 16.000000
-20.527533 -16.880123 -62.524072 0.000000 46.000000 14.317101 11.000000
-21.043203 -21.021226 -63.988706 0.000000 30.000000 14.053826 0.000000
-20.961051 -20.808088 -63.986548 0.000000 23.000000 14.009073 0.000000
-21.006494 -18.244624 -62.127769 0.000000 58.000000 14.577294 4.000000
-21.304466 -20.075313 -65.229067 0.000000 24.000000 14.410578 12.000000
-20.969886 -19.824072 -63.508948 0.000000 38.000000 14.207253 0.000000
-20.884279 -19.597937 -64.041656 0.000000 31.000000 14.135303 0.000000
-21.122591 -18.247618 -63.729180 0.000000 54.000000 14.613256 5.000000
-21.224738 -20.751015 -66.359324 0.000000 43.000000 14.162992 0.000000
-20.751647 -19.139366 -63.364742 0.000000 37.000000 14.115118 0.000000
-21.337617 -21.956564 -65.582442 0.000000 34.000000 14.108158 0.000000
-21.272688 -21.469381 -64.960063 0.000000 32.000000 14.156806 0.000000
-20.698957 -18.576403 -63.094074 0.000000 47.000000 14.171529 0.000000
-21.228233 -18.766222 -65.760246 0.000000 35.000000 14.530922 6.000000
-20.594379 -18.083989 -62.892840 0.000000 32.000000 14.161563 0.000000
-20.796991 -20.272187 -61.332932 0.000000 30.000000 14.067074 0.000000
-20.868415 -19.861745 -62.386858 0.000000 32.000000 14.155524 0.000000
-20.414125 -17.678927 -62.794493 0.000000 27.000000 14.057342 0.000000
-20.335603 -17.463766 -62.715088 0.000000 33.000000 14.020258 0.000000
-21.014475 -19.050382 -66.761126 0.000000 40.000000 14.223841 0.000000
-20.520785 -16.841718 -62.112078 0.000000 56.000000 14.336968 29.000000
-21.326060 -22.063331 -59.987163 0.000000 43.000000 14.350643 24.000000
-20.609038 -18.835882 -60.733641 0.000000 45.000000 14.153870 0.000000
-20.648276 -19.086120 -60.980526 0.000000 36.000000 14.138216 0.000000
-20.990324 -19.240903 -66.164591 0.000000 51.000000 14.196862 0.000000
-21.471808 -22.757520 -63.161638 0.000000 38.000000 14.222558 0.000000
-20.944146 -19.218636 -65.814673 0.000000 44.000000 14.172170 0.000000
-20.789190 -19.423864 -61.974284 0.000000 39.000000 14.171573 0.000000
-20.531100 -17.820292 -64.676760 0.000000 20.000000 14.057138 0.000000
-21.170048 -19.820804 -65.002010 0.000000 37.000000 14.332294 12.000000
-20.753231 -16.926363 -63.194424 0.000000 50.000000 14.498894 10.000000
-21.036832 -18.290432 -61.698242 0.000000 39.000000 14.620292 4.000000
-20.575005 -17.311085 -65.104837 0.000000 38.000000 14.165600 0.000000
-21.954867 -21.306352 -62.877794 0.000000 83.000000 14.957094 16.000000
-20.957304 -20.246911 -61.461583 0.000000 35.000000 14.222910 0.000000
-20.902243 -20.601994 -61.887812 0.000000 29.000000 14.087994 0.000000
-21.544774 -22.199110 -60.671638 0.000000 41.000000 14.509745 25.000000
-20.978182 -20.792511 -62.126838 0.000000 28.000000 14.118943 0.000000
-21.033346 -21.010094 -62.407653 0.000000 29.000000 14.122834 0.000000
-21.099674 -21.213208 -62.675940 0.000000 33.000000 14.140772 0.000000
-21.445455 -23.062248 -65.518889 0.000000 37.000000 14.030573 0.000000
-21.198431 -20.505903 -64.843938 0.000000 36.000000 14.252152 0.000000
-21.559751 -23.265214 -65.796007 0.000000 36.000000 14.095327 0.000000
-21.623201 -21.132987 -61.128427 0.000000 47.000000 14.744899 20.000000
-20.672358 -18.300607 -62.376429 0.000000 48.000000 14.226820 0.000000
-21.122012 -21.171018 -61.951771 0.000000 36.000000 14.205081 0.000000
-21.172602 -21.109434 -63.690923 0.000000 31.000000 14.180776 0.000000
-20.862419 -17.541570 -64.062139 0.000000 61.000000 14.460260 9.000000
-22.184991 -22.339718 -63.741560 0.000000 55.000000 14.967047 23.000000
-20.522360 -16.966815 -63.739627 0.000000 41.000000 14.238290 0.000000
-21.788360 -21.150178 -63.099121 0.000000 82.000000 14.808815 16.000000
-20.537514 -18.244836 -65.824844 0.000000 28.000000 13.935925 0.000000
-21.153094 -18.477943 -62.180201 0.000000 42.000000 14.679637 4.000000
-21.242298 -21.355287 -64.499853 0.000000 40.000000 14.168533 0.000000
-21.698745 -20.992303 -61.350657 0.000000 58.000000 14.832239 20.000000
-20.801263 -18.724306 -64.679779 0.000000 36.000000 14.170192 0.000000
-20.913007 -18.905437 -67.042440 0.000000 42.000000 14.134775 0.000000
-20.890885 -18.068480 -61.712353 0.000000 57.000000 14.513437 4.000000
-20.570520 -18.338547 -65.865257 0.000000 27.000000 13.950618 0.000000
-20.703948 -18.417340 -66.077679 0.000000 40.000000 14.058331 0.000000
-20.827963 -18.502620 -66.304925 0.000000 41.000000 14.154961 0.000000
-21.164506 -21.302919 -62.205937 0.000000 39.000000 14.212275 0.000000
-20.907315 -18.860430 -67.084035 0.000000 42.000000 14.134755 0.000000
-21.440555 -22.761951 -64.344971 0.000000 40.000000 14.133538 0.000000
-21.096839 -20.843763 -62.305798 0.000000 31.000000 14.218394 0.000000
-21.491457 -23.145717 -65.590585 0.000000 36.000000 14.058271 0.000000
-20.887041 -19.622174 -61.297377 0.000000 42.000000 14.267284 0.000000
-20.981711 -17.164614 -63.828514 0.000000 57.000000 14.652743 9.000000
-20.864880 -19.809126 -62.343438 0.000000 30.000000 14.163046 0.000000
-21.348861 -22.531431 -64.453352 0.000000 30.000000 14.076958 0.000000
-20.711370 -19.248093 -61.338476 0.000000 33.000000 14.155563 0.000000
-22.431525 -22.068940 -62.098126 0.000000 3.000000 15.335358 17.000000
-20.582419 -18.880081 -61.554699 0.000000 32.000000 14.080298 0.000000
-21.042968 -20.214136 -63.772498 0.000000 44.000000 14.200478 0.000000
-20.978620 -19.955765 -63.714210 0.000000 50.000000 14.183624 0.000000
-21.651277 -22.573422 -63.531762 0.000000 28.000000 14.412353 23.000000
-20.707469 -18.225050 -61.980667 0.000000 42.000000 14.293383 4.000000
-21.392909 -21.197222 -62.149562 0.000000 60.000000 14.457719 28.000000
-21.035914 -16.972891 -63.212178 0.000000 65.000000 14.768448 10.000000
-20.606320 -18.108243 -63.062771 0.000000 43.000000 14.160962 0.000000
-20.534862 -17.874941 -62.985493 0.000000 35.000000 14.133795 0.000000
-20.421033 -17.685891 -62.966597 0.000000 34.000000 14.054602 0.000000
-21.009274 -19.046369 -63.659152 0.000000 45.000000 14.370139 1.000000
-20.951412 -19.091346 -66.994104 0.000000 42.000000 14.143517 0.000000
-20.364898 -17.452303 -62.198054 0.000000 34.000000 14.076159 0.000000
-20.271283 -17.274816 -61.470160 0.000000 28.000000 14.049365 0.000000
-21.068968 -19.460617 -66.775117 0.000000 39.000000 14.207487 0.000000
-21.938671 -21.310810 -62.394377 0.000000 74.000000 14.963888 28.000000
-20.692996 -17.729793 -66.097278 0.000000 48.000000 14.162775 0.000000
-21.189861 -20.486936 -66.505932 0.000000 31.000000 14.166156 0.000000
-20.654122 -17.634020 -65.793038 0.000000 37.000000 14.155474 0.000000
-21.030668 -21.541184 -60.303484 0.000000 34.000000 14.132710 0.000000
-21.133680 -21.711557 -60.475454 0.000000 41.000000 14.196972 0.000000
-20.219991 -16.989480 -61.599331 0.000000 31.000000 14.040809 0.000000
-20.778477 -18.487178 -66.262336 0.000000 28.000000 14.110924 0.000000
-20.334589 -17.411867 -62.072139 0.000000 32.000000 14.059273 0.000000
-20.449474 -17.566955 -62.236634 0.000000 37.000000 14.138170 0.000000
-21.813999 -22.380876 -62.931155 0.000000 52.000000 14.634261 17.000000
-20.556794 -18.003755 -62.757387 0.000000 45.000000 14.144704 0.000000
-20.355944 -17.283262 -62.168865 0.000000 39.000000 14.097326 0.000000
-20.704248 -18.407079 -63.250210 0.000000 41.000000 14.197761 0.000000
-20.480109 -17.630369 -61.554847 0.000000 50.000000 14.190743 0.000000
-20.557442 -18.048112 -62.108311 0.000000 41.000000 14.169388 0.000000
-21.438281 -22.796982 -64.725914 0.000000 30.000000 14.106869 0.000000
-20.897971 -19.673734 -64.935265 0.000000 39.000000 14.092550 0.000000
-20.690787 -18.411668 -62.609087 0.000000 40.000000 14.214890 0.000000
-20.878492 -19.699210 -60.628302 0.000000 43.000000 14.278366 0.000000
-20.687417 -18.934040 -63.349610 0.000000 35.000000 14.087319 0.000000
-20.791831 -17.071957 -64.260794 0.000000 65.000000 14.460471 9.000000
-20.723202 -19.820126 -60.476933 0.000000 27.000000 14.112419 0.000000
-20.776765 -17.702792 -60.992826 0.000000 78.000000 14.497851 13.000000
-20.803342 -19.595661 -64.342951 0.000000 31.000000 14.041370 0.000000
-20.924149 -20.469072 -61.742804 0.000000 43.000000 14.139066 0.000000
-20.995593 -19.903149 -64.849715 0.000000 32.000000 14.154043 0.000000
-21.216763 -22.200894 -63.666179 0.000000 35.000000 14.041023 0.000000
-20.968136 -20.741560 -61.865564 0.000000 33.000000 14.130359 0.000000
-20.956141 -19.011341 -66.525132 0.000000 48.000000 14.184481 0.000000
-20.990354 -18.374987 -61.934131 0.000000 37.000000 14.548788 4.000000
-21.728669 -21.916242 -62.248341 0.000000 47.000000 14.661952 17.000000
-20.798280 -19.734410 -61.751411 0.000000 34.000000 14.138878 0.000000
-20.747587 -19.490288 -61.721649 0.000000 33.000000 14.131672 0.000000
-20.730558 -19.209308 -61.641175 0.000000 33.000000 14.166297 0.000000
-20.601865 -19.057172 -61.716395 0.000000 33.000000 14.061660 0.000000
-21.195408 -20.866601 -63.272681 0.000000 46.000000 14.264583 0.000000
-21.460527 -22.655416 -65.889730 0.000000 42.000000 14.096134 0.000000
-20.674012 -19.025967 -60.813542 0.000000 31.000000 14.181830 0.000000
-21.360961 -22.098540 -65.769768 0.000000 43.000000 14.098046 0.000000
-21.320115 -20.820808 -60.399935 0.000000 44.000000 14.534686 8.000000
-21.394119 -21.368268 -62.768925 0.000000 44.000000 14.399909 28.000000
-20.900420 -17.285498 -64.583222 0.000000 55.000000 14.515617 9.000000
-21.494405 -20.018718 -65.120726 0.000000 47.000000 14.612387 12.000000
-21.161932 -20.658136 -65.280361 0.000000 41.000000 14.169291 0.000000
-21.655451 -22.442420 -61.400825 0.000000 34.000000 14.542150 21.000000
-20.646505 -18.232878 -65.464072 0.000000 41.000000 14.062770 0.000000
-20.538974 -17.733731 -62.283663 0.000000 53.000000 14.195809 0.000000
-20.775778 -19.397921 -64.415262 0.000000 31.000000 14.044135 0.000000
-21.039702 -19.352533 -66.920747 0.000000 47.000000 14.189863 0.000000
-21.066228 -18.614141 -65.595963 0.000000 59.000000 14.405122 6.000000
-20.637507 -18.020127 -64.129581 0.000000 36.000000 14.154711 0.000000
-21.004424 -19.192189 -66.975693 0.000000 42.000000 14.179558 0.000000
-20.884471 -19.622433 -62.700380 0.000000 36.000000 14.196532 0.000000
-20.727338 -19.326654 -61.236536 0.000000 40.000000 14.162961 0.000000
-20.905848 -19.765281 -61.471053 0.000000 43.000000 14.253177 0.000000
-21.662869 -23.438754 -64.740601 0.000000 37.000000 14.218801 0.000000
-20.715087 -17.778952 -66.049492 0.000000 53.000000 14.178537 0.000000
-20.915746 -20.602968 -62.234182 0.000000 27.000000 14.084290 0.000000
-20.627701 -19.087220 -61.778186 0.000000 33.000000 14.079014 0.000000
-21.301377 -20.064204 -64.786298 0.000000 43.000000 14.430931 12.000000
-20.814552 -19.477805 -62.142424 0.000000 47.000000 14.179255 0.000000
-20.852061 -19.748238 -62.423023 0.000000 51.000000 14.156847 0.000000
-20.915327 -19.990192 -62.671631 0.000000 48.000000 14.166163 0.000000
-21.295095 -20.992981 -63.928481 0.000000 64.000000 14.309494 27.000000
-20.505288 -17.703259 -64.528688 0.000000 41.000000 14.058700 0.000000
-20.686748 -19.176022 -60.981191 0.000000 48.000000 14.160865 0.000000
-20.625596 -18.155481 -61.002241 0.000000 44.000000 14.272088 13.000000
-20.720656 -19.418651 -61.246806 0.000000 35.000000 14.140339 0.000000
-20.998254 -20.874240 -63.648906 0.000000 34.000000 14.050926 0.000000
-21.385707 -21.159921 -60.118729 0.000000 43.000000 14.555620 8.000000
-21.070846 -21.120489 -63.921420 0.000000 28.000000 14.067535 0.000000
-20.684156 -18.399759 -65.369762 0.000000 32.000000 14.076219 0.000000
-21.724774 -22.073640 -60.038866 0.000000 55.000000 14.738891 24.000000
-21.550803 -23.192910 -63.673294 0.000000 40.000000 14.201888 0.000000
-20.857017 -18.306114 -66.879054 0.000000 42.000000 14.188867 0.000000
-21.403586 -21.786942 -64.163257 0.000000 42.000000 14.270727 7.000000
-21.038238 -19.628709 -66.345456 0.000000 45.000000 14.169712 0.000000
-21.081003 -20.432642 -64.282650 0.000000 34.000000 14.176208 0.000000
-20.648268 -18.235008 -62.993244 0.000000 36.000000 14.184216 0.000000
-20.989755 -20.831953 -62.899006 0.000000 29.000000 14.086147 0.000000
-21.112712 -21.003983 -65.495089 0.000000 43.000000 14.051963 0.000000
-21.121617 -20.959291 -63.062700 0.000000 46.000000 14.186483 0.000000
-21.162393 -20.338430 -65.815082 0.000000 43.000000 14.197781 0.000000
-21.484408 -22.927279 -65.750089 0.000000 33.000000 14.080490 0.000000
-21.217053 -21.932928 -63.321169 0.000000 33.000000 14.103353 0.000000
-22.046068 -23.130476 -63.775373 0.000000 54.000000 14.695027 15.000000
-21.717351 -21.307104 -62.657869 0.000000 52.000000 14.733838 28.000000
-20.831246 -17.539559 -61.673807 0.000000 62.000000 14.545974 19.000000
-21.205460 -20.043800 -65.495542 0.000000 64.000000 14.305490 12.000000
-20.406426 -16.622246 -62.377091 0.000000 52.000000 14.248597 29.000000
-20.596675 -17.849580 -65.452932 0.000000 34.000000 14.079025 0.000000
-21.944784 -22.579864 -62.938615 0.000000 82.000000 14.729023 22.000000
-20.623759 -18.281085 -66.275008 0.000000 35.000000 13.992826 0.000000
-21.464017 -22.102535 -61.525625 0.000000 48.000000 14.405065 21.000000
-21.276543 -20.684997 -65.846877 0.000000 41.000000 14.250047 0.000000
-21.460990 -21.396293 -62.547603 0.000000 43.000000 14.471758 28.000000
-20.704157 -18.485058 -66.212445 0.000000 27.000000 14.040545 0.000000
-21.478659 -22.675290 -65.953722 0.000000 44.000000 14.107516 0.000000
-21.015105 -20.877655 -63.046273 0.000000 36.000000 14.096223 0.000000
-21.426341 -22.382429 -65.888263 0.000000 43.000000 14.108679 0.000000
-20.883245 -18.952813 -65.189625 0.000000 48.000000 14.187509 0.000000
-21.747218 -21.994259 -62.290293 0.000000 41.000000 14.664991 17.000000
-21.350670 -21.889213 -65.918347 0.000000 29.000000 14.116066 0.000000
-20.879470 -19.959246 -62.213518 0.000000 31.000000 14.158355 0.000000
-20.937718 -20.040135 -62.795063 0.000000 37.000000 14.173768 0.000000
-21.217654 -21.571338 -65.736934 0.000000 38.000000 14.047650 0.000000
-21.082721 -18.497702 -63.107443 0.000000 54.000000 14.561963 18.000000
-21.111218 -21.353351 -65.741565 0.000000 31.000000 13.979481 0.000000
-21.271156 -21.919302 -60.905870 0.000000 35.000000 14.276287 25.000000
-20.857901 -18.038307 -66.352184 0.000000 29.000000 14.260592 2.000000
-21.489260 -20.957435 -63.275761 0.000000 49.000000 14.538359 27.000000
-21.150255 -20.566589 -65.276615 0.000000 40.000000 14.173446 0.000000
-20.890481 -18.317200 -62.217824 0.000000 61.000000 14.446449 4.000000
-20.926079 -19.790287 -65.054285 0.000000 39.000000 14.094741 0.000000
-21.058723 -18.500768 -65.093549 0.000000 45.000000 14.441306 6.000000
-20.895428 -19.482874 -64.899853 0.000000 39.000000 14.124018 0.000000
-20.840677 -19.205520 -64.780019 0.000000 38.000000 14.122808 0.000000
-20.608593 -18.145525 -62.875446 0.000000 38.000000 14.166003 0.000000
-21.994851 -22.739591 -62.751247 0.000000 48.000000 14.760424 22.000000
-20.344769 -17.399689 -62.001788 0.000000 31.000000 14.074771 0.000000
-20.261264 -17.199083 -61.949614 0.000000 31.000000 14.029000 0.000000
-21.243079 -21.409898 -64.936841 0.000000 35.000000 14.138839 0.000000
-20.595751 -18.091472 -62.497927 0.000000 30.000000 14.180841 0.000000
-21.506615 -21.998936 -60.358826 0.000000 32.000000 14.521206 25.000000
-20.542904 -17.284331 -62.827767 0.000000 26.000000 14.249174 10.000000
-20.645273 -19.971381 -60.608099 0.000000 25.000000 14.003772 0.000000
-20.738794 -20.179804 -60.756446 0.000000 31.000000 14.053408 0.000000
-20.857907 -20.356326 -60.875822 0.000000 33.000000 14.135038 0.000000
-21.670329 -21.849872 -62.227112 0.000000 43.000000 14.616768 21.000000
-21.787221 -22.053490 -62.017732 0.000000 61.000000 14.707608 17.000000
-21.512262 -22.917341 -64.713439 0.000000 27.000000 14.159966 0.000000
-20.314008 -17.509411 -62.831668 0.000000 30.000000 13.985622 0.000000
-20.418913 -17.672829 -63.008923 0.000000 38.000000 14.052665 0.000000
-21.745751 -21.789167 -64.736694 0.000000 77.000000 14.579319 7.000000
-21.674743 -21.900086 -61.446761 0.000000 50.000000 14.650550 21.000000
-20.251937 -17.211830 -61.642010 0.000000 27.000000 14.032612 0.000000
-21.064169 -18.180437 -61.308846 0.000000 43.000000 14.684711 4.000000
-21.145957 -18.513002 -65.574401 0.000000 50.000000 14.501747 6.000000
-21.235211 -20.738881 -65.447412 0.000000 32.000000 14.219666 0.000000
-21.601945 -21.657649 -64.393564 0.000000 58.000000 14.476651 7.000000
-20.815178 -18.965123 -64.615218 0.000000 43.000000 14.146336 0.000000
-20.618276 -18.324824 -60.757404 0.000000 31.000000 14.248165 13.000000
-21.012753 -20.986033 -63.808394 0.000000 22.000000 14.038559 0.000000
-20.991641 -19.886367 -66.221224 0.000000 31.000000 14.086339 0.000000
-20.972503 -20.050596 -63.175997 0.000000 38.000000 14.187731 0.000000
-20.638125 -18.323476 -63.086232 0.000000 32.000000 14.154764 0.000000
-20.924961 -19.755533 -65.693242 0.000000 40.000000 14.068463 0.000000
-21.387976 -21.669895 -64.276911 0.000000 44.000000 14.269615 0.000000
-21.115861 -20.156093 -66.258256 0.000000 41.000000 14.161249 0.000000
-20.935143 -19.574524 -64.925384 0.000000 38.000000 14.146387 0.000000
-20.978754 -19.794498 -65.266953 0.000000 38.000000 14.135550 0.000000
-21.099147 -19.918551 -65.487806 0.000000 51.000000 14.222373 0.000000
-21.098616 -20.200143 -65.931409 0.000000 39.000000 14.152711 0.000000
-20.585548 -18.218618 -64.819905 0.000000 27.000000 14.036476 0.000000
-20.948158 -20.820914 -60.783218 0.000000 30.000000 14.149879 0.000000
-20.918752 -20.575967 -60.766550 0.000000 44.000000 14.163132 0.000000
-20.748284 -18.555486 -62.469522 0.000000 40.000000 14.253971 4.000000
-20.839533 -19.341870 -64.702172 0.000000 44.000000 14.102425 0.000000
-21.207480 -21.373396 -63.122269 0.000000 37.000000 14.198141 0.000000
-21.934907 -22.703946 -62.294312 0.000000 46.000000 14.729643 17.000000
-20.826567 -19.169404 -62.848990 0.000000 31.000000 14.208858 0.000000
-21.475871 -19.915592 -65.190487 0.000000 53.000000 14.608177 12.000000
-20.947434 -20.741090 -63.202330 0.000000 37.000000 14.045099 0.000000
-21.389648 -22.057425 -64.747664 0.000000 31.000000 14.182902 0.000000
-20.914676 -20.460227 -63.134803 0.000000 36.000000 14.063591 0.000000
-20.630940 -18.947059 -60.638238 0.000000 43.000000 14.161281 0.000000
-21.223538 -21.246613 -61.741447 0.000000 43.000000 14.302473 20.000000
-20.880908 -19.864018 -62.935511 0.000000 46.000000 14.140777 0.000000
-20.859552 -19.572356 -62.835843 0.000000 44.000000 14.173881 0.000000
-20.820310 -19.303105 -62.757643 0.000000 46.000000 14.184546 0.000000
-20.601296 -18.320135 -62.506713 0.000000 39.000000 14.147234 0.000000
-20.550745 -18.072452 -62.428210 0.000000 45.000000 14.143138 0.000000
-20.959338 -18.091583 -63.604977 0.000000 39.000000 14.484948 5.000000
-20.385903 -17.650111 -62.354435 0.000000 31.000000 14.055813 0.000000
-20.295621 -17.445456 -62.321555 0.000000 32.000000 14.003117 0.000000
-20.278146 -16.603418 -61.851805 0.000000 41.000000 14.151024 0.000000
-21.587820 -21.850342 -61.984235 0.000000 57.000000 14.547268 21.000000
-21.007750 -18.130525 -62.083446 0.000000 61.000000 14.599964 4.000000
-21.102133 -20.146605 -66.306910 0.000000 41.000000 14.146973 0.000000
-21.822979 -21.056330 -63.306153 0.000000 45.000000 14.848691 27.000000
-20.951347 -19.296952 -65.866925 0.000000 37.000000 14.163486 0.000000
-20.629517 -18.354566 -65.449461 0.000000 29.000000 14.026195 0.000000
-21.064255 -21.054236 -65.121963 0.000000 25.000000 14.013901 0.000000
-20.820587 -17.625235 -66.569479 0.000000 64.000000 14.283099 2.000000
-20.490492 -17.520993 -62.046618 0.000000 30.000000 14.195548 0.000000
-21.398323 -20.401448 -61.079606 0.000000 57.000000 14.649508 3.000000
-21.435230 -22.797721 -65.486073 0.000000 28.000000 14.066801 0.000000
-21.622829 -23.050374 -63.405060 0.000000 58.000000 14.309912 22.000000
-20.802435 -18.354814 -66.741502 0.000000 50.000000 14.133591 0.000000
-20.914681 -19.738223 -63.089484 0.000000 50.000000 14.187798 0.000000
-20.748262 -18.427430 -64.286668 0.000000 31.000000 14.187284 0.000000
-20.664333 -18.994554 -61.444446 0.000000 50.000000 14.146951 0.000000
-21.025575 -20.245920 -63.631572 0.000000 52.000000 14.184834 0.000000
-20.716185 -19.214770 -61.682028 0.000000 32.000000 14.149239 0.000000
-21.068463 -20.520321 -63.936812 0.000000 51.000000 14.165854 0.000000
-21.740477 -22.577108 -63.972447 0.000000 50.000000 14.478125 23.000000
-21.087424 -20.834106 -64.293916 0.000000 38.000000 14.114145 0.000000
-20.727911 -17.579802 -61.718072 0.000000 56.000000 14.435297 19.000000
-21.095646 -21.167619 -64.681436 0.000000 30.000000 14.047052 0.000000
-21.504515 -21.631269 -61.673387 0.000000 35.000000 14.517383 21.000000
-20.789271 -18.639789 -64.117076 0.000000 34.000000 14.200012 0.000000
-21.791529 -21.629552 -62.904336 0.000000 52.000000 14.740399 16.000000
-21.715749 -21.922387 -62.282565 0.000000 60.000000 14.646533 17.000000
-21.797692 -22.183621 -61.878580 0.000000 52.000000 14.702689 21.000000
-21.311555 -21.940499 -65.581605 0.000000 37.000000 14.085258 0.000000
-21.611465 -21.890706 -61.729833 0.000000 50.000000 14.576086 21.000000
-21.383444 -22.202653 -65.903646 0.000000 43.000000 14.096080 0.000000
-21.068305 -17.107654 -63.458163 0.000000 60.000000 14.765610 10.000000
-21.080063 -21.117341 -63.921789 0.000000 28.000000 14.077123 0.000000
-20.452174 -17.547408 -62.471211 0.000000 29.000000 14.132731 0.000000
-21.249929 -21.504393 -64.429338 0.000000 32.000000 14.154276 0.000000
-21.122694 -21.345414 -65.704356 0.000000 23.000000 13.993928 0.000000
-21.332497 -22.019924 -65.120489 0.000000 36.000000 14.114861 0.000000
-21.330920 -22.345417 -65.559488 0.000000 42.000000 14.036975 0.000000
-21.430221 -22.526113 -65.827611 0.000000 52.000000 14.091167 0.000000
-21.344782 -20.780402 -60.179322 0.000000 52.000000 14.576517 8.000000
-20.645961 -17.665268 -65.986738 0.000000 51.000000 14.132747 0.000000
-21.129425 -18.438106 -62.497994 0.000000 48.000000 14.647625 4.000000
-21.788994 -23.161019 -63.893373 0.000000 33.000000 14.431063 15.000000
-20.581718 -18.080447 -62.561833 0.000000 36.000000 14.165783 0.000000
-20.627853 -17.724995 -65.761848 0.000000 47.000000 14.115757 0.000000
-21.534127 -21.700822 -60.487333 0.000000 51.000000 14.592417 25.000000
-20.833779 -18.563407 -65.612439 0.000000 37.000000 14.184067 0.000000
-20.794262 -18.507520 -65.931723 0.000000 34.000000 14.139093 0.000000
-21.442334 -22.188684 -62.758535 0.000000 30.000000 14.309250 17.000000
-20.953580 -20.403551 -60.840264 0.000000 50.000000 14.222968 0.000000
-20.749095 -18.353841 -65.049250 0.000000 26.000000 14.163480 0.000000
-20.865275 -20.357889 -60.983238 0.000000 33.000000 14.136808 0.000000
-20.497892 -18.103373 -65.048350 0.000000 30.000000 13.958558 0.000000
-22.018802 -22.280889 -63.155011 0.000000 78.000000 14.841891 17.000000
-20.664017 -19.051234 -60.869124 0.000000 42.000000 14.165020 0.000000
-20.951017 -18.265051 -62.037148 0.000000 60.000000 14.523634 4.000000
-21.323592 -22.541332 -64.480505 0.000000 36.000000 14.049090 0.000000
-21.513671 -22.259634 -61.212910 0.000000 50.000000 14.442597 21.000000
-21.903554 -22.020145 -62.305881 0.000000 46.000000 14.813760 17.000000
-21.033213 -20.946909 -64.173997 0.000000 31.000000 14.047546 0.000000
-21.082334 -20.553230 -63.946782 0.000000 42.000000 14.173464 0.000000
-21.051217 -20.269195 -63.843753 0.000000 47.000000 14.195833 0.000000
-20.807129 -19.043275 -64.434459 0.000000 41.000000 14.133990 0.000000
-20.948733 -19.757062 -63.690695 0.000000 44.000000 14.188920 0.000000
-20.691606 -18.018959 -61.274554 0.000000 50.000000 14.346905 4.000000
-21.258479 -20.814909 -66.393693 0.000000 42.000000 14.183741 0.000000
-20.994832 -18.272672 -62.397501 0.000000 70.000000 14.547967 4.000000
-20.781573 -18.170583 -66.970570 0.000000 35.000000 14.133052 0.000000
-22.182769 -22.559120 -63.836309 0.000000 46.000000 14.923182 23.000000
-20.758161 -18.348250 -64.263190 0.000000 53.000000 14.211549 0.000000
-22.077338 -23.110491 -64.342395 0.000000 52.000000 14.701633 15.000000
-20.964631 -19.736955 -65.987760 0.000000 40.000000 14.096342 0.000000
