6.912054 -8.517822 -48.501003 0.000000 28.000000 14.439951 0.000000
6.631936 -8.966423 -50.798961 0.000000 67.000000 14.623256 7.000000
6.071001 -5.961200 -52.114286 0.000000 56.000000 14.368641 0.000000
6.373944 -6.333356 -50.635583 0.000000 49.000000 14.364209 0.000000
6.774721 -4.739130 -50.574334 0.000000 67.000000 14.760512 21.000000
6.181815 -6.987514 -51.953075 0.000000 48.000000 14.434422 0.000000
6.364508 -6.822420 -51.143062 0.000000 39.000000 14.452113 0.000000
7.242194 -5.651261 -48.644402 0.000000 77.000000 14.821041 1.000000
6.564140 -6.229762 -50.056954 0.000000 55.000000 14.435169 0.000000
6.305814 -6.948402 -50.600843 0.000000 68.000000 14.284292 0.000000
6.687448 -8.737440 -50.525005 0.000000 54.000000 14.624835 7.000000
6.309063 -6.367858 -51.263022 0.000000 71.000000 14.426510 0.000000
6.155201 -6.778060 -51.898319 0.000000 59.000000 14.399451 0.000000
6.879053 -8.219692 -48.317095 0.000000 38.000000 14.373639 0.000000
5.855603 -7.663557 -53.896312 0.000000 67.000000 14.498941 5.000000
6.519819 -6.731256 -49.644446 0.000000 27.000000 14.303734 0.000000
6.722043 -5.013306 -52.750757 0.000000 66.000000 15.143909 18.000000
6.741141 -4.419400 -50.423439 0.000000 50.000000 14.700489 21.000000
6.687688 -9.331720 -49.692878 0.000000 41.000000 14.451714 0.000000
6.367439 -6.289879 -50.740113 0.000000 43.000000 14.379300 0.000000
6.795195 -7.393271 -48.284450 0.000000 43.000000 14.293256 0.000000
6.616904 -5.715565 -53.224195 0.000000 44.000000 15.129077 25.000000
6.048388 -6.147474 -52.310331 0.000000 53.000000 14.384047 0.000000
6.392230 -4.768636 -51.227959 0.000000 45.000000 14.517027 23.000000
5.968717 -5.124894 -53.067531 0.000000 40.000000 14.468608 0.000000
6.910115 -9.146703 -48.554389 0.000000 30.000000 14.442456 0.000000
6.163706 -6.749928 -53.612804 0.000000 70.000000 14.752909 25.000000
5.788363 -8.369706 -54.020017 0.000000 52.000000 14.450848 0.000000
6.291215 -8.256335 -51.271451 0.000000 53.000000 14.391703 0.000000
6.333106 -7.920735 -51.388513 0.000000 40.000000 14.459661 0.000000
6.506441 -7.957933 -50.026868 0.000000 38.000000 14.355195 0.000000
6.206895 -5.513560 -54.566510 0.000000 58.000000 14.999491 20.000000
6.197671 -10.589455 -51.519484 0.000000 50.000000 14.326466 0.000000
6.107582 -5.802493 -52.333792 0.000000 38.000000 14.450222 0.000000
6.515805 -4.650915 -52.631080 0.000000 60.000000 14.921474 18.000000
6.141656 -6.817727 -53.626754 0.000000 71.000000 14.733434 25.000000
6.917516 -4.342095 -49.400455 0.000000 46.000000 14.668270 4.000000
5.650205 -7.054251 -54.496154 0.000000 49.000000 14.424537 0.000000
5.976002 -7.480130 -53.020400 0.000000 63.000000 14.442542 6.000000
6.417628 -5.369671 -50.489191 0.000000 34.000000 14.387259 0.000000
7.038195 -8.163862 -47.784971 0.000000 40.000000 14.423053 0.000000
6.684776 -5.228405 -49.666040 0.000000 36.000000 14.484791 0.000000
6.343049 -6.086248 -53.343971 0.000000 72.000000 14.881191 25.000000
6.517249 -9.024575 -50.103814 0.000000 40.000000 14.370514 0.000000
6.524052 -7.655801 -51.785497 0.000000 68.000000 14.729211 3.000000
6.518614 -9.883179 -50.918042 0.000000 60.000000 14.526975 27.000000
6.276760 -9.395404 -51.727088 0.000000 49.000000 14.457718 0.000000
6.383810 -6.335826 -50.632878 0.000000 33.000000 14.373304 0.000000
6.693423 -5.567092 -49.211422 0.000000 55.000000 14.398410 0.000000
6.047689 -7.571457 -53.481355 0.000000 73.000000 14.604556 5.000000
6.009928 -6.837557 -53.518483 0.000000 60.000000 14.582428 25.000000
6.556766 -5.072462 -49.700397 0.000000 50.000000 14.367885 0.000000
6.002178 -6.590198 -53.736034 0.000000 37.000000 14.621086 25.000000
6.008827 -6.725216 -52.956828 0.000000 43.000000 14.469513 0.000000
6.309136 -7.307895 -52.732608 0.000000 62.000000 14.712701 6.000000
6.782783 -5.497320 -48.824900 0.000000 49.000000 14.408898 0.000000
6.357661 -6.480648 -51.073896 0.000000 49.000000 14.434936 0.000000
6.535475 -6.204587 -50.194697 0.000000 47.000000 14.435049 0.000000
7.148825 -3.955476 -50.229159 0.000000 72.000000 15.065417 16.000000
7.114913 -4.530841 -49.227893 0.000000 45.000000 14.825013 4.000000
6.958920 -8.029334 -48.235094 0.000000 66.000000 14.437293 28.000000
6.005383 -6.601202 -52.618818 0.000000 60.000000 14.399401 0.000000
6.436574 -8.461436 -50.070214 0.000000 42.000000 14.290407 0.000000
6.667233 -5.135010 -51.662277 0.000000 78.000000 14.870063 23.000000
6.697978 -8.679152 -49.597747 0.000000 41.000000 14.449232 0.000000
5.816272 -6.989147 -54.120090 0.000000 59.000000 14.512218 25.000000
6.510705 -7.462303 -50.403548 0.000000 35.000000 14.440127 0.000000
6.928584 -8.384842 -49.081213 0.000000 64.000000 14.574184 11.000000
6.505896 -5.950865 -49.973038 0.000000 50.000000 14.364048 0.000000
5.640608 -7.977612 -54.007669 0.000000 25.000000 14.307586 0.000000
6.683329 -3.957230 -49.232714 0.000000 44.000000 14.409019 0.000000
5.891076 -8.875439 -53.084401 0.000000 51.000000 14.358177 0.000000
6.864723 -9.210720 -48.092511 0.000000 51.000000 14.304449 0.000000
5.983148 -10.056873 -53.174724 0.000000 31.000000 14.454631 0.000000
6.409977 -8.099834 -49.958177 0.000000 41.000000 14.245461 0.000000
6.922511 -6.428263 -48.343150 0.000000 30.000000 14.439489 0.000000
6.636498 -7.690599 -49.603422 0.000000 46.000000 14.400109 0.000000
6.436438 -7.569674 -51.817981 0.000000 71.000000 14.650793 3.000000
6.546317 -7.424873 -50.338653 0.000000 30.000000 14.462333 0.000000
6.485573 -7.624706 -50.107043 0.000000 39.000000 14.354236 0.000000
5.816076 -5.773155 -54.205943 0.000000 44.000000 14.541541 0.000000
6.387939 -4.689644 -52.647509 0.000000 64.000000 14.799142 18.000000
6.727096 -8.681733 -49.668392 0.000000 40.000000 14.491936 0.000000
6.689728 -8.581322 -49.733393 0.000000 30.000000 14.469419 0.000000
6.550490 -9.000883 -51.172152 0.000000 66.000000 14.618195 7.000000
5.973805 -6.720307 -53.069964 0.000000 43.000000 14.458012 0.000000
6.586895 -4.131721 -49.594506 0.000000 43.000000 14.385572 0.000000
6.556591 -8.831581 -49.897102 0.000000 39.000000 14.369417 0.000000
6.816133 -7.143772 -49.103661 0.000000 29.000000 14.481051 0.000000
5.870359 -8.512814 -54.015926 0.000000 58.000000 14.528900 0.000000
6.703118 -5.783633 -52.073813 0.000000 30.000000 14.981455 22.000000
6.677048 -6.066986 -49.091312 0.000000 27.000000 14.353176 0.000000
5.890635 -5.908888 -53.709572 0.000000 46.000000 14.513368 25.000000
5.674838 -8.124377 -53.650691 0.000000 48.000000 14.267835 0.000000
6.331305 -8.839958 -50.764391 0.000000 38.000000 14.323106 0.000000
7.077054 -5.848625 -49.032356 0.000000 65.000000 14.735329 1.000000
6.637225 -4.679644 -48.887703 0.000000 43.000000 14.287190 0.000000
6.317517 -7.400682 -52.978066 0.000000 72.000000 14.769346 6.000000
6.161423 -6.129268 -53.190908 0.000000 42.000000 14.672065 25.000000
6.635518 -4.407626 -49.374681 0.000000 48.000000 14.386206 0.000000
6.352199 -6.294524 -51.094961 0.000000 50.000000 14.435698 0.000000
6.325951 -6.317337 -51.217750 0.000000 45.000000 14.434456 0.000000
6.400465 -6.157127 -50.883967 0.000000 41.000000 14.441919 0.000000
6.708900 -5.539802 -49.343809 0.000000 40.000000 14.440472 0.000000
6.869633 -4.555976 -48.988969 0.000000 37.000000 14.536450 0.000000
6.266380 -4.123621 -51.565616 0.000000 33.000000 14.468167 0.000000
6.593236 -5.043215 -49.425503 0.000000 26.000000 14.348611 0.000000
5.714290 -7.182349 -54.418904 0.000000 45.000000 14.470482 0.000000
6.705655 -7.403455 -49.409773 0.000000 59.000000 14.431791 0.000000
5.629475 -7.403143 -54.389244 0.000000 47.000000 14.379215 0.000000
6.845315 -7.306405 -49.164225 0.000000 36.000000 14.520179 0.000000
6.720945 -4.684954 -52.107635 0.000000 53.000000 15.016785 19.000000
6.560608 -6.189330 -49.953102 0.000000 58.000000 14.411227 0.000000
5.324327 -5.440540 -55.050412 0.000000 34.000000 14.233070 0.000000
6.449808 -5.425792 -51.970345 0.000000 55.000000 14.716129 22.000000
6.077962 -9.983298 -52.984463 0.000000 44.000000 14.509975 0.000000
7.090450 -8.244873 -48.876180 0.000000 62.000000 14.692903 11.000000
6.415074 -6.565205 -49.870839 0.000000 44.000000 14.248343 0.000000
5.815780 -7.642069 -52.872948 0.000000 51.000000 14.254315 0.000000
5.753808 -7.977130 -54.153777 0.000000 41.000000 14.447859 0.000000
5.861703 -8.751081 -53.114366 0.000000 26.000000 14.336685 0.000000
6.732827 -6.779349 -49.272789 0.000000 30.000000 14.437140 0.000000
5.731393 -5.804921 -54.116043 0.000000 41.000000 14.440191 0.000000
5.930318 -6.858678 -52.871593 0.000000 55.000000 14.374124 0.000000
5.927576 -8.543075 -52.847062 0.000000 50.000000 14.349538 0.000000
6.437755 -6.515616 -52.242022 0.000000 72.000000 14.747990 13.000000
6.484025 -5.029377 -49.919894 0.000000 37.000000 14.341216 0.000000
6.209558 -6.630868 -51.936327 0.000000 45.000000 14.461821 0.000000
6.373529 -5.382384 -50.955861 0.000000 57.000000 14.437800 23.000000
6.364795 -4.404755 -52.131439 0.000000 66.000000 14.675542 19.000000
6.175708 -7.064377 -51.579488 0.000000 51.000000 14.352525 0.000000
6.018398 -9.982927 -52.457748 0.000000 38.000000 14.345694 0.000000
6.207325 -4.845402 -51.373783 0.000000 44.000000 14.364468 0.000000
5.964145 -6.454109 -54.003162 0.000000 72.000000 14.638932 25.000000
5.804721 -7.965205 -53.038944 0.000000 44.000000 14.273615 0.000000
6.142903 -6.703423 -51.875037 0.000000 56.000000 14.383473 0.000000
6.425469 -5.690859 -50.811489 0.000000 43.000000 14.456530 0.000000
6.694502 -6.075602 -49.337517 0.000000 48.000000 14.419708 0.000000
6.185491 -7.403843 -53.056679 0.000000 79.000000 14.655805 6.000000
6.211393 -4.974361 -52.722284 0.000000 55.000000 14.638386 18.000000
6.591547 -4.962961 -49.350697 0.000000 39.000000 14.332719 0.000000
6.028735 -6.600019 -53.163220 0.000000 47.000000 14.531786 0.000000
6.183035 -8.161836 -52.445168 0.000000 29.000000 14.522769 9.000000
6.026459 -6.584740 -52.896230 0.000000 39.000000 14.476009 0.000000
6.010902 -6.579733 -52.762413 0.000000 59.000000 14.433905 0.000000
5.916442 -6.837854 -53.318517 0.000000 41.000000 14.450634 0.000000
5.957528 -6.783042 -53.060815 0.000000 41.000000 14.439597 0.000000
6.001767 -6.746224 -52.931769 0.000000 48.000000 14.457345 0.000000
7.376234 -3.553977 -49.432382 0.000000 50.000000 15.131949 15.000000
6.395363 -6.106852 -50.977796 0.000000 37.000000 14.456301 0.000000
6.246286 -8.360644 -51.415855 0.000000 46.000000 14.375689 0.000000
6.044326 -9.069499 -51.631986 0.000000 26.000000 14.214199 0.000000
5.919679 -9.143690 -52.206783 0.000000 37.000000 14.206971 0.000000
6.560416 -5.372495 -50.210615 0.000000 41.000000 14.471062 0.000000
6.223247 -8.589867 -51.927244 0.000000 42.000000 14.453672 0.000000
6.586611 -4.830521 -52.193718 0.000000 52.000000 14.901052 19.000000
6.898013 -7.114335 -48.305757 0.000000 48.000000 14.401062 0.000000
6.850968 -7.237360 -48.625393 0.000000 51.000000 14.418033 0.000000
5.852940 -7.487281 -53.946207 0.000000 66.000000 14.508143 5.000000
6.801619 -8.103202 -49.176878 0.000000 24.000000 14.471898 0.000000
6.721615 -5.316031 -49.200539 0.000000 49.000000 14.426364 0.000000
6.432845 -6.269850 -50.791274 0.000000 36.000000 14.453858 0.000000
6.306057 -8.225657 -50.570724 0.000000 17.000000 14.265609 0.000000
6.054710 -6.450189 -54.443822 0.000000 44.000000 14.816313 25.000000
6.246267 -5.052496 -54.139130 0.000000 70.000000 14.956738 20.000000
6.506591 -7.500191 -50.042826 0.000000 42.000000 14.363161 0.000000
7.055650 -4.564026 -50.277729 0.000000 66.000000 14.977790 21.000000
7.122380 -4.366263 -49.264927 0.000000 50.000000 14.841434 4.000000
6.435083 -5.135642 -52.740503 0.000000 52.000000 14.859534 18.000000
6.707509 -5.905505 -49.368971 0.000000 51.000000 14.440487 0.000000
5.994086 -6.558844 -53.933692 0.000000 50.000000 14.653232 25.000000
6.763544 -5.166136 -49.081258 0.000000 34.000000 14.444952 0.000000
6.332196 -4.598564 -51.369104 0.000000 36.000000 14.488326 0.000000
6.128291 -7.086531 -51.925995 0.000000 50.000000 14.375552 0.000000
6.621597 -4.269696 -49.474927 0.000000 40.000000 14.394122 0.000000
6.452305 -6.683817 -49.718283 0.000000 44.000000 14.252932 0.000000
6.723067 -9.338219 -49.460681 0.000000 35.000000 14.439599 0.000000
6.004465 -5.306512 -54.566863 0.000000 57.000000 14.803365 20.000000
5.855050 -6.989853 -53.235927 0.000000 54.000000 14.372357 0.000000
6.301763 -5.279548 -54.087435 0.000000 51.000000 14.998412 20.000000
6.864948 -7.116420 -48.664560 0.000000 33.000000 14.440823 0.000000
6.572450 -7.014837 -49.674925 0.000000 31.000000 14.358561 0.000000
5.560290 -8.234522 -53.997753 0.000000 42.000000 14.224331 0.000000
6.618406 -6.815430 -49.601591 0.000000 51.000000 14.390833 0.000000
6.489276 -4.116522 -51.405966 0.000000 66.000000 14.654457 17.000000
6.527800 -9.655819 -49.568260 0.000000 28.000000 14.266772 0.000000
6.784415 -7.900724 -49.337651 0.000000 22.000000 14.489423 0.000000
6.423813 -4.746330 -51.959213 0.000000 67.000000 14.695270 19.000000
6.320082 -5.532149 -52.270149 0.000000 35.000000 14.648290 22.000000
6.866800 -7.305512 -48.655514 0.000000 28.000000 14.438912 0.000000
6.880759 -3.455978 -49.891389 0.000000 42.000000 14.739936 15.000000
6.903236 -7.132797 -48.521145 0.000000 35.000000 14.449315 0.000000
6.013296 -10.651201 -52.260958 0.000000 39.000000 14.294383 0.000000
6.854401 -8.369433 -48.533503 0.000000 39.000000 14.391511 0.000000
6.498147 -6.138328 -51.676257 0.000000 58.000000 14.697149 13.000000
6.367429 -6.615658 -50.735034 0.000000 31.000000 14.374987 0.000000
5.704649 -8.456751 -53.778206 0.000000 34.000000 14.319335 0.000000
5.971128 -6.764530 -53.027075 0.000000 39.000000 14.446319 0.000000
6.525872 -6.128688 -51.676890 0.000000 72.000000 14.724530 13.000000
6.379698 -5.996360 -50.980086 0.000000 45.000000 14.442531 0.000000
6.440000 -5.872242 -50.759758 0.000000 51.000000 14.458532 0.000000
6.441638 -5.815859 -50.648417 0.000000 44.000000 14.438309 0.000000
6.476758 -5.748444 -50.543850 0.000000 33.000000 14.452357 0.000000
6.349198 -5.794302 -51.168479 0.000000 34.000000 14.452583 0.000000
6.100503 -7.061602 -52.256469 0.000000 65.000000 14.415055 0.000000
5.891533 -8.410591 -52.961179 0.000000 45.000000 14.338522 0.000000
6.819834 -6.375661 -50.604197 0.000000 72.000000 14.794224 2.000000
6.839346 -4.047212 -50.345169 0.000000 64.000000 14.784688 16.000000
6.469479 -6.440040 -52.163792 0.000000 79.000000 14.764090 13.000000
6.542189 -5.866839 -49.971814 0.000000 35.000000 14.400197 0.000000
6.337571 -6.490851 -51.196859 0.000000 45.000000 14.439888 0.000000
6.082789 -10.391923 -52.641713 0.000000 44.000000 14.441648 0.000000
6.679815 -7.603777 -49.477015 0.000000 47.000000 14.417988 0.000000
6.736859 -9.361542 -49.539009 0.000000 34.000000 14.468628 0.000000
6.312105 -6.780044 -51.178309 0.000000 44.000000 14.408300 0.000000
6.620821 -4.232682 -49.444328 0.000000 43.000000 14.387581 0.000000
6.958391 -8.424898 -47.849483 0.000000 41.000000 14.355230 0.000000
5.676557 -7.082021 -54.187593 0.000000 41.000000 14.388008 0.000000
6.637789 -4.116890 -50.975009 0.000000 71.000000 14.713242 17.000000
6.716783 -7.579210 -48.302677 0.000000 39.000000 14.218244 0.000000
6.834804 -8.821102 -48.907020 0.000000 35.000000 14.442894 0.000000
7.113183 -4.426342 -49.337417 0.000000 75.000000 14.846401 4.000000
6.002219 -8.472891 -52.450724 0.000000 44.000000 14.343641 0.000000
6.773302 -7.132736 -49.119307 0.000000 29.000000 14.442355 0.000000
6.347441 -6.290102 -50.949267 0.000000 46.000000 14.401777 0.000000
6.115972 -7.173062 -52.720054 0.000000 58.000000 14.522328 6.000000
6.351180 -6.784517 -50.790092 0.000000 51.000000 14.368445 0.000000
6.935961 -8.407640 -47.970821 0.000000 30.000000 14.357840 0.000000
5.998708 -8.403118 -53.298853 0.000000 45.000000 14.511495 0.000000
6.703489 -5.028511 -52.690470 0.000000 56.000000 15.113456 18.000000
6.149154 -5.411163 -54.085632 0.000000 59.000000 14.847241 20.000000
6.235187 -7.786500 -51.716894 0.000000 72.000000 14.431149 0.000000
6.471589 -5.167860 -51.839969 0.000000 61.000000 14.713837 23.000000
6.755691 -6.004767 -49.191505 0.000000 40.000000 14.450987 0.000000
5.730277 -9.047315 -53.779664 0.000000 36.000000 14.338784 0.000000
6.610225 -5.393005 -51.662159 0.000000 67.000000 14.811602 23.000000
6.716607 -5.727610 -49.328733 0.000000 45.000000 14.443097 0.000000
5.659998 -7.981860 -53.390950 0.000000 54.000000 14.202492 0.000000
6.020967 -8.348996 -52.415212 0.000000 45.000000 14.356111 0.000000
6.487495 -9.703827 -49.881366 0.000000 40.000000 14.289787 0.000000
6.206286 -9.565371 -51.802764 0.000000 55.000000 14.402197 0.000000
5.835393 -7.910746 -53.727137 0.000000 40.000000 14.442628 0.000000
5.828663 -7.016390 -53.319229 0.000000 50.000000 14.362999 0.000000
6.309217 -6.258738 -51.415835 0.000000 65.000000 14.458496 13.000000
6.059528 -7.681263 -52.828635 0.000000 40.000000 14.483761 0.000000
6.973332 -7.967970 -48.332947 0.000000 59.000000 14.471710 28.000000
6.007286 -4.897002 -53.265501 0.000000 75.000000 14.548501 20.000000
5.722853 -7.763724 -53.203449 0.000000 34.000000 14.228542 0.000000
6.208564 -6.817835 -53.588656 0.000000 52.000000 14.791307 25.000000
6.578230 -7.158987 -49.577792 0.000000 44.000000 14.343234 0.000000
5.921333 -5.422175 -53.249917 0.000000 37.000000 14.455885 0.000000
6.585887 -6.318991 -49.828317 0.000000 45.000000 14.409584 0.000000
6.264867 -8.562633 -51.793721 0.000000 39.000000 14.467858 0.000000
6.226078 -5.199165 -53.806408 0.000000 66.000000 14.868563 20.000000
5.981302 -6.295232 -52.478228 0.000000 53.000000 14.350618 0.000000
6.463988 -9.109525 -50.259501 0.000000 36.000000 14.348804 0.000000
7.039427 -5.841892 -49.210116 0.000000 67.000000 14.734294 1.000000
6.312629 -6.998336 -51.347980 0.000000 39.000000 14.440741 0.000000
5.913301 -7.054188 -52.844136 0.000000 52.000000 14.349964 0.000000
6.739035 -6.441106 -50.637067 0.000000 64.000000 14.721033 2.000000
6.372092 -4.532515 -50.680475 0.000000 29.000000 14.389561 0.000000
6.800228 -4.345817 -51.049074 0.000000 73.000000 14.884945 17.000000
6.076796 -9.001176 -51.486565 0.000000 21.000000 14.217442 0.000000
5.698357 -7.569047 -54.076507 0.000000 60.000000 14.382112 0.000000
6.742134 -5.298031 -51.699494 0.000000 70.000000 14.949273 23.000000
6.318396 -7.699617 -50.984628 0.000000 56.000000 14.366243 0.000000
6.242865 -8.418661 -51.324731 0.000000 28.000000 14.353426 0.000000
7.033917 -8.294758 -49.219700 0.000000 38.000000 14.706120 11.000000
6.820017 -6.347886 -48.425527 0.000000 38.000000 14.356474 0.000000
6.722823 -5.215308 -49.279487 0.000000 29.000000 14.444440 0.000000
6.187688 -7.297714 -51.336217 0.000000 49.000000 14.312979 0.000000
6.567152 -4.582199 -52.320424 0.000000 42.000000 14.909977 19.000000
5.776384 -7.759253 -52.937132 0.000000 26.000000 14.227456 0.000000
5.969689 -6.203128 -54.611421 0.000000 63.000000 14.769232 26.000000
6.704138 -5.865951 -49.309702 0.000000 65.000000 14.425663 0.000000
6.108852 -7.613934 -52.732897 0.000000 45.000000 14.513496 0.000000
6.898144 -8.317743 -48.236876 0.000000 32.000000 14.375216 0.000000
6.191181 -7.132103 -51.615530 0.000000 48.000000 14.374248 0.000000
6.351282 -5.619252 -50.927488 0.000000 23.000000 14.407916 0.000000
5.751486 -8.048161 -53.223592 0.000000 46.000000 14.257775 0.000000
6.495006 -5.160831 -50.378992 0.000000 24.000000 14.442990 0.000000
6.414549 -4.566700 -51.049530 0.000000 31.000000 14.505034 0.000000
5.815907 -7.978709 -54.075600 0.000000 37.000000 14.492945 0.000000
6.352479 -6.568546 -51.105803 0.000000 42.000000 14.435393 0.000000
6.378217 -6.626761 -49.855293 0.000000 46.000000 14.208494 0.000000
6.122669 -7.308584 -51.447048 0.000000 48.000000 14.271475 0.000000
6.185319 -7.223149 -51.230182 0.000000 32.000000 14.290083 0.000000
6.630932 -6.138808 -49.570081 0.000000 58.000000 14.403580 0.000000
7.012231 -3.888557 -49.250899 0.000000 63.000000 14.735531 15.000000
6.316499 -5.130967 -54.081632 0.000000 43.000000 15.013176 20.000000
6.267773 -5.425024 -53.911319 0.000000 47.000000 14.928230 20.000000
6.533676 -7.514668 -50.314055 0.000000 28.000000 14.444100 0.000000
5.713309 -9.624461 -53.558571 0.000000 49.000000 14.271881 0.000000
6.542229 -5.972148 -51.629661 0.000000 41.000000 14.732629 13.000000
6.172158 -6.941890 -51.718395 0.000000 53.000000 14.378220 0.000000
7.062464 -3.673951 -49.618114 0.000000 49.000000 14.860757 15.000000
6.553827 -4.896554 -49.174788 0.000000 42.000000 14.261058 0.000000
6.368590 -6.633544 -51.137207 0.000000 47.000000 14.456836 0.000000
6.402340 -6.165310 -51.057865 0.000000 41.000000 14.478652 0.000000
6.002515 -10.637583 -52.878134 0.000000 36.000000 14.408098 0.000000
6.125912 -5.770200 -52.362893 0.000000 28.000000 14.474355 0.000000
7.238462 -4.451655 -49.333351 0.000000 87.000000 14.968040 4.000000
6.142315 -5.369485 -51.185811 0.000000 39.000000 14.257704 0.000000
6.013898 -7.378501 -51.883894 0.000000 70.000000 14.252093 0.000000
6.450084 -8.626189 -50.448683 0.000000 38.000000 14.378104 0.000000
6.329451 -7.937278 -51.311564 0.000000 37.000000 14.440437 0.000000
6.657289 -4.610349 -48.910670 0.000000 43.000000 14.312160 0.000000
6.456518 -5.532635 -50.617368 0.000000 23.000000 14.449492 0.000000
5.647976 -9.512469 -53.570686 0.000000 30.000000 14.211451 0.000000
6.632141 -9.210919 -51.339382 0.000000 37.000000 14.729693 7.000000
6.396598 -5.797383 -50.958001 0.000000 46.000000 14.456647 0.000000
6.195255 -6.344352 -51.591363 0.000000 48.000000 14.381311 0.000000
6.627947 -6.681187 -49.410437 0.000000 45.000000 14.363083 0.000000
7.143770 -5.673003 -48.909052 0.000000 78.000000 14.777645 1.000000
6.775025 -8.024547 -48.694485 0.000000 44.000000 14.349614 0.000000
6.321810 -5.576875 -54.730593 0.000000 66.000000 15.144416 20.000000
6.695130 -5.785364 -50.315226 0.000000 62.000000 14.619898 10.000000
5.823583 -5.707414 -54.020639 0.000000 52.000000 14.512285 0.000000
6.346768 -10.179935 -52.037905 0.000000 48.000000 14.580906 14.000000
5.780326 -6.519539 -54.123487 0.000000 30.000000 14.482421 0.000000
5.957308 -8.352397 -52.696583 0.000000 48.000000 14.350315 0.000000
6.623760 -7.607904 -49.594016 0.000000 24.000000 14.386573 0.000000
6.248232 -4.807807 -52.870371 0.000000 67.000000 14.705933 18.000000
6.542397 -4.947985 -51.974479 0.000000 55.000000 14.812464 19.000000
7.000034 -8.910923 -47.513799 0.000000 36.000000 14.323607 0.000000
6.444590 -9.740290 -50.831232 0.000000 65.000000 14.438446 27.000000
5.722410 -8.916117 -53.754949 0.000000 40.000000 14.327428 0.000000
6.298053 -7.045463 -50.635754 0.000000 64.000000 14.282735 0.000000
5.950787 -5.171127 -52.988965 0.000000 34.000000 14.434777 0.000000
6.318540 -9.539540 -50.963572 0.000000 28.000000 14.343619 0.000000
6.840237 -6.913415 -48.622108 0.000000 44.000000 14.410123 0.000000
6.048728 -6.628917 -52.961908 0.000000 38.000000 14.510588 0.000000
6.480778 -6.089338 -53.836383 0.000000 79.000000 15.115108 25.000000
5.680877 -7.571618 -54.124949 0.000000 57.000000 14.374708 0.000000
5.934754 -5.187501 -52.810161 0.000000 48.000000 14.382944 0.000000
6.194329 -8.617324 -52.200234 0.000000 41.000000 14.479978 0.000000
7.279639 -4.278538 -49.164805 0.000000 78.000000 14.976216 4.000000
6.331531 -6.386081 -50.956600 0.000000 45.000000 14.386702 0.000000
6.582183 -5.257183 -51.243646 0.000000 64.000000 14.701323 23.000000
6.170149 -6.749209 -51.835819 0.000000 53.000000 14.401811 0.000000
6.298706 -4.393571 -51.255367 0.000000 28.000000 14.434710 0.000000
5.469273 -6.907872 -54.545448 0.000000 34.000000 14.258702 0.000000
6.559534 -7.977395 -49.748615 0.000000 48.000000 14.351037 0.000000
6.071777 -10.367186 -52.673123 0.000000 43.000000 14.437428 0.000000
6.272352 -9.362863 -51.634911 0.000000 29.000000 14.435187 0.000000
6.067926 -6.556193 -52.138992 0.000000 63.000000 14.364606 0.000000
6.476606 -6.521109 -50.637023 0.000000 58.000000 14.463165 2.000000
6.483526 -4.565159 -52.437597 0.000000 64.000000 14.851804 18.000000
6.360542 -6.729124 -51.115555 0.000000 26.000000 14.443635 0.000000
6.528500 -6.805826 -49.889751 0.000000 45.000000 14.360826 0.000000
6.186227 -6.860017 -51.665590 0.000000 62.000000 14.382205 0.000000
5.991779 -6.764716 -52.881901 0.000000 36.000000 14.437345 0.000000
6.257175 -9.350756 -51.563977 0.000000 47.000000 14.406175 0.000000
6.024101 -6.608452 -52.702423 0.000000 46.000000 14.434479 0.000000
6.566015 -6.175039 -49.994977 0.000000 53.000000 14.425090 0.000000
5.759847 -6.031705 -54.789727 0.000000 72.000000 14.601281 26.000000
6.513050 -9.075217 -51.313674 0.000000 74.000000 14.609239 7.000000
5.818930 -8.405362 -54.046395 0.000000 38.000000 14.485735 0.000000
6.767917 -5.472458 -49.611333 0.000000 57.000000 14.552767 10.000000
5.641519 -7.387774 -54.184505 0.000000 47.000000 14.349986 0.000000
5.859111 -8.453507 -53.993726 0.000000 46.000000 14.514014 0.000000
5.911459 -5.561583 -53.676806 0.000000 34.000000 14.530672 0.000000
6.358465 -5.445721 -50.670467 0.000000 56.000000 14.365004 0.000000
6.109670 -6.321307 -53.272458 0.000000 38.000000 14.635841 25.000000
6.206297 -8.578386 -52.191722 0.000000 32.000000 14.490381 0.000000
6.297366 -7.375943 -52.752911 0.000000 46.000000 14.704570 6.000000
6.012652 -6.559067 -53.080798 0.000000 36.000000 14.499866 0.000000
6.579533 -6.783052 -49.631040 0.000000 38.000000 14.359006 0.000000
5.931737 -4.794783 -53.074804 0.000000 26.000000 14.437173 0.000000
5.720800 -7.043275 -54.523776 0.000000 43.000000 14.499353 0.000000
7.144032 -5.709352 -48.982226 0.000000 60.000000 14.792254 1.000000
5.980242 -7.331476 -53.024656 0.000000 55.000000 14.449049 6.000000
6.182886 -6.558093 -53.387842 0.000000 32.000000 14.728381 25.000000
6.078733 -7.045165 -52.536944 0.000000 37.000000 14.450310 0.000000
6.039627 -6.609373 -52.867531 0.000000 38.000000 14.482887 0.000000
6.233150 -4.890981 -53.352210 0.000000 63.000000 14.787239 20.000000
6.432715 -4.592229 -52.583295 0.000000 74.000000 14.831067 18.000000
6.039858 -6.321972 -53.625758 0.000000 69.000000 14.638515 25.000000
5.700928 -6.041705 -54.851523 0.000000 61.000000 14.555897 26.000000
6.104577 -10.355186 -52.525437 0.000000 33.000000 14.439972 0.000000
6.905519 -9.249135 -47.950410 0.000000 49.000000 14.315440 0.000000
6.792629 -4.856791 -50.132855 0.000000 70.000000 14.688071 21.000000
5.880950 -6.542072 -54.682756 0.000000 41.000000 14.693246 26.000000
6.357934 -7.294621 -52.777126 0.000000 70.000000 14.769587 6.000000
6.638250 -6.753620 -49.412598 0.000000 43.000000 14.372881 0.000000
6.166738 -10.238887 -51.137578 0.000000 28.000000 14.222882 0.000000
6.883737 -8.845650 -48.469974 0.000000 31.000000 14.402672 0.000000
6.145784 -5.318045 -53.729009 0.000000 80.000000 14.773149 20.000000
6.235846 -7.348828 -52.761202 0.000000 54.000000 14.646252 6.000000
6.168341 -9.841411 -51.617072 0.000000 38.000000 14.324900 0.000000
6.066530 -6.650812 -52.875927 0.000000 35.000000 14.510510 0.000000
6.011017 -6.567280 -52.874332 0.000000 28.000000 14.456655 0.000000
6.754447 -4.100944 -50.911485 0.000000 36.000000 14.814893 17.000000
5.730248 -7.882760 -54.198798 0.000000 36.000000 14.434788 0.000000
6.284798 -6.963907 -50.559471 0.000000 67.000000 14.255230 0.000000
5.851143 -5.942852 -54.448271 0.000000 67.000000 14.622921 26.000000
6.018034 -6.814584 -53.506120 0.000000 40.000000 14.588113 25.000000
5.864587 -5.873186 -54.773835 0.000000 64.000000 14.702274 26.000000
5.958103 -5.803004 -54.511806 0.000000 61.000000 14.741878 20.000000
6.592187 -4.625760 -49.127409 0.000000 48.000000 14.291831 0.000000
6.619118 -6.994237 -49.433733 0.000000 39.000000 14.355967 0.000000
5.789033 -8.428659 -54.039091 0.000000 34.000000 14.454747 0.000000
6.018024 -8.823277 -52.544515 0.000000 36.000000 14.374459 0.000000
6.508061 -6.933626 -50.039269 0.000000 43.000000 14.369592 0.000000
5.725369 -7.298252 -54.388483 0.000000 32.000000 14.474047 0.000000
6.060143 -6.188112 -54.825832 0.000000 77.000000 14.901110 26.000000
5.908864 -10.243622 -52.987661 0.000000 41.000000 14.342363 0.000000
6.418923 -5.247726 -51.871835 0.000000 77.000000 14.667855 23.000000
6.552359 -5.352210 -51.703571 0.000000 64.000000 14.763661 23.000000
6.693055 -5.147294 -49.271140 0.000000 53.000000 14.414288 0.000000
6.795691 -7.144300 -49.450202 0.000000 26.000000 14.530724 0.000000
5.510175 -5.344237 -54.684508 0.000000 40.000000 14.342484 0.000000
6.892993 -7.003553 -48.289094 0.000000 47.000000 14.393910 0.000000
6.760986 -8.984002 -49.145657 0.000000 39.000000 14.416947 0.000000
6.088320 -8.325988 -52.610869 0.000000 28.000000 14.461670 0.000000
6.512069 -3.958593 -51.275553 0.000000 34.000000 14.652143 17.000000
6.077728 -10.104279 -52.758950 0.000000 28.000000 14.463168 0.000000
6.370532 -9.174807 -51.437244 0.000000 56.000000 14.493491 7.000000
5.998603 -5.531861 -53.132879 0.000000 46.000000 14.506927 25.000000
5.990308 -5.613719 -53.380747 0.000000 65.000000 14.547832 25.000000
6.554086 -6.031200 -49.830814 0.000000 49.000000 14.381835 0.000000
6.107418 -9.841985 -53.113948 0.000000 38.000000 14.566295 24.000000
6.379769 -6.548522 -51.475365 0.000000 47.000000 14.536658 0.000000
6.726865 -5.765993 -49.740776 0.000000 62.000000 14.535635 30.000000
5.920579 -6.507559 -54.595144 0.000000 39.000000 14.714788 26.000000
6.001614 -10.249442 -53.102962 0.000000 23.000000 14.456344 0.000000
6.471485 -7.625615 -50.461472 0.000000 60.000000 14.411716 0.000000
6.240410 -9.724122 -52.891763 0.000000 72.000000 14.653060 24.000000
6.060423 -4.842651 -53.458498 0.000000 61.000000 14.639916 20.000000
5.912084 -8.945526 -53.464952 0.000000 29.000000 14.454591 0.000000
7.095614 -4.767202 -50.223722 0.000000 74.000000 15.004027 21.000000
6.452508 -4.746751 -52.897256 0.000000 55.000000 14.912047 18.000000
6.280283 -4.889398 -52.971600 0.000000 64.000000 14.756868 18.000000
6.133550 -10.876737 -52.594944 0.000000 40.000000 14.477079 0.000000
6.743622 -6.843570 -48.920351 0.000000 44.000000 14.376179 0.000000
7.065569 -7.829550 -47.987744 0.000000 28.000000 14.494018 0.000000
6.515563 -7.141583 -49.973548 0.000000 41.000000 14.361627 0.000000
6.328307 -8.286973 -50.919125 0.000000 40.000000 14.356861 0.000000
6.664454 -5.718702 -51.868074 0.000000 55.000000 14.902856 22.000000
7.035902 -3.905401 -49.710698 0.000000 76.000000 14.851030 15.000000
5.894759 -9.375899 -53.544893 0.000000 38.000000 14.449366 0.000000
6.401695 -7.775230 -50.530527 0.000000 47.000000 14.355739 0.000000
6.752977 -7.802902 -49.481082 0.000000 41.000000 14.488463 0.000000
6.486031 -4.933063 -49.449991 0.000000 40.000000 14.249637 0.000000
6.698949 -6.751554 -49.147077 0.000000 38.000000 14.378951 0.000000
6.370770 -7.062618 -50.580646 0.000000 59.000000 14.342704 0.000000
6.113783 -7.378516 -51.638857 0.000000 41.000000 14.300647 0.000000
6.847418 -4.597251 -50.279417 0.000000 78.000000 14.773830 21.000000
5.960725 -9.932266 -53.411445 0.000000 65.000000 14.481535 0.000000
6.747433 -7.552145 -48.823002 0.000000 51.000000 14.353195 0.000000
6.621566 -8.209206 -49.410372 0.000000 41.000000 14.341430 0.000000
6.274981 -7.519971 -51.840381 0.000000 54.000000 14.497650 0.000000
5.787339 -8.450969 -53.628230 0.000000 47.000000 14.370224 0.000000
6.593909 -7.671293 -50.099984 0.000000 32.000000 14.458463 0.000000
6.807239 -8.582780 -48.783351 0.000000 27.000000 14.393420 0.000000
6.294972 -5.656334 -54.829398 0.000000 63.000000 15.137201 20.000000
5.924329 -9.013724 -52.225529 0.000000 36.000000 14.216606 0.000000
5.930316 -5.947922 -54.505964 0.000000 70.000000 14.712025 26.000000
6.929122 -9.298945 -47.951507 0.000000 51.000000 14.338279 0.000000
6.876764 -5.648287 -50.218254 0.000000 45.000000 14.779687 10.000000
6.303355 -6.387378 -51.108823 0.000000 40.000000 14.389708 0.000000
5.852046 -7.533445 -53.370210 0.000000 40.000000 14.390949 0.000000
6.150794 -9.655310 -52.783738 0.000000 71.000000 14.544245 24.000000
6.464207 -10.390310 -50.968343 0.000000 62.000000 14.478692 0.000000
6.567500 -6.823507 -49.789264 0.000000 42.000000 14.378638 0.000000
6.106677 -6.139432 -54.389292 0.000000 80.000000 14.859377 25.000000
6.101150 -8.128852 -52.045983 0.000000 67.000000 14.362602 0.000000
6.863492 -8.720395 -48.779630 0.000000 31.000000 14.446386 0.000000
6.414425 -9.912904 -51.246273 0.000000 42.000000 14.490640 27.000000
6.691692 -7.730215 -49.589052 0.000000 25.000000 14.450883 0.000000
6.386673 -4.422714 -50.583720 0.000000 43.000000 14.385488 0.000000
6.745024 -7.909975 -49.423220 0.000000 38.000000 14.467957 0.000000
6.899974 -9.048347 -48.703554 0.000000 51.000000 14.463516 8.000000
6.111078 -10.363357 -52.570221 0.000000 52.000000 14.455265 0.000000
5.833223 -8.605136 -53.232538 0.000000 59.000000 14.334027 0.000000
6.394133 -8.572714 -50.471384 0.000000 33.000000 14.328403 0.000000
6.596104 -6.101624 -49.771524 0.000000 38.000000 14.410357 0.000000
6.387346 -4.436426 -52.522208 0.000000 33.000000 14.775910 18.000000
6.712107 -6.435581 -50.540788 0.000000 78.000000 14.675347 2.000000
6.807902 -5.510568 -48.702944 0.000000 57.000000 14.408839 0.000000
6.175754 -9.758066 -52.437956 0.000000 46.000000 14.498109 24.000000
6.357199 -4.797207 -51.315512 0.000000 45.000000 14.500037 23.000000
6.037356 -7.633880 -51.968345 0.000000 45.000000 14.289485 0.000000
5.874544 -6.962971 -53.103230 0.000000 48.000000 14.365032 0.000000
6.219811 -9.166041 -51.592803 0.000000 39.000000 14.377235 0.000000
6.434934 -5.133304 -49.935387 0.000000 46.000000 14.295201 0.000000
6.408131 -5.302815 -54.397548 0.000000 70.000000 15.164742 20.000000
6.093329 -6.480062 -52.461339 0.000000 57.000000 14.455091 0.000000
5.809366 -7.302021 -53.507134 0.000000 58.000000 14.379015 0.000000
6.315342 -6.342073 -51.154832 0.000000 57.000000 14.411160 0.000000
6.152890 -6.705079 -51.816247 0.000000 59.000000 14.381414 0.000000
6.179080 -8.289302 -53.160395 0.000000 58.000000 14.661469 9.000000
7.057159 -9.238122 -49.053978 0.000000 39.000000 14.686052 8.000000
6.161187 -5.159521 -52.433461 0.000000 44.000000 14.529252 18.000000
5.901828 -6.838548 -53.005314 0.000000 54.000000 14.373316 0.000000
6.437664 -6.665816 -51.006410 0.000000 52.000000 14.497862 0.000000
6.036714 -9.011114 -51.590129 0.000000 35.000000 14.198912 0.000000
6.391000 -6.726442 -51.041331 0.000000 37.000000 14.458567 0.000000
5.975363 -8.323822 -53.406308 0.000000 40.000000 14.511040 0.000000
6.172416 -6.830474 -52.484265 0.000000 24.000000 14.533640 0.000000
5.920943 -5.700691 -54.417160 0.000000 51.000000 14.687473 20.000000
6.125313 -6.250962 -54.569436 0.000000 83.000000 14.912742 26.000000
6.373244 -4.784863 -52.390549 0.000000 52.000000 14.732106 18.000000
7.105404 -3.781617 -49.557127 0.000000 81.000000 14.889467 15.000000
5.490739 -6.593700 -54.244139 0.000000 30.000000 14.222288 0.000000
6.411423 -8.233438 -50.224100 0.000000 34.000000 14.299019 0.000000
6.226632 -5.408383 -54.014465 0.000000 79.000000 14.908846 20.000000
6.131673 -8.204598 -51.856047 0.000000 54.000000 14.353534 0.000000
6.364766 -10.082790 -51.453857 0.000000 31.000000 14.482040 0.000000
5.765301 -7.686142 -54.110663 0.000000 54.000000 14.453375 0.000000
6.646042 -4.464523 -51.924967 0.000000 74.000000 14.908896 19.000000
6.676373 -5.189770 -49.353688 0.000000 32.000000 14.414124 0.000000
6.062119 -6.163572 -54.407253 0.000000 71.000000 14.819102 25.000000
6.000784 -6.193016 -54.504121 0.000000 48.000000 14.778211 26.000000
6.035314 -6.580970 -52.301236 0.000000 51.000000 14.365047 0.000000
7.123317 -5.812352 -48.874491 0.000000 75.000000 14.749257 1.000000
6.593770 -9.226628 -49.878462 0.000000 37.000000 14.398107 0.000000
6.009330 -5.398975 -52.750360 0.000000 20.000000 14.441834 0.000000
6.309758 -10.246007 -50.755474 0.000000 44.000000 14.286046 0.000000
6.741055 -5.479668 -49.374777 0.000000 22.000000 14.478802 0.000000
6.074335 -7.598806 -53.754543 0.000000 68.000000 14.685329 5.000000
5.844234 -10.925119 -52.765593 0.000000 29.000000 14.227527 0.000000
6.422878 -7.532617 -50.474376 0.000000 45.000000 14.367637 0.000000
6.316084 -9.262294 -51.753390 0.000000 43.000000 14.502866 0.000000
6.706730 -7.684769 -49.617592 0.000000 26.000000 14.471810 0.000000
5.924891 -6.771265 -53.386480 0.000000 42.000000 14.473250 25.000000
6.306343 -6.252045 -50.989821 0.000000 60.000000 14.370061 0.000000
6.141054 -7.089089 -51.226222 0.000000 64.000000 14.247278 0.000000
6.717523 -9.081779 -51.160413 0.000000 38.000000 14.778630 7.000000
6.843494 -5.449916 -49.698355 0.000000 57.000000 14.644526 10.000000
6.962638 -4.648474 -50.198199 0.000000 79.000000 14.869837 21.000000
6.745797 -8.291140 -49.315287 0.000000 41.000000 14.443166 11.000000
6.036447 -7.144202 -53.006837 0.000000 57.000000 14.502405 0.000000
6.285907 -6.611416 -51.363343 0.000000 53.000000 14.421554 0.000000
6.256264 -9.945917 -51.544333 0.000000 36.000000 14.395338 0.000000
6.601886 -4.485121 -49.451883 0.000000 29.000000 14.368011 0.000000
6.408228 -5.740767 -51.640598 0.000000 46.000000 14.605903 22.000000
6.731334 -7.632299 -49.627766 0.000000 32.000000 14.498485 0.000000
6.585308 -4.778241 -50.843925 0.000000 36.000000 14.628810 23.000000
6.922741 -9.484137 -48.577527 0.000000 42.000000 14.456079 0.000000
6.414029 -6.608481 -50.512410 0.000000 43.000000 14.375927 0.000000
6.384534 -4.403259 -51.174178 0.000000 66.000000 14.502352 17.000000
5.969123 -6.324120 -53.227496 0.000000 37.000000 14.489103 25.000000
6.033752 -8.890891 -51.489803 0.000000 29.000000 14.177042 0.000000
6.545197 -6.908670 -49.959929 0.000000 35.000000 14.390260 0.000000
7.047707 -5.876877 -49.056567 0.000000 74.000000 14.711167 1.000000
5.593825 -7.039457 -54.482429 0.000000 44.000000 14.366701 0.000000
6.929787 -8.853223 -48.537698 0.000000 46.000000 14.461323 0.000000
6.586634 -7.876622 -50.361222 0.000000 44.000000 14.501814 0.000000
6.196159 -7.432013 -52.911118 0.000000 39.000000 14.636693 6.000000
6.452655 -4.442901 -52.557460 0.000000 71.000000 14.846907 18.000000
6.565019 -5.497433 -50.240495 0.000000 37.000000 14.480321 10.000000
6.570322 -7.924893 -49.967552 0.000000 48.000000 14.406169 0.000000
5.733955 -7.912918 -54.212630 0.000000 48.000000 14.440896 0.000000
6.299593 -7.275483 -52.837193 0.000000 50.000000 14.724716 6.000000
6.188230 -9.808790 -51.657001 0.000000 40.000000 14.352740 0.000000
6.065245 -8.166800 -52.741522 0.000000 47.000000 14.466949 9.000000
6.597371 -4.865157 -49.950395 0.000000 57.000000 14.460029 21.000000
6.745136 -5.082213 -48.982353 0.000000 46.000000 14.407873 0.000000
6.103329 -5.658211 -53.110183 0.000000 76.000000 14.603670 25.000000
5.957494 -6.244022 -52.505591 0.000000 46.000000 14.333317 0.000000
6.057763 -7.111239 -52.357759 0.000000 52.000000 14.393064 0.000000
6.843449 -7.877562 -49.051503 0.000000 37.000000 14.489926 0.000000
6.843344 -6.338623 -50.411385 0.000000 50.000000 14.778845 2.000000
6.398741 -4.604418 -50.627297 0.000000 50.000000 14.404244 0.000000
6.413810 -4.688742 -52.757528 0.000000 48.000000 14.846622 18.000000
6.463317 -5.910447 -51.475596 0.000000 50.000000 14.624967 13.000000
7.144739 -8.610906 -47.663642 0.000000 35.000000 14.498507 0.000000
6.624464 -4.919875 -51.315086 0.000000 64.000000 14.760505 23.000000
6.672264 -7.780773 -49.765972 0.000000 46.000000 14.466928 0.000000
6.259986 -4.177965 -51.667312 0.000000 54.000000 14.481812 19.000000
5.784773 -6.104387 -54.887392 0.000000 55.000000 14.644608 26.000000
6.262264 -5.289256 -53.562366 0.000000 47.000000 14.854015 20.000000
6.144076 -7.826652 -51.792567 0.000000 64.000000 14.356722 0.000000
6.312727 -5.664679 -50.994045 0.000000 43.000000 14.383080 0.000000
6.458784 -8.471780 -50.860881 0.000000 50.000000 14.471089 0.000000
6.031401 -7.177850 -52.956914 0.000000 70.000000 14.487082 6.000000
6.599357 -4.601386 -49.177668 0.000000 40.000000 14.309208 0.000000
6.676295 -4.558264 -52.216961 0.000000 61.000000 14.996315 19.000000
5.945201 -5.130634 -53.343913 0.000000 82.000000 14.501106 20.000000
5.801818 -6.448831 -54.444368 0.000000 72.000000 14.568726 25.000000
6.249365 -5.794963 -52.801244 0.000000 45.000000 14.683198 25.000000
6.491496 -9.109218 -50.516872 0.000000 43.000000 14.427518 0.000000
6.668762 -4.951082 -49.134180 0.000000 51.000000 14.364922 0.000000
6.708295 -3.381817 -49.409475 0.000000 35.000000 14.474822 15.000000
6.427376 -7.661887 -51.194456 0.000000 67.000000 14.515576 0.000000
6.128605 -6.740837 -51.906605 0.000000 54.000000 14.375441 0.000000
6.690266 -6.525068 -48.923300 0.000000 41.000000 14.327717 0.000000
6.597102 -4.917162 -52.464798 0.000000 63.000000 14.964979 18.000000
6.302373 -5.081018 -54.349131 0.000000 5.000000 15.053646 20.000000
6.245601 -5.518847 -50.961358 0.000000 50.000000 14.312224 0.000000
6.058042 -7.672520 -53.710867 0.000000 47.000000 14.659842 5.000000
6.094211 -8.833737 -51.680492 0.000000 42.000000 14.275193 0.000000
6.676785 -4.689746 -49.727499 0.000000 48.000000 14.494750 21.000000
6.782836 -4.328500 -49.438503 0.000000 71.000000 14.544139 4.000000
7.185694 -5.605778 -48.654960 0.000000 66.000000 14.768280 1.000000
5.873838 -8.997852 -53.264546 0.000000 61.000000 14.376292 0.000000
6.998036 -5.621731 -48.743967 0.000000 39.000000 14.602209 1.000000
6.846858 -8.124315 -48.765083 0.000000 48.000000 14.433170 0.000000
6.891125 -7.183032 -48.304335 0.000000 47.000000 14.393337 0.000000
6.582821 -5.108632 -49.547187 0.000000 35.000000 14.362225 0.000000
5.959537 -8.419136 -53.454023 0.000000 56.000000 14.504175 0.000000
6.509932 -6.185723 -53.895492 0.000000 56.000000 15.154583 25.000000
6.046179 -6.459642 -52.801204 0.000000 57.000000 14.477472 0.000000
6.095598 -9.059572 -51.519417 0.000000 35.000000 14.241879 0.000000
6.045294 -6.695292 -53.195649 0.000000 61.000000 14.553569 25.000000
6.086260 -6.321043 -53.971572 0.000000 66.000000 14.753531 25.000000
6.074024 -5.892678 -52.215805 0.000000 32.000000 14.392711 0.000000
6.577292 -6.379337 -49.082546 0.000000 36.000000 14.250555 0.000000
6.235667 -9.495083 -51.651107 0.000000 52.000000 14.401179 0.000000
6.265974 -6.388352 -53.741491 0.000000 60.000000 14.882608 25.000000
5.981098 -6.990498 -52.687407 0.000000 65.000000 14.385489 0.000000
6.423281 -5.408114 -51.094371 0.000000 65.000000 14.514132 23.000000
6.899137 -3.888113 -49.353165 0.000000 48.000000 14.645328 15.000000
6.228396 -9.758406 -52.554253 0.000000 54.000000 14.573061 24.000000
6.553778 -4.677337 -49.173397 0.000000 26.000000 14.262938 0.000000
6.291371 -5.262659 -53.717433 0.000000 55.000000 14.913983 20.000000
6.721673 -5.879430 -49.638251 0.000000 65.000000 14.508785 30.000000
6.524888 -7.983798 -49.722364 0.000000 34.000000 14.311756 0.000000
6.352129 -6.232727 -50.979146 0.000000 55.000000 14.412957 0.000000
6.902871 -7.202870 -48.024753 0.000000 38.000000 14.348410 0.000000
5.984507 -10.042826 -53.078963 0.000000 47.000000 14.436842 0.000000
7.102658 -4.331781 -49.218469 0.000000 72.000000 14.813119 4.000000
5.753625 -9.012775 -53.639685 0.000000 49.000000 14.333847 0.000000
6.491590 -4.490408 -50.744111 0.000000 56.000000 14.519835 0.000000
6.656376 -5.919681 -49.618338 0.000000 51.000000 14.440417 30.000000
7.022450 -7.704279 -47.941665 0.000000 50.000000 14.443776 0.000000
6.055433 -8.766652 -52.107766 0.000000 38.000000 14.323825 0.000000
6.715803 -6.029857 -49.488525 0.000000 60.000000 14.471405 0.000000
6.057326 -7.411265 -51.754364 0.000000 55.000000 14.268249 0.000000
6.261190 -9.500022 -51.768346 0.000000 52.000000 14.449711 0.000000
6.756964 -8.535951 -49.530593 0.000000 58.000000 14.494944 0.000000
7.030304 -7.842708 -48.002116 0.000000 61.000000 14.462234 0.000000
6.216945 -7.980032 -52.286305 0.000000 54.000000 14.525862 0.000000
6.211423 -10.026304 -51.774607 0.000000 49.000000 14.396922 0.000000
6.510965 -6.090718 -50.059263 0.000000 41.000000 14.384948 0.000000
6.020159 -6.639599 -52.740465 0.000000 50.000000 14.437956 0.000000
5.879022 -7.422594 -53.785546 0.000000 65.000000 14.502028 5.000000
6.616854 -8.898847 -50.127925 0.000000 45.000000 14.474195 0.000000
6.718088 -6.863502 -49.100333 0.000000 37.000000 14.387168 0.000000
6.265831 -8.354914 -51.082159 0.000000 41.000000 14.327773 0.000000
6.333509 -6.907988 -50.705052 0.000000 30.000000 14.332787 0.000000
7.175607 -5.703157 -48.865619 0.000000 65.000000 14.799790 1.000000
6.816832 -7.849479 -48.994876 0.000000 58.000000 14.452747 0.000000
6.335300 -4.752552 -51.410187 0.000000 42.000000 14.498079 0.000000
6.856454 -3.777365 -49.917936 0.000000 69.000000 14.718232 15.000000
6.783541 -3.519770 -49.731736 0.000000 56.000000 14.611955 15.000000
6.794306 -5.728566 -52.005470 0.000000 72.000000 15.057583 22.000000
6.203477 -5.771355 -52.143437 0.000000 54.000000 14.506179 22.000000
6.874700 -8.660292 -48.433823 0.000000 40.000000 14.388416 0.000000
6.674947 -5.058561 -50.391802 0.000000 37.000000 14.622851 23.000000
7.190223 -5.754928 -49.159882 0.000000 79.000000 14.872772 1.000000
6.570525 -7.923505 -50.395511 0.000000 52.000000 14.492460 0.000000
6.672412 -7.725841 -49.955677 0.000000 53.000000 14.505783 0.000000
6.263328 -6.202186 -52.321610 0.000000 59.000000 14.596301 13.000000
6.650183 -5.890930 -49.779331 0.000000 34.000000 14.467021 30.000000
5.794505 -8.264277 -53.382173 0.000000 33.000000 14.329632 0.000000
5.571622 -6.663765 -53.902766 0.000000 36.000000 14.232146 0.000000
6.602031 -8.013813 -51.011064 0.000000 49.000000 14.646221 12.000000
6.635843 -5.536939 -50.452597 0.000000 67.000000 14.591958 10.000000
6.728427 -5.660913 -49.025028 0.000000 46.000000 14.394261 0.000000
6.055746 -6.500238 -53.057458 0.000000 47.000000 14.537977 0.000000
6.717378 -4.821580 -50.149209 0.000000 60.000000 14.618005 21.000000
6.124801 -10.220330 -52.426245 0.000000 57.000000 14.441189 0.000000
6.333422 -9.994512 -51.631808 0.000000 47.000000 14.488020 0.000000
6.670720 -7.660506 -49.231351 0.000000 27.000000 14.359096 0.000000
5.671492 -7.414619 -54.063339 0.000000 53.000000 14.354704 0.000000
5.678653 -8.374856 -54.025996 0.000000 34.000000 14.344536 0.000000
6.907348 -6.304380 -48.360697 0.000000 43.000000 14.429415 0.000000
6.424039 -6.328014 -52.252840 0.000000 65.000000 14.738620 13.000000
6.515192 -4.993337 -51.345115 0.000000 41.000000 14.658772 23.000000
6.599856 -4.214097 -51.074235 0.000000 61.000000 14.695065 17.000000
6.422981 -5.641289 -50.836967 0.000000 50.000000 14.459717 0.000000
7.123161 -8.728235 -47.822253 0.000000 54.000000 14.508093 0.000000
6.470165 -6.496893 -49.706425 0.000000 46.000000 14.269924 0.000000
6.468821 -8.430427 -50.823372 0.000000 47.000000 14.473792 0.000000
7.099598 -8.238161 -48.818788 0.000000 66.000000 14.690388 11.000000
6.275970 -7.420711 -52.768531 0.000000 60.000000 14.686304 6.000000
6.593339 -7.111670 -49.538709 0.000000 46.000000 14.350648 0.000000
6.386972 -5.705138 -51.086968 0.000000 47.000000 14.474087 0.000000
5.979313 -5.261333 -52.570080 0.000000 40.000000 14.377557 0.000000
6.530782 -8.504042 -49.810944 0.000000 38.000000 14.330106 0.000000
6.760121 -8.411448 -49.448515 0.000000 49.000000 14.482782 0.000000
6.070006 -9.943187 -52.253889 0.000000 38.000000 14.355641 0.000000
6.236176 -8.342892 -51.502936 0.000000 43.000000 14.383480 0.000000
6.264245 -9.327840 -51.639863 0.000000 54.000000 14.428595 0.000000
5.807353 -5.912130 -54.910899 0.000000 73.000000 14.673389 26.000000
6.789644 -7.462389 -48.080498 0.000000 36.000000 14.246101 0.000000
7.084433 -8.582417 -47.787485 0.000000 51.000000 14.464634 0.000000
6.477558 -5.454643 -54.460219 0.000000 65.000000 15.243823 20.000000
6.703596 -8.476294 -49.689913 0.000000 46.000000 14.475315 0.000000
6.504181 -8.437287 -50.539149 0.000000 46.000000 14.451191 0.000000
6.099507 -10.697981 -51.771947 0.000000 26.000000 14.280000 0.000000
6.903922 -4.476097 -50.242107 0.000000 57.000000 14.822892 21.000000
5.957928 -10.923271 -52.480433 0.000000 18.000000 14.281555 0.000000
6.232636 -10.213945 -52.223676 0.000000 66.000000 14.506135 14.000000
6.087059 -9.459060 -52.401227 0.000000 47.000000 14.406856 0.000000
6.517199 -6.460697 -49.246390 0.000000 37.000000 14.223830 0.000000
6.396113 -6.112617 -51.003055 0.000000 44.000000 14.462059 0.000000
6.615430 -7.657948 -49.960150 0.000000 46.000000 14.451552 0.000000
6.331821 -9.507687 -52.400689 0.000000 71.000000 14.646005 24.000000
5.690149 -7.481266 -54.020128 0.000000 61.000000 14.363616 0.000000
