28.552179 -37.738030 -16.105718 0.000000 37.000000 14.346947 0.000000
27.812843 -38.236016 -19.941634 0.000000 78.000000 15.097954 20.000000
27.740043 -37.442102 -18.953275 0.000000 69.000000 14.947500 25.000000
29.049757 -38.947811 -16.179352 0.000000 41.000000 14.314288 0.000000
26.880938 -35.377063 -16.988156 0.000000 24.000000 14.248775 0.000000
26.599268 -35.118749 -17.664386 0.000000 51.000000 14.391642 0.000000
26.111712 -34.267391 -17.812101 0.000000 46.000000 14.382114 0.000000
28.222772 -38.013853 -16.739530 0.000000 35.000000 14.224117 0.000000
26.886208 -35.730199 -17.662453 0.000000 45.000000 14.388531 0.000000
27.457591 -33.921094 -14.733352 0.000000 47.000000 14.379941 0.000000
26.640147 -34.348272 -16.709211 0.000000 44.000000 14.339371 0.000000
28.048307 -38.103617 -17.527707 0.000000 50.000000 14.364718 0.000000
26.273804 -35.515063 -19.323628 0.000000 70.000000 14.641012 17.000000
26.041130 -33.786478 -17.572116 0.000000 56.000000 14.414663 0.000000
27.639598 -38.715191 -19.021347 0.000000 48.000000 14.393884 0.000000
26.286843 -35.667379 -19.495905 0.000000 56.000000 14.662073 17.000000
27.913816 -37.510006 -17.476792 0.000000 69.000000 14.465314 6.000000
27.655411 -38.290032 -18.931162 0.000000 44.000000 14.536753 25.000000
26.435453 -36.169596 -18.967972 0.000000 40.000000 14.374022 0.000000
26.863620 -37.045719 -18.913293 0.000000 42.000000 14.362559 0.000000
26.644730 -36.574595 -18.925646 0.000000 38.000000 14.371180 0.000000
26.310713 -35.520465 -19.528719 0.000000 67.000000 14.752604 17.000000
26.448750 -36.216153 -19.754166 0.000000 46.000000 14.685807 19.000000
26.608378 -36.627908 -19.779271 0.000000 37.000000 14.666677 19.000000
25.740704 -34.369945 -18.361779 0.000000 35.000000 14.258601 0.000000
25.685261 -34.242942 -18.332336 0.000000 32.000000 14.250570 0.000000
27.958613 -36.700163 -16.800524 0.000000 47.000000 14.544862 3.000000
27.057753 -35.380028 -17.202735 0.000000 48.000000 14.480723 2.000000
26.049798 -34.928813 -18.328064 0.000000 37.000000 14.281471 0.000000
27.555609 -35.354155 -15.810429 0.000000 41.000000 14.337066 0.000000
26.955848 -37.429599 -19.078417 0.000000 48.000000 14.355489 0.000000
27.597269 -34.257347 -15.298718 0.000000 58.000000 14.593113 11.000000
26.025594 -33.830262 -17.607300 0.000000 54.000000 14.398972 0.000000
27.275030 -37.544535 -18.204935 0.000000 38.000000 14.219680 0.000000
27.064818 -36.076376 -17.660724 0.000000 63.000000 14.399856 0.000000
28.629499 -36.195456 -14.227202 0.000000 47.000000 14.252290 0.000000
27.358876 -36.195683 -18.100978 0.000000 78.000000 14.774677 13.000000
26.663960 -35.449009 -18.925980 0.000000 65.000000 14.827745 23.000000
26.973989 -36.942998 -19.807613 0.000000 78.000000 14.856820 18.000000
28.317975 -38.799918 -17.763636 0.000000 56.000000 14.410652 0.000000
26.866119 -33.132878 -15.321063 0.000000 56.000000 14.438416 28.000000
28.712425 -35.986390 -14.124022 0.000000 33.000000 14.360739 0.000000
28.179515 -38.421328 -18.038790 0.000000 54.000000 14.556125 25.000000
26.652769 -35.421335 -17.811004 0.000000 50.000000 14.376895 0.000000
27.504665 -35.862541 -16.502895 0.000000 41.000000 14.377002 0.000000
26.648792 -34.056948 -16.544444 0.000000 43.000000 14.393674 0.000000
26.341803 -35.424844 -18.414168 0.000000 43.000000 14.363441 0.000000
28.244774 -38.394378 -18.052912 0.000000 70.000000 14.626302 25.000000
26.182169 -34.887720 -18.574519 0.000000 37.000000 14.506890 21.000000
27.278080 -36.974578 -18.177505 0.000000 33.000000 14.434145 13.000000
27.750206 -35.184469 -15.278913 0.000000 32.000000 14.348522 0.000000
27.074902 -36.192342 -18.955387 0.000000 67.000000 14.888149 23.000000
28.161006 -38.331028 -17.534887 0.000000 60.000000 14.371705 0.000000
26.942767 -36.378562 -18.118023 0.000000 40.000000 14.366342 0.000000
26.198481 -33.716031 -16.993326 0.000000 51.000000 14.337332 0.000000
27.113566 -36.630694 -18.064774 0.000000 41.000000 14.387119 0.000000
28.268152 -38.683991 -17.649393 0.000000 52.000000 14.368516 0.000000
27.599178 -35.363525 -15.837024 0.000000 31.000000 14.380175 0.000000
28.093955 -36.553423 -15.714139 0.000000 34.000000 14.273240 0.000000
27.572666 -35.403268 -15.984285 0.000000 47.000000 14.402479 0.000000
25.636202 -34.129085 -19.747930 0.000000 57.000000 14.829038 15.000000
27.174853 -33.690091 -15.281516 0.000000 43.000000 14.459270 28.000000
28.064641 -36.585441 -16.051440 0.000000 49.000000 14.373368 0.000000
28.155598 -37.865721 -17.384110 0.000000 55.000000 14.488174 6.000000
27.999677 -38.218658 -17.984946 0.000000 45.000000 14.465067 25.000000
25.940204 -33.850712 -17.853145 0.000000 48.000000 14.420202 0.000000
26.891857 -36.475821 -19.657954 0.000000 60.000000 14.911106 19.000000
27.918299 -38.929615 -19.123892 0.000000 66.000000 14.581756 26.000000
26.508735 -34.934686 -17.651374 0.000000 27.000000 14.383629 0.000000
27.869435 -36.944257 -16.653016 0.000000 40.000000 14.315814 0.000000
27.281360 -35.930600 -16.795539 0.000000 50.000000 14.284681 0.000000
27.832547 -37.026875 -16.769315 0.000000 47.000000 14.300204 0.000000
27.142891 -33.534048 -14.932465 0.000000 40.000000 14.352307 0.000000
26.217688 -35.614621 -19.692334 0.000000 70.000000 14.705313 17.000000
26.031215 -34.474196 -18.192541 0.000000 44.000000 14.389064 0.000000
28.670085 -38.948793 -17.274328 0.000000 26.000000 14.444646 5.000000
27.569726 -38.465738 -18.878930 0.000000 32.000000 14.376018 0.000000
28.670407 -37.355794 -15.344511 0.000000 41.000000 14.285314 0.000000
28.210963 -36.845395 -15.665212 0.000000 32.000000 14.235750 0.000000
28.634699 -38.476050 -17.220477 0.000000 72.000000 14.578597 5.000000
27.749925 -37.317241 -17.450669 0.000000 66.000000 14.394799 0.000000
27.182287 -36.302791 -17.594016 0.000000 45.000000 14.381190 0.000000
28.730486 -36.460615 -14.164027 0.000000 38.000000 14.206281 0.000000
27.690301 -37.506891 -17.669100 0.000000 52.000000 14.359962 0.000000
28.529123 -37.155822 -15.510708 0.000000 48.000000 14.314332 0.000000
26.055097 -35.487714 -19.774909 0.000000 34.000000 14.654203 17.000000
26.645879 -35.485460 -18.754289 0.000000 42.000000 14.728875 23.000000
27.627141 -37.775330 -18.014898 0.000000 45.000000 14.343050 0.000000
27.593615 -37.895409 -18.112350 0.000000 35.000000 14.307907 0.000000
27.457099 -36.614640 -17.328172 0.000000 56.000000 14.378233 0.000000
28.040695 -35.617895 -15.358206 0.000000 52.000000 14.450979 7.000000
28.253539 -38.208720 -16.871870 0.000000 35.000000 14.226960 0.000000
27.655804 -38.652291 -19.760551 0.000000 74.000000 14.731844 20.000000
28.404735 -37.111020 -15.893131 0.000000 55.000000 14.384313 0.000000
26.420405 -34.789745 -18.944813 0.000000 69.000000 14.892261 21.000000
27.538990 -38.520579 -18.936172 0.000000 49.000000 14.352396 0.000000
25.642402 -33.969362 -19.664560 0.000000 71.000000 14.862844 15.000000
27.433490 -33.381331 -14.137772 0.000000 38.000000 14.329618 0.000000
27.862919 -37.818488 -17.798138 0.000000 39.000000 14.432935 0.000000
27.030952 -36.367388 -19.541953 0.000000 50.000000 15.021357 19.000000
25.926285 -34.879915 -19.198984 0.000000 49.000000 14.552002 16.000000
26.915423 -36.418870 -19.359434 0.000000 65.000000 14.831725 19.000000
27.742273 -38.005707 -19.836727 0.000000 72.000000 15.087241 20.000000
27.195557 -33.577976 -14.920131 0.000000 42.000000 14.373607 0.000000
27.393559 -36.424366 -16.979080 0.000000 55.000000 14.258570 0.000000
27.029918 -33.796339 -15.381447 0.000000 30.000000 14.338530 0.000000
25.760865 -34.432454 -18.547111 0.000000 34.000000 14.325991 0.000000
27.658401 -37.931743 -19.705442 0.000000 38.000000 14.993644 20.000000
26.873108 -34.039476 -15.659689 0.000000 28.000000 14.226761 0.000000
28.734723 -37.881407 -15.857124 0.000000 47.000000 14.340722 0.000000
28.521074 -37.509371 -16.039521 0.000000 64.000000 14.383890 0.000000
26.867754 -34.130990 -16.117205 0.000000 43.000000 14.372173 0.000000
28.485617 -36.934950 -15.332912 0.000000 28.000000 14.292700 0.000000
26.826196 -34.257436 -16.355982 0.000000 39.000000 14.385251 0.000000
26.788711 -34.345014 -16.449154 0.000000 43.000000 14.357822 0.000000
26.781701 -34.399687 -16.578519 0.000000 37.000000 14.383127 0.000000
26.764461 -34.469014 -16.694364 0.000000 46.000000 14.388762 0.000000
26.179056 -33.525704 -16.785413 0.000000 35.000000 14.311413 0.000000
26.799208 -34.566635 -16.694501 0.000000 48.000000 14.379308 0.000000
25.543726 -33.946303 -19.711997 0.000000 63.000000 14.809619 15.000000
26.661237 -34.712158 -16.830028 0.000000 36.000000 14.263393 0.000000
26.142737 -33.688065 -17.002020 0.000000 34.000000 14.305766 0.000000
25.309611 -34.068039 -19.762082 0.000000 41.000000 14.588935 15.000000
25.902059 -33.702988 -18.966889 0.000000 61.000000 14.898454 4.000000
26.483431 -34.483924 -18.031939 0.000000 55.000000 14.693583 10.000000
27.013646 -36.060427 -18.783146 0.000000 62.000000 14.819294 23.000000
26.680935 -34.940386 -17.348745 0.000000 55.000000 14.400821 0.000000
28.321292 -38.766880 -19.597298 0.000000 66.000000 15.170392 20.000000
29.781853 -38.351438 -14.071897 0.000000 48.000000 14.297190 0.000000
27.648706 -36.029576 -16.459355 0.000000 46.000000 14.412925 0.000000
26.851248 -34.939735 -18.001945 0.000000 73.000000 14.806799 10.000000
26.613577 -35.751420 -18.238157 0.000000 50.000000 14.388664 0.000000
26.125867 -34.226936 -17.801389 0.000000 47.000000 14.405292 0.000000
26.119890 -34.319385 -17.903221 0.000000 49.000000 14.405493 0.000000
29.131939 -38.727429 -15.821477 0.000000 45.000000 14.323200 0.000000
27.165886 -36.211419 -17.559997 0.000000 67.000000 14.389602 0.000000
26.081579 -34.638974 -18.172694 0.000000 38.000000 14.358114 0.000000
28.385657 -39.026567 -17.725437 0.000000 49.000000 14.362343 0.000000
26.041764 -34.782258 -18.231383 0.000000 39.000000 14.292964 0.000000
28.185533 -36.214033 -15.593596 0.000000 30.000000 14.432797 0.000000
28.347415 -39.049560 -17.803218 0.000000 49.000000 14.353320 0.000000
26.543022 -36.089922 -18.338446 0.000000 36.000000 14.238599 0.000000
27.885401 -37.210032 -16.817709 0.000000 46.000000 14.291808 0.000000
28.152407 -39.193248 -19.057425 0.000000 45.000000 14.644956 26.000000
27.483421 -36.650869 -17.824356 0.000000 61.000000 14.587137 13.000000
27.055976 -36.259241 -18.642879 0.000000 53.000000 14.719524 22.000000
27.663056 -38.883094 -19.791315 0.000000 56.000000 14.659982 20.000000
25.546498 -33.702682 -18.391559 0.000000 38.000000 14.371448 0.000000
28.157439 -38.211442 -17.446806 0.000000 59.000000 14.379823 0.000000
29.124163 -38.854736 -15.783078 0.000000 32.000000 14.251369 0.000000
27.500376 -36.407824 -18.751590 0.000000 16.000000 15.072523 22.000000
28.362910 -38.872110 -19.109904 0.000000 70.000000 14.965802 26.000000
28.512310 -37.889778 -16.727953 0.000000 48.000000 14.507118 9.000000
26.378052 -35.556120 -19.053202 0.000000 51.000000 14.601308 23.000000
26.368234 -34.807781 -18.928416 0.000000 59.000000 14.835459 21.000000
26.645843 -35.373431 -17.848765 0.000000 52.000000 14.405247 0.000000
27.988683 -37.987582 -17.975006 0.000000 69.000000 14.542395 25.000000
28.931193 -36.560310 -15.311028 0.000000 60.000000 14.798464 7.000000
26.332242 -34.047655 -17.472159 0.000000 63.000000 14.512316 1.000000
29.248150 -37.407252 -14.160112 0.000000 28.000000 14.261736 0.000000
29.241543 -37.297783 -14.049742 0.000000 27.000000 14.254338 0.000000
25.426011 -34.494292 -19.488457 0.000000 39.000000 14.407207 0.000000
26.553374 -34.645394 -17.015549 0.000000 39.000000 14.275718 0.000000
28.143467 -36.725223 -15.660413 0.000000 42.000000 14.225091 0.000000
27.065343 -37.542639 -18.962996 0.000000 45.000000 14.354844 0.000000
27.959094 -38.014395 -17.659106 0.000000 41.000000 14.379276 0.000000
27.657753 -33.982624 -14.069782 0.000000 39.000000 14.251912 0.000000
28.793539 -36.220863 -14.101388 0.000000 38.000000 14.326777 0.000000
27.554717 -36.815193 -18.085403 0.000000 73.000000 14.687635 13.000000
28.506492 -38.467774 -17.107656 0.000000 48.000000 14.430165 0.000000
27.966600 -37.419397 -17.183107 0.000000 48.000000 14.425200 0.000000
28.864858 -36.622194 -15.440118 0.000000 60.000000 14.771838 7.000000
26.314044 -33.937355 -17.526943 0.000000 66.000000 14.562686 1.000000
28.395030 -38.412625 -16.771992 0.000000 35.000000 14.223484 0.000000
27.883748 -37.307328 -16.896176 0.000000 49.000000 14.284202 0.000000
25.895528 -33.801610 -18.869494 0.000000 65.000000 14.814939 4.000000
28.164886 -38.585286 -18.261117 0.000000 39.000000 14.570088 25.000000
27.935288 -37.173482 -16.721427 0.000000 41.000000 14.308247 0.000000
27.870644 -37.060812 -16.720098 0.000000 36.000000 14.298415 0.000000
26.684880 -35.554589 -18.925737 0.000000 70.000000 14.803602 23.000000
27.359668 -36.219759 -17.394404 0.000000 71.000000 14.479193 29.000000
28.176916 -38.047327 -18.726769 0.000000 44.000000 14.979530 25.000000
27.840384 -36.385847 -16.343517 0.000000 39.000000 14.384789 0.000000
27.961612 -38.022914 -17.619706 0.000000 44.000000 14.362033 0.000000
27.813207 -36.276601 -16.249895 0.000000 38.000000 14.367111 0.000000
29.550233 -38.200374 -14.295023 0.000000 41.000000 14.255555 0.000000
28.092237 -39.181072 -19.192666 0.000000 59.000000 14.654905 26.000000
27.790282 -36.000834 -16.122466 0.000000 46.000000 14.404402 0.000000
28.810151 -38.495075 -17.504447 0.000000 50.000000 14.831291 5.000000
27.097253 -37.698672 -19.381716 0.000000 55.000000 14.490039 20.000000
28.144705 -38.300047 -17.559060 0.000000 57.000000 14.380177 0.000000
27.740287 -35.757085 -15.964784 0.000000 48.000000 14.394527 0.000000
26.865910 -37.184389 -19.654689 0.000000 51.000000 14.611022 18.000000
27.478827 -38.040598 -18.974913 0.000000 55.000000 14.506289 25.000000
28.152576 -36.595444 -15.656287 0.000000 31.000000 14.281734 0.000000
27.595339 -37.406876 -17.843138 0.000000 60.000000 14.391298 0.000000
27.418773 -35.498060 -16.281070 0.000000 55.000000 14.358705 0.000000
27.680027 -38.314473 -19.819574 0.000000 67.000000 14.908021 20.000000
27.681676 -38.006399 -19.580162 0.000000 57.000000 14.932812 20.000000
27.312224 -36.284929 -18.052032 0.000000 60.000000 14.681355 13.000000
28.345664 -36.810687 -15.370699 0.000000 28.000000 14.241079 0.000000
27.505763 -35.084674 -15.466955 0.000000 28.000000 14.261994 0.000000
28.000803 -35.927427 -15.353752 0.000000 48.000000 14.295075 0.000000
26.481020 -36.311630 -19.658081 0.000000 28.000000 14.636101 19.000000
25.621421 -34.932708 -19.722204 0.000000 53.000000 14.491859 16.000000
27.978881 -35.589890 -15.320616 0.000000 39.000000 14.395633 0.000000
27.960529 -38.047161 -17.921148 0.000000 60.000000 14.473969 25.000000
27.893863 -35.339986 -15.207903 0.000000 35.000000 14.377489 0.000000
27.878562 -35.173130 -15.200169 0.000000 45.000000 14.427019 0.000000
27.025090 -34.526463 -16.162657 0.000000 51.000000 14.365779 0.000000
27.237489 -33.821838 -15.115855 0.000000 40.000000 14.392215 0.000000
27.760855 -37.490264 -18.850527 0.000000 59.000000 14.904146 25.000000
26.405516 -34.602184 -17.917271 0.000000 66.000000 14.536415 10.000000
28.344465 -38.285623 -16.782732 0.000000 45.000000 14.235787 0.000000
27.595946 -34.428177 -14.948566 0.000000 32.000000 14.383073 0.000000
27.982232 -37.611688 -18.830923 0.000000 62.000000 15.031507 25.000000
27.823924 -38.311072 -19.514974 0.000000 75.000000 14.904598 20.000000
26.654615 -35.964136 -18.929836 0.000000 67.000000 14.619974 23.000000
26.425328 -34.331880 -16.979975 0.000000 68.000000 14.278234 0.000000
25.717151 -34.443318 -19.619003 0.000000 50.000000 14.720591 16.000000
27.966752 -36.437798 -16.781254 0.000000 38.000000 14.646453 3.000000
26.097158 -34.270744 -17.905503 0.000000 40.000000 14.406682 0.000000
27.250218 -33.541679 -14.811872 0.000000 44.000000 14.389030 0.000000
28.033587 -36.625144 -16.706937 0.000000 73.000000 14.598170 3.000000
27.142193 -33.302240 -14.795266 0.000000 34.000000 14.386785 0.000000
28.235698 -37.656452 -17.165180 0.000000 74.000000 14.547399 6.000000
25.671928 -33.879685 -19.269229 0.000000 57.000000 14.761910 15.000000
29.544658 -37.709270 -14.468479 0.000000 49.000000 14.513551 14.000000
27.415363 -36.450848 -17.183024 0.000000 42.000000 14.348971 0.000000
27.327082 -34.665173 -15.778431 0.000000 36.000000 14.404999 0.000000
28.228246 -38.173506 -17.310914 0.000000 65.000000 14.398009 0.000000
28.294477 -37.674767 -17.323578 0.000000 75.000000 14.653053 6.000000
28.829538 -38.980310 -16.654073 0.000000 37.000000 14.312318 0.000000
27.220221 -33.536573 -14.827988 0.000000 34.000000 14.372792 0.000000
27.261223 -33.036062 -14.197019 0.000000 30.000000 14.346516 0.000000
28.117187 -36.628492 -15.944339 0.000000 46.000000 14.356458 0.000000
28.539784 -37.719926 -16.553225 0.000000 62.000000 14.525387 9.000000
28.488044 -39.068290 -17.566947 0.000000 46.000000 14.366263 0.000000
27.581892 -37.952591 -19.440716 0.000000 68.000000 14.814873 20.000000
28.390285 -39.102004 -17.871502 0.000000 47.000000 14.395910 0.000000
26.694106 -34.908441 -16.907740 0.000000 33.000000 14.245250 0.000000
29.030031 -38.366778 -15.882416 0.000000 37.000000 14.404916 0.000000
27.787532 -39.471404 -19.504796 0.000000 45.000000 14.416265 0.000000
26.490473 -34.745697 -17.623245 0.000000 52.000000 14.431101 0.000000
28.593001 -37.864085 -16.136491 0.000000 46.000000 14.343814 0.000000
26.553460 -35.018815 -17.620781 0.000000 50.000000 14.375228 0.000000
27.669784 -36.763451 -18.056381 0.000000 80.000000 14.791146 13.000000
26.331750 -33.816231 -17.324083 0.000000 59.000000 14.542400 1.000000
26.746785 -36.507794 -19.093865 0.000000 41.000000 14.549875 19.000000
26.389441 -35.029954 -18.924303 0.000000 44.000000 14.764348 21.000000
27.555559 -36.988719 -18.065640 0.000000 77.000000 14.612394 13.000000
25.807892 -34.019769 -19.461738 0.000000 75.000000 14.897495 15.000000
28.163099 -37.457919 -17.432154 0.000000 64.000000 14.673476 6.000000
28.130971 -37.518351 -17.445481 0.000000 69.000000 14.628695 6.000000
28.043856 -39.104189 -19.146498 0.000000 48.000000 14.626303 26.000000
27.285427 -37.500968 -18.154642 0.000000 39.000000 14.224910 0.000000
28.151155 -38.969346 -18.622658 0.000000 69.000000 14.555135 25.000000
27.281641 -37.315038 -18.125546 0.000000 37.000000 14.282748 0.000000
28.137406 -38.372390 -17.635187 0.000000 51.000000 14.376725 0.000000
27.501530 -37.034270 -17.645822 0.000000 38.000000 14.379587 0.000000
28.495218 -37.300441 -15.915427 0.000000 50.000000 14.393954 0.000000
28.736458 -38.253626 -16.277810 0.000000 41.000000 14.367179 0.000000
26.497372 -34.142680 -16.737447 0.000000 38.000000 14.313375 0.000000
28.372179 -38.286977 -17.306025 0.000000 46.000000 14.470491 5.000000
28.323999 -38.449362 -17.994851 0.000000 69.000000 14.646656 25.000000
26.422203 -34.623433 -17.633664 0.000000 37.000000 14.426797 0.000000
25.990463 -33.977632 -17.902554 0.000000 49.000000 14.432086 0.000000
27.513499 -37.895568 -19.356931 0.000000 56.000000 14.746705 20.000000
26.724941 -35.222668 -17.501973 0.000000 48.000000 14.388861 0.000000
26.646632 -34.781848 -18.133586 0.000000 78.000000 14.753016 10.000000
28.361811 -39.022678 -19.107641 0.000000 47.000000 14.905046 26.000000
27.056108 -36.028912 -17.635544 0.000000 58.000000 14.401022 0.000000
26.084396 -35.007947 -19.582390 0.000000 65.000000 14.788058 16.000000
28.097545 -37.745045 -16.773717 0.000000 42.000000 14.239771 0.000000
26.399623 -34.289732 -17.360259 0.000000 52.000000 14.427812 0.000000
26.346124 -34.164975 -17.344314 0.000000 55.000000 14.425985 0.000000
28.802173 -36.380936 -14.059325 0.000000 26.000000 14.254189 0.000000
27.952952 -35.926183 -15.533157 0.000000 28.000000 14.328840 0.000000
26.276437 -33.690150 -16.796125 0.000000 49.000000 14.331827 0.000000
26.939810 -34.054803 -15.590709 0.000000 33.000000 14.247861 0.000000
27.504518 -34.320984 -15.342392 0.000000 58.000000 14.509323 11.000000
26.709157 -35.816581 -18.406693 0.000000 39.000000 14.510491 23.000000
27.344860 -36.157363 -17.334627 0.000000 49.000000 14.467127 29.000000
27.001585 -35.470016 -17.510123 0.000000 64.000000 14.523845 2.000000
27.384047 -36.869754 -17.750130 0.000000 57.000000 14.389272 0.000000
29.062549 -37.566581 -14.969369 0.000000 33.000000 14.374466 0.000000
29.189202 -36.986192 -14.107424 0.000000 40.000000 14.356469 0.000000
28.963410 -37.614355 -15.276172 0.000000 41.000000 14.398382 0.000000
28.292783 -36.632918 -15.375906 0.000000 31.000000 14.269094 0.000000
28.856816 -37.756071 -15.325434 0.000000 28.000000 14.274867 0.000000
25.968403 -34.466969 -19.652121 0.000000 74.000000 14.932288 16.000000
27.982426 -36.444547 -16.073636 0.000000 56.000000 14.369617 0.000000
27.065629 -35.959976 -18.829307 0.000000 63.000000 14.920275 23.000000
28.724639 -37.896605 -15.557421 0.000000 31.000000 14.204830 0.000000
28.312875 -37.113946 -16.091670 0.000000 37.000000 14.387863 0.000000
29.118789 -37.123625 -14.162136 0.000000 28.000000 14.266725 0.000000
28.156901 -35.603205 -14.834371 0.000000 34.000000 14.340143 0.000000
27.615769 -37.965082 -18.850953 0.000000 52.000000 14.598647 25.000000
28.098144 -36.779078 -16.134936 0.000000 55.000000 14.359132 0.000000
28.746331 -38.031855 -16.767349 0.000000 70.000000 14.660780 9.000000
27.518089 -35.549915 -16.135893 0.000000 46.000000 14.361526 0.000000
27.261668 -35.707289 -16.765832 0.000000 22.000000 14.343765 0.000000
26.689901 -33.890677 -16.309491 0.000000 41.000000 14.397363 0.000000
26.510765 -34.659358 -18.872316 0.000000 66.000000 14.988506 21.000000
27.872510 -37.077974 -16.781267 0.000000 43.000000 14.318060 0.000000
28.393364 -38.257076 -16.700417 0.000000 38.000000 14.253945 0.000000
27.811344 -37.176669 -16.880207 0.000000 66.000000 14.269061 0.000000
27.818243 -39.404923 -19.330434 0.000000 37.000000 14.396897 0.000000
27.825797 -37.152050 -17.081492 0.000000 49.000000 14.372312 0.000000
27.977977 -38.724895 -18.898309 0.000000 68.000000 14.619634 25.000000
27.026272 -35.541162 -17.480607 0.000000 55.000000 14.504411 2.000000
28.298508 -37.260091 -16.218672 0.000000 38.000000 14.370331 0.000000
26.679681 -35.030729 -18.046964 0.000000 68.000000 14.647752 10.000000
28.318494 -38.376713 -17.329156 0.000000 50.000000 14.400415 0.000000
26.821969 -36.490208 -19.693854 0.000000 39.000000 14.862321 19.000000
28.286526 -38.442827 -17.460405 0.000000 50.000000 14.401394 0.000000
27.709679 -37.390589 -17.612885 0.000000 52.000000 14.398676 0.000000
26.952638 -36.160349 -18.453617 0.000000 25.000000 14.596080 22.000000
26.769895 -35.183454 -17.441598 0.000000 50.000000 14.416838 0.000000
28.185737 -39.011694 -19.382210 0.000000 39.000000 14.875336 20.000000
27.666362 -37.505932 -17.882598 0.000000 70.000000 14.427200 0.000000
26.586692 -34.866640 -17.449037 0.000000 49.000000 14.392544 0.000000
27.580612 -37.706190 -18.095962 0.000000 37.000000 14.364577 0.000000
27.045617 -35.514528 -17.167248 0.000000 47.000000 14.403657 0.000000
26.805318 -35.796020 -17.955801 0.000000 68.000000 14.414995 0.000000
27.433275 -38.268118 -18.955958 0.000000 43.000000 14.371924 0.000000
28.138347 -38.117860 -17.409229 0.000000 63.000000 14.385433 0.000000
27.638035 -33.695230 -14.030265 0.000000 27.000000 14.332074 0.000000
27.552740 -33.771869 -14.109339 0.000000 28.000000 14.263718 0.000000
28.105617 -34.865951 -14.090742 0.000000 30.000000 14.284590 0.000000
28.443585 -39.130563 -17.689290 0.000000 43.000000 14.354815 0.000000
26.434720 -34.501536 -17.572115 0.000000 36.000000 14.459869 30.000000
27.501390 -33.792053 -14.448585 0.000000 31.000000 14.351068 0.000000
28.063218 -34.858939 -14.451917 0.000000 47.000000 14.398875 0.000000
28.576799 -37.408804 -15.890958 0.000000 36.000000 14.408993 0.000000
27.215573 -36.265858 -17.531418 0.000000 62.000000 14.397736 0.000000
27.425328 -33.857808 -14.731914 0.000000 30.000000 14.377480 0.000000
29.050476 -38.476178 -15.948873 0.000000 57.000000 14.405951 0.000000
26.838347 -36.987818 -18.950503 0.000000 40.000000 14.379447 0.000000
27.907884 -35.011970 -14.813672 0.000000 34.000000 14.357480 0.000000
27.626185 -37.708981 -18.418136 0.000000 37.000000 14.531856 25.000000
27.511862 -37.944962 -18.944038 0.000000 42.000000 14.558475 25.000000
26.049467 -34.882029 -18.291884 0.000000 44.000000 14.284827 0.000000
27.745931 -35.209406 -15.323356 0.000000 33.000000 14.353266 0.000000
27.140497 -34.214845 -15.438840 0.000000 28.000000 14.289348 0.000000
26.735307 -34.181684 -16.492087 0.000000 40.000000 14.395062 0.000000
26.816748 -37.549331 -19.464630 0.000000 37.000000 14.350459 0.000000
27.613131 -35.407698 -15.484065 0.000000 33.000000 14.231185 0.000000
26.671519 -35.305734 -18.917329 0.000000 61.000000 14.886555 23.000000
27.660643 -37.397634 -18.526191 0.000000 54.000000 14.726023 25.000000
27.512302 -37.675100 -18.937897 0.000000 52.000000 14.661969 25.000000
26.834836 -36.165229 -19.591314 0.000000 74.000000 14.958534 19.000000
29.229904 -37.780633 -15.256127 0.000000 69.000000 14.545272 24.000000
27.609822 -35.453172 -15.996033 0.000000 54.000000 14.418402 0.000000
26.789127 -35.283418 -17.508365 0.000000 70.000000 14.420690 0.000000
27.537177 -37.794568 -18.973149 0.000000 44.000000 14.650059 25.000000
28.606042 -38.383721 -16.599969 0.000000 42.000000 14.339273 0.000000
27.523513 -35.624135 -16.200578 0.000000 43.000000 14.363204 0.000000
26.645707 -35.383368 -17.819355 0.000000 29.000000 14.389311 0.000000
27.499147 -35.688205 -16.326603 0.000000 42.000000 14.369142 0.000000
26.939427 -34.678088 -16.477911 0.000000 38.000000 14.363608 0.000000
27.682396 -36.947618 -17.318331 0.000000 60.000000 14.429993 0.000000
26.414668 -34.709701 -17.679567 0.000000 47.000000 14.405435 0.000000
25.511316 -34.239038 -19.019771 0.000000 44.000000 14.387382 0.000000
27.561989 -37.442175 -18.569976 0.000000 72.000000 14.644876 25.000000
27.694457 -37.007580 -16.996323 0.000000 21.000000 14.285820 0.000000
26.852779 -34.922377 -16.809964 0.000000 38.000000 14.331172 0.000000
27.388881 -35.999790 -16.779991 0.000000 44.000000 14.340096 0.000000
28.070699 -37.674104 -16.770187 0.000000 39.000000 14.243932 0.000000
28.533780 -38.680196 -17.491476 0.000000 37.000000 14.525311 5.000000
29.147273 -38.644477 -15.687562 0.000000 42.000000 14.313991 0.000000
25.753930 -33.931819 -19.444471 0.000000 77.000000 14.880343 15.000000
25.843507 -34.765908 -18.991836 0.000000 38.000000 14.444198 21.000000
29.210077 -37.115730 -14.574580 0.000000 45.000000 14.512575 14.000000
26.772544 -35.379495 -17.521238 0.000000 42.000000 14.374613 0.000000
26.581538 -34.679976 -17.177975 0.000000 46.000000 14.351354 0.000000
27.772050 -38.173482 -18.869180 0.000000 75.000000 14.653553 25.000000
26.475704 -34.418235 -17.329303 0.000000 59.000000 14.427793 0.000000
26.429141 -33.533368 -16.499194 0.000000 43.000000 14.398822 0.000000
27.515835 -33.464297 -14.083778 0.000000 45.000000 14.343248 0.000000
26.756911 -35.616617 -17.868232 0.000000 66.000000 14.409698 0.000000
26.565047 -35.857608 -18.982338 0.000000 40.000000 14.608996 23.000000
28.180090 -37.213878 -16.453302 0.000000 35.000000 14.385824 0.000000
28.377077 -38.275867 -17.438688 0.000000 67.000000 14.532717 5.000000
29.034849 -38.182319 -15.400534 0.000000 26.000000 14.285552 0.000000
25.590886 -34.488497 -19.595375 0.000000 52.000000 14.589035 16.000000
27.180183 -37.376004 -18.392813 0.000000 39.000000 14.283542 0.000000
28.320061 -38.597997 -18.922539 0.000000 72.000000 14.961669 25.000000
26.203475 -34.418362 -19.548100 0.000000 52.000000 15.103254 16.000000
27.926991 -37.607044 -17.491729 0.000000 65.000000 14.444277 6.000000
28.189365 -38.447927 -18.172770 0.000000 71.000000 14.608216 25.000000
27.238159 -37.699754 -18.865230 0.000000 63.000000 14.396411 0.000000
28.736151 -37.814696 -15.463830 0.000000 24.000000 14.208419 0.000000
28.563140 -39.124986 -17.491090 0.000000 55.000000 14.375315 0.000000
27.554752 -37.805023 -18.113598 0.000000 36.000000 14.311692 0.000000
28.448930 -38.713870 -18.124071 0.000000 76.000000 14.698748 25.000000
26.102110 -33.588405 -16.921829 0.000000 41.000000 14.278676 0.000000
26.579297 -35.142054 -18.943523 0.000000 45.000000 14.885079 23.000000
26.117401 -33.900381 -17.509462 0.000000 43.000000 14.407652 0.000000
26.107555 -33.985739 -17.606668 0.000000 47.000000 14.405556 0.000000
27.254919 -36.387731 -17.877293 0.000000 64.000000 14.522883 13.000000
26.086668 -34.167579 -17.791922 0.000000 44.000000 14.392307 0.000000
26.092796 -34.242183 -17.899850 0.000000 50.000000 14.411965 0.000000
26.085828 -34.337344 -17.988710 0.000000 47.000000 14.405022 0.000000
28.269841 -38.676833 -18.131621 0.000000 30.000000 14.568393 25.000000
26.542067 -35.079911 -17.713797 0.000000 32.000000 14.379649 0.000000
26.529790 -34.848329 -17.555249 0.000000 42.000000 14.395813 0.000000
26.162513 -34.134606 -17.634874 0.000000 55.000000 14.404127 0.000000
26.045781 -34.760385 -18.320249 0.000000 41.000000 14.340904 0.000000
26.095312 -34.806956 -18.455518 0.000000 41.000000 14.418475 0.000000
27.489322 -36.655452 -17.882594 0.000000 68.000000 14.613849 13.000000
25.600668 -34.293797 -18.918527 0.000000 38.000000 14.398665 0.000000
28.888264 -36.612132 -14.586699 0.000000 50.000000 14.448804 27.000000
25.605767 -34.406090 -18.998116 0.000000 38.000000 14.391222 0.000000
28.347287 -38.343043 -18.309673 0.000000 58.000000 14.835252 25.000000
27.376077 -36.677320 -17.734109 0.000000 41.000000 14.451505 13.000000
26.141643 -35.544804 -19.044682 0.000000 42.000000 14.407025 0.000000
25.731994 -35.169312 -19.570100 0.000000 41.000000 14.428857 0.000000
26.384236 -36.128527 -19.061165 0.000000 40.000000 14.385611 0.000000
26.197041 -34.247255 -17.737531 0.000000 53.000000 14.430212 0.000000
28.488304 -39.194166 -17.596269 0.000000 49.000000 14.329110 0.000000
28.523546 -39.063560 -17.501041 0.000000 51.000000 14.370693 0.000000
28.545869 -38.955195 -17.390963 0.000000 56.000000 14.386876 0.000000
28.192637 -38.955589 -18.021435 0.000000 23.000000 14.350814 0.000000
28.513446 -38.717164 -16.808008 0.000000 37.000000 14.216707 0.000000
26.492365 -34.847807 -17.832832 0.000000 48.000000 14.477746 10.000000
28.574518 -38.421024 -16.647605 0.000000 38.000000 14.317967 0.000000
28.021615 -35.870976 -15.437074 0.000000 48.000000 14.368170 0.000000
28.590866 -37.989001 -16.213588 0.000000 55.000000 14.324443 0.000000
28.497831 -39.123216 -17.609343 0.000000 48.000000 14.370052 0.000000
28.347590 -38.807298 -17.934154 0.000000 51.000000 14.501417 25.000000
28.599349 -37.747637 -16.021681 0.000000 40.000000 14.348045 0.000000
29.097305 -38.858721 -15.670437 0.000000 31.000000 14.181919 0.000000
26.053650 -33.523032 -17.029292 0.000000 47.000000 14.307845 0.000000
29.129359 -38.662697 -15.634262 0.000000 35.000000 14.270436 0.000000
28.127253 -34.409602 -14.513967 0.000000 61.000000 14.652810 8.000000
28.708576 -36.976047 -15.186327 0.000000 53.000000 14.401281 0.000000
26.438751 -33.716810 -17.473227 0.000000 56.000000 14.730208 1.000000
25.546438 -33.746127 -19.693651 0.000000 53.000000 14.882762 15.000000
26.175150 -34.294564 -17.780811 0.000000 48.000000 14.411177 0.000000
28.152047 -37.666396 -17.487774 0.000000 74.000000 14.605321 6.000000
26.698617 -34.558451 -16.754902 0.000000 39.000000 14.323941 0.000000
28.301294 -38.531789 -17.950935 0.000000 60.000000 14.577821 25.000000
26.244301 -34.577558 -19.393184 0.000000 55.000000 15.011803 16.000000
28.532315 -36.961674 -15.321206 0.000000 29.000000 14.316060 0.000000
27.629040 -36.879451 -18.095324 0.000000 73.000000 14.727896 13.000000
29.096643 -37.711988 -15.063702 0.000000 39.000000 14.383993 0.000000
26.968993 -35.389183 -16.919316 0.000000 51.000000 14.288824 0.000000
27.476202 -37.139299 -17.990820 0.000000 65.000000 14.457554 13.000000
26.408484 -34.303201 -17.351042 0.000000 62.000000 14.426120 0.000000
28.181896 -38.812763 -17.994850 0.000000 47.000000 14.387056 0.000000
29.006923 -37.228537 -14.715589 0.000000 46.000000 14.357852 0.000000
28.614682 -37.955656 -18.231443 0.000000 5.000000 15.175976 25.000000
26.614198 -34.758331 -18.168627 0.000000 60.000000 14.749651 10.000000
28.331770 -38.215439 -18.331697 0.000000 38.000000 14.881317 25.000000
28.171680 -38.682551 -18.156680 0.000000 64.000000 14.495251 25.000000
28.118610 -36.500364 -16.569001 0.000000 62.000000 14.661259 3.000000
27.496803 -37.071212 -18.061848 0.000000 67.000000 14.530040 13.000000
29.096072 -38.364968 -15.489780 0.000000 28.000000 14.300845 0.000000
27.235624 -36.703799 -18.175793 0.000000 58.000000 14.504366 13.000000
28.392058 -35.628296 -14.614595 0.000000 48.000000 14.435363 0.000000
25.986757 -34.686883 -18.358297 0.000000 43.000000 14.336362 0.000000
27.531386 -37.318400 -17.878960 0.000000 58.000000 14.387642 0.000000
28.746426 -36.438597 -14.108209 0.000000 30.000000 14.205413 0.000000
28.052470 -37.505841 -17.521481 0.000000 67.000000 14.599596 6.000000
27.441342 -35.496649 -16.318686 0.000000 47.000000 14.393161 0.000000
28.178129 -35.256661 -14.195345 0.000000 27.000000 14.234004 0.000000
28.731870 -36.083799 -14.092372 0.000000 35.000000 14.325831 0.000000
27.644088 -38.341905 -19.880480 0.000000 67.000000 14.892315 20.000000
27.707963 -38.068220 -19.374233 0.000000 66.000000 14.846764 20.000000
28.130199 -34.967284 -14.115480 0.000000 30.000000 14.275270 0.000000
28.088672 -34.844422 -14.051218 0.000000 26.000000 14.262983 0.000000
26.359974 -35.003277 -19.011412 0.000000 75.000000 14.785800 21.000000
27.452452 -36.977450 -19.430961 0.000000 73.000000 15.085671 18.000000
26.209039 -33.731050 -17.500838 0.000000 50.000000 14.546114 1.000000
29.159847 -37.646003 -15.159009 0.000000 49.000000 14.500695 24.000000
26.521877 -35.119639 -18.862683 0.000000 62.000000 14.813624 23.000000
26.648669 -36.644309 -19.010424 0.000000 42.000000 14.381549 0.000000
27.726908 -37.600553 -17.696754 0.000000 41.000000 14.364759 0.000000
25.703201 -33.703031 -19.054692 0.000000 76.000000 14.769824 4.000000
26.497853 -34.952377 -17.719981 0.000000 46.000000 14.395558 0.000000
28.135668 -38.294088 -18.034528 0.000000 57.000000 14.567982 25.000000
26.997344 -36.372130 -19.484615 0.000000 63.000000 14.968477 19.000000
27.770985 -39.274096 -19.454446 0.000000 40.000000 14.459393 20.000000
28.021616 -38.252222 -17.656257 0.000000 44.000000 14.336674 0.000000
27.849238 -34.841413 -14.775662 0.000000 49.000000 14.360374 0.000000
27.977160 -38.920731 -18.189130 0.000000 37.000000 14.254537 0.000000
27.501227 -37.080747 -17.639165 0.000000 38.000000 14.358445 0.000000
27.985568 -37.971029 -17.514010 0.000000 51.000000 14.359237 0.000000
27.493990 -36.930832 -17.581283 0.000000 42.000000 14.387655 0.000000
27.466992 -36.809740 -17.503398 0.000000 42.000000 14.381147 0.000000
27.442786 -36.680522 -17.431462 0.000000 46.000000 14.382539 0.000000
26.864779 -35.237364 -17.124173 0.000000 51.000000 14.345299 0.000000
28.502159 -38.902275 -17.389188 0.000000 56.000000 14.370767 0.000000
27.812665 -37.365243 -17.116976 0.000000 36.000000 14.292423 0.000000
27.586935 -34.191004 -14.783408 0.000000 40.000000 14.401440 0.000000
27.721208 -37.147272 -16.953515 0.000000 53.000000 14.235869 0.000000
26.428756 -33.754972 -17.689654 0.000000 67.000000 14.794839 1.000000
27.675683 -37.033919 -16.875405 0.000000 47.000000 14.210938 0.000000
26.191061 -35.839014 -19.219679 0.000000 46.000000 14.403699 0.000000
26.341302 -34.017646 -17.440706 0.000000 64.000000 14.518780 1.000000
26.240821 -34.605696 -19.141377 0.000000 54.000000 14.895736 21.000000
27.631098 -36.725804 -16.792760 0.000000 43.000000 14.261173 0.000000
28.124823 -38.193399 -18.923680 0.000000 57.000000 14.959238 25.000000
28.823168 -36.917053 -14.841268 0.000000 38.000000 14.378995 0.000000
27.116628 -35.585522 -16.796232 0.000000 42.000000 14.283968 0.000000
28.061278 -37.961838 -17.399303 0.000000 67.000000 14.378819 0.000000
27.345273 -33.756245 -14.824749 0.000000 33.000000 14.388783 0.000000
26.347273 -35.630185 -19.068890 0.000000 47.000000 14.553265 23.000000
26.189976 -34.020890 -17.555341 0.000000 36.000000 14.439045 1.000000
28.730467 -38.314466 -16.337194 0.000000 48.000000 14.362515 0.000000
27.062034 -35.117169 -16.712346 0.000000 36.000000 14.388148 0.000000
27.147724 -33.070541 -14.389178 0.000000 32.000000 14.317255 0.000000
27.560104 -37.591313 -18.612451 0.000000 75.000000 14.602184 25.000000
27.234592 -36.357819 -18.756906 0.000000 68.000000 14.874734 22.000000
26.630248 -35.076141 -17.822754 0.000000 48.000000 14.498169 10.000000
26.508104 -34.003562 -16.697598 0.000000 43.000000 14.360518 0.000000
29.146534 -38.179913 -15.365181 0.000000 45.000000 14.364392 0.000000
27.653591 -35.190273 -15.352628 0.000000 43.000000 14.296366 0.000000
27.340421 -37.923848 -19.195187 0.000000 40.000000 14.527054 20.000000
27.321292 -35.448409 -16.451380 0.000000 44.000000 14.366735 0.000000
27.469246 -37.595130 -18.096076 0.000000 28.000000 14.316111 0.000000
26.540091 -34.642788 -17.089297 0.000000 49.000000 14.295693 0.000000
27.124514 -37.008766 -19.627161 0.000000 68.000000 14.882176 18.000000
28.041746 -36.630995 -16.581037 0.000000 63.000000 14.551532 3.000000
26.973737 -34.479922 -16.263171 0.000000 43.000000 14.382368 0.000000
28.207945 -35.442605 -14.658114 0.000000 53.000000 14.373636 0.000000
27.972496 -38.786216 -18.903505 0.000000 56.000000 14.593216 25.000000
27.951311 -36.730691 -16.450169 0.000000 51.000000 14.384714 0.000000
26.044193 -34.086665 -17.811824 0.000000 47.000000 14.396971 0.000000
27.330714 -33.575694 -14.699990 0.000000 47.000000 14.396800 0.000000
28.261092 -37.656500 -17.440856 0.000000 64.000000 14.680218 6.000000
26.573033 -33.690793 -16.303512 0.000000 30.000000 14.376647 0.000000
27.013932 -37.420895 -18.970011 0.000000 59.000000 14.362879 0.000000
26.533206 -33.556423 -16.289714 0.000000 34.000000 14.390745 0.000000
26.937961 -34.418385 -16.238424 0.000000 40.000000 14.366863 0.000000
26.473656 -33.440374 -16.255716 0.000000 33.000000 14.373186 0.000000
26.427327 -33.306731 -16.242436 0.000000 34.000000 14.381840 0.000000
27.941578 -36.518790 -16.241183 0.000000 42.000000 14.374809 0.000000
26.784669 -34.040957 -16.198213 0.000000 34.000000 14.371661 0.000000
28.333655 -38.602788 -18.740415 0.000000 40.000000 14.897119 25.000000
26.699050 -33.769605 -16.211403 0.000000 42.000000 14.412504 0.000000
26.620607 -33.674169 -16.177921 0.000000 43.000000 14.371483 0.000000
26.565284 -33.553077 -16.175062 0.000000 39.000000 14.372025 0.000000
26.512617 -33.429260 -16.180358 0.000000 35.000000 14.379136 0.000000
27.146889 -33.560670 -15.243092 0.000000 28.000000 14.471236 28.000000
26.860416 -34.600571 -16.570253 0.000000 26.000000 14.366161 0.000000
25.804036 -33.905944 -18.111953 0.000000 58.000000 14.391140 0.000000
29.497251 -37.897389 -14.509941 0.000000 40.000000 14.417593 0.000000
29.426736 -37.909835 -14.659806 0.000000 58.000000 14.415294 0.000000
29.339977 -37.957525 -14.777793 0.000000 40.000000 14.372849 0.000000
29.261118 -37.993620 -14.911032 0.000000 36.000000 14.347657 0.000000
28.776160 -38.724564 -17.401448 0.000000 72.000000 14.671601 5.000000
26.545328 -33.962148 -16.643447 0.000000 40.000000 14.385498 0.000000
28.864016 -38.643908 -16.397225 0.000000 50.000000 14.368234 0.000000
27.329990 -36.178017 -17.050561 0.000000 66.000000 14.331492 0.000000
26.363825 -36.118070 -19.047700 0.000000 40.000000 14.367383 0.000000
28.743484 -39.000506 -16.941029 0.000000 56.000000 14.349781 0.000000
28.709912 -38.246686 -16.210947 0.000000 41.000000 14.320838 0.000000
28.009000 -36.362002 -15.926063 0.000000 56.000000 14.363990 0.000000
28.592467 -38.291649 -16.688398 0.000000 46.000000 14.399981 0.000000
26.620258 -33.815890 -16.455342 0.000000 53.000000 14.428299 0.000000
27.866880 -37.659390 -17.499681 0.000000 57.000000 14.377368 0.000000
28.367767 -38.573482 -16.995393 0.000000 45.000000 14.228661 0.000000
25.973551 -35.213558 -19.369132 0.000000 51.000000 14.529497 17.000000
28.229271 -38.688110 -17.778666 0.000000 49.000000 14.387249 0.000000
28.310123 -38.863471 -18.969127 0.000000 43.000000 14.868461 26.000000
26.379774 -35.023932 -18.889088 0.000000 67.000000 14.744431 21.000000
27.151717 -37.706248 -19.011001 0.000000 44.000000 14.381626 0.000000
26.008893 -33.720421 -17.572387 0.000000 56.000000 14.414002 0.000000
26.634201 -36.558830 -18.966664 0.000000 38.000000 14.385299 0.000000
28.395479 -38.566913 -18.894519 0.000000 71.000000 15.024755 25.000000
27.714464 -37.478720 -18.706581 0.000000 40.000000 14.811937 25.000000
25.733006 -34.419251 -18.703861 0.000000 37.000000 14.371756 0.000000
26.965667 -37.151338 -18.839443 0.000000 44.000000 14.375536 0.000000
27.455827 -35.850770 -16.521368 0.000000 44.000000 14.348769 0.000000
27.457627 -34.303490 -15.368485 0.000000 46.000000 14.488030 11.000000
26.278273 -35.261897 -18.973906 0.000000 58.000000 14.601879 23.000000
26.611058 -36.192736 -19.598173 0.000000 63.000000 14.765727 19.000000
28.410004 -38.868623 -17.556448 0.000000 56.000000 14.375697 0.000000
26.591973 -33.898995 -17.485784 0.000000 71.000000 14.790547 1.000000
29.278730 -37.821279 -15.237032 0.000000 31.000000 14.561941 24.000000
27.079971 -35.288550 -16.783153 0.000000 51.000000 14.364618 0.000000
25.889992 -34.504021 -18.453933 0.000000 40.000000 14.366819 0.000000
26.604014 -35.527737 -18.109717 0.000000 26.000000 14.416195 0.000000
28.060135 -36.057170 -15.423324 0.000000 37.000000 14.321530 0.000000
28.285422 -35.390902 -14.115167 0.000000 29.000000 14.237544 0.000000
27.480539 -35.103077 -15.499789 0.000000 46.000000 14.247281 0.000000
28.274543 -35.363352 -14.327493 0.000000 32.000000 14.325500 0.000000
28.243820 -36.459162 -16.676036 0.000000 78.000000 14.824232 3.000000
27.479416 -37.016048 -17.608112 0.000000 57.000000 14.353152 0.000000
28.031306 -36.646569 -16.469034 0.000000 56.000000 14.491364 3.000000
29.236169 -37.221255 -14.613093 0.000000 65.000000 14.508451 14.000000
26.972585 -35.429886 -16.935382 0.000000 34.000000 14.282379 0.000000
27.247603 -35.933765 -17.090649 0.000000 41.000000 14.375313 0.000000
28.079168 -35.499700 -15.089054 0.000000 39.000000 14.419799 0.000000
25.926928 -34.625375 -19.481680 0.000000 46.000000 14.766871 16.000000
26.252547 -35.665899 -19.715477 0.000000 65.000000 14.723425 17.000000
28.592208 -37.592155 -15.988498 0.000000 38.000000 14.389537 0.000000
26.535415 -34.429312 -17.201480 0.000000 68.000000 14.420906 0.000000
26.242395 -35.629485 -19.420439 0.000000 54.000000 14.609571 17.000000
28.388323 -36.923923 -15.454036 0.000000 41.000000 14.265809 0.000000
27.750520 -37.058492 -17.066025 0.000000 48.000000 14.340481 0.000000
26.227767 -34.740224 -19.273693 0.000000 61.000000 14.885993 16.000000
27.840193 -35.804283 -15.888446 0.000000 36.000000 14.427592 0.000000
27.616851 -35.387985 -15.927081 0.000000 49.000000 14.421742 0.000000
27.152740 -37.344753 -18.236471 0.000000 38.000000 14.209667 0.000000
26.594548 -34.716759 -17.265397 0.000000 46.000000 14.383177 0.000000
28.016514 -36.425473 -16.071728 0.000000 61.000000 14.404462 0.000000
28.105329 -36.678524 -16.534155 0.000000 40.000000 14.566419 3.000000
28.251409 -37.140587 -16.174548 0.000000 48.000000 14.360299 0.000000
28.183989 -37.706563 -17.466368 0.000000 78.000000 14.607295 6.000000
27.010314 -35.974319 -17.742266 0.000000 61.000000 14.427873 0.000000
27.948804 -38.049116 -17.616123 0.000000 44.000000 14.339746 0.000000
28.214691 -37.225021 -16.466748 0.000000 50.000000 14.415496 0.000000
28.154976 -38.445995 -18.651979 0.000000 70.000000 14.775025 25.000000
26.076432 -34.734913 -19.480533 0.000000 50.000000 14.847013 16.000000
28.420179 -36.159704 -15.378037 0.000000 53.000000 14.560391 7.000000
29.039366 -38.442711 -15.799642 0.000000 30.000000 14.349318 0.000000
26.998254 -36.928425 -19.503119 0.000000 65.000000 14.759006 18.000000
26.342684 -35.509713 -19.494687 0.000000 63.000000 14.769408 17.000000
27.803921 -38.425548 -19.726600 0.000000 51.000000 14.929147 20.000000
28.021074 -37.648831 -16.848619 0.000000 52.000000 14.244663 0.000000
29.204553 -38.301103 -15.360824 0.000000 45.000000 14.363110 0.000000
26.833130 -36.249098 -18.993093 0.000000 36.000000 14.681550 23.000000
25.561873 -33.998177 -18.438742 0.000000 46.000000 14.287638 0.000000
26.119083 -34.876807 -19.362289 0.000000 45.000000 14.778721 16.000000
27.945721 -39.144443 -19.470576 0.000000 36.000000 14.661002 20.000000
29.403841 -38.296954 -14.934623 0.000000 43.000000 14.356385 0.000000
27.300387 -37.334864 -18.092242 0.000000 38.000000 14.276956 0.000000
25.253751 -34.489242 -19.649986 0.000000 27.000000 14.332456 0.000000
27.996353 -34.560695 -14.538118 0.000000 49.000000 14.495359 8.000000
28.486430 -36.131396 -15.347419 0.000000 58.000000 14.613765 7.000000
27.525625 -35.665810 -16.203954 0.000000 27.000000 14.350007 0.000000
27.417558 -37.450966 -18.085283 0.000000 41.000000 14.325466 0.000000
26.495740 -34.219134 -16.722654 0.000000 41.000000 14.276101 0.000000
27.318722 -34.826178 -15.734051 0.000000 37.000000 14.317069 0.000000
27.653421 -33.868413 -14.057022 0.000000 27.000000 14.287857 0.000000
27.374243 -35.249734 -16.138918 0.000000 45.000000 14.361436 0.000000
27.563940 -33.926404 -14.314248 0.000000 32.000000 14.295633 0.000000
26.521436 -36.350298 -18.935962 0.000000 45.000000 14.361323 0.000000
27.539829 -33.923069 -14.661043 0.000000 43.000000 14.417749 0.000000
27.492825 -33.970771 -14.774229 0.000000 33.000000 14.406186 0.000000
27.456608 -34.006678 -14.904977 0.000000 37.000000 14.415275 0.000000
27.286248 -34.227643 -15.349245 0.000000 35.000000 14.368363 0.000000
25.974061 -33.913490 -17.743758 0.000000 35.000000 14.379207 0.000000
29.265384 -37.366801 -14.110640 0.000000 25.000000 14.271727 0.000000
26.616716 -33.326945 -15.516472 0.000000 23.000000 14.235765 0.000000
28.551534 -38.833148 -17.071104 0.000000 33.000000 14.309529 0.000000
26.144614 -33.503111 -16.762124 0.000000 47.000000 14.282360 0.000000
29.706008 -38.470418 -14.401482 0.000000 27.000000 14.321720 0.000000
29.201619 -37.863934 -15.081152 0.000000 39.000000 14.418306 0.000000
28.999302 -36.688152 -14.091169 0.000000 28.000000 14.309681 0.000000
27.255145 -36.666459 -18.764508 0.000000 73.000000 14.773994 22.000000
25.499681 -33.820646 -18.382179 0.000000 39.000000 14.282804 0.000000
26.860616 -34.586600 -16.503456 0.000000 40.000000 14.344689 0.000000
27.636148 -35.311462 -15.431775 0.000000 40.000000 14.266643 0.000000
26.573014 -33.550183 -16.222763 0.000000 33.000000 14.398898 0.000000
28.180904 -36.477541 -16.901183 0.000000 75.000000 14.856436 3.000000
28.113399 -38.632361 -19.719218 0.000000 66.000000 15.100811 20.000000
25.896089 -34.600028 -19.251055 0.000000 42.000000 14.657738 16.000000
26.552348 -35.425434 -18.877145 0.000000 51.000000 14.724972 23.000000
27.036703 -34.792906 -16.388960 0.000000 41.000000 14.362916 0.000000
26.519807 -33.749086 -16.576134 0.000000 32.000000 14.420496 0.000000
25.794490 -34.630065 -19.779354 0.000000 72.000000 14.776443 16.000000
27.097882 -35.766348 -17.306462 0.000000 53.000000 14.404754 0.000000
27.525782 -34.399117 -15.067863 0.000000 46.000000 14.384906 0.000000
27.408742 -37.005118 -19.585020 0.000000 66.000000 15.101255 18.000000
26.971780 -35.023410 -16.710756 0.000000 44.000000 14.349656 0.000000
27.033199 -35.739813 -17.373183 0.000000 51.000000 14.388790 0.000000
26.938988 -35.119674 -16.800680 0.000000 45.000000 14.321386 0.000000
27.776721 -37.816506 -18.925443 0.000000 70.000000 14.819961 25.000000
28.402705 -38.993949 -17.631539 0.000000 55.000000 14.351087 0.000000
26.478209 -34.684800 -17.508757 0.000000 58.000000 14.398350 0.000000
26.978090 -33.545099 -15.312802 0.000000 41.000000 14.366203 0.000000
26.412614 -34.236613 -17.217220 0.000000 41.000000 14.401289 0.000000
28.631724 -38.407672 -17.508669 0.000000 73.000000 14.719846 5.000000
25.897448 -33.745882 -18.892949 0.000000 56.000000 14.847854 4.000000
26.042497 -34.721900 -19.369066 0.000000 22.000000 14.778847 16.000000
28.293802 -36.378156 -15.306719 0.000000 37.000000 14.341573 0.000000
26.893009 -36.856552 -19.772757 0.000000 60.000000 14.809627 18.000000
26.895153 -35.922619 -17.897623 0.000000 53.000000 14.416035 0.000000
26.365451 -34.953722 -18.043404 0.000000 47.000000 14.416917 0.000000
