-22.383357 50.282509 55.109819 0.000000 42.000000 14.214111 0.000000
-22.448639 50.461801 55.493042 0.000000 42.000000 14.189566 0.000000
-22.509209 50.650352 55.856481 0.000000 42.000000 14.181264 0.000000
-22.582902 50.841539 56.244264 0.000000 44.000000 14.159765 0.000000
-25.514335 52.199032 54.182409 0.000000 50.000000 14.283967 24.000000
-21.030710 50.088950 55.410515 0.000000 46.000000 14.705050 6.000000
-24.063621 49.966873 51.507120 0.000000 25.000000 14.244853 0.000000
-25.156980 51.696910 52.872976 0.000000 45.000000 14.526241 22.000000
-23.735523 51.334671 55.420737 0.000000 24.000000 14.181589 0.000000
-20.761068 49.590513 53.488389 0.000000 9.000000 15.104925 3.000000
-25.564289 52.935105 54.907021 0.000000 51.000000 14.583173 23.000000
-24.255735 51.352887 53.507069 0.000000 50.000000 14.544402 30.000000
-21.141990 49.895746 54.300634 0.000000 24.000000 14.862801 5.000000
-22.481703 49.798296 52.543514 0.000000 55.000000 14.636921 29.000000
-25.457667 52.898036 54.472510 0.000000 47.000000 14.756691 24.000000
-22.089634 50.059536 55.098872 0.000000 37.000000 14.206745 0.000000
-24.560136 51.988592 54.166100 0.000000 47.000000 14.649019 19.000000
-24.216933 52.452271 56.151860 0.000000 53.000000 14.536318 10.000000
-22.062067 51.607215 57.883770 0.000000 41.000000 14.491032 14.000000
-23.038218 50.800367 55.412964 0.000000 30.000000 14.154261 0.000000
-25.779387 52.870436 54.719353 0.000000 47.000000 14.477946 24.000000
-25.894849 53.046440 54.293879 0.000000 57.000000 14.691002 12.000000
-23.517078 52.281094 57.686485 0.000000 30.000000 14.279431 0.000000
-24.569654 51.212609 53.357842 0.000000 44.000000 14.314279 30.000000
-26.780748 53.525362 55.474609 0.000000 38.000000 14.184572 0.000000
-22.680377 50.974658 56.170538 0.000000 36.000000 14.233286 0.000000
-26.017045 53.665196 54.826415 0.000000 40.000000 14.924020 26.000000
-24.059113 49.883431 51.458461 0.000000 35.000000 14.199226 0.000000
-24.093078 50.047570 51.810503 0.000000 35.000000 14.190458 0.000000
-25.348897 51.735373 53.274612 0.000000 35.000000 14.318052 0.000000
-23.998239 49.891594 51.625516 0.000000 34.000000 14.183508 0.000000
-23.764157 50.985149 52.807725 0.000000 57.000000 14.761570 18.000000
-24.546826 51.534817 55.004082 0.000000 28.000000 14.029967 0.000000
-20.333181 49.866326 54.339548 0.000000 11.000000 15.269371 6.000000
-25.240650 52.862418 54.937667 0.000000 39.000000 14.694011 23.000000
-25.128675 51.875222 52.504812 0.000000 57.000000 14.800690 22.000000
-25.262894 52.929008 55.593114 0.000000 60.000000 14.516225 16.000000
-20.457200 49.530009 53.747074 0.000000 41.000000 15.138883 3.000000
-24.753164 50.879673 51.173722 0.000000 65.000000 14.680470 7.000000
-22.264428 49.623882 52.403867 0.000000 38.000000 14.667707 29.000000
-23.558727 49.969212 51.721612 0.000000 70.000000 14.451652 17.000000
-22.149156 50.725557 56.785921 0.000000 35.000000 14.128411 0.000000
-24.085409 50.157363 51.943066 0.000000 33.000000 14.235253 0.000000
-24.198015 51.105843 52.887519 0.000000 51.000000 14.590881 30.000000
-24.291872 50.869067 52.757797 0.000000 42.000000 14.400353 18.000000
-24.155174 51.383828 53.194641 0.000000 64.000000 14.726535 30.000000
-25.939767 52.411793 53.667241 0.000000 37.000000 14.385552 20.000000
-23.042735 50.718361 55.385785 0.000000 31.000000 14.097699 0.000000
-24.908958 53.391490 55.962210 0.000000 7.000000 14.943341 16.000000
-24.690734 52.030891 54.870181 0.000000 45.000000 14.377232 19.000000
-23.399322 50.669460 54.501579 0.000000 40.000000 14.157717 0.000000
-23.985205 51.197814 54.392202 0.000000 54.000000 14.280127 0.000000
-24.792901 50.689015 52.277459 0.000000 29.000000 14.146910 0.000000
-24.270244 52.406950 57.076936 0.000000 46.000000 14.166254 0.000000
-24.677083 51.377319 52.576905 0.000000 68.000000 14.640642 11.000000
-22.013730 51.740771 58.075097 0.000000 44.000000 14.556893 13.000000
-24.797622 52.175554 55.859855 0.000000 40.000000 14.102664 0.000000
-24.182708 50.429078 52.555732 0.000000 37.000000 14.188397 0.000000
-24.285751 50.381480 52.283249 0.000000 31.000000 14.185610 0.000000
-24.371052 50.334689 51.978079 0.000000 35.000000 14.203957 0.000000
-24.866369 50.833918 51.083320 0.000000 53.000000 14.613305 7.000000
-24.683981 50.208020 51.712163 0.000000 29.000000 14.023451 0.000000
-24.626387 50.174797 51.118709 0.000000 35.000000 14.225716 0.000000
-24.276037 50.991433 52.035500 0.000000 75.000000 14.742113 11.000000
-20.387983 49.084625 53.740708 0.000000 50.000000 14.836196 3.000000
-22.841050 50.153884 54.585083 0.000000 22.000000 14.038606 0.000000
-22.189283 51.639951 57.625637 0.000000 45.000000 14.532085 14.000000
-22.797314 50.520279 55.148416 0.000000 35.000000 14.157993 0.000000
-22.890495 50.169153 54.153712 0.000000 18.000000 14.166045 0.000000
-25.914816 53.200700 55.927502 0.000000 36.000000 14.258276 23.000000
-22.852872 51.091288 56.306824 0.000000 39.000000 14.183635 0.000000
-25.586797 52.272216 54.247269 0.000000 47.000000 14.279201 24.000000
-25.495636 53.248770 54.953293 0.000000 48.000000 14.846684 23.000000
-22.918313 51.495430 57.128721 0.000000 46.000000 14.186841 0.000000
-22.669561 50.137591 54.344636 0.000000 39.000000 14.199356 0.000000
-26.254184 53.492295 55.827079 0.000000 53.000000 14.330328 23.000000
-25.268815 51.421521 52.115617 0.000000 56.000000 14.503834 22.000000
-22.876865 50.863468 55.814198 0.000000 38.000000 14.158249 0.000000
-22.918973 51.054856 56.140507 0.000000 40.000000 14.174505 0.000000
-25.433870 52.291982 52.970901 0.000000 54.000000 14.800278 21.000000
-23.058008 51.452159 56.906006 0.000000 41.000000 14.150884 0.000000
-21.209829 49.873104 54.598295 0.000000 43.000000 14.709824 5.000000
-25.814830 51.481702 52.217834 0.000000 37.000000 14.217874 0.000000
-26.596678 53.310058 55.567330 0.000000 26.000000 14.088875 0.000000
-21.770896 50.766872 57.328886 0.000000 43.000000 14.187302 0.000000
-24.246398 51.227174 53.204490 0.000000 52.000000 14.552904 30.000000
-21.218014 49.156018 53.718160 0.000000 46.000000 14.444901 3.000000
-22.116992 50.773597 56.854890 0.000000 37.000000 14.160130 0.000000
-25.183647 51.430165 52.067805 0.000000 40.000000 14.572854 22.000000
-22.268940 50.771136 56.562915 0.000000 44.000000 14.171784 0.000000
-21.960477 49.209228 53.273575 0.000000 30.000000 14.227112 0.000000
-22.397988 50.770554 56.208816 0.000000 43.000000 14.217955 0.000000
-24.396301 51.067805 52.106949 0.000000 80.000000 14.711492 11.000000
-20.830711 49.394540 53.475361 0.000000 47.000000 14.920413 3.000000
-22.238856 49.210304 52.815543 0.000000 36.000000 14.227324 0.000000
-22.704635 50.746077 55.661553 0.000000 42.000000 14.212580 0.000000
-26.245834 53.387459 54.430582 0.000000 44.000000 14.716273 12.000000
-23.013607 50.704552 55.168805 0.000000 41.000000 14.174785 0.000000
-22.569466 50.007987 53.624290 0.000000 32.000000 14.392689 0.000000
-25.058101 52.576778 54.220029 0.000000 62.000000 14.811480 24.000000
-23.413266 50.623912 54.294379 0.000000 39.000000 14.183608 0.000000
-20.826320 49.257367 53.338021 0.000000 63.000000 14.862727 3.000000
-20.328561 49.625060 54.540510 0.000000 41.000000 15.019807 6.000000
-25.839821 51.747634 52.435379 0.000000 48.000000 14.336815 0.000000
-20.626760 49.418938 53.548359 0.000000 57.000000 15.026505 3.000000
-24.173446 50.015163 51.515848 0.000000 45.000000 14.219087 0.000000
-21.891992 51.596845 57.858858 0.000000 41.000000 14.584256 14.000000
-24.604405 50.153740 51.595004 0.000000 27.000000 14.063951 0.000000
-24.632204 50.104942 51.164451 0.000000 34.000000 14.153664 0.000000
-26.276053 52.498123 53.918451 0.000000 34.000000 14.185045 0.000000
-24.393251 50.032450 51.480919 0.000000 34.000000 14.123801 0.000000
-24.492785 51.169966 52.367448 0.000000 56.000000 14.651160 11.000000
-25.878415 52.644366 53.565352 0.000000 50.000000 14.631709 20.000000
-22.609535 50.277261 54.699240 0.000000 39.000000 14.222290 0.000000
-24.202480 50.044527 51.522087 0.000000 47.000000 14.223742 0.000000
-22.044850 52.031964 57.236942 0.000000 3.000000 15.041196 14.000000
-24.923694 51.207278 52.209778 0.000000 33.000000 14.496504 22.000000
-22.391153 51.991057 57.575389 0.000000 55.000000 14.708471 14.000000
-24.826894 52.281552 55.783764 0.000000 45.000000 14.193380 0.000000
-21.534781 49.111247 53.404085 0.000000 67.000000 14.341234 3.000000
-25.016988 52.735290 56.736817 0.000000 46.000000 14.123216 0.000000
-25.199670 52.995932 55.771327 0.000000 41.000000 14.543304 16.000000
-25.555470 52.492935 54.256349 0.000000 66.000000 14.463115 24.000000
-25.048712 51.609989 53.495716 0.000000 63.000000 14.312518 25.000000
-21.957304 49.312872 53.655501 0.000000 37.000000 14.182218 0.000000
-22.113335 49.316944 53.431328 0.000000 37.000000 14.174235 0.000000
-22.939399 51.768963 58.112797 0.000000 40.000000 14.060159 0.000000
-23.279446 51.743772 57.028245 0.000000 42.000000 14.213742 0.000000
-24.340451 52.475614 57.027456 0.000000 32.000000 14.197073 0.000000
-23.638204 51.700427 56.707275 0.000000 32.000000 14.090501 0.000000
-23.329673 49.980998 52.529547 0.000000 56.000000 14.318610 0.000000
-23.093824 49.605797 52.157162 0.000000 32.000000 14.282088 4.000000
-22.197842 50.099034 54.853687 0.000000 51.000000 14.259106 0.000000
-25.476813 52.117146 52.723763 0.000000 67.000000 14.724074 21.000000
-23.280001 52.077324 57.644237 0.000000 48.000000 14.266233 8.000000
-20.862395 49.673433 54.949053 0.000000 46.000000 14.630072 6.000000
-26.201160 52.232197 53.416498 0.000000 34.000000 14.187479 0.000000
-26.319118 53.092783 54.173586 0.000000 45.000000 14.534556 12.000000
-26.042087 53.500159 55.340163 0.000000 59.000000 14.613400 23.000000
-23.078478 50.417120 54.328810 0.000000 40.000000 14.196123 0.000000
-25.127616 51.227060 51.795819 0.000000 56.000000 14.537221 22.000000
-22.803027 49.425514 52.359089 0.000000 35.000000 14.235535 0.000000
-22.642181 50.370791 54.498466 0.000000 48.000000 14.342823 2.000000
-23.210231 50.930833 55.775915 0.000000 29.000000 14.040527 0.000000
-21.215704 49.298049 53.832961 0.000000 51.000000 14.517444 3.000000
-23.191053 51.317812 56.417050 0.000000 43.000000 14.136585 0.000000
-23.210320 51.517558 56.822422 0.000000 36.000000 14.145597 0.000000
-24.232337 51.191701 52.416265 0.000000 51.000000 14.794085 11.000000
-22.998011 50.554818 54.837348 0.000000 40.000000 14.177784 0.000000
-23.021950 50.256710 54.106882 0.000000 22.000000 14.177044 0.000000
-24.041382 51.297237 54.538011 0.000000 54.000000 14.277666 0.000000
-22.236234 50.114218 54.235788 0.000000 39.000000 14.454234 2.000000
-23.188950 51.297978 56.347239 0.000000 35.000000 14.145574 0.000000
-23.250928 51.495123 56.740056 0.000000 39.000000 14.133395 0.000000
-25.443890 53.250583 56.146478 0.000000 57.000000 14.481599 16.000000
-26.865246 53.610234 55.616140 0.000000 45.000000 14.156852 0.000000
-25.892741 53.253139 55.131579 0.000000 55.000000 14.574011 23.000000
-26.005042 53.629311 55.662678 0.000000 71.000000 14.626298 23.000000
-22.246995 50.080625 54.928138 0.000000 39.000000 14.193446 0.000000
-25.210170 52.711998 54.398888 0.000000 54.000000 14.773210 24.000000
-22.838901 51.765541 57.762088 0.000000 47.000000 14.228488 0.000000
-22.782258 50.040681 54.505571 0.000000 21.000000 14.009962 0.000000
-22.365984 51.319663 56.792657 0.000000 47.000000 14.464703 15.000000
-23.524536 51.656855 56.805271 0.000000 36.000000 14.086687 0.000000
-25.892353 53.283301 54.473457 0.000000 55.000000 14.815166 12.000000
-23.701964 51.618972 56.600152 0.000000 34.000000 14.028430 0.000000
-25.493040 53.286024 56.033023 0.000000 45.000000 14.519535 16.000000
-26.016089 53.422764 55.238197 0.000000 53.000000 14.601807 23.000000
-23.273971 49.983581 52.821654 0.000000 36.000000 14.254399 0.000000
-23.050081 52.322815 57.628504 0.000000 63.000000 14.585958 8.000000
-24.212819 52.477783 55.797942 0.000000 44.000000 14.675286 10.000000
-24.297798 51.400243 54.922744 0.000000 41.000000 14.089466 0.000000
-23.770526 49.853189 51.882912 0.000000 44.000000 14.193267 0.000000
-20.769455 50.088246 55.207823 0.000000 43.000000 14.914364 6.000000
-22.568763 50.697584 55.685083 0.000000 33.000000 14.241757 0.000000
-26.799104 53.591716 55.567660 0.000000 38.000000 14.194798 0.000000
-26.846343 53.489367 55.179089 0.000000 44.000000 14.218802 0.000000
-21.707178 48.999182 53.260318 0.000000 35.000000 14.208362 0.000000
-24.855622 50.772820 51.059801 0.000000 53.000000 14.579959 7.000000
-25.202925 51.495080 52.159024 0.000000 55.000000 14.582075 22.000000
-21.488180 50.317430 56.735789 0.000000 40.000000 14.192307 0.000000
-20.501397 49.296930 54.330168 0.000000 56.000000 14.742506 6.000000
-24.701856 50.461567 51.893908 0.000000 51.000000 14.148600 0.000000
-24.721784 50.621500 52.232214 0.000000 36.000000 14.148812 0.000000
-22.571096 49.762581 52.140217 0.000000 50.000000 14.694016 4.000000
-22.974012 50.341583 54.191738 0.000000 32.000000 14.240463 0.000000
-24.520582 50.465117 52.026658 0.000000 44.000000 14.206490 0.000000
-25.017706 52.310445 55.506867 0.000000 43.000000 14.202925 0.000000
-24.983688 51.395965 52.049412 0.000000 28.000000 14.661923 22.000000
-25.022765 52.146307 55.085277 0.000000 42.000000 14.213375 0.000000
-22.035510 51.489486 57.798469 0.000000 63.000000 14.443203 14.000000
-24.309269 51.680678 54.078652 0.000000 46.000000 14.578197 19.000000
-20.753827 48.621651 53.892211 0.000000 36.000000 14.229953 0.000000
-21.406411 50.112303 56.414184 0.000000 39.000000 14.185603 0.000000
-22.527076 50.101816 54.235163 0.000000 47.000000 14.285933 2.000000
-24.886810 52.044087 55.021549 0.000000 39.000000 14.230133 0.000000
-25.543092 53.144248 54.824839 0.000000 57.000000 14.782839 23.000000
-22.305310 49.646518 52.333455 0.000000 80.000000 14.686071 29.000000
-23.319566 50.068201 53.007681 0.000000 36.000000 14.233028 0.000000
-25.208319 52.546309 54.124699 0.000000 65.000000 14.737475 24.000000
-23.790091 49.956100 51.897559 0.000000 47.000000 14.256896 0.000000
-22.305623 49.671181 52.372818 0.000000 56.000000 14.691849 29.000000
-20.920028 49.219002 53.387623 0.000000 58.000000 14.765584 3.000000
-25.678570 53.108181 55.657631 0.000000 52.000000 14.405516 23.000000
-24.999529 52.303374 55.838132 0.000000 43.000000 14.097823 0.000000
-24.613476 51.205292 52.372259 0.000000 77.000000 14.610777 11.000000
-25.112289 52.180598 54.990507 0.000000 42.000000 14.222177 0.000000
-25.791876 51.573751 52.532452 0.000000 30.000000 14.197139 0.000000
-25.825653 51.491425 52.161243 0.000000 48.000000 14.238161 0.000000
-21.278294 49.291305 53.482321 0.000000 45.000000 14.594055 3.000000
-25.928257 52.622574 54.212110 0.000000 39.000000 14.373723 0.000000
-23.425611 50.173315 53.214352 0.000000 36.000000 14.187551 0.000000
-23.427175 50.321060 53.601875 0.000000 47.000000 14.172142 0.000000
-21.621956 49.628178 54.082043 0.000000 32.000000 14.466949 5.000000
-22.989409 51.865224 57.276661 0.000000 49.000000 14.383511 8.000000
-23.785298 51.128642 54.621930 0.000000 44.000000 14.260173 0.000000
-24.508467 51.105288 52.255434 0.000000 58.000000 14.629893 11.000000
-23.446433 51.147034 55.560185 0.000000 42.000000 14.149117 0.000000
-23.173233 49.943051 53.185402 0.000000 31.000000 14.157936 0.000000
-24.025027 51.392427 53.165759 0.000000 44.000000 14.813840 30.000000
-23.182485 50.097992 53.520599 0.000000 36.000000 14.161172 0.000000
-23.577590 50.424765 53.360042 0.000000 36.000000 14.249717 0.000000
-22.737493 49.862291 52.488360 0.000000 33.000000 14.564590 4.000000
-20.919529 50.131772 55.346530 0.000000 46.000000 14.819931 6.000000
-23.211270 50.420372 54.202952 0.000000 36.000000 14.167684 0.000000
-24.405134 52.598563 55.993469 0.000000 50.000000 14.598395 10.000000
-23.231927 50.587049 54.556968 0.000000 39.000000 14.167489 0.000000
-22.218222 51.177598 56.702828 0.000000 53.000000 14.465899 15.000000
-23.296059 50.753485 55.018742 0.000000 40.000000 14.107694 0.000000
-23.346556 50.929047 55.449239 0.000000 31.000000 14.072721 0.000000
-22.945772 52.287678 58.010013 0.000000 43.000000 14.489720 28.000000
-25.089969 51.314690 51.851292 0.000000 60.000000 14.606856 22.000000
-23.439284 51.487961 56.534393 0.000000 35.000000 14.092978 0.000000
-23.463128 51.685670 56.860194 0.000000 38.000000 14.124248 0.000000
-23.500893 51.889017 57.214043 0.000000 39.000000 14.142967 0.000000
-20.588835 49.221236 54.434402 0.000000 53.000000 14.601999 6.000000
-20.429663 49.391928 53.903640 0.000000 61.000000 14.995910 3.000000
-22.332737 50.216331 54.144606 0.000000 58.000000 14.510208 2.000000
-20.610015 48.615356 54.138767 0.000000 36.000000 14.222141 0.000000
-25.422194 51.836626 52.564685 0.000000 50.000000 14.590760 22.000000
-25.256227 51.463208 52.271119 0.000000 47.000000 14.491336 22.000000
-22.526037 50.893544 56.389637 0.000000 42.000000 14.182756 0.000000
-25.200062 52.202773 53.624357 0.000000 57.000000 14.643250 25.000000
-22.796676 50.879845 55.810588 0.000000 41.000000 14.215870 0.000000
-25.106986 51.977788 53.359330 0.000000 66.000000 14.608731 25.000000
-23.161657 50.837351 55.536963 0.000000 25.000000 14.074219 0.000000
-24.519553 52.662220 56.291482 0.000000 70.000000 14.486229 10.000000
-22.965284 49.651090 52.058411 0.000000 60.000000 14.419860 4.000000
-23.487032 50.779058 54.537579 0.000000 38.000000 14.182178 0.000000
-25.704099 52.160771 52.982144 0.000000 72.000000 14.547920 21.000000
-24.238806 52.428415 57.411169 0.000000 41.000000 14.089370 0.000000
-23.711623 50.721850 53.945496 0.000000 36.000000 14.211303 0.000000
-21.616622 49.614419 54.241787 0.000000 50.000000 14.406429 5.000000
-25.181646 52.699909 54.671484 0.000000 54.000000 14.689313 24.000000
-24.638616 52.206670 55.837764 0.000000 39.000000 14.220818 0.000000
-22.232526 51.335410 57.574710 0.000000 44.000000 14.291020 14.000000
-24.355212 50.476596 52.268396 0.000000 35.000000 14.225729 0.000000
-24.453702 50.425782 51.996321 0.000000 34.000000 14.222822 0.000000
-26.030742 53.305100 54.196324 0.000000 76.000000 14.847984 12.000000
-24.678217 51.788708 52.937097 0.000000 49.000000 14.837326 11.000000
-25.778951 53.479596 55.191222 0.000000 55.000000 14.790683 23.000000
-22.245520 49.071378 53.063451 0.000000 24.000000 14.034788 0.000000
-22.159424 49.205720 53.291794 0.000000 32.000000 14.109646 0.000000
-22.078588 49.338068 53.528523 0.000000 34.000000 14.177320 0.000000
-24.311592 52.322268 55.735543 0.000000 54.000000 14.522309 10.000000
-20.668875 49.291815 53.641846 0.000000 55.000000 14.874762 3.000000
-21.716757 48.911527 53.129641 0.000000 29.000000 14.178929 0.000000
-25.733067 53.472439 55.742153 0.000000 49.000000 14.627981 23.000000
-21.428828 49.166163 53.657407 0.000000 47.000000 14.357580 0.000000
-25.221281 52.627374 54.545302 0.000000 41.000000 14.653596 24.000000
-24.538068 51.578328 53.741478 0.000000 43.000000 14.485959 19.000000
-25.558922 52.270216 53.846985 0.000000 25.000000 14.425332 25.000000
-21.146531 49.998897 54.513340 0.000000 34.000000 14.869298 5.000000
-22.967494 51.051115 56.001610 0.000000 33.000000 14.191060 0.000000
-24.672857 50.749085 50.930580 0.000000 74.000000 14.704348 7.000000
-22.846276 50.310792 53.490942 0.000000 62.000000 14.518451 1.000000
-26.430012 53.512167 55.247875 0.000000 53.000000 14.441141 26.000000
-24.682158 50.193052 51.095206 0.000000 39.000000 14.217052 0.000000
-22.444219 49.714709 53.932301 0.000000 23.000000 14.133628 0.000000
-20.451418 49.415398 53.714644 0.000000 45.000000 15.064604 3.000000
-22.054352 51.010285 57.178022 0.000000 59.000000 14.269538 0.000000
-24.642271 52.000821 54.433976 0.000000 48.000000 14.524907 19.000000
-24.297674 50.998189 52.046313 0.000000 58.000000 14.731905 11.000000
-21.457889 49.277588 54.221495 0.000000 37.000000 14.240785 0.000000
-26.464928 53.588118 55.204187 0.000000 32.000000 14.494938 26.000000
-25.141768 51.868806 52.358133 0.000000 52.000000 14.837127 22.000000
-21.990784 50.771982 56.989717 0.000000 43.000000 14.183262 0.000000
-25.417397 53.035403 55.005066 0.000000 73.000000 14.708180 23.000000
-21.761050 51.353960 57.456481 0.000000 30.000000 14.602105 14.000000
-21.934656 49.309471 53.646086 0.000000 32.000000 14.195095 0.000000
-22.381014 50.766551 56.665989 0.000000 34.000000 14.072898 0.000000
-24.680860 50.709313 50.827399 0.000000 72.000000 14.703514 7.000000
-22.486024 50.774677 56.221644 0.000000 42.000000 14.168765 0.000000
-22.635259 50.769294 55.937243 0.000000 41.000000 14.177149 0.000000
-25.679625 53.408976 55.121317 0.000000 60.000000 14.813773 23.000000
-24.274499 51.573367 54.844478 0.000000 50.000000 14.261276 9.000000
-22.176529 49.853687 52.525762 0.000000 56.000000 14.852206 29.000000
-24.355230 51.562705 52.535829 0.000000 66.000000 14.972763 11.000000
-23.349871 50.693845 54.558323 0.000000 39.000000 14.184731 0.000000
-24.047309 51.554625 53.282638 0.000000 50.000000 14.887769 30.000000
-23.615129 50.640113 53.995632 0.000000 38.000000 14.184578 0.000000
-23.765569 50.604990 53.779218 0.000000 37.000000 14.146932 0.000000
-24.202297 51.386049 53.566738 0.000000 49.000000 14.579379 30.000000
-24.315224 50.420308 52.311686 0.000000 35.000000 14.189962 0.000000
-24.411940 50.376226 52.013269 0.000000 42.000000 14.201919 0.000000
-25.252123 53.154142 55.382138 0.000000 71.000000 14.765105 23.000000
-26.108592 53.438136 55.265536 0.000000 38.000000 14.554027 23.000000
-26.996357 53.727889 55.609024 0.000000 39.000000 14.178055 0.000000
-24.271510 51.200542 53.039811 0.000000 48.000000 14.573175 30.000000
-23.708126 49.768431 51.715226 0.000000 48.000000 14.217649 0.000000
-24.091435 51.017738 53.071223 0.000000 43.000000 14.520580 30.000000
-23.665488 50.448717 53.490559 0.000000 36.000000 14.176919 0.000000
-25.107329 51.573506 52.235310 0.000000 59.000000 14.669419 22.000000
-23.638683 50.758442 54.174134 0.000000 38.000000 14.203675 0.000000
-21.263443 49.977891 54.878213 0.000000 32.000000 14.668519 5.000000
-23.546433 50.786807 54.414650 0.000000 37.000000 14.196343 0.000000
-20.937550 49.253077 53.164445 0.000000 48.000000 14.856058 3.000000
-23.996669 51.268577 54.406740 0.000000 48.000000 14.323488 0.000000
-22.821510 49.797596 52.200470 0.000000 58.000000 14.564147 4.000000
-24.755935 51.510170 52.848463 0.000000 71.000000 14.609898 11.000000
-21.105140 49.186196 53.847435 0.000000 45.000000 14.487040 3.000000
-23.783754 51.603078 56.437726 0.000000 28.000000 14.025237 0.000000
-25.185210 52.947163 55.612092 0.000000 51.000000 14.566373 16.000000
-23.767733 51.794934 56.766835 0.000000 44.000000 14.072700 0.000000
-23.445516 50.537950 54.116114 0.000000 37.000000 14.158831 0.000000
-24.846363 52.254654 53.539088 0.000000 52.000000 14.904696 25.000000
-25.785854 53.402866 55.139678 0.000000 78.000000 14.744936 23.000000
-24.260170 52.484805 55.716315 0.000000 41.000000 14.681813 10.000000
-21.591712 49.602094 54.381168 0.000000 44.000000 14.364449 5.000000
-25.193955 51.421051 52.110797 0.000000 43.000000 14.545984 22.000000
-23.579873 51.224754 55.655652 0.000000 37.000000 14.104385 0.000000
-22.969363 51.923662 57.211897 0.000000 65.000000 14.460850 8.000000
-23.694110 51.594658 56.524973 0.000000 30.000000 14.038891 0.000000
-23.715067 51.790156 56.850368 0.000000 41.000000 14.070174 0.000000
-25.122527 53.238042 55.706696 0.000000 67.000000 14.793102 16.000000
-24.467904 51.586796 52.673572 0.000000 57.000000 14.884138 11.000000
-25.488262 53.288363 56.048623 0.000000 61.000000 14.518784 16.000000
-21.739724 49.188482 53.582671 0.000000 36.000000 14.229547 0.000000
-21.907716 49.200009 53.401800 0.000000 35.000000 14.206435 0.000000
-22.066391 49.214033 53.193282 0.000000 35.000000 14.199483 0.000000
-25.763487 52.891668 54.468947 0.000000 34.000000 14.585817 12.000000
-24.865645 52.177199 54.356606 0.000000 65.000000 14.564098 24.000000
-21.027626 50.016065 55.465098 0.000000 57.000000 14.632608 6.000000
-22.984501 51.251475 56.575619 0.000000 27.000000 14.145988 0.000000
-23.103019 52.037495 57.144823 0.000000 56.000000 14.497558 8.000000
-22.030231 51.014238 57.106504 0.000000 40.000000 14.309424 0.000000
-25.319710 52.333534 54.014410 0.000000 59.000000 14.549397 25.000000
-22.969330 50.018428 52.514289 0.000000 65.000000 14.549407 4.000000
-24.076512 51.198682 54.381086 0.000000 30.000000 14.234566 0.000000
-23.742806 51.112309 54.828586 0.000000 39.000000 14.202462 0.000000
-25.700496 53.177569 54.844459 0.000000 70.000000 14.715947 23.000000
-24.575292 52.712409 57.235474 0.000000 46.000000 14.182054 0.000000
-24.019805 51.900187 54.966919 0.000000 62.000000 14.611393 9.000000
-24.900256 51.631097 52.970720 0.000000 57.000000 14.583593 11.000000
-24.982715 52.449448 55.761990 0.000000 43.000000 14.244576 0.000000
-25.084292 52.375711 55.408500 0.000000 42.000000 14.249284 0.000000
-23.600493 50.488187 52.371920 0.000000 57.000000 14.612908 17.000000
-24.870010 50.628707 52.197906 0.000000 34.000000 14.084690 0.000000
-20.626544 49.331796 54.541614 0.000000 46.000000 14.630969 6.000000
-21.685098 49.407174 54.122136 0.000000 27.000000 14.249158 0.000000
-24.432713 52.061909 54.352954 0.000000 40.000000 14.713246 19.000000
-22.995860 49.644431 52.053133 0.000000 51.000000 14.399771 4.000000
-22.124548 49.762343 54.411103 0.000000 35.000000 14.186585 0.000000
-25.251764 52.643904 54.264184 0.000000 71.000000 14.742658 24.000000
-25.217839 51.605874 52.287087 0.000000 46.000000 14.616785 22.000000
-21.865562 48.958310 52.975242 0.000000 39.000000 14.184667 0.000000
-24.502833 51.809372 54.052429 0.000000 46.000000 14.580077 19.000000
-22.610351 49.624242 53.380206 0.000000 22.000000 14.155889 0.000000
-25.655450 52.601472 53.714110 0.000000 42.000000 14.671362 20.000000
-21.808696 49.216181 53.593732 0.000000 31.000000 14.209497 0.000000
-23.732354 50.608569 52.943565 0.000000 46.000000 14.444314 18.000000
-21.805152 49.342448 53.979268 0.000000 32.000000 14.181015 0.000000
-25.697157 52.409160 53.368377 0.000000 58.000000 14.615010 20.000000
-21.757086 49.490818 54.225706 0.000000 30.000000 14.239891 0.000000
-21.941265 50.804302 57.155818 0.000000 41.000000 14.180236 0.000000
-21.719941 49.893096 54.333925 0.000000 36.000000 14.533854 5.000000
-26.785048 53.631833 55.616751 0.000000 25.000000 14.217101 0.000000
-21.612396 49.077100 53.215010 0.000000 60.000000 14.335097 0.000000
-20.817247 50.150599 55.054536 0.000000 44.000000 14.986925 6.000000
-25.225400 52.005174 52.719223 0.000000 65.000000 14.776855 22.000000
-25.943264 52.959046 54.656061 0.000000 55.000000 14.477481 12.000000
-22.532457 50.527320 55.436850 0.000000 33.000000 14.212746 0.000000
-24.922680 50.851445 52.518736 0.000000 35.000000 14.121104 0.000000
-25.299942 52.477417 55.437555 0.000000 42.000000 14.200041 0.000000
-25.129446 51.276360 51.962207 0.000000 40.000000 14.519096 22.000000
-25.952985 53.576940 54.338483 0.000000 61.000000 15.052573 12.000000
-25.459551 53.109457 55.107996 0.000000 72.000000 14.708054 23.000000
-22.400032 51.742381 57.774275 0.000000 52.000000 14.446516 14.000000
-24.009153 51.622064 55.506539 0.000000 36.000000 14.224728 0.000000
-21.774503 50.622889 56.886560 0.000000 37.000000 14.220911 0.000000
-22.716738 51.060146 56.403933 0.000000 41.000000 14.201957 0.000000
-22.870144 51.046419 56.132747 0.000000 38.000000 14.197271 0.000000
-24.866031 52.637246 56.004612 0.000000 49.000000 14.372551 16.000000
-21.849033 49.324705 53.701338 0.000000 35.000000 14.235334 0.000000
-26.840454 53.524668 55.346750 0.000000 37.000000 14.193707 0.000000
-23.446944 50.952794 55.043390 0.000000 39.000000 14.170394 0.000000
-24.412694 51.789757 54.717408 0.000000 26.000000 14.394247 0.000000
-23.659356 50.897682 54.350859 0.000000 46.000000 14.241021 0.000000
-23.796603 50.856990 54.096931 0.000000 51.000000 14.218713 0.000000
-25.646735 53.547028 55.314047 0.000000 40.000000 14.874187 23.000000
-24.643351 50.491456 51.779921 0.000000 45.000000 14.241282 0.000000
-25.907252 52.669536 54.759833 0.000000 41.000000 14.240118 0.000000
-25.218845 52.482035 53.760396 0.000000 56.000000 14.802806 25.000000
-25.957907 51.755587 52.601798 0.000000 32.000000 14.223331 0.000000
-24.940139 52.989372 55.572607 0.000000 55.000000 14.745858 16.000000
-25.023513 52.192986 53.766855 0.000000 47.000000 14.685073 25.000000
-24.092482 50.970617 52.759802 0.000000 56.000000 14.586791 18.000000
-23.359116 49.991207 52.679705 0.000000 40.000000 14.260691 0.000000
-21.667357 49.669169 54.270542 0.000000 52.000000 14.411303 5.000000
-20.603536 49.340494 53.627198 0.000000 39.000000 14.952769 3.000000
-22.556313 49.635390 52.367998 0.000000 57.000000 14.528890 29.000000
-24.082289 52.178097 57.097264 0.000000 28.000000 14.086209 0.000000
-23.712434 51.342763 55.439140 0.000000 40.000000 14.194346 0.000000
-24.886174 52.099160 53.519923 0.000000 64.000000 14.769658 25.000000
-24.721890 51.228833 52.375129 0.000000 56.000000 14.568680 11.000000
-22.945137 51.838490 57.296157 0.000000 57.000000 14.380693 8.000000
-23.491450 50.827197 54.414226 0.000000 27.000000 14.257607 0.000000
-23.489012 50.476901 53.883159 0.000000 30.000000 14.165166 0.000000
-23.850423 51.877695 56.925225 0.000000 34.000000 14.038767 0.000000
-23.484070 50.642230 54.173298 0.000000 37.000000 14.199060 0.000000
-23.832432 52.076173 57.245336 0.000000 44.000000 14.095377 0.000000
-23.514719 50.802774 54.547508 0.000000 36.000000 14.182004 0.000000
-23.830114 52.275551 57.599688 0.000000 45.000000 14.132785 0.000000
-25.344723 53.445518 56.302071 0.000000 46.000000 14.634283 16.000000
-23.580554 51.142934 55.304178 0.000000 34.000000 14.157355 0.000000
-23.616474 51.321391 55.686963 0.000000 40.000000 14.148361 0.000000
-23.861743 50.864912 52.733157 0.000000 69.000000 14.640407 18.000000
-25.434959 52.782575 54.703612 0.000000 59.000000 14.603821 24.000000
-23.780436 51.885227 56.950125 0.000000 43.000000 14.074576 0.000000
-25.988062 52.407299 53.497232 0.000000 44.000000 14.411944 20.000000
-24.798329 50.769140 50.852717 0.000000 64.000000 14.676956 7.000000
-24.682921 50.900806 51.301328 0.000000 72.000000 14.692901 7.000000
-25.474691 52.800059 54.632005 0.000000 53.000000 14.619246 24.000000
-22.919812 52.010161 57.227001 0.000000 55.000000 14.549479 8.000000
-22.252196 49.531352 53.647944 0.000000 35.000000 14.191609 0.000000
-22.376218 49.540537 53.356426 0.000000 35.000000 14.227337 0.000000
-22.873838 50.412057 53.819135 0.000000 35.000000 14.472706 1.000000
-26.335160 52.856656 54.058141 0.000000 41.000000 14.382335 0.000000
-24.956330 50.905063 50.701528 0.000000 65.000000 14.745180 7.000000
-23.319398 51.605938 56.818458 0.000000 37.000000 14.155279 0.000000
-26.986299 53.738915 55.275373 0.000000 31.000000 14.302422 0.000000
-24.954262 50.977844 51.130948 0.000000 61.000000 14.660226 7.000000
-20.461223 49.878651 54.737414 0.000000 55.000000 15.077235 6.000000
-24.795281 50.630801 51.491353 0.000000 31.000000 14.360909 7.000000
-26.112078 53.432844 55.094147 0.000000 38.000000 14.604754 23.000000
-22.808282 50.804308 55.553327 0.000000 33.000000 14.236532 0.000000
-24.986951 52.900225 56.975494 0.000000 45.000000 14.187548 0.000000
-21.906650 51.811212 57.936092 0.000000 55.000000 14.715600 13.000000
-25.046480 50.881853 52.668161 0.000000 28.000000 14.027394 0.000000
-25.947615 51.856536 52.811147 0.000000 37.000000 14.237351 0.000000
-22.361696 49.501870 53.305862 0.000000 35.000000 14.222257 0.000000
-25.259675 52.745581 54.294158 0.000000 57.000000 14.806637 24.000000
-25.956250 52.159865 53.194663 0.000000 47.000000 14.339091 21.000000
-24.419610 51.669883 54.548403 0.000000 36.000000 14.354166 19.000000
-25.370254 52.069127 52.596958 0.000000 55.000000 14.787329 22.000000
-25.590141 52.081641 53.733198 0.000000 32.000000 14.300848 0.000000
-22.016349 49.068654 53.028487 0.000000 32.000000 14.169520 0.000000
-22.179014 50.281551 55.519824 0.000000 48.000000 14.189413 0.000000
-25.798413 53.448313 55.030974 0.000000 65.000000 14.808998 23.000000
-22.168270 50.423914 55.952329 0.000000 41.000000 14.161709 0.000000
-21.523839 49.077877 53.090703 0.000000 54.000000 14.425225 3.000000
-26.024435 53.348749 55.187339 0.000000 56.000000 14.557133 23.000000
-20.831952 48.919074 53.499947 0.000000 72.000000 14.545833 3.000000
-22.138628 50.734294 56.792906 0.000000 40.000000 14.138576 0.000000
-25.898759 52.324719 53.100871 0.000000 38.000000 14.528364 21.000000
-24.872337 53.527612 56.097804 0.000000 37.000000 15.023213 16.000000
-24.588727 50.249744 51.617640 0.000000 29.000000 14.138885 0.000000
-24.320717 52.336235 55.791791 0.000000 65.000000 14.509456 10.000000
-21.904256 50.654170 56.865902 0.000000 41.000000 14.180890 0.000000
-22.453031 50.389791 54.528149 0.000000 33.000000 14.451003 2.000000
-21.918474 51.003816 57.601116 0.000000 43.000000 14.198850 0.000000
-24.459662 52.634042 55.793100 0.000000 39.000000 14.662176 10.000000
-24.944226 51.551918 51.883758 0.000000 51.000000 14.858270 22.000000
-25.203336 51.326301 53.317810 0.000000 36.000000 14.068629 0.000000
-25.159428 51.509412 53.511872 0.000000 37.000000 14.169286 0.000000
-24.984798 50.676578 52.283572 0.000000 34.000000 14.030434 0.000000
-24.632736 51.724783 53.850788 0.000000 43.000000 14.510715 19.000000
-25.905512 53.472777 55.795017 0.000000 59.000000 14.516497 23.000000
-21.630509 51.462806 57.598621 0.000000 49.000000 14.710162 14.000000
-23.098891 52.557180 57.817664 0.000000 67.000000 14.676989 28.000000
-22.418254 49.994667 54.311791 0.000000 44.000000 14.237632 0.000000
-24.481602 50.929857 52.183576 0.000000 68.000000 14.533395 11.000000
-22.620723 49.966483 54.262186 0.000000 30.000000 14.121697 0.000000
-25.654133 53.221981 55.038722 0.000000 74.000000 14.711182 23.000000
-22.791050 49.943580 54.123404 0.000000 17.000000 14.056897 0.000000
-23.146215 51.452132 56.600871 0.000000 42.000000 14.203605 0.000000
-24.494121 51.725012 53.821751 0.000000 54.000000 14.596261 19.000000
-24.472698 50.959276 53.081257 0.000000 32.000000 14.263897 30.000000
-25.944174 53.590358 54.281008 0.000000 59.000000 15.086726 12.000000
-23.423643 51.390650 56.009128 0.000000 41.000000 14.200450 0.000000
-23.587801 51.349350 55.797338 0.000000 40.000000 14.149025 0.000000
-23.694963 51.315917 55.432298 0.000000 39.000000 14.185506 0.000000
-24.115848 50.600470 52.557201 0.000000 49.000000 14.356303 18.000000
-23.705864 50.167632 52.053804 0.000000 38.000000 14.413966 17.000000
-23.803681 51.943081 56.983728 0.000000 29.000000 14.095259 0.000000
-23.897707 49.867300 51.747917 0.000000 44.000000 14.179271 0.000000
-23.861319 50.671834 53.846404 0.000000 36.000000 14.123790 0.000000
-26.222318 52.573577 53.767622 0.000000 42.000000 14.322362 0.000000
-26.152056 53.570171 55.677831 0.000000 65.000000 14.495436 23.000000
-26.257264 53.538324 55.530874 0.000000 38.000000 14.462053 23.000000
-22.737536 50.241693 53.618998 0.000000 46.000000 14.482363 1.000000
-23.553479 50.324557 53.342856 0.000000 35.000000 14.191494 0.000000
-24.364718 51.216987 53.336630 0.000000 62.000000 14.436678 30.000000
-23.576854 50.473608 53.706159 0.000000 35.000000 14.173181 0.000000
-22.926379 52.279785 57.907486 0.000000 60.000000 14.528169 28.000000
-23.580010 50.634004 54.014058 0.000000 36.000000 14.192977 0.000000
-20.316143 49.193676 54.366304 0.000000 49.000000 14.752375 6.000000
-24.468498 51.786002 54.095092 0.000000 59.000000 14.566750 19.000000
-21.049675 49.394819 53.951631 0.000000 35.000000 14.643373 3.000000
-23.583806 50.968039 54.607318 0.000000 37.000000 14.251590 0.000000
-24.457556 50.452156 51.983819 0.000000 44.000000 14.245141 0.000000
-23.699220 51.301717 55.486046 0.000000 36.000000 14.154473 0.000000
-23.731491 51.481176 55.846160 0.000000 40.000000 14.155746 0.000000
-23.797177 51.658291 56.301908 0.000000 32.000000 14.105311 0.000000
-23.903428 51.842004 56.862568 0.000000 31.000000 14.003069 0.000000
-25.168712 52.277517 53.590119 0.000000 54.000000 14.729213 25.000000
-25.048239 52.162057 53.781105 0.000000 64.000000 14.643052 25.000000
-20.495287 48.520352 54.124374 0.000000 34.000000 14.216526 0.000000
-25.258931 53.112747 55.336263 0.000000 64.000000 14.744718 23.000000
-25.754362 53.609030 55.591111 0.000000 84.000000 14.771391 23.000000
-20.880030 49.358382 53.942146 0.000000 41.000000 14.711205 3.000000
-21.255921 49.250484 53.522616 0.000000 51.000000 14.561548 3.000000
-20.510963 49.492606 53.997111 0.000000 46.000000 14.997999 3.000000
-24.047860 50.623473 52.633982 0.000000 49.000000 14.385757 18.000000
-22.759692 49.952106 53.679024 0.000000 36.000000 14.227619 0.000000
-25.759599 52.414054 53.965472 0.000000 40.000000 14.387097 0.000000
-23.432970 49.850043 52.477708 0.000000 34.000000 14.178560 0.000000
-24.013173 50.965844 52.935021 0.000000 57.000000 14.568497 30.000000
-23.508017 52.148936 57.751303 0.000000 39.000000 14.161272 0.000000
-26.302541 52.675447 54.063167 0.000000 34.000000 14.259100 0.000000
-20.944811 49.278852 53.310530 0.000000 47.000000 14.823585 3.000000
-21.621655 49.594976 54.221928 0.000000 45.000000 14.395291 5.000000
-24.016642 51.977537 56.540246 0.000000 40.000000 14.152092 0.000000
-24.635307 51.927008 53.866588 0.000000 63.000000 14.659650 19.000000
-24.526570 51.751178 55.485823 0.000000 32.000000 14.048098 0.000000
-25.628796 51.194687 51.874929 0.000000 24.000000 14.212210 0.000000
-25.313349 50.984680 51.879642 0.000000 37.000000 14.221512 0.000000
-25.979081 52.740004 54.421013 0.000000 62.000000 14.367165 12.000000
-23.682935 49.763644 51.718305 0.000000 34.000000 14.226717 0.000000
-22.427261 50.010338 54.295539 0.000000 49.000000 14.250141 0.000000
-24.514083 50.731324 51.197946 0.000000 50.000000 14.689009 7.000000
-22.219925 49.183096 53.181564 0.000000 31.000000 14.095643 0.000000
-21.645457 51.487093 57.613721 0.000000 36.000000 14.715679 14.000000
-22.159105 49.321212 53.404769 0.000000 31.000000 14.161288 0.000000
-25.291628 53.128720 56.091177 0.000000 43.000000 14.489371 16.000000
-22.116705 49.455201 53.669970 0.000000 42.000000 14.199797 0.000000
-22.326624 49.730055 52.550711 0.000000 50.000000 14.666806 29.000000
-22.092627 49.585615 53.993194 0.000000 34.000000 14.206344 0.000000
-22.272487 50.863236 56.595255 0.000000 41.000000 14.229997 0.000000
-21.786514 51.335125 57.577688 0.000000 51.000000 14.533597 14.000000
-21.310303 49.904683 54.442415 0.000000 46.000000 14.730773 5.000000
-25.476500 52.010406 53.618062 0.000000 51.000000 14.346255 0.000000
-22.046279 50.148359 55.409514 0.000000 39.000000 14.195997 0.000000
-22.107193 50.435880 56.355550 0.000000 31.000000 14.070892 0.000000
-22.084028 50.603051 56.651176 0.000000 28.000000 14.114348 0.000000
-22.058648 50.776304 56.937470 0.000000 36.000000 14.166780 0.000000
-25.254844 51.256391 53.194171 0.000000 32.000000 14.027601 0.000000
-24.290838 50.791418 52.022439 0.000000 55.000000 14.584475 11.000000
-20.833736 49.313442 53.807636 0.000000 45.000000 14.746439 3.000000
-21.952951 49.516538 53.955001 0.000000 25.000000 14.242184 0.000000
-25.477390 52.756219 55.918429 0.000000 41.000000 14.158433 0.000000
-24.041513 51.354592 53.407402 0.000000 43.000000 14.695777 30.000000
-24.125038 51.937557 55.126161 0.000000 56.000000 14.529938 9.000000
-26.178680 53.455551 55.939770 0.000000 59.000000 14.306047 0.000000
-22.108568 50.592766 56.579918 0.000000 32.000000 14.116598 0.000000
-22.255890 50.583893 56.315987 0.000000 40.000000 14.116571 0.000000
-21.871650 50.666443 56.843883 0.000000 32.000000 14.215438 0.000000
-25.064773 51.194095 52.633107 0.000000 32.000000 14.269194 0.000000
-22.407404 49.759050 52.404760 0.000000 67.000000 14.693246 29.000000
-21.651696 49.455329 54.248717 0.000000 47.000000 14.262581 5.000000
-25.344069 53.609037 56.068867 0.000000 70.000000 14.837587 16.000000
-25.149078 51.262850 51.945406 0.000000 69.000000 14.503531 22.000000
-23.686004 51.972397 57.125283 0.000000 37.000000 14.135298 0.000000
-22.853740 49.910635 52.572660 0.000000 77.000000 14.510352 4.000000
-23.756185 50.787293 53.862226 0.000000 40.000000 14.264840 0.000000
-24.277388 51.276975 52.442918 0.000000 42.000000 14.826242 11.000000
-22.441865 51.338437 57.033445 0.000000 26.000000 14.358007 15.000000
-24.006694 51.820928 56.027192 0.000000 40.000000 14.206796 0.000000
-23.833053 51.015830 53.006106 0.000000 64.000000 14.681881 30.000000
-24.550176 52.457334 55.838241 0.000000 53.000000 14.461830 10.000000
-23.442426 50.391478 52.111925 0.000000 56.000000 14.710926 17.000000
-24.075795 50.093663 51.845563 0.000000 29.000000 14.223763 0.000000
-20.517936 48.838169 53.819046 0.000000 54.000000 14.549654 3.000000
-24.719003 50.626039 50.756390 0.000000 70.000000 14.642100 7.000000
-24.864510 52.037830 53.504830 0.000000 39.000000 14.739313 25.000000
-20.672477 48.489835 53.841281 0.000000 37.000000 14.189864 0.000000
-23.384147 50.034268 51.739109 0.000000 60.000000 14.591331 17.000000
-24.011898 49.884579 51.503233 0.000000 43.000000 14.211103 0.000000
-24.061194 50.012176 51.632950 0.000000 30.000000 14.239401 0.000000
-23.976043 50.134378 52.132441 0.000000 48.000000 14.214693 0.000000
-24.543208 51.222508 52.389408 0.000000 79.000000 14.656755 11.000000
-21.243408 49.751815 55.762548 0.000000 28.000000 14.212973 0.000000
-23.135424 52.250298 57.252396 0.000000 53.000000 14.607961 8.000000
-24.589509 52.838927 55.933603 0.000000 72.000000 14.702334 10.000000
-25.229827 52.465213 53.960539 0.000000 42.000000 14.717646 25.000000
-23.995608 51.812084 56.117422 0.000000 39.000000 14.176200 0.000000
-25.227117 52.705784 54.372766 0.000000 55.000000 14.767810 24.000000
-24.011441 51.992875 56.512567 0.000000 42.000000 14.175892 0.000000
-23.939801 50.926760 52.816455 0.000000 55.000000 14.617762 18.000000
-24.079454 52.179221 57.045789 0.000000 42.000000 14.105653 0.000000
-23.675580 50.946600 54.401862 0.000000 48.000000 14.252910 0.000000
-25.213850 51.385207 51.880590 0.000000 64.000000 14.583700 22.000000
-21.124045 49.869156 55.172669 0.000000 36.000000 14.563643 6.000000
-23.747823 51.278010 55.159928 0.000000 39.000000 14.217566 0.000000
-24.572559 52.150383 54.515561 0.000000 56.000000 14.651073 19.000000
-24.317026 51.679090 54.032879 0.000000 48.000000 14.587880 19.000000
-23.830716 51.821043 56.203636 0.000000 65.000000 14.244693 0.000000
-25.155855 51.158118 51.806377 0.000000 59.000000 14.465257 22.000000
-24.052184 52.191382 57.332952 0.000000 31.000000 14.034906 0.000000
-26.141718 52.706654 54.079495 0.000000 41.000000 14.365607 0.000000
-25.086131 51.064142 52.782406 0.000000 23.000000 14.108155 0.000000
-21.795937 50.535648 56.808181 0.000000 38.000000 14.168015 0.000000
-25.586565 53.319080 55.089724 0.000000 45.000000 14.805936 23.000000
-25.556731 51.902330 52.544989 0.000000 75.000000 14.574286 22.000000
-22.155572 50.511508 56.418628 0.000000 37.000000 14.081759 0.000000
-24.935889 51.365045 52.103218 0.000000 61.000000 14.646460 22.000000
-22.265755 50.514678 56.020254 0.000000 39.000000 14.155776 0.000000
-25.386439 52.757354 54.691809 0.000000 55.000000 14.614844 24.000000
-26.051489 53.406082 54.238695 0.000000 47.000000 14.900309 12.000000
-24.981668 51.511838 52.949185 0.000000 67.000000 14.454477 11.000000
-25.565797 52.201795 53.863595 0.000000 65.000000 14.363444 25.000000
-21.709615 49.291673 53.797483 0.000000 40.000000 14.254317 0.000000
-24.193149 51.251905 54.206976 0.000000 30.000000 14.269363 0.000000
-25.399270 52.952151 55.159642 0.000000 50.000000 14.602902 23.000000
-24.988818 53.129529 55.888055 0.000000 47.000000 14.722704 16.000000
-21.786890 51.539681 57.887187 0.000000 56.000000 14.588354 14.000000
-23.834008 50.809626 52.557317 0.000000 74.000000 14.671212 18.000000
-24.649480 50.574012 50.796437 0.000000 56.000000 14.626826 7.000000
-23.544106 50.278363 53.180246 0.000000 34.000000 14.214880 0.000000
-24.993688 51.441535 53.151358 0.000000 50.000000 14.326935 11.000000
-24.091275 50.066365 51.865716 0.000000 27.000000 14.187635 0.000000
-24.176080 50.022199 51.573551 0.000000 45.000000 14.203969 0.000000
-24.974281 51.298444 52.136269 0.000000 56.000000 14.563307 22.000000
-24.275089 52.530627 57.275383 0.000000 40.000000 14.193093 0.000000
-23.746032 50.484158 52.591079 0.000000 48.000000 14.457751 17.000000
-25.091400 50.980160 51.990188 0.000000 51.000000 14.302773 22.000000
-25.533543 53.443710 56.225246 0.000000 63.000000 14.555105 16.000000
-25.761032 51.962984 52.918822 0.000000 31.000000 14.385598 21.000000
-25.602510 53.555606 56.044136 0.000000 56.000000 14.663409 27.000000
-25.204113 53.208219 55.938139 0.000000 44.000000 14.648994 16.000000
-25.101050 52.462000 54.140429 0.000000 56.000000 14.726044 24.000000
-22.263870 49.469505 53.459531 0.000000 42.000000 14.199988 0.000000
-20.432483 49.805040 54.891237 0.000000 36.000000 14.985423 6.000000
-24.256385 50.068658 51.446987 0.000000 28.000000 14.237689 0.000000
-22.389193 49.886466 52.639335 0.000000 59.000000 14.723610 29.000000
-24.310233 50.334840 51.898876 0.000000 37.000000 14.263519 0.000000
-22.426981 51.007437 56.621678 0.000000 41.000000 14.247743 0.000000
-24.878858 50.821284 51.399647 0.000000 49.000000 14.492103 7.000000
-22.212941 49.994391 54.839848 0.000000 44.000000 14.174932 0.000000
-22.196152 50.140935 55.173074 0.000000 46.000000 14.186595 0.000000
-24.520290 51.288793 53.716082 0.000000 37.000000 14.281344 30.000000
-22.223311 50.427967 56.004702 0.000000 38.000000 14.117415 0.000000
-22.640642 51.048324 56.432201 0.000000 34.000000 14.225103 0.000000
-24.443548 51.771782 54.861349 0.000000 58.000000 14.315933 0.000000
-26.243281 53.714612 55.559404 0.000000 87.000000 14.595871 23.000000
-25.314809 51.440768 53.452916 0.000000 35.000000 14.051058 0.000000
-20.663707 49.292909 54.028976 0.000000 46.000000 14.750347 3.000000
-25.087791 50.967221 52.751114 0.000000 30.000000 14.043041 0.000000
-22.750121 52.063021 57.344291 0.000000 48.000000 14.644087 8.000000
-21.611384 49.242899 53.876471 0.000000 42.000000 14.244354 0.000000
-21.775865 49.244776 53.695935 0.000000 36.000000 14.215626 0.000000
-20.825507 49.339783 53.653335 0.000000 61.000000 14.822251 3.000000
-23.435836 50.317587 52.272118 0.000000 29.000000 14.604686 17.000000
-24.026582 51.902972 54.750480 0.000000 57.000000 14.681440 9.000000
-22.621040 51.083961 56.852421 0.000000 32.000000 14.124202 0.000000
-22.729230 51.062062 56.483401 0.000000 39.000000 14.170311 0.000000
-24.889509 52.551012 54.239527 0.000000 57.000000 14.877357 24.000000
-24.239943 51.606124 54.014199 0.000000 58.000000 14.580060 19.000000
-22.691144 50.248612 54.354175 0.000000 46.000000 14.269809 2.000000
-23.295340 50.909287 55.509972 0.000000 29.000000 14.065420 0.000000
-23.324300 50.887853 54.988011 0.000000 38.000000 14.205792 0.000000
-23.778707 51.492896 54.900943 0.000000 41.000000 14.451679 9.000000
-25.138640 51.506444 52.491361 0.000000 43.000000 14.516000 22.000000
-23.569758 50.794490 54.473224 0.000000 32.000000 14.170126 0.000000
-24.195543 52.322804 57.257136 0.000000 42.000000 14.082734 0.000000
-23.653925 50.750913 54.127889 0.000000 44.000000 14.204852 0.000000
-25.253070 53.355186 55.888736 0.000000 63.000000 14.751639 16.000000
-24.940459 53.461625 56.078506 0.000000 60.000000 14.941601 16.000000
-24.769743 50.754639 50.927987 0.000000 53.000000 14.656523 7.000000
-24.737756 51.952332 55.625731 0.000000 39.000000 14.041124 0.000000
-24.224628 50.419283 52.446785 0.000000 30.000000 14.193994 0.000000
-24.299674 50.359951 52.158714 0.000000 34.000000 14.202641 0.000000
-24.382896 50.295462 51.892556 0.000000 49.000000 14.195602 0.000000
-24.474563 51.243804 53.123140 0.000000 57.000000 14.467902 30.000000
-24.644575 50.134391 51.581154 0.000000 31.000000 14.031692 0.000000
-24.689942 50.074056 51.256706 0.000000 28.000000 14.067824 0.000000
-25.303893 51.366421 53.356921 0.000000 35.000000 14.031590 0.000000
-25.424195 51.027872 51.863208 0.000000 42.000000 14.199590 0.000000
-25.468399 52.623683 54.389600 0.000000 53.000000 14.567202 24.000000
-22.841060 50.060517 53.521685 0.000000 51.000000 14.318599 1.000000
-20.853426 48.650295 53.724104 0.000000 42.000000 14.253167 0.000000
-24.473717 52.293621 55.736625 0.000000 45.000000 14.411299 10.000000
