-5.942825 -56.800884 15.096533 0.000000 64.000000 15.096533 29.000000
-6.604355 -56.103242 15.004853 0.000000 79.000000 15.004853 11.000000
-5.146599 -52.662767 14.307002 0.000000 68.000000 14.307002 9.000000
-2.057142 -58.546478 14.612200 0.000000 65.000000 14.612200 17.000000
-5.954306 -54.102097 14.705535 0.000000 37.000000 14.705535 30.000000
-0.822634 -55.187469 15.130292 0.000000 82.000000 15.130292 13.000000
-3.210164 -54.058459 14.591029 0.000000 52.000000 14.591029 3.000000
-2.269392 -54.522702 14.227581 0.000000 32.000000 14.227581 0.000000
-3.169844 -55.080234 14.573834 0.000000 56.000000 14.573834 21.000000
-6.031374 -56.256532 15.021606 0.000000 42.000000 15.021606 29.000000
-5.797601 -52.442966 14.522322 0.000000 74.000000 14.522322 10.000000
-4.394021 -54.286124 14.661724 0.000000 48.000000 14.661724 26.000000
-5.005839 -54.657172 14.697625 0.000000 67.000000 14.697625 26.000000
-4.712541 -52.596958 14.248942 0.000000 41.000000 14.248942 0.000000
-4.481259 -56.955965 15.142081 0.000000 74.000000 15.142081 24.000000
-6.162464 -52.743864 14.312850 0.000000 60.000000 14.312850 10.000000
-4.792575 -54.511947 14.727155 0.000000 63.000000 14.727155 26.000000
-3.653828 -53.140180 14.673697 0.000000 75.000000 14.673697 8.000000
-3.932359 -55.236026 14.775983 0.000000 66.000000 14.775983 23.000000
-6.229240 -55.376671 14.591804 0.000000 66.000000 14.591804 11.000000
-3.786055 -57.094492 14.714697 0.000000 59.000000 14.714697 22.000000
-6.289809 -53.744485 14.817027 0.000000 64.000000 14.817027 11.000000
-6.414901 -52.741671 14.621816 0.000000 77.000000 14.621816 10.000000
-1.886068 -57.313897 14.224536 0.000000 23.000000 14.224536 0.000000
-3.929959 -55.543170 14.682748 0.000000 63.000000 14.682748 23.000000
-6.687301 -52.908029 14.533151 0.000000 50.000000 14.533151 10.000000
-2.024950 -56.055197 14.228324 0.000000 38.000000 14.228324 0.000000
-3.030332 -58.496897 14.581902 0.000000 61.000000 14.581902 19.000000
-6.336500 -56.270947 14.546636 0.000000 60.000000 14.546636 29.000000
-5.910513 -57.355227 14.829661 0.000000 72.000000 14.829661 29.000000
-2.240902 -56.036264 14.229926 0.000000 35.000000 14.229926 0.000000
-2.345808 -57.287046 14.282327 0.000000 33.000000 14.282327 0.000000
-2.206128 -54.631031 14.645016 0.000000 60.000000 14.645016 13.000000
-5.021984 -52.554140 14.338468 0.000000 57.000000 14.338468 9.000000
-3.301217 -53.511547 14.534088 0.000000 53.000000 14.534088 23.000000
-2.524227 -57.223566 14.137431 0.000000 24.000000 14.137431 0.000000
-6.459586 -57.111261 14.864178 0.000000 54.000000 14.864178 11.000000
-1.527052 -54.922446 14.636624 0.000000 67.000000 14.636624 13.000000
-2.763020 -57.180509 14.200732 0.000000 25.000000 14.200732 0.000000
-3.313924 -56.995153 14.233876 0.000000 24.000000 14.233876 0.000000
-5.579399 -56.268624 14.689838 0.000000 67.000000 14.689838 27.000000
-4.729185 -56.090647 14.243325 0.000000 28.000000 14.243325 0.000000
-6.420955 -54.393615 14.745576 0.000000 74.000000 14.745576 11.000000
-5.530809 -53.937920 14.134257 0.000000 40.000000 14.134257 0.000000
-2.965342 -56.638629 14.498684 0.000000 52.000000 14.498684 20.000000
-3.627122 -53.023398 14.786099 0.000000 74.000000 14.786099 8.000000
-4.728398 -55.233410 14.783689 0.000000 64.000000 14.783689 25.000000
-1.740814 -52.993590 14.293874 0.000000 37.000000 14.293874 0.000000
-1.700759 -53.122722 14.258856 0.000000 30.000000 14.258856 0.000000
-3.576641 -52.697795 14.781564 0.000000 61.000000 14.781564 8.000000
-1.627330 -53.546284 14.242007 0.000000 29.000000 14.242007 0.000000
-5.395215 -54.155505 14.908749 0.000000 53.000000 14.908749 30.000000
-4.498151 -55.235924 14.921216 0.000000 72.000000 14.921216 25.000000
-6.066998 -58.518465 14.917130 0.000000 65.000000 14.917130 15.000000
-1.604937 -53.839513 14.267934 0.000000 27.000000 14.267934 0.000000
-2.823509 -55.663053 14.740211 0.000000 57.000000 14.740211 21.000000
-3.272733 -55.154923 14.654997 0.000000 61.000000 14.654997 21.000000
-2.996123 -55.526022 14.882974 0.000000 54.000000 14.882974 21.000000
-5.037792 -58.332587 14.379268 0.000000 53.000000 14.379268 18.000000
-6.624964 -53.442373 14.869250 0.000000 69.000000 14.869250 10.000000
-1.551109 -53.540252 14.255235 0.000000 33.000000 14.255235 0.000000
-5.958175 -52.620545 14.785284 0.000000 75.000000 14.785284 10.000000
-1.555977 -53.673251 14.248943 0.000000 34.000000 14.248943 0.000000
-2.979608 -54.284299 14.740630 0.000000 58.000000 14.740630 3.000000
-5.828920 -55.975737 14.910705 0.000000 74.000000 14.910705 29.000000
-1.622280 -54.322216 14.235694 0.000000 31.000000 14.235694 0.000000
-1.670359 -54.947696 14.383754 0.000000 35.000000 14.383754 13.000000
-4.276630 -58.297316 14.466541 0.000000 75.000000 14.466541 18.000000
-6.338793 -56.467521 14.738338 0.000000 56.000000 14.738338 29.000000
-3.327984 -52.612787 14.756684 0.000000 65.000000 14.756684 8.000000
-2.819766 -58.370402 14.831411 0.000000 51.000000 14.831411 19.000000
-4.542808 -54.225245 14.370884 0.000000 52.000000 14.370884 26.000000
-1.855111 -56.464456 14.225492 0.000000 25.000000 14.225492 0.000000
-5.741594 -54.420983 14.713021 0.000000 83.000000 14.713021 30.000000
-5.802996 -55.059717 14.903451 0.000000 60.000000 14.903451 30.000000
-3.106560 -55.523982 14.827793 0.000000 65.000000 14.827793 21.000000
-6.339264 -58.201298 14.303717 0.000000 43.000000 14.303717 15.000000
-6.227005 -56.071773 14.902020 0.000000 69.000000 14.902020 29.000000
-3.285823 -55.261771 14.761633 0.000000 52.000000 14.761633 21.000000
-2.105573 -55.825372 14.234106 0.000000 29.000000 14.234106 0.000000
-4.331306 -57.513174 14.642865 0.000000 46.000000 14.642865 24.000000
-2.212364 -56.020334 14.225719 0.000000 38.000000 14.225719 0.000000
-5.351937 -58.339564 14.682383 0.000000 67.000000 14.682383 16.000000
-2.253098 -57.330089 14.235070 0.000000 28.000000 14.235070 0.000000
-2.323203 -56.201936 14.205145 0.000000 32.000000 14.205145 0.000000
-3.741414 -58.398053 14.429402 0.000000 55.000000 14.429402 18.000000
-3.523605 -52.508903 14.596561 0.000000 65.000000 14.596561 8.000000
-6.638763 -54.108633 14.890368 0.000000 59.000000 14.890368 11.000000
-3.696570 -53.353192 14.645123 0.000000 48.000000 14.645123 23.000000
-3.618656 -52.903266 14.678087 0.000000 69.000000 14.678087 8.000000
-6.008800 -55.615852 15.044838 0.000000 72.000000 15.044838 29.000000
-4.730887 -55.269777 14.678646 0.000000 69.000000 14.678646 25.000000
-2.576874 -56.537443 14.176468 0.000000 34.000000 14.176468 0.000000
-2.598743 -54.091211 14.346953 0.000000 44.000000 14.346953 3.000000
-5.052908 -55.838928 14.895422 0.000000 66.000000 14.895422 28.000000
-4.153373 -57.994979 14.458282 0.000000 73.000000 14.458282 18.000000
-0.775672 -58.738925 15.025407 0.000000 63.000000 15.025407 7.000000
-6.109775 -58.292338 14.741917 0.000000 70.000000 14.741917 15.000000
-5.350646 -55.495390 14.485703 0.000000 51.000000 14.485703 28.000000
-5.291120 -57.646312 14.997862 0.000000 76.000000 14.997862 27.000000
-4.538319 -56.691258 15.116343 0.000000 69.000000 15.116343 24.000000
-3.965265 -52.929025 14.307372 0.000000 56.000000 14.307372 4.000000
-6.540634 -57.875059 14.232841 0.000000 24.000000 14.232841 0.000000
-5.558582 -57.440480 14.882625 0.000000 75.000000 14.882625 27.000000
-4.544099 -55.146246 14.798686 0.000000 63.000000 14.798686 25.000000
-4.146653 -52.459587 14.256890 0.000000 29.000000 14.256890 0.000000
-4.108919 -53.523437 14.149351 0.000000 27.000000 14.149351 0.000000
-0.821504 -53.628296 14.671687 0.000000 68.000000 14.671687 1.000000
-4.087743 -53.798426 14.110614 0.000000 31.000000 14.110614 0.000000
-5.375094 -57.208481 14.905645 0.000000 70.000000 14.905645 27.000000
-4.118686 -54.917453 14.089194 0.000000 27.000000 14.089194 0.000000
-5.273220 -57.823324 14.972228 0.000000 76.000000 14.972228 27.000000
-4.770167 -56.039796 14.224674 0.000000 31.000000 14.224674 0.000000
-4.673416 -54.367296 14.612197 0.000000 36.000000 14.612197 26.000000
-6.250283 -57.268176 14.820210 0.000000 69.000000 14.820210 29.000000
-5.705591 -53.185728 14.601361 0.000000 57.000000 14.601361 10.000000
-6.124213 -57.261823 15.032025 0.000000 70.000000 15.032025 29.000000
-3.334791 -53.382726 14.609226 0.000000 65.000000 14.609226 23.000000
-5.825459 -56.778790 15.008018 0.000000 72.000000 15.008018 29.000000
-6.581878 -55.360644 15.067475 0.000000 52.000000 15.067475 11.000000
-6.024672 -57.590554 14.197350 0.000000 29.000000 14.197350 0.000000
-6.096012 -58.064766 14.728582 0.000000 62.000000 14.728582 15.000000
-4.710361 -54.775983 14.646426 0.000000 67.000000 14.646426 26.000000
-6.351453 -57.783449 14.203323 0.000000 29.000000 14.203323 0.000000
-6.434425 -57.822240 14.197770 0.000000 30.000000 14.197770 0.000000
-6.518397 -57.858115 14.193433 0.000000 28.000000 14.193433 0.000000
-5.535590 -54.381884 14.602881 0.000000 36.000000 14.602881 30.000000
-6.133661 -52.407584 14.243442 0.000000 41.000000 14.243442 0.000000
-5.945124 -58.523947 14.694359 0.000000 79.000000 14.694359 15.000000
-4.621817 -55.484088 14.886405 0.000000 64.000000 14.886405 25.000000
-1.312407 -53.872789 14.628199 0.000000 57.000000 14.628199 2.000000
-6.477888 -52.931316 14.712315 0.000000 61.000000 14.712315 10.000000
-4.784415 -56.753695 14.997685 0.000000 64.000000 14.997685 24.000000
-0.966406 -53.775371 14.251425 0.000000 37.000000 14.251425 0.000000
-3.636998 -56.376227 14.657348 0.000000 44.000000 14.657348 22.000000
-5.936915 -57.413438 14.522655 0.000000 70.000000 14.522655 29.000000
-3.698002 -52.841624 14.751132 0.000000 69.000000 14.751132 8.000000
-6.466360 -52.505998 14.590785 0.000000 70.000000 14.590785 10.000000
-4.444414 -58.505366 14.576120 0.000000 71.000000 14.576120 18.000000
-3.167671 -53.172646 14.326670 0.000000 36.000000 14.326670 3.000000
-5.739628 -54.826118 14.898239 0.000000 58.000000 14.898239 30.000000
-0.987540 -56.408163 14.171871 0.000000 27.000000 14.171871 0.000000
-4.403548 -52.936302 14.634493 0.000000 51.000000 14.634493 4.000000
-1.997115 -55.312853 14.380030 0.000000 36.000000 14.380030 13.000000
-0.796762 -54.939167 14.611220 0.000000 47.000000 14.611220 13.000000
-1.838568 -56.278590 14.228473 0.000000 28.000000 14.228473 0.000000
-6.207550 -55.810136 14.836546 0.000000 53.000000 14.836546 29.000000
-6.349699 -52.932016 14.863837 0.000000 74.000000 14.863837 10.000000
-5.019767 -52.753812 14.631639 0.000000 75.000000 14.631639 9.000000
-4.667091 -58.560123 14.430030 0.000000 51.000000 14.430030 18.000000
-5.319308 -57.756757 15.040077 0.000000 52.000000 15.040077 27.000000
-2.392639 -56.067575 14.141302 0.000000 24.000000 14.141302 0.000000
-2.391973 -54.838855 14.196112 0.000000 34.000000 14.196112 0.000000
-5.413955 -56.443417 15.037774 0.000000 53.000000 15.037774 27.000000
-4.739704 -58.580049 14.372566 0.000000 33.000000 14.372566 18.000000
-3.746602 -53.222862 14.315458 0.000000 36.000000 14.315458 8.000000
-3.193872 -53.005118 14.293618 0.000000 41.000000 14.293618 8.000000
-5.063151 -52.626732 14.296395 0.000000 62.000000 14.296395 9.000000
-2.955160 -54.599681 14.248779 0.000000 30.000000 14.248779 0.000000
-5.714130 -53.203499 14.625394 0.000000 59.000000 14.625394 10.000000
-5.146851 -56.678143 14.847880 0.000000 79.000000 14.847880 27.000000
-4.004379 -55.073638 14.104967 0.000000 30.000000 14.104967 0.000000
-5.535471 -57.392304 15.041839 0.000000 71.000000 15.041839 27.000000
-6.355871 -54.499690 14.607956 0.000000 79.000000 14.607956 11.000000
-4.315625 -54.837051 14.192623 0.000000 22.000000 14.192623 0.000000
-4.823911 -52.968829 14.588576 0.000000 78.000000 14.588576 9.000000
-4.417947 -56.918957 15.037330 0.000000 70.000000 15.037330 24.000000
-6.375152 -53.906960 14.907022 0.000000 42.000000 14.907022 11.000000
-5.197691 -53.082189 14.637008 0.000000 58.000000 14.637008 9.000000
-1.341620 -53.460498 14.822945 0.000000 33.000000 14.822945 2.000000
-5.331952 -56.764787 14.944253 0.000000 65.000000 14.944253 27.000000
-6.542497 -53.817248 14.885347 0.000000 68.000000 14.885347 11.000000
-5.421330 -55.532820 14.618508 0.000000 75.000000 14.618508 28.000000
-6.188941 -52.308731 14.232944 0.000000 46.000000 14.232944 0.000000
-2.958669 -53.504453 14.811108 0.000000 83.000000 14.811108 3.000000
-3.874332 -55.607794 14.758070 0.000000 69.000000 14.758070 23.000000
-6.307586 -53.137389 14.767893 0.000000 71.000000 14.767893 10.000000
-1.158534 -57.021469 14.275999 0.000000 22.000000 14.275999 0.000000
-5.478411 -54.266878 14.872674 0.000000 81.000000 14.872674 30.000000
-1.616533 -56.217741 14.287357 0.000000 32.000000 14.287357 0.000000
-5.723848 -56.887909 14.893190 0.000000 79.000000 14.893190 29.000000
-6.111017 -54.475711 15.010044 0.000000 73.000000 15.010044 30.000000
-4.970043 -55.491607 14.427272 0.000000 62.000000 14.427272 28.000000
-6.473551 -53.740781 14.915476 0.000000 69.000000 14.915476 11.000000
-1.938204 -56.428508 14.237838 0.000000 30.000000 14.237838 0.000000
-6.626553 -54.763094 14.872820 0.000000 79.000000 14.872820 11.000000
-5.846346 -54.148595 14.520984 0.000000 65.000000 14.520984 30.000000
-5.927169 -57.922684 14.647598 0.000000 69.000000 14.647598 15.000000
-2.112076 -56.514923 14.227058 0.000000 30.000000 14.227058 0.000000
-2.125483 -57.783066 14.220207 0.000000 25.000000 14.220207 0.000000
-3.752144 -58.592805 14.782886 0.000000 68.000000 14.782886 18.000000
-4.064524 -58.027071 14.698459 0.000000 78.000000 14.698459 18.000000
-6.873265 -58.265699 14.907638 0.000000 43.000000 14.907638 12.000000
-5.794941 -53.191353 14.782088 0.000000 67.000000 14.782088 10.000000
-6.030122 -56.123323 14.993135 0.000000 77.000000 14.993135 29.000000
-6.172018 -56.168360 15.115207 0.000000 64.000000 15.115207 29.000000
-5.552530 -56.818784 14.357054 0.000000 39.000000 14.357054 27.000000
-4.549181 -56.007401 14.862790 0.000000 50.000000 14.862790 25.000000
-6.846436 -55.894045 14.827611 0.000000 69.000000 14.827611 11.000000
-5.873343 -54.153884 14.555943 0.000000 64.000000 14.555943 30.000000
-6.434148 -55.130222 15.039969 0.000000 58.000000 15.039969 11.000000
-3.312183 -58.002473 14.234159 0.000000 25.000000 14.234159 0.000000
-3.777972 -56.424227 14.576072 0.000000 59.000000 14.576072 22.000000
-6.344917 -57.015568 14.453768 0.000000 55.000000 14.453768 29.000000
-3.573621 -54.298641 14.853164 0.000000 29.000000 14.853164 23.000000
-2.660661 -53.764793 14.718972 0.000000 56.000000 14.718972 3.000000
-3.827272 -57.931306 14.249554 0.000000 23.000000 14.249554 0.000000
-5.221598 -52.839985 14.426503 0.000000 63.000000 14.426503 9.000000
-4.205276 -57.791611 14.099029 0.000000 22.000000 14.099029 0.000000
-5.252385 -53.278326 14.661747 0.000000 58.000000 14.661747 9.000000
-4.596349 -54.576180 14.707861 0.000000 72.000000 14.707861 26.000000
-4.911331 -56.229002 14.229201 0.000000 34.000000 14.229201 0.000000
-5.042734 -57.432666 14.753599 0.000000 60.000000 14.753599 24.000000
-6.311063 -58.086772 14.281651 0.000000 70.000000 14.281651 15.000000
-5.213381 -53.817763 14.632917 0.000000 75.000000 14.632917 9.000000
-0.867544 -56.202689 14.550346 0.000000 59.000000 14.550346 6.000000
-5.516276 -52.738532 14.611436 0.000000 50.000000 14.611436 10.000000
-6.381240 -56.887429 14.797364 0.000000 63.000000 14.797364 29.000000
-2.943628 -54.834741 14.273875 0.000000 27.000000 14.273875 0.000000
-5.965565 -54.927017 14.928146 0.000000 61.000000 14.928146 30.000000
-1.783343 -55.152303 14.806839 0.000000 67.000000 14.806839 13.000000
-1.609430 -56.312515 14.678187 0.000000 54.000000 14.678187 13.000000
-6.110399 -57.219004 15.156094 0.000000 73.000000 15.156094 29.000000
-5.414860 -52.750362 14.492692 0.000000 58.000000 14.492692 10.000000
-4.870941 -55.607138 14.309110 0.000000 45.000000 14.309110 25.000000
-4.362926 -54.795375 14.521807 0.000000 48.000000 14.521807 26.000000
-6.490362 -56.564121 14.539768 0.000000 56.000000 14.539768 11.000000
-6.006143 -54.203723 14.659676 0.000000 75.000000 14.659676 30.000000
-3.916948 -56.406748 14.261944 0.000000 32.000000 14.261944 0.000000
-4.124092 -54.779364 14.449379 0.000000 54.000000 14.449379 26.000000
-1.619819 -55.140394 14.939796 0.000000 60.000000 14.939796 13.000000
-2.830714 -53.935294 15.085453 0.000000 69.000000 15.085453 3.000000
-5.725735 -57.512428 14.092695 0.000000 32.000000 14.092695 0.000000
-6.252639 -56.841401 14.874587 0.000000 65.000000 14.874587 29.000000
-3.136851 -58.026608 14.484366 0.000000 49.000000 14.484366 19.000000
-1.765589 -55.680620 14.878497 0.000000 64.000000 14.878497 13.000000
-6.008436 -53.445940 14.758717 0.000000 66.000000 14.758717 10.000000
-6.615882 -53.722218 14.851257 0.000000 68.000000 14.851257 11.000000
-6.192541 -57.941932 14.529945 0.000000 77.000000 14.529945 15.000000
-0.961737 -57.998019 14.729293 0.000000 53.000000 14.729293 7.000000
-5.705642 -52.618721 14.962900 0.000000 69.000000 14.962900 10.000000
-4.655069 -56.107008 14.642982 0.000000 73.000000 14.642982 25.000000
-6.040482 -54.922782 15.028397 0.000000 65.000000 15.028397 30.000000
-5.202132 -52.642280 14.237526 0.000000 37.000000 14.237526 0.000000
-1.643174 -57.726559 14.700871 0.000000 61.000000 14.700871 14.000000
-5.258298 -52.522510 14.168180 0.000000 31.000000 14.168180 0.000000
-6.580508 -53.523801 14.676198 0.000000 62.000000 14.676198 11.000000
-5.281888 -52.795549 14.145963 0.000000 33.000000 14.145963 0.000000
-5.563732 -58.390956 14.594371 0.000000 72.000000 14.594371 16.000000
-6.833398 -58.306434 14.884053 0.000000 73.000000 14.884053 12.000000
-2.777368 -58.140865 14.678166 0.000000 31.000000 14.678166 19.000000
-6.122185 -52.965272 14.684295 0.000000 73.000000 14.684295 10.000000
-5.535931 -54.440441 15.015468 0.000000 83.000000 15.015468 30.000000
-1.282223 -57.336247 14.454740 0.000000 56.000000 14.454740 14.000000
-3.163137 -55.617899 14.780758 0.000000 49.000000 14.780758 21.000000
-5.430050 -55.628689 14.698023 0.000000 89.000000 14.698023 28.000000
-4.069551 -58.292363 14.914990 0.000000 77.000000 14.914990 18.000000
-2.746378 -57.899863 14.584200 0.000000 32.000000 14.584200 19.000000
-2.894050 -58.438856 14.770477 0.000000 54.000000 14.770477 19.000000
-2.329845 -57.105048 14.550169 0.000000 49.000000 14.550169 5.000000
-6.096216 -52.843141 14.554532 0.000000 52.000000 14.554532 10.000000
-0.798501 -53.846906 14.260545 0.000000 40.000000 14.260545 0.000000
-0.908629 -53.809318 14.218020 0.000000 38.000000 14.218020 0.000000
-6.119016 -53.075265 14.619354 0.000000 67.000000 14.619354 10.000000
-4.499470 -55.300150 14.978781 0.000000 63.000000 14.978781 25.000000
-2.337334 -53.038822 14.500151 0.000000 66.000000 14.500151 3.000000
-3.432095 -56.284477 14.531095 0.000000 66.000000 14.531095 22.000000
-5.846830 -53.268145 14.834020 0.000000 55.000000 14.834020 10.000000
-5.950951 -57.143984 15.133475 0.000000 64.000000 15.133475 29.000000
-2.364053 -54.506606 14.131678 0.000000 27.000000 14.131678 0.000000
-2.484260 -54.448285 14.140100 0.000000 23.000000 14.140100 0.000000
-6.031922 -52.584557 14.679389 0.000000 61.000000 14.679389 10.000000
-3.817526 -53.567053 14.205821 0.000000 30.000000 14.205821 0.000000
-1.686497 -56.845586 14.468122 0.000000 63.000000 14.468122 14.000000
-4.358393 -58.068627 14.928632 0.000000 51.000000 14.928632 18.000000
-4.387877 -58.476197 14.608216 0.000000 73.000000 14.608216 18.000000
-4.917220 -57.295951 14.886370 0.000000 41.000000 14.886370 24.000000
-4.889438 -52.514988 14.278144 0.000000 40.000000 14.278144 0.000000
-6.706272 -55.358213 14.577156 0.000000 39.000000 14.577156 11.000000
-6.163257 -54.984382 14.743309 0.000000 46.000000 14.743309 30.000000
-1.243380 -55.112890 14.761916 0.000000 52.000000 14.761916 13.000000
-5.360471 -57.798601 15.010672 0.000000 60.000000 15.010672 27.000000
-1.253137 -57.172646 14.304859 0.000000 21.000000 14.304859 0.000000
-6.320878 -55.252580 14.670795 0.000000 63.000000 14.670795 11.000000
-6.310199 -54.554992 14.544051 0.000000 62.000000 14.544051 30.000000
-5.150716 -55.851455 14.857211 0.000000 70.000000 14.857211 28.000000
-5.940237 -57.051230 15.181988 0.000000 69.000000 15.181988 29.000000
-1.308544 -53.017746 14.750652 0.000000 40.000000 14.750652 2.000000
-4.754647 -56.292041 14.785474 0.000000 63.000000 14.785474 24.000000
-3.064608 -53.449134 14.553093 0.000000 73.000000 14.553093 3.000000
-1.126036 -55.523694 14.748362 0.000000 54.000000 14.748362 13.000000
-2.229570 -56.004728 14.232038 0.000000 31.000000 14.232038 0.000000
-1.405169 -55.115575 15.013596 0.000000 54.000000 15.013596 13.000000
-6.727285 -54.351828 14.693948 0.000000 78.000000 14.693948 11.000000
-2.410672 -55.963431 14.126703 0.000000 29.000000 14.126703 0.000000
-2.488139 -57.205568 14.132124 0.000000 23.000000 14.132124 0.000000
-2.507735 -55.941590 14.099475 0.000000 24.000000 14.099475 0.000000
-2.602208 -57.188300 14.148482 0.000000 23.000000 14.148482 0.000000
-5.492132 -56.369444 15.003231 0.000000 52.000000 15.003231 27.000000
-4.512455 -55.037412 14.500774 0.000000 66.000000 14.500774 25.000000
-5.126168 -56.907837 14.825745 0.000000 69.000000 14.825745 27.000000
-2.154884 -56.865927 14.427401 0.000000 55.000000 14.427401 5.000000
-2.066562 -57.138671 14.532124 0.000000 51.000000 14.532124 5.000000
-4.283104 -55.137469 14.406442 0.000000 49.000000 14.406442 25.000000
-4.405417 -54.204146 14.794433 0.000000 66.000000 14.794433 26.000000
-0.526340 -53.258765 14.999250 0.000000 40.000000 14.999250 1.000000
-6.693179 -57.250542 14.715547 0.000000 68.000000 14.715547 11.000000
-1.957931 -52.463401 14.270514 0.000000 33.000000 14.270514 0.000000
-3.518919 -52.405352 14.595529 0.000000 72.000000 14.595529 8.000000
-3.339830 -57.270019 14.661070 0.000000 60.000000 14.661070 20.000000
-4.658164 -53.646462 14.435340 0.000000 44.000000 14.435340 4.000000
-2.375435 -53.068222 14.387952 0.000000 57.000000 14.387952 3.000000
-4.799377 -53.261612 14.528431 0.000000 34.000000 14.528431 9.000000
-5.743838 -55.092352 14.874779 0.000000 50.000000 14.874779 30.000000
-5.284049 -53.580453 14.735583 0.000000 77.000000 14.735583 9.000000
-1.766959 -53.729259 14.257698 0.000000 31.000000 14.257698 0.000000
-3.430382 -54.634395 14.554146 0.000000 59.000000 14.554146 23.000000
-2.839238 -56.985854 14.484739 0.000000 67.000000 14.484739 20.000000
-6.351484 -56.362882 14.920941 0.000000 75.000000 14.920941 29.000000
-6.460229 -52.882779 14.643180 0.000000 72.000000 14.643180 10.000000
-1.760089 -54.293101 14.287232 0.000000 27.000000 14.287232 0.000000
-4.332978 -54.146557 14.337945 0.000000 65.000000 14.337945 26.000000
-1.761381 -53.564689 14.257813 0.000000 41.000000 14.257813 0.000000
-0.811763 -58.005654 14.764408 0.000000 65.000000 14.764408 7.000000
-4.891717 -53.370504 14.522923 0.000000 61.000000 14.522923 9.000000
-1.800776 -53.948310 14.243538 0.000000 32.000000 14.243538 0.000000
-1.817575 -54.073781 14.232927 0.000000 31.000000 14.232927 0.000000
-1.835379 -54.195129 14.220598 0.000000 31.000000 14.220598 0.000000
-6.221549 -53.353598 14.669865 0.000000 74.000000 14.669865 11.000000
-5.264763 -54.661770 14.584813 0.000000 63.000000 14.584813 30.000000
-4.506387 -55.511579 14.922565 0.000000 62.000000 14.922565 25.000000
-0.942618 -57.915142 14.351142 0.000000 59.000000 14.351142 7.000000
-3.276913 -55.965412 14.352279 0.000000 52.000000 14.352279 21.000000
-5.333389 -57.379758 15.147962 0.000000 65.000000 15.147962 27.000000
-3.657316 -52.784014 14.633311 0.000000 49.000000 14.633311 8.000000
-2.043050 -56.201974 14.218582 0.000000 27.000000 14.218582 0.000000
-5.794812 -54.611119 14.855047 0.000000 71.000000 14.855047 30.000000
-4.860688 -55.074414 14.692698 0.000000 70.000000 14.692698 26.000000
-2.170509 -56.541502 14.208068 0.000000 24.000000 14.208068 0.000000
-4.873377 -57.334996 14.852070 0.000000 77.000000 14.852070 24.000000
-2.294248 -55.557635 14.205178 0.000000 31.000000 14.205178 0.000000
-5.338724 -58.224993 14.537712 0.000000 68.000000 14.537712 16.000000
-6.943894 -58.346603 14.999039 0.000000 67.000000 14.999039 12.000000
-5.651399 -57.048094 14.586740 0.000000 74.000000 14.586740 29.000000
-5.061691 -53.122854 14.682094 0.000000 82.000000 14.682094 9.000000
-4.171747 -52.573487 14.307191 0.000000 34.000000 14.307191 4.000000
-4.786099 -58.212516 14.512362 0.000000 66.000000 14.512362 18.000000
-5.484061 -52.579132 14.652454 0.000000 76.000000 14.652454 10.000000
-6.700677 -53.204857 14.746675 0.000000 67.000000 14.746675 10.000000
-6.174681 -56.173627 15.044189 0.000000 74.000000 15.044189 29.000000
-5.526736 -57.451277 14.622110 0.000000 82.000000 14.622110 27.000000
-1.505313 -53.061116 14.717251 0.000000 51.000000 14.717251 2.000000
-2.666100 -57.416341 14.128971 0.000000 14.000000 14.128971 0.000000
-6.456070 -55.878661 14.991708 0.000000 70.000000 14.991708 11.000000
-2.736971 -57.502275 14.136678 0.000000 22.000000 14.136678 0.000000
-2.824009 -56.336483 14.111240 0.000000 20.000000 14.111240 0.000000
-4.627395 -55.326524 14.964489 0.000000 71.000000 14.964489 25.000000
-6.452608 -54.839092 14.784625 0.000000 72.000000 14.784625 11.000000
-5.124444 -57.062473 14.816498 0.000000 69.000000 14.816498 27.000000
-6.663230 -57.206395 14.620372 0.000000 50.000000 14.620372 11.000000
-5.838795 -55.006515 14.950759 0.000000 68.000000 14.950759 30.000000
-3.214332 -57.947526 14.225190 0.000000 21.000000 14.225190 0.000000
-3.323460 -56.759728 14.287474 0.000000 41.000000 14.287474 0.000000
-4.578348 -55.172128 14.866633 0.000000 47.000000 14.866633 25.000000
-1.598340 -57.074660 14.525926 0.000000 71.000000 14.525926 14.000000
-3.461082 -58.115274 14.220378 0.000000 22.000000 14.220378 0.000000
-6.434352 -54.921144 14.760226 0.000000 73.000000 14.760226 11.000000
-6.225144 -56.096754 14.849377 0.000000 70.000000 14.849377 29.000000
-6.708253 -56.091241 15.082357 0.000000 62.000000 15.082357 11.000000
-1.313821 -52.974598 15.044669 0.000000 65.000000 15.044669 2.000000
-6.531168 -57.723511 14.211740 0.000000 21.000000 14.211740 0.000000
-5.428997 -57.798787 14.624729 0.000000 72.000000 14.624729 27.000000
-6.052808 -58.324530 14.712814 0.000000 72.000000 14.712814 15.000000
-5.638563 -53.591178 14.564497 0.000000 61.000000 14.564497 10.000000
-4.482741 -56.537005 14.954223 0.000000 50.000000 14.954223 24.000000
-5.366904 -58.348265 14.715284 0.000000 52.000000 14.715284 16.000000
-6.373567 -56.473393 14.755866 0.000000 54.000000 14.755866 29.000000
-4.307478 -54.814279 14.156631 0.000000 21.000000 14.156631 0.000000
-2.347694 -57.178906 14.451656 0.000000 54.000000 14.451656 5.000000
-4.548685 -56.170230 14.650189 0.000000 52.000000 14.650189 24.000000
-5.598888 -57.813806 14.121946 0.000000 24.000000 14.121946 0.000000
-3.623454 -55.329115 14.740828 0.000000 59.000000 14.740828 23.000000
-5.745481 -57.966960 14.081520 0.000000 23.000000 14.081520 0.000000
-5.615968 -56.517362 14.503143 0.000000 53.000000 14.503143 27.000000
-4.999052 -53.626044 14.802444 0.000000 58.000000 14.802444 9.000000
-6.741346 -57.459984 14.560366 0.000000 41.000000 14.560366 11.000000
-4.718097 -57.364008 14.961008 0.000000 76.000000 14.961008 24.000000
-1.468789 -53.274664 14.289941 0.000000 33.000000 14.289941 0.000000
-1.229935 -52.786980 14.650257 0.000000 75.000000 14.650257 2.000000
-3.063952 -52.976699 14.648823 0.000000 70.000000 14.648823 3.000000
-2.930738 -52.534532 14.291645 0.000000 33.000000 14.291645 0.000000
-3.032989 -52.439518 14.243307 0.000000 30.000000 14.243307 0.000000
-6.101105 -58.126358 14.821784 0.000000 73.000000 14.821784 15.000000
-4.683612 -57.345968 15.147922 0.000000 82.000000 15.147922 24.000000
-6.645827 -57.572703 14.545077 0.000000 54.000000 14.545077 12.000000
-0.668530 -57.370105 14.632391 0.000000 40.000000 14.632391 6.000000
-2.201230 -55.939594 14.229527 0.000000 30.000000 14.229527 0.000000
-6.840009 -58.453686 14.700295 0.000000 41.000000 14.700295 12.000000
-2.315454 -54.664856 14.246630 0.000000 28.000000 14.246630 0.000000
-0.461817 -52.555027 15.024208 0.000000 65.000000 15.024208 1.000000
-2.395685 -54.598019 14.141994 0.000000 30.000000 14.141994 0.000000
-2.504791 -54.554425 14.131164 0.000000 24.000000 14.131164 0.000000
-2.612903 -54.507141 14.122203 0.000000 21.000000 14.122203 0.000000
-5.182395 -55.679241 14.947703 0.000000 49.000000 14.947703 28.000000
-5.534562 -57.447218 14.541756 0.000000 81.000000 14.541756 27.000000
-5.764110 -54.775216 14.987020 0.000000 74.000000 14.987020 30.000000
-6.840327 -58.022937 14.703783 0.000000 70.000000 14.703783 12.000000
-6.303205 -58.277420 14.538890 0.000000 33.000000 14.538890 15.000000
-4.382516 -54.742284 14.301648 0.000000 43.000000 14.301648 26.000000
-6.428301 -56.876401 14.346528 0.000000 37.000000 14.346528 11.000000
-5.763478 -52.778851 14.776655 0.000000 60.000000 14.776655 10.000000
-5.841227 -52.565141 14.792150 0.000000 77.000000 14.792150 10.000000
-3.783689 -55.485775 14.759771 0.000000 67.000000 14.759771 23.000000
-3.379180 -56.281477 14.485195 0.000000 64.000000 14.485195 22.000000
-0.685237 -54.469432 14.559048 0.000000 52.000000 14.559048 1.000000
-5.317705 -53.615126 14.227552 0.000000 36.000000 14.227552 0.000000
-5.241881 -52.388984 14.131598 0.000000 31.000000 14.131598 0.000000
-6.772562 -55.266632 14.936763 0.000000 67.000000 14.936763 11.000000
-2.903627 -53.248086 14.724695 0.000000 71.000000 14.724695 3.000000
-5.894657 -55.844315 14.966320 0.000000 69.000000 14.966320 29.000000
-3.658074 -53.619246 14.731446 0.000000 60.000000 14.731446 23.000000
-1.580753 -56.403993 14.428160 0.000000 68.000000 14.428160 13.000000
-6.041268 -54.265339 14.980755 0.000000 74.000000 14.980755 30.000000
-5.539301 -56.256302 14.590001 0.000000 76.000000 14.590001 27.000000
-6.177636 -54.255768 14.749496 0.000000 65.000000 14.749496 30.000000
-0.520879 -54.313077 14.871352 0.000000 65.000000 14.871352 1.000000
-5.386970 -54.368510 14.598637 0.000000 77.000000 14.598637 30.000000
-3.930301 -55.231762 14.692655 0.000000 64.000000 14.692655 23.000000
-5.011669 -53.914469 14.417057 0.000000 69.000000 14.417057 9.000000
-6.082305 -58.200232 14.716309 0.000000 36.000000 14.716309 15.000000
-4.678524 -53.312397 14.440423 0.000000 45.000000 14.440423 9.000000
-6.762712 -58.292408 14.867726 0.000000 65.000000 14.867726 12.000000
-3.205458 -53.890696 14.445305 0.000000 64.000000 14.445305 3.000000
-1.836403 -57.196394 14.231823 0.000000 22.000000 14.231823 0.000000
-5.059586 -53.978018 14.592844 0.000000 69.000000 14.592844 9.000000
-1.552357 -57.328792 14.716439 0.000000 71.000000 14.716439 14.000000
-5.543339 -54.199218 14.730659 0.000000 85.000000 14.730659 30.000000
-6.893290 -58.300680 14.749634 0.000000 56.000000 14.749634 12.000000
-2.084266 -56.119597 14.228464 0.000000 38.000000 14.228464 0.000000
-5.444454 -56.286730 14.586000 0.000000 60.000000 14.586000 27.000000
-5.821542 -52.431442 14.702886 0.000000 65.000000 14.702886 10.000000
-4.605887 -55.813579 14.851661 0.000000 64.000000 14.851661 25.000000
-6.273813 -57.931028 14.288692 0.000000 48.000000 14.288692 15.000000
-2.259668 -57.482990 14.227945 0.000000 21.000000 14.227945 0.000000
-5.404641 -54.542438 14.826323 0.000000 71.000000 14.826323 30.000000
-2.346563 -57.527901 14.218596 0.000000 20.000000 14.218596 0.000000
-2.404927 -56.291037 14.138638 0.000000 26.000000 14.138638 0.000000
-2.423526 -57.565318 14.166842 0.000000 21.000000 14.166842 0.000000
-5.766082 -55.035788 14.735577 0.000000 62.000000 14.735577 30.000000
-1.495227 -53.092454 14.585988 0.000000 42.000000 14.585988 2.000000
-3.534617 -56.883882 14.632442 0.000000 36.000000 14.632442 22.000000
-2.590438 -57.631462 14.094601 0.000000 23.000000 14.094601 0.000000
-5.761439 -54.470818 14.864231 0.000000 58.000000 14.864231 30.000000
-2.663037 -55.555411 14.818069 0.000000 70.000000 14.818069 21.000000
-2.941242 -56.837481 14.740294 0.000000 69.000000 14.740294 20.000000
-5.304841 -55.063455 14.533228 0.000000 71.000000 14.533228 26.000000
-6.176191 -58.091238 14.765735 0.000000 47.000000 14.765735 15.000000
-3.677133 -56.405329 14.602383 0.000000 78.000000 14.602383 22.000000
-2.696848 -58.401238 14.657048 0.000000 62.000000 14.657048 19.000000
-3.121926 -57.760618 14.266320 0.000000 22.000000 14.266320 0.000000
-0.708132 -53.251862 14.648908 0.000000 64.000000 14.648908 1.000000
-6.792600 -55.816123 15.120914 0.000000 71.000000 15.120914 11.000000
-2.630784 -52.959476 14.870655 0.000000 77.000000 14.870655 3.000000
-4.249123 -57.408819 14.732306 0.000000 77.000000 14.732306 24.000000
-3.454900 -53.732457 14.710633 0.000000 52.000000 14.710633 23.000000
-4.198012 -53.467436 14.607247 0.000000 77.000000 14.607247 4.000000
-4.978793 -53.018391 14.714714 0.000000 70.000000 14.714714 9.000000
-1.572828 -55.122722 14.962895 0.000000 45.000000 14.962895 13.000000
-2.038162 -54.821369 14.671196 0.000000 66.000000 14.671196 13.000000
-5.865278 -56.807494 15.170846 0.000000 74.000000 15.170846 29.000000
-4.729069 -56.234473 14.228342 0.000000 26.000000 14.228342 0.000000
-5.936999 -52.669014 14.837247 0.000000 59.000000 14.837247 10.000000
-5.304263 -53.963132 14.856832 0.000000 76.000000 14.856832 9.000000
-6.465051 -53.703380 14.966685 0.000000 73.000000 14.966685 11.000000
-5.542405 -56.197314 14.455322 0.000000 40.000000 14.455322 27.000000
-3.370640 -55.200793 14.625676 0.000000 46.000000 14.625676 21.000000
-4.524665 -58.565241 14.436743 0.000000 71.000000 14.436743 18.000000
-6.227617 -53.760352 14.822146 0.000000 70.000000 14.822146 11.000000
-0.848175 -56.582302 14.874309 0.000000 64.000000 14.874309 6.000000
-3.483418 -55.896139 14.246318 0.000000 26.000000 14.246318 0.000000
-3.829008 -56.223723 14.797032 0.000000 57.000000 14.797032 22.000000
-5.451826 -55.058024 14.808209 0.000000 41.000000 14.808209 30.000000
-2.873687 -55.917377 14.721890 0.000000 54.000000 14.721890 21.000000
-5.100100 -53.258360 14.709199 0.000000 78.000000 14.709199 9.000000
-6.573632 -57.309841 14.531404 0.000000 50.000000 14.531404 11.000000
-6.136888 -56.901976 15.075514 0.000000 72.000000 15.075514 29.000000
-4.295701 -53.211089 14.869605 0.000000 56.000000 14.869605 4.000000
-6.561519 -54.402156 14.867065 0.000000 74.000000 14.867065 11.000000
-1.834376 -55.721447 14.504563 0.000000 51.000000 14.504563 13.000000
-4.497768 -54.625892 14.718811 0.000000 60.000000 14.718811 26.000000
-6.599163 -55.116360 14.961815 0.000000 75.000000 14.961815 11.000000
-4.931336 -55.969612 14.372781 0.000000 43.000000 14.372781 28.000000
-5.222080 -53.995843 14.545342 0.000000 64.000000 14.545342 9.000000
-0.776494 -56.117665 14.373475 0.000000 58.000000 14.373475 6.000000
-0.896113 -57.994665 14.653253 0.000000 63.000000 14.653253 7.000000
-2.749423 -52.867397 14.806560 0.000000 86.000000 14.806560 3.000000
-6.810131 -58.248803 14.801457 0.000000 75.000000 14.801457 12.000000
-6.266242 -58.364171 14.684353 0.000000 49.000000 14.684353 15.000000
-5.017474 -52.617394 14.338205 0.000000 50.000000 14.338205 9.000000
-0.859527 -54.803267 14.267549 0.000000 23.000000 14.267549 0.000000
-0.982619 -54.780362 14.265452 0.000000 25.000000 14.265452 0.000000
-2.888228 -55.582059 14.679532 0.000000 40.000000 14.679532 21.000000
-5.793794 -54.462931 14.841048 0.000000 48.000000 14.841048 30.000000
-5.378312 -58.172623 14.533556 0.000000 63.000000 14.533556 16.000000
-2.672531 -54.186062 14.586947 0.000000 65.000000 14.586947 3.000000
-5.904167 -57.337849 14.798116 0.000000 49.000000 14.798116 29.000000
-6.738411 -56.177651 15.237118 0.000000 73.000000 15.237118 11.000000
-2.289618 -54.311449 14.160390 0.000000 27.000000 14.160390 0.000000
-2.858491 -58.019350 14.691113 0.000000 57.000000 14.691113 19.000000
-3.242126 -57.613496 14.551380 0.000000 73.000000 14.551380 20.000000
-2.959370 -52.745940 14.258737 0.000000 33.000000 14.258737 0.000000
-3.894527 -56.469933 14.489425 0.000000 75.000000 14.489425 22.000000
-3.828511 -53.303038 14.132601 0.000000 32.000000 14.132601 0.000000
-6.416788 -52.405297 14.549591 0.000000 50.000000 14.549591 10.000000
-1.632276 -53.007859 14.535440 0.000000 62.000000 14.535440 2.000000
-4.896882 -53.803332 14.367062 0.000000 66.000000 14.367062 9.000000
-2.004031 -55.173768 14.745422 0.000000 50.000000 14.745422 13.000000
-5.683645 -55.404337 14.598497 0.000000 79.000000 14.598497 29.000000
-5.527564 -56.355709 14.852324 0.000000 72.000000 14.852324 27.000000
-1.169728 -56.553664 14.215354 0.000000 18.000000 14.215354 0.000000
-6.372862 -55.306899 14.854954 0.000000 71.000000 14.854954 11.000000
-5.472660 -54.732732 14.746024 0.000000 75.000000 14.746024 30.000000
-3.803552 -55.294859 15.005646 0.000000 71.000000 15.005646 23.000000
-5.399063 -54.916169 14.726570 0.000000 63.000000 14.726570 30.000000
-6.395357 -56.520250 14.681046 0.000000 62.000000 14.681046 29.000000
-4.608505 -54.796990 14.548561 0.000000 55.000000 14.548561 26.000000
-6.363120 -57.236097 14.568183 0.000000 61.000000 14.568183 29.000000
-4.649765 -55.431680 14.913032 0.000000 42.000000 14.913032 25.000000
-2.426119 -56.773436 14.263261 0.000000 28.000000 14.263261 0.000000
-4.928567 -52.915344 14.684983 0.000000 71.000000 14.684983 9.000000
-5.000716 -53.373426 14.676811 0.000000 78.000000 14.676811 9.000000
-5.459662 -54.726845 14.927677 0.000000 47.000000 14.927677 30.000000
-1.244732 -53.176441 14.854875 0.000000 56.000000 14.854875 2.000000
-5.987091 -55.005477 15.107784 0.000000 57.000000 15.107784 30.000000
-5.769262 -57.057801 15.094483 0.000000 48.000000 15.094483 29.000000
-2.090991 -52.515521 14.224304 0.000000 30.000000 14.224304 0.000000
-6.317360 -52.922609 14.431615 0.000000 47.000000 14.431615 10.000000
-2.018120 -52.522443 14.247933 0.000000 34.000000 14.247933 0.000000
-1.474968 -53.686064 14.437269 0.000000 55.000000 14.437269 2.000000
-3.879736 -57.946420 14.712830 0.000000 54.000000 14.712830 18.000000
-0.805667 -55.725498 14.724518 0.000000 64.000000 14.724518 13.000000
-1.297048 -53.081572 14.797798 0.000000 69.000000 14.797798 2.000000
-2.036351 -53.924438 14.264820 0.000000 34.000000 14.264820 0.000000
-4.303975 -52.614967 14.300331 0.000000 46.000000 14.300331 4.000000
-4.220716 -58.025282 14.813716 0.000000 67.000000 14.813716 18.000000
-1.572769 -55.413717 14.910817 0.000000 68.000000 14.910817 13.000000
-3.017454 -55.091545 14.381582 0.000000 65.000000 14.381582 21.000000
-6.160335 -56.900082 15.041985 0.000000 75.000000 15.041985 29.000000
-5.894337 -53.342996 14.777103 0.000000 44.000000 14.777103 10.000000
-2.179035 -53.822179 14.249819 0.000000 32.000000 14.249819 0.000000
-2.991185 -56.806196 14.698103 0.000000 77.000000 14.698103 20.000000
-3.836106 -55.362685 14.819297 0.000000 78.000000 14.819297 23.000000
-1.699236 -57.286177 14.609381 0.000000 56.000000 14.609381 14.000000
-2.249856 -55.343432 14.245012 0.000000 26.000000 14.245012 0.000000
-2.284514 -54.274602 14.163971 0.000000 27.000000 14.163971 0.000000
-3.955403 -57.388954 14.479205 0.000000 65.000000 14.479205 24.000000
-6.004986 -55.372521 14.581695 0.000000 45.000000 14.581695 29.000000
-4.923296 -56.900645 14.374505 0.000000 45.000000 14.374505 24.000000
-6.705378 -55.251692 15.115036 0.000000 53.000000 15.115036 11.000000
-2.347658 -55.686391 14.196510 0.000000 24.000000 14.196510 0.000000
-4.617927 -58.313169 14.953146 0.000000 56.000000 14.953146 18.000000
-2.382308 -55.796830 14.167803 0.000000 23.000000 14.167803 0.000000
-3.250586 -57.097425 14.608119 0.000000 42.000000 14.608119 20.000000
-2.960465 -54.115196 14.886992 0.000000 62.000000 14.886992 3.000000
-2.519106 -56.124135 14.143867 0.000000 23.000000 14.143867 0.000000
-2.985489 -53.832743 14.912969 0.000000 81.000000 14.912969 3.000000
-2.613460 -56.326012 14.096594 0.000000 22.000000 14.096594 0.000000
-4.493226 -53.024717 14.639335 0.000000 37.000000 14.639335 4.000000
-5.919002 -57.373496 14.406927 0.000000 55.000000 14.406927 29.000000
-3.335808 -55.968489 14.247455 0.000000 30.000000 14.247455 0.000000
-1.824584 -58.466806 14.324255 0.000000 60.000000 14.324255 17.000000
-6.060086 -56.725195 15.164978 0.000000 71.000000 15.164978 29.000000
-3.951646 -56.384621 14.129998 0.000000 24.000000 14.129998 0.000000
-0.651585 -56.207576 14.692810 0.000000 54.000000 14.692810 6.000000
-6.500153 -53.735544 14.980662 0.000000 78.000000 14.980662 11.000000
-3.525091 -55.695659 14.722389 0.000000 62.000000 14.722389 23.000000
-4.213119 -57.766221 14.095829 0.000000 20.000000 14.095829 0.000000
-3.778766 -53.930888 14.754089 0.000000 55.000000 14.754089 23.000000
-1.806977 -58.699419 14.799534 0.000000 76.000000 14.799534 17.000000
-6.284234 -56.403008 14.879804 0.000000 47.000000 14.879804 29.000000
-4.895452 -57.891360 14.224225 0.000000 29.000000 14.224225 0.000000
-2.811633 -55.414691 14.833683 0.000000 64.000000 14.833683 21.000000
-4.523534 -54.643751 14.696569 0.000000 68.000000 14.696569 26.000000
-5.646545 -57.778603 14.086818 0.000000 24.000000 14.086818 0.000000
-6.172522 -55.851511 14.830337 0.000000 73.000000 14.830337 29.000000
-5.844711 -57.719235 14.138642 0.000000 20.000000 14.138642 0.000000
-5.947666 -57.686970 14.214000 0.000000 21.000000 14.214000 0.000000
-6.720635 -56.549127 14.913565 0.000000 64.000000 14.913565 11.000000
-4.787022 -58.205796 14.548648 0.000000 63.000000 14.548648 18.000000
-6.318558 -57.505142 14.209210 0.000000 23.000000 14.209210 0.000000
-6.409763 -57.452704 14.225088 0.000000 23.000000 14.225088 0.000000
-1.046192 -54.912384 14.346395 0.000000 34.000000 14.346395 13.000000
-5.245743 -56.371218 14.848662 0.000000 66.000000 14.848662 27.000000
-1.630937 -58.381458 14.565894 0.000000 73.000000 14.565894 17.000000
-4.571807 -52.484963 14.259999 0.000000 38.000000 14.259999 0.000000
-6.799325 -56.587291 14.934040 0.000000 85.000000 14.934040 11.000000
-5.407360 -55.715431 14.632507 0.000000 40.000000 14.632507 28.000000
-3.532506 -56.061481 14.458347 0.000000 65.000000 14.458347 22.000000
-6.363037 -54.199914 14.605993 0.000000 75.000000 14.605993 11.000000
-4.307918 -52.825824 14.824996 0.000000 77.000000 14.824996 4.000000
-6.129569 -58.321728 14.764536 0.000000 62.000000 14.764536 15.000000
-5.463188 -54.254026 14.379494 0.000000 72.000000 14.379494 30.000000
-2.963042 -53.282417 14.615754 0.000000 81.000000 14.615754 3.000000
-4.914481 -58.493322 14.507730 0.000000 61.000000 14.507730 18.000000
-3.289625 -58.436714 14.388518 0.000000 63.000000 14.388518 19.000000
-4.944987 -54.276815 14.237542 0.000000 37.000000 14.237542 0.000000
-6.527144 -54.078600 14.872585 0.000000 67.000000 14.872585 11.000000
-5.030935 -54.510647 14.243670 0.000000 37.000000 14.243670 0.000000
-5.074464 -54.621830 14.237132 0.000000 33.000000 14.237132 0.000000
-4.831572 -53.428009 14.542914 0.000000 57.000000 14.542914 9.000000
-4.745951 -54.868645 14.671066 0.000000 69.000000 14.671066 26.000000
-4.606185 -57.410723 15.055614 0.000000 39.000000 15.055614 24.000000
-6.423403 -55.925539 14.614870 0.000000 58.000000 14.614870 11.000000
-5.255960 -56.172822 14.736355 0.000000 72.000000 14.736355 27.000000
-4.044587 -57.428144 14.686066 0.000000 81.000000 14.686066 24.000000
-6.690166 -53.478077 14.788593 0.000000 70.000000 14.788593 11.000000
-6.551003 -52.252586 14.201473 0.000000 36.000000 14.201473 0.000000
-3.532073 -56.383310 14.538105 0.000000 78.000000 14.538105 22.000000
-0.735327 -55.715303 14.716826 0.000000 51.000000 14.716826 13.000000
-1.707083 -53.010219 14.274597 0.000000 34.000000 14.274597 0.000000
-2.205068 -52.797676 14.290284 0.000000 30.000000 14.290284 0.000000
-6.396113 -52.883756 14.804850 0.000000 62.000000 14.804850 10.000000
-4.633664 -56.825614 15.232512 0.000000 71.000000 15.232512 24.000000
-0.552327 -54.476090 14.296940 0.000000 31.000000 14.296940 0.000000
-5.297439 -57.070867 15.003979 0.000000 68.000000 15.003979 27.000000
-6.574301 -55.884578 15.015036 0.000000 84.000000 15.015036 11.000000
-2.577794 -55.187464 14.321174 0.000000 41.000000 14.321174 21.000000
-0.972427 -54.520127 14.237537 0.000000 29.000000 14.237537 0.000000
-4.648151 -58.190220 14.823626 0.000000 64.000000 14.823626 18.000000
-1.189502 -54.524816 14.222951 0.000000 26.000000 14.222951 0.000000
-5.618420 -54.237991 14.605664 0.000000 62.000000 14.605664 30.000000
-4.567955 -57.408868 15.066665 0.000000 49.000000 15.066665 24.000000
-4.855265 -54.587502 14.731504 0.000000 79.000000 14.731504 26.000000
-2.857804 -57.146728 14.449774 0.000000 48.000000 14.449774 20.000000
-5.910646 -58.278762 14.480039 0.000000 59.000000 14.480039 15.000000
-5.869199 -54.754265 14.929931 0.000000 67.000000 14.929931 30.000000
-5.820411 -56.231313 14.891404 0.000000 73.000000 14.891404 29.000000
-2.832523 -53.280451 14.805350 0.000000 73.000000 14.805350 3.000000
-5.234483 -54.715947 14.504758 0.000000 69.000000 14.504758 30.000000
-2.301961 -55.615081 14.223165 0.000000 24.000000 14.223165 0.000000
-1.633444 -57.258434 14.622714 0.000000 65.000000 14.622714 14.000000
-2.405272 -55.575297 14.189528 0.000000 23.000000 14.189528 0.000000
-6.335555 -55.187317 14.726340 0.000000 70.000000 14.726340 11.000000
-1.098655 -53.287401 14.486510 0.000000 52.000000 14.486510 2.000000
-3.943668 -54.810584 14.262947 0.000000 27.000000 14.262947 0.000000
-0.961728 -55.468931 14.909984 0.000000 76.000000 14.909984 13.000000
-6.199541 -57.226738 14.870948 0.000000 78.000000 14.870948 29.000000
-6.197528 -55.347515 14.547901 0.000000 58.000000 14.547901 11.000000
-4.812158 -54.059113 14.260789 0.000000 38.000000 14.260789 0.000000
-3.648978 -52.921682 14.878723 0.000000 75.000000 14.878723 8.000000
-0.961284 -55.400560 14.900448 0.000000 52.000000 14.900448 13.000000
-3.527544 -55.100304 14.750890 0.000000 46.000000 14.750890 23.000000
-1.675258 -54.939088 14.565841 0.000000 72.000000 14.565841 13.000000
-6.580560 -58.373219 14.560617 0.000000 49.000000 14.560617 12.000000
-6.104073 -52.334644 14.255302 0.000000 45.000000 14.255302 0.000000
-4.615913 -57.634611 14.742296 0.000000 71.000000 14.742296 24.000000
-5.202975 -55.808081 15.009502 0.000000 66.000000 15.009502 28.000000
-3.332537 -52.637891 14.855067 0.000000 56.000000 14.855067 8.000000
-5.439503 -54.341704 14.876336 0.000000 71.000000 14.876336 30.000000
-3.044902 -56.823838 14.547011 0.000000 72.000000 14.547011 20.000000
-0.791968 -52.626410 14.173600 0.000000 35.000000 14.173600 0.000000
-2.424250 -52.851441 14.353868 0.000000 42.000000 14.353868 3.000000
-6.566656 -54.309746 15.024663 0.000000 39.000000 15.024663 11.000000
-0.846920 -53.934979 14.224246 0.000000 28.000000 14.224246 0.000000
-5.130392 -53.070011 14.615650 0.000000 79.000000 14.615650 9.000000
-3.213622 -55.914312 14.706873 0.000000 60.000000 14.706873 21.000000
-4.757331 -55.979321 14.820708 0.000000 77.000000 14.820708 25.000000
-3.702350 -58.412373 14.373813 0.000000 47.000000 14.373813 18.000000
-0.895234 -54.322316 14.207690 0.000000 26.000000 14.207690 0.000000
-5.965287 -56.082161 15.074248 0.000000 43.000000 15.074248 29.000000
-0.917664 -54.449972 14.206575 0.000000 25.000000 14.206575 0.000000
-0.956153 -53.415493 14.255788 0.000000 30.000000 14.255788 0.000000
-0.977720 -54.595160 14.293950 0.000000 28.000000 14.293950 0.000000
-3.499352 -55.447064 14.671055 0.000000 46.000000 14.671055 23.000000
-5.420399 -54.182341 14.392683 0.000000 45.000000 14.392683 30.000000
-4.180714 -55.260225 14.398220 0.000000 32.000000 14.398220 25.000000
-0.745429 -57.314977 14.706692 0.000000 60.000000 14.706692 6.000000
-2.064953 -58.467373 14.361691 0.000000 64.000000 14.361691 17.000000
-5.787836 -55.499237 14.771533 0.000000 65.000000 14.771533 29.000000
-4.972990 -57.534732 14.653746 0.000000 37.000000 14.653746 24.000000
-6.757624 -55.345063 15.072254 0.000000 64.000000 15.072254 11.000000
-3.075213 -56.834999 14.546935 0.000000 61.000000 14.546935 20.000000
-1.809958 -56.366873 14.226402 0.000000 23.000000 14.226402 0.000000
-6.006899 -54.228117 14.756107 0.000000 82.000000 14.756107 30.000000
-5.971315 -54.913964 15.161921 0.000000 68.000000 15.161921 30.000000
-2.679323 -53.711331 14.894391 0.000000 69.000000 14.894391 3.000000
-5.181124 -54.496253 14.372112 0.000000 39.000000 14.372112 30.000000
-6.192340 -52.892018 14.736222 0.000000 37.000000 14.736222 10.000000
-5.126756 -53.533398 14.636468 0.000000 59.000000 14.636468 9.000000
