-0.461085 -48.834385 -1.690166 0.000000 30.000000 14.266417 0.000000
0.891531 -52.687345 -0.769579 0.000000 47.000000 14.574165 25.000000
0.299791 -50.564873 -1.658233 0.000000 37.000000 14.310890 0.000000
-0.504713 -48.920835 -2.056910 0.000000 39.000000 14.384580 0.000000
-0.364156 -48.939734 -1.752711 0.000000 29.000000 14.231094 0.000000
-0.080234 -50.049023 -1.474935 0.000000 38.000000 14.413044 0.000000
1.116718 -53.104863 0.997908 0.000000 33.000000 14.344117 0.000000
-0.394782 -49.066689 -1.938931 0.000000 33.000000 14.333842 0.000000
-0.210839 -50.802337 -0.678324 0.000000 73.000000 14.757005 13.000000
0.105069 -52.290778 -0.109542 0.000000 54.000000 15.036955 25.000000
-0.872496 -47.464799 -3.192374 0.000000 18.000000 14.230451 0.000000
-0.149756 -51.863385 1.100659 0.000000 70.000000 14.945324 20.000000
-1.201705 -47.771403 -0.390741 0.000000 46.000000 14.332222 0.000000
0.946360 -52.513041 -0.832121 0.000000 58.000000 14.458387 25.000000
0.031777 -50.385135 -0.952063 0.000000 48.000000 14.394120 0.000000
0.050417 -50.459461 -0.849707 0.000000 43.000000 14.396978 0.000000
-0.180770 -50.878384 -0.840190 0.000000 59.000000 14.780855 13.000000
0.501450 -51.324799 -0.959594 0.000000 39.000000 14.370354 0.000000
-0.157755 -50.709223 -0.909856 0.000000 54.000000 14.696668 13.000000
0.307605 -52.584323 0.648231 0.000000 63.000000 14.891520 20.000000
-0.668972 -49.591229 0.158186 0.000000 57.000000 14.559774 23.000000
-0.459298 -50.441852 -0.784470 0.000000 75.000000 14.840087 13.000000
-0.224990 -49.536274 -1.970267 0.000000 49.000000 14.383498 0.000000
0.142598 -50.621897 -0.364531 0.000000 30.000000 14.326769 0.000000
0.345618 -51.183791 0.007997 0.000000 38.000000 14.338932 0.000000
0.358755 -50.403719 -2.979238 0.000000 30.000000 14.342402 0.000000
0.330845 -51.375655 0.192681 0.000000 54.000000 14.412023 0.000000
0.343988 -52.177119 -0.461358 0.000000 36.000000 14.814814 25.000000
0.355736 -51.468225 0.279513 0.000000 53.000000 14.418773 0.000000
0.431149 -51.558500 0.365692 0.000000 44.000000 14.379223 0.000000
-0.356787 -50.615837 0.169121 0.000000 42.000000 14.711343 23.000000
-1.366241 -47.512270 -0.101985 0.000000 47.000000 14.337111 0.000000
0.776303 -51.068088 -3.981681 0.000000 47.000000 14.364018 0.000000
-0.231917 -48.496413 -4.766026 0.000000 41.000000 14.272981 0.000000
1.600629 -52.962352 -3.684517 0.000000 47.000000 14.390090 0.000000
0.094275 -52.206995 0.002977 0.000000 53.000000 14.998213 25.000000
1.497713 -52.624697 -3.934254 0.000000 31.000000 14.368620 0.000000
0.488544 -51.284501 -0.965906 0.000000 24.000000 14.365636 0.000000
-0.313292 -49.750707 -0.431276 0.000000 34.000000 14.375697 0.000000
0.212737 -52.144553 0.620593 0.000000 76.000000 14.793955 20.000000
-0.746283 -48.529463 -1.461652 0.000000 60.000000 14.367343 0.000000
0.924273 -51.201025 -4.475677 0.000000 25.000000 14.344357 0.000000
-0.144829 -49.382601 -2.959071 0.000000 45.000000 14.360731 0.000000
-1.712772 -47.956627 0.196601 0.000000 73.000000 14.802002 4.000000
-0.230951 -49.388718 -2.455924 0.000000 44.000000 14.382569 0.000000
0.088878 -52.180707 0.730669 0.000000 39.000000 14.907842 20.000000
0.226601 -53.079040 0.821932 0.000000 66.000000 15.153508 20.000000
1.143690 -52.660044 -0.993636 0.000000 51.000000 14.361889 0.000000
-1.107489 -47.470036 -2.564018 0.000000 43.000000 14.371241 0.000000
-0.519989 -48.252877 -3.376284 0.000000 25.000000 14.268250 0.000000
0.455944 -51.194977 -1.114414 0.000000 48.000000 14.374230 0.000000
1.199375 -51.999622 -3.519625 0.000000 40.000000 14.324423 0.000000
-1.102868 -48.095188 -0.555767 0.000000 31.000000 14.399425 0.000000
0.973354 -51.077858 -4.766233 0.000000 28.000000 14.281727 0.000000
-1.479424 -48.744782 0.008116 0.000000 57.000000 14.947453 21.000000
-1.144673 -47.757054 -3.746804 0.000000 56.000000 14.662765 28.000000
0.914414 -52.708731 -1.225494 0.000000 79.000000 14.615337 5.000000
0.832145 -50.708284 -4.894200 0.000000 26.000000 14.267098 0.000000
0.044389 -49.111802 -4.899745 0.000000 29.000000 14.300416 0.000000
0.980307 -51.760917 -1.801581 0.000000 42.000000 14.221776 0.000000
-1.019220 -48.664747 -0.747665 0.000000 60.000000 14.587346 10.000000
-0.517609 -47.962581 -4.851475 0.000000 24.000000 14.313809 0.000000
0.825529 -51.512275 -1.910512 0.000000 40.000000 14.268295 0.000000
-0.782844 -48.294327 -2.229234 0.000000 36.000000 14.389452 0.000000
0.828883 -52.872510 -1.409034 0.000000 79.000000 14.782696 5.000000
-0.703663 -48.784289 -1.262246 0.000000 38.000000 14.413783 0.000000
-0.182254 -48.755938 -4.709100 0.000000 38.000000 14.331546 0.000000
-2.116389 -47.918243 0.859048 0.000000 73.000000 15.071947 15.000000
-0.548386 -48.721546 -1.637333 0.000000 47.000000 14.291040 0.000000
-0.150586 -49.638220 -2.044114 0.000000 37.000000 14.368286 0.000000
0.622937 -51.996471 0.437996 0.000000 44.000000 14.383760 0.000000
-1.306655 -47.497313 -1.074054 0.000000 44.000000 14.389577 0.000000
0.397309 -51.770636 -0.236932 0.000000 37.000000 14.569015 25.000000
-0.513719 -48.297277 -4.333007 0.000000 29.000000 14.391966 0.000000
-1.055051 -48.350405 -1.064832 0.000000 44.000000 14.523240 30.000000
0.256846 -51.972023 1.128104 0.000000 43.000000 14.622679 20.000000
0.617583 -51.202102 -2.258730 0.000000 60.000000 14.364226 0.000000
-0.619021 -48.953825 -1.126069 0.000000 44.000000 14.393687 0.000000
-0.699678 -47.977929 -3.972082 0.000000 31.000000 14.382298 0.000000
-1.060854 -47.592300 -2.702742 0.000000 26.000000 14.397079 0.000000
-0.808035 -47.885563 -3.801710 0.000000 31.000000 14.420922 0.000000
0.640402 -52.890887 1.039074 0.000000 68.000000 14.676929 20.000000
-1.575527 -47.794785 0.370764 0.000000 58.000000 14.590068 4.000000
1.059369 -52.610000 -0.203247 0.000000 42.000000 14.325155 0.000000
0.725392 -52.564824 -0.422519 0.000000 37.000000 14.631543 25.000000
-0.852902 -47.560606 -3.225332 0.000000 25.000000 14.257176 0.000000
-0.345342 -49.534566 -0.344917 0.000000 52.000000 14.303093 0.000000
-0.949466 -48.015136 -2.106444 0.000000 47.000000 14.406912 0.000000
-0.451607 -49.304019 -0.124860 0.000000 30.000000 14.275644 0.000000
-1.098464 -47.921935 -1.485048 0.000000 47.000000 14.429582 0.000000
-1.112433 -47.517779 -2.703030 0.000000 34.000000 14.411946 0.000000
1.082838 -51.373699 -4.710816 0.000000 54.000000 14.302065 0.000000
0.852792 -52.047320 -0.959537 0.000000 46.000000 14.360208 0.000000
0.820323 -51.129406 -3.142785 0.000000 39.000000 14.253440 0.000000
-1.059295 -47.570244 -2.705077 0.000000 46.000000 14.386618 0.000000
0.588343 -50.346517 -4.709112 0.000000 41.000000 14.311794 0.000000
0.663593 -52.088941 0.332288 0.000000 38.000000 14.398553 0.000000
-1.064880 -47.493103 -1.821428 0.000000 30.000000 14.256882 0.000000
-0.702537 -48.345947 -2.722729 0.000000 53.000000 14.396147 0.000000
-0.225952 -50.941321 1.054549 0.000000 75.000000 14.629104 18.000000
0.209577 -50.334869 -2.815789 0.000000 55.000000 14.428459 0.000000
0.328952 -50.533703 -2.610928 0.000000 47.000000 14.381603 0.000000
-1.192153 -47.806744 -0.884203 0.000000 33.000000 14.395616 0.000000
-0.858657 -48.624840 -0.920002 0.000000 54.000000 14.446080 30.000000
1.048673 -51.606127 -4.104281 0.000000 45.000000 14.360988 0.000000
-0.535174 -48.329545 -4.015936 0.000000 41.000000 14.388254 0.000000
-1.091807 -48.030900 -0.395399 0.000000 36.000000 14.343757 0.000000
1.046129 -52.449042 -3.631062 0.000000 68.000000 14.665131 24.000000
-0.697399 -47.988618 -3.006379 0.000000 30.000000 14.273163 0.000000
0.266415 -52.560664 1.045949 0.000000 64.000000 14.872566 20.000000
-0.895543 -48.840011 0.703548 0.000000 37.000000 14.382610 0.000000
-0.175071 -49.162546 -3.077978 0.000000 36.000000 14.308571 0.000000
-1.213631 -48.121340 1.081315 0.000000 27.000000 14.320832 0.000000
-1.156186 -48.201721 1.162150 0.000000 29.000000 14.293863 0.000000
-1.309811 -48.822992 0.452431 0.000000 63.000000 14.776749 16.000000
1.282678 -52.903416 -1.133210 0.000000 44.000000 14.356052 0.000000
-1.669973 -48.813441 0.648576 0.000000 35.000000 15.073728 16.000000
-1.560830 -48.243723 0.726745 0.000000 69.000000 14.725617 15.000000
0.614822 -51.589623 -1.068553 0.000000 55.000000 14.393075 0.000000
-0.286383 -49.214475 -2.571567 0.000000 43.000000 14.372048 0.000000
1.076190 -52.066399 -1.615314 0.000000 28.000000 14.243293 0.000000
-1.014363 -48.432733 -1.085122 0.000000 63.000000 14.523842 30.000000
1.063719 -51.942249 -1.679839 0.000000 28.000000 14.209444 0.000000
-1.493010 -48.006673 0.214654 0.000000 71.000000 14.623577 4.000000
0.596131 -51.003870 -1.739605 0.000000 73.000000 14.239658 0.000000
-0.488993 -50.327098 -0.743262 0.000000 60.000000 14.813472 13.000000
0.242462 -50.986712 -0.494180 0.000000 53.000000 14.406316 0.000000
0.631171 -51.990965 -2.233089 0.000000 37.000000 14.682735 9.000000
-0.442390 -48.879577 -2.502500 0.000000 34.000000 14.362615 0.000000
1.270257 -52.412175 -1.919777 0.000000 38.000000 14.250328 0.000000
-1.212682 -47.841445 -0.023143 0.000000 48.000000 14.329230 0.000000
-0.629972 -48.047537 -4.437843 0.000000 44.000000 14.402925 0.000000
0.157386 -49.727540 -3.346424 0.000000 30.000000 14.279795 0.000000
1.117247 -52.170843 -2.002170 0.000000 37.000000 14.295283 0.000000
1.259035 -52.859008 -1.257872 0.000000 60.000000 14.372924 0.000000
-0.276975 -49.157585 -2.710151 0.000000 49.000000 14.355545 0.000000
0.517893 -50.988138 -2.051510 0.000000 33.000000 14.339366 0.000000
-0.129707 -50.040923 -1.097817 0.000000 57.000000 14.410496 0.000000
0.701953 -51.445769 -2.202422 0.000000 41.000000 14.384962 0.000000
0.652140 -51.323071 -2.230640 0.000000 46.000000 14.381092 0.000000
-0.615630 -49.165535 -0.502921 0.000000 54.000000 14.408173 0.000000
0.250910 -50.061170 -3.432588 0.000000 42.000000 14.346824 0.000000
1.206322 -52.394562 -2.359345 0.000000 54.000000 14.351141 0.000000
0.564299 -51.077996 -2.282849 0.000000 45.000000 14.362405 0.000000
0.112028 -50.135906 -2.272525 0.000000 33.000000 14.369183 0.000000
-1.659132 -47.685541 0.367791 0.000000 67.000000 14.619341 4.000000
0.058584 -50.013955 -2.296131 0.000000 40.000000 14.368358 0.000000
-0.461749 -50.488928 0.564776 0.000000 56.000000 14.706267 19.000000
1.025005 -51.526603 -4.047093 0.000000 48.000000 14.342011 0.000000
0.284916 -50.481377 -2.361630 0.000000 39.000000 14.370234 0.000000
-0.177049 -51.083603 1.178252 0.000000 57.000000 14.631041 18.000000
0.320630 -51.744702 -0.215327 0.000000 33.000000 14.624462 25.000000
0.186608 -50.242267 -2.379024 0.000000 36.000000 14.359454 0.000000
-0.619604 -49.804103 0.966334 0.000000 55.000000 14.512050 19.000000
0.079812 -50.134793 -2.372792 0.000000 39.000000 14.409254 0.000000
-0.359988 -49.174801 -2.385292 0.000000 38.000000 14.399889 0.000000
0.050321 -50.012219 -2.378756 0.000000 46.000000 14.384600 0.000000
1.084172 -52.863721 -1.385058 0.000000 60.000000 14.546771 5.000000
0.026614 -49.890766 -2.383176 0.000000 40.000000 14.355042 0.000000
-0.162586 -51.156569 0.978735 0.000000 63.000000 14.671966 18.000000
-0.539533 -48.719160 -1.592287 0.000000 41.000000 14.276869 0.000000
0.667562 -52.479802 -0.314751 0.000000 53.000000 14.635098 25.000000
-0.039079 -50.528994 -0.838546 0.000000 57.000000 14.505534 13.000000
1.253634 -52.856083 -1.620493 0.000000 58.000000 14.418449 0.000000
-0.848089 -47.634329 -4.017579 0.000000 36.000000 14.375597 0.000000
0.685152 -51.141795 -3.632398 0.000000 43.000000 14.436749 7.000000
0.457386 -53.095805 0.818661 0.000000 64.000000 14.953564 20.000000
-0.252578 -49.331114 -2.339227 0.000000 41.000000 14.364152 0.000000
0.686778 -50.800992 -4.014131 0.000000 37.000000 14.335247 0.000000
0.892728 -51.698906 -2.461875 0.000000 36.000000 14.350568 0.000000
0.028518 -52.488309 1.125078 0.000000 77.000000 15.046620 20.000000
1.077783 -52.729119 -1.226195 0.000000 51.000000 14.477217 5.000000
-0.846212 -48.126328 -2.332274 0.000000 27.000000 14.387248 0.000000
-0.926282 -49.659297 0.254406 0.000000 41.000000 14.808698 23.000000
-0.679550 -50.225010 0.019551 0.000000 45.000000 14.853388 23.000000
-0.897260 -48.040392 -2.114820 0.000000 43.000000 14.371644 0.000000
1.254465 -52.041758 -3.934079 0.000000 20.000000 14.340635 0.000000
-1.433945 -48.826587 0.958200 0.000000 70.000000 14.831380 16.000000
-1.017007 -47.797787 -2.265382 0.000000 29.000000 14.394045 0.000000
-1.384426 -48.898174 0.375471 0.000000 62.000000 14.884503 21.000000
-1.085366 -47.696732 -2.235372 0.000000 32.000000 14.409267 0.000000
1.461021 -52.825151 -2.590094 0.000000 42.000000 14.331039 0.000000
-1.746037 -47.823683 0.615399 0.000000 49.000000 14.727262 15.000000
-0.688422 -48.499079 -2.138570 0.000000 31.000000 14.380722 0.000000
0.988143 -51.971735 -3.678441 0.000000 43.000000 14.520823 24.000000
-0.641031 -48.559474 -2.499435 0.000000 32.000000 14.405384 0.000000
0.854634 -52.285501 -2.181129 0.000000 71.000000 14.600484 9.000000
-0.852613 -48.113826 -1.990134 0.000000 31.000000 14.348170 0.000000
-0.876742 -48.016185 -1.948668 0.000000 31.000000 14.323762 0.000000
-0.932501 -47.931944 -1.900206 0.000000 29.000000 14.332640 0.000000
-0.956742 -47.838641 -1.854976 0.000000 29.000000 14.309732 0.000000
0.019035 -50.016215 -3.578132 0.000000 50.000000 14.553023 7.000000
-0.114114 -49.228264 -3.535857 0.000000 44.000000 14.334503 0.000000
-1.190419 -47.691252 -0.286068 0.000000 43.000000 14.276077 0.000000
-1.101935 -47.505601 -1.639150 0.000000 26.000000 14.274404 0.000000
-0.816730 -47.822257 -3.461980 0.000000 38.000000 14.362695 0.000000
0.465233 -50.654104 -2.920372 0.000000 31.000000 14.345815 0.000000
0.770646 -52.305616 0.422851 0.000000 44.000000 14.383526 0.000000
-0.288494 -51.189197 0.965354 0.000000 80.000000 14.800471 18.000000
0.646980 -52.054055 0.346888 0.000000 44.000000 14.397039 0.000000
-1.635234 -48.505294 0.741262 0.000000 55.000000 14.901451 16.000000
0.299697 -51.297566 0.162869 0.000000 39.000000 14.410430 0.000000
0.258618 -51.168662 0.137806 0.000000 37.000000 14.395721 0.000000
-1.112470 -47.572508 -1.996535 0.000000 40.000000 14.353477 0.000000
-1.225115 -49.337839 0.728766 0.000000 51.000000 14.886470 17.000000
0.384476 -51.233753 -0.710036 0.000000 55.000000 14.408128 0.000000
-2.113345 -47.849003 0.746659 0.000000 70.000000 15.052912 15.000000
1.210448 -52.304238 -2.767235 0.000000 60.000000 14.356366 0.000000
-0.442771 -48.877305 -2.633544 0.000000 39.000000 14.377141 0.000000
-1.321425 -49.271468 -0.031355 0.000000 53.000000 15.032802 23.000000
0.432201 -52.243347 0.027566 0.000000 67.000000 14.707042 25.000000
-0.388329 -48.697613 -4.208949 0.000000 49.000000 14.434278 0.000000
-0.078589 -49.789857 -1.924966 0.000000 56.000000 14.353952 0.000000
-1.225887 -48.154327 0.631682 0.000000 36.000000 14.397765 0.000000
1.265803 -51.634734 -4.852072 0.000000 30.000000 14.264371 0.000000
1.236224 -51.651433 -4.698983 0.000000 27.000000 14.280325 0.000000
0.696939 -52.096945 0.240126 0.000000 32.000000 14.382621 0.000000
0.472787 -52.171519 -0.522927 0.000000 53.000000 14.703805 25.000000
-1.130685 -47.452356 -2.603878 0.000000 49.000000 14.389217 0.000000
1.068438 -51.724071 -4.222081 0.000000 41.000000 14.406728 0.000000
-0.400737 -49.024917 -2.772529 0.000000 47.000000 14.417866 0.000000
1.006877 -52.791375 -0.704920 0.000000 38.000000 14.507032 25.000000
-1.520570 -47.910062 0.012152 0.000000 77.000000 14.630884 4.000000
1.095925 -51.767873 -3.945730 0.000000 31.000000 14.368614 0.000000
1.614978 -52.832772 -3.991183 0.000000 41.000000 14.357825 0.000000
1.598460 -52.860297 -3.845413 0.000000 38.000000 14.367466 0.000000
-1.814344 -47.765640 0.539054 0.000000 61.000000 14.772923 15.000000
-0.344943 -49.689069 -0.703033 0.000000 67.000000 14.409477 0.000000
0.455207 -52.804934 1.135703 0.000000 74.000000 14.795845 20.000000
1.201149 -51.878253 -3.406210 0.000000 28.000000 14.258383 0.000000
0.150686 -49.826485 -3.117463 0.000000 35.000000 14.301208 0.000000
1.263556 -51.908466 -3.280551 0.000000 27.000000 14.200552 0.000000
1.407400 -53.051003 -0.248638 0.000000 40.000000 14.204157 0.000000
1.123671 -52.000441 -2.974099 0.000000 30.000000 14.329759 0.000000
1.088732 -52.046123 -2.829290 0.000000 44.000000 14.363747 0.000000
1.066435 -52.083558 -1.569486 0.000000 37.000000 14.254022 0.000000
0.186330 -52.199544 0.645507 0.000000 73.000000 14.838069 20.000000
-1.246535 -48.874796 1.110554 0.000000 71.000000 14.665732 16.000000
-0.601658 -49.251349 -0.681434 0.000000 27.000000 14.452546 10.000000
-0.150132 -50.327721 0.392580 0.000000 46.000000 14.377918 0.000000
-1.648471 -48.687136 1.054988 0.000000 48.000000 14.954008 16.000000
0.604003 -52.124745 -0.761133 0.000000 43.000000 14.593622 25.000000
0.489179 -50.942843 -2.040927 0.000000 53.000000 14.344790 0.000000
1.214119 -52.817022 -1.021229 0.000000 46.000000 14.368182 0.000000
-0.254962 -50.591615 -0.191597 0.000000 63.000000 14.651272 22.000000
1.025662 -52.413913 -0.970138 0.000000 52.000000 14.361136 0.000000
-1.631761 -47.849343 0.335624 0.000000 75.000000 14.667747 4.000000
0.649650 -52.438048 -0.638985 0.000000 60.000000 14.671007 25.000000
0.016239 -49.078390 -4.863858 0.000000 27.000000 14.307436 0.000000
0.508148 -50.160871 -4.848957 0.000000 28.000000 14.321503 0.000000
-0.310452 -49.554271 -0.208746 0.000000 41.000000 14.264334 0.000000
0.837909 -51.925915 -1.442874 0.000000 56.000000 14.378090 0.000000
-0.976048 -49.445822 0.133761 0.000000 35.000000 14.777069 23.000000
-0.104315 -49.142187 -4.439030 0.000000 34.000000 14.393668 0.000000
0.893345 -53.322658 0.200930 0.000000 47.000000 14.729105 26.000000
-0.163218 -51.768962 0.108558 0.000000 62.000000 15.032141 25.000000
0.696928 -51.303325 -1.912314 0.000000 52.000000 14.295697 0.000000
-0.966355 -49.538416 0.870566 0.000000 60.000000 14.722370 17.000000
-0.997093 -49.529895 0.874969 0.000000 66.000000 14.745882 17.000000
-0.304965 -49.594328 -1.458586 0.000000 45.000000 14.420794 0.000000
-0.357283 -48.729788 -3.938513 0.000000 43.000000 14.388730 0.000000
-0.553092 -48.818939 -1.971020 0.000000 47.000000 14.375032 0.000000
0.895072 -52.812816 -0.139316 0.000000 62.000000 14.551215 25.000000
-0.110385 -50.382259 0.406704 0.000000 42.000000 14.363633 0.000000
-1.061858 -49.494103 0.103976 0.000000 58.000000 14.878054 23.000000
0.711715 -51.271926 -2.781391 0.000000 64.000000 14.369567 0.000000
0.392462 -50.459982 -3.290071 0.000000 32.000000 14.371831 0.000000
0.907245 -51.047547 -4.543727 0.000000 33.000000 14.302605 0.000000
-0.771768 -48.696040 -0.874847 0.000000 52.000000 14.392889 0.000000
-0.302745 -49.006890 -3.468506 0.000000 60.000000 14.402608 0.000000
-0.982790 -47.606470 -3.519158 0.000000 58.000000 14.427269 0.000000
-0.200812 -50.770761 0.597974 0.000000 43.000000 14.587132 18.000000
0.444629 -50.576804 -2.924769 0.000000 32.000000 14.332143 0.000000
-1.676424 -48.535911 0.679513 0.000000 66.000000 14.958557 16.000000
0.386265 -50.633199 -2.789111 0.000000 38.000000 14.392773 0.000000
1.272545 -52.202588 -3.048127 0.000000 32.000000 14.290024 0.000000
0.268165 -50.925723 -0.437114 0.000000 46.000000 14.350823 0.000000
1.258282 -52.821592 -1.634436 0.000000 62.000000 14.401293 0.000000
-0.289492 -51.442423 0.926444 0.000000 35.000000 14.912978 18.000000
-0.087895 -49.734552 -2.403911 0.000000 39.000000 14.394274 0.000000
-0.246898 -49.676773 -1.393749 0.000000 55.000000 14.395988 0.000000
0.861332 -52.439297 -1.486438 0.000000 45.000000 14.579232 5.000000
-0.013012 -49.898771 -2.054089 0.000000 36.000000 14.356009 0.000000
-0.006298 -50.782611 -2.336450 0.000000 37.000000 14.756467 3.000000
-0.708458 -48.455673 -2.222932 0.000000 41.000000 14.390119 0.000000
0.553210 -50.994508 -1.975751 0.000000 32.000000 14.301564 0.000000
0.029764 -50.019095 -1.822920 0.000000 38.000000 14.341744 0.000000
0.703132 -52.531500 0.601899 0.000000 54.000000 14.519058 20.000000
0.055827 -50.082024 -1.708011 0.000000 44.000000 14.331659 0.000000
0.893179 -52.475900 -1.501541 0.000000 55.000000 14.567838 5.000000
0.008804 -50.161771 -1.584605 0.000000 39.000000 14.393390 0.000000
-0.084010 -51.778771 0.100863 0.000000 69.000000 14.965993 25.000000
0.556792 -51.260087 -1.512351 0.000000 35.000000 14.357128 0.000000
0.523256 -51.335592 -1.394337 0.000000 44.000000 14.405566 0.000000
1.300174 -53.089012 -1.205787 0.000000 56.000000 14.427221 0.000000
0.718152 -51.628044 -2.207219 0.000000 57.000000 14.448060 9.000000
1.108872 -52.955225 -1.417814 0.000000 67.000000 14.567064 5.000000
0.581445 -51.474693 -1.177746 0.000000 49.000000 14.387076 0.000000
-1.067031 -48.485575 -0.589291 0.000000 59.000000 14.536223 10.000000
1.103201 -52.638998 -0.993672 0.000000 57.000000 14.389380 0.000000
-0.672629 -48.821113 -3.600388 0.000000 41.000000 14.671693 11.000000
0.760246 -50.957022 -3.062610 0.000000 36.000000 14.225250 0.000000
0.196703 -51.476982 0.367993 0.000000 41.000000 14.555179 25.000000
0.598903 -51.068025 -1.627672 0.000000 46.000000 14.251367 0.000000
0.716607 -50.618757 -4.744056 0.000000 30.000000 14.315714 0.000000
-0.918003 -48.690371 -0.120505 0.000000 39.000000 14.434736 21.000000
0.901881 -52.097192 -0.358405 0.000000 44.000000 14.267711 0.000000
0.507197 -51.172915 -3.779905 0.000000 28.000000 14.626894 7.000000
-0.828268 -48.163880 -2.219765 0.000000 39.000000 14.374003 0.000000
0.434727 -51.342202 -0.012032 0.000000 40.000000 14.328169 0.000000
0.246508 -52.495085 0.126282 0.000000 80.000000 14.969006 25.000000
-0.284898 -48.584190 -4.723484 0.000000 40.000000 14.352810 0.000000
0.601190 -51.539392 -0.986457 0.000000 41.000000 14.374591 0.000000
0.373487 -50.393568 -4.548819 0.000000 47.000000 14.506269 27.000000
-0.263877 -48.462894 -4.793278 0.000000 27.000000 14.290675 0.000000
-0.035811 -49.404401 -4.235145 0.000000 57.000000 14.419454 0.000000
0.685054 -51.302150 -1.840968 0.000000 55.000000 14.297625 0.000000
0.473985 -50.966624 -3.780344 0.000000 48.000000 14.569533 7.000000
1.513263 -52.941820 -2.926525 0.000000 30.000000 14.372321 0.000000
-0.535947 -48.317885 -4.156931 0.000000 33.000000 14.400311 0.000000
0.436297 -50.913386 -1.567758 0.000000 51.000000 14.325171 0.000000
0.381281 -52.616786 -0.042308 0.000000 51.000000 14.918844 25.000000
-0.540341 -51.035978 0.569276 0.000000 55.000000 15.007779 18.000000
0.269755 -52.391089 -0.264877 0.000000 38.000000 14.949330 25.000000
-0.580766 -48.228395 -3.427549 0.000000 25.000000 14.318441 0.000000
0.044970 -49.917778 -2.610666 0.000000 44.000000 14.376263 0.000000
0.396321 -52.786727 1.069452 0.000000 60.000000 14.848722 20.000000
-0.545495 -48.225541 -3.114617 0.000000 27.000000 14.249368 0.000000
1.117095 -52.126573 -1.669303 0.000000 36.000000 14.238223 0.000000
0.323690 -52.064153 0.099538 0.000000 57.000000 14.720448 25.000000
-1.785823 -47.950316 0.276489 0.000000 78.000000 14.855752 4.000000
-0.071740 -50.677005 -0.480070 0.000000 68.000000 14.556064 13.000000
0.200586 -51.667213 0.034155 0.000000 48.000000 14.670739 25.000000
-0.723680 -48.448791 -2.201740 0.000000 32.000000 14.398439 0.000000
-1.045616 -48.348579 -1.045930 0.000000 41.000000 14.511804 30.000000
-0.209986 -51.197687 0.900686 0.000000 64.000000 14.740979 18.000000
0.592153 -52.216322 0.636585 0.000000 39.000000 14.481471 20.000000
0.455387 -50.444909 -3.481803 0.000000 43.000000 14.331062 0.000000
-1.000892 -49.229445 -0.670899 0.000000 76.000000 14.800867 10.000000
-0.563051 -48.556811 -1.791500 0.000000 31.000000 14.252356 0.000000
-1.439684 -47.826859 0.537039 0.000000 51.000000 14.462332 15.000000
0.508026 -50.210807 -4.871810 0.000000 40.000000 14.345377 0.000000
0.475026 -51.176355 -1.054990 0.000000 45.000000 14.342336 0.000000
-0.936428 -49.673928 0.450439 0.000000 38.000000 14.801350 23.000000
0.866921 -52.186618 -0.878257 0.000000 50.000000 14.397038 0.000000
0.496423 -52.356236 -0.133140 0.000000 57.000000 14.715648 25.000000
-0.623895 -48.723291 -3.625808 0.000000 52.000000 14.589454 11.000000
-1.116773 -47.929936 -0.106569 0.000000 36.000000 14.290107 0.000000
-0.657832 -49.482961 -0.217029 0.000000 53.000000 14.547329 23.000000
-0.552490 -50.489527 1.118473 0.000000 48.000000 14.724080 19.000000
-1.162844 -48.539135 0.489328 0.000000 41.000000 14.520331 16.000000
0.603551 -52.555956 -0.203531 0.000000 64.000000 14.711985 25.000000
-1.533790 -48.746944 -0.001388 0.000000 62.000000 14.998327 21.000000
0.767788 -52.680856 -0.672436 0.000000 61.000000 14.671405 25.000000
-1.536876 -48.775412 1.023148 0.000000 71.000000 14.894734 16.000000
0.316390 -50.958962 -1.363656 0.000000 51.000000 14.428624 0.000000
-0.645821 -47.737653 -4.698930 0.000000 43.000000 14.316264 0.000000
-0.555359 -49.270363 -0.539170 0.000000 36.000000 14.402536 0.000000
-0.809666 -47.860564 -3.764127 0.000000 43.000000 14.407469 0.000000
-0.517582 -49.334852 -0.443304 0.000000 33.000000 14.384784 0.000000
-0.603672 -48.986495 -0.978786 0.000000 43.000000 14.376690 0.000000
-0.403768 -49.383059 -0.355673 0.000000 37.000000 14.292760 0.000000
-0.923019 -48.425824 -0.224798 0.000000 33.000000 14.339395 0.000000
-0.027365 -50.222132 -1.185415 0.000000 42.000000 14.405293 0.000000
0.554170 -52.972272 -0.007714 0.000000 32.000000 14.909834 25.000000
-0.260439 -50.125355 0.464130 0.000000 36.000000 14.383186 0.000000
-0.707046 -49.687726 -0.181601 0.000000 34.000000 14.674079 23.000000
1.422197 -52.872807 -2.304666 0.000000 44.000000 14.353102 0.000000
0.724081 -51.839165 -0.869625 0.000000 52.000000 14.377445 0.000000
1.347466 -52.644292 -2.458474 0.000000 35.000000 14.341380 0.000000
1.305192 -52.529973 -2.531861 0.000000 38.000000 14.339499 0.000000
0.329317 -50.848278 -2.138231 0.000000 61.000000 14.459707 3.000000
1.603691 -52.434380 -4.737773 0.000000 30.000000 14.285737 0.000000
-0.430571 -50.800910 0.674140 0.000000 44.000000 14.797573 18.000000
-0.450043 -48.840490 -2.386217 0.000000 44.000000 14.339520 0.000000
1.583689 -52.899402 -2.939072 0.000000 32.000000 14.292534 0.000000
1.071540 -51.944133 -2.863031 0.000000 32.000000 14.339956 0.000000
1.527459 -52.779949 -2.995492 0.000000 42.000000 14.299062 0.000000
0.458997 -50.889965 -2.299443 0.000000 44.000000 14.379425 0.000000
1.420473 -52.664049 -3.039275 0.000000 39.000000 14.351248 0.000000
0.769178 -52.211124 -0.668213 0.000000 48.000000 14.470973 25.000000
-0.979510 -49.491579 1.016584 0.000000 66.000000 14.697505 17.000000
-1.230044 -47.540220 -0.314542 0.000000 39.000000 14.251095 0.000000
1.641100 -52.933097 -4.028187 0.000000 37.000000 14.381062 0.000000
-1.180832 -47.493732 -3.702067 0.000000 52.000000 14.578707 28.000000
0.688771 -51.130332 -3.677064 0.000000 46.000000 14.433810 0.000000
0.886722 -51.336174 -3.151456 0.000000 28.000000 14.282229 0.000000
-0.761509 -49.867506 0.817391 0.000000 66.000000 14.683617 19.000000
0.869082 -51.211119 -3.206519 0.000000 28.000000 14.251548 0.000000
0.327675 -51.994352 -0.201609 0.000000 54.000000 14.722146 25.000000
1.425360 -52.459220 -4.162205 0.000000 53.000000 14.389996 0.000000
0.237716 -51.462449 0.908023 0.000000 65.000000 14.449759 20.000000
-0.353328 -50.736020 -0.037638 0.000000 70.000000 14.782966 22.000000
0.106154 -49.449416 -4.699581 0.000000 43.000000 14.364582 0.000000
-0.559774 -48.706750 -2.409828 0.000000 46.000000 14.384296 0.000000
1.568172 -52.838425 -3.812801 0.000000 47.000000 14.381666 0.000000
-0.478020 -50.479118 0.048360 0.000000 73.000000 14.776423 22.000000
-1.357100 -48.831717 1.026973 0.000000 73.000000 14.756538 16.000000
0.606044 -50.598150 -3.413204 0.000000 23.000000 14.252554 0.000000
-0.937616 -49.454851 1.134497 0.000000 72.000000 14.630690 17.000000
0.497105 -52.515409 1.155685 0.000000 36.000000 14.633412 20.000000
0.859535 -52.453647 -1.216447 0.000000 61.000000 14.555714 5.000000
0.261728 -50.813475 -1.216515 0.000000 44.000000 14.399206 0.000000
-1.221068 -49.113611 0.013615 0.000000 47.000000 14.870638 23.000000
-1.311739 -48.974294 0.944059 0.000000 72.000000 14.785663 16.000000
-1.874155 -47.739175 -0.028542 0.000000 38.000000 14.881081 4.000000
0.681187 -50.970759 -3.551717 0.000000 34.000000 14.358640 0.000000
-0.927433 -49.973658 0.089774 0.000000 60.000000 14.961733 23.000000
0.496513 -50.746538 -3.564152 0.000000 42.000000 14.431206 0.000000
0.061636 -49.779322 -3.549844 0.000000 36.000000 14.411263 0.000000
1.048665 -51.361106 -4.862936 0.000000 27.000000 14.345032 0.000000
-0.012579 -49.530372 -3.584552 0.000000 26.000000 14.376668 0.000000
-0.099861 -49.418945 -3.586256 0.000000 28.000000 14.408175 0.000000
-1.031353 -48.146358 -0.397977 0.000000 49.000000 14.338561 0.000000
0.191880 -52.401944 0.820837 0.000000 51.000000 14.898432 20.000000
-0.499618 -50.596136 0.650116 0.000000 59.000000 14.775786 19.000000
-0.198967 -49.867108 -1.080549 0.000000 51.000000 14.397224 0.000000
-0.021360 -49.487385 -3.559855 0.000000 27.000000 14.363522 0.000000
-0.062733 -49.377934 -3.543779 0.000000 29.000000 14.352550 0.000000
-0.096579 -49.265747 -3.526758 0.000000 30.000000 14.333548 0.000000
0.180082 -52.038053 0.051866 0.000000 73.000000 14.843983 25.000000
-0.144359 -49.159820 -3.503494 0.000000 27.000000 14.328994 0.000000
1.171423 -52.705929 -0.920025 0.000000 54.000000 14.347866 0.000000
1.144904 -52.138958 -1.729230 0.000000 30.000000 14.225396 0.000000
0.158998 -52.652809 -0.023112 0.000000 55.000000 15.131636 25.000000
-1.371818 -48.894004 0.073123 0.000000 72.000000 14.906352 21.000000
-2.101655 -47.982166 0.788206 0.000000 75.000000 15.093933 15.000000
0.545547 -50.506382 -4.295340 0.000000 26.000000 14.370058 0.000000
-1.672348 -48.160116 0.961566 0.000000 68.000000 14.763337 15.000000
-0.841394 -47.726574 -3.407214 0.000000 24.000000 14.338058 0.000000
0.489029 -50.386043 -4.321643 0.000000 49.000000 14.372989 0.000000
-0.872306 -47.500998 -3.350124 0.000000 21.000000 14.263824 0.000000
0.158144 -51.962712 1.034068 0.000000 66.000000 14.718315 20.000000
0.638580 -52.487573 -0.686626 0.000000 59.000000 14.707410 25.000000
0.369135 -51.480259 0.442571 0.000000 40.000000 14.392976 0.000000
0.756131 -52.826641 -0.485453 0.000000 45.000000 14.721937 25.000000
-0.552599 -48.194688 -3.135109 0.000000 28.000000 14.245070 0.000000
-0.992991 -48.408667 -1.144895 0.000000 61.000000 14.501362 30.000000
-0.489797 -47.960753 -4.600743 0.000000 50.000000 14.259063 0.000000
-0.906329 -48.925434 0.783088 0.000000 34.000000 14.419244 0.000000
-0.887482 -47.935331 -2.873228 0.000000 27.000000 14.406068 0.000000
0.236144 -49.531411 -4.752933 0.000000 38.000000 14.288605 0.000000
-1.008088 -47.730209 -2.681685 0.000000 31.000000 14.405558 0.000000
-0.431185 -50.442409 -0.673457 0.000000 64.000000 14.802227 13.000000
-0.385361 -49.573228 -0.785940 0.000000 64.000000 14.406384 0.000000
-1.121574 -47.550042 -2.471703 0.000000 35.000000 14.407072 0.000000
1.588763 -52.731511 -4.097025 0.000000 45.000000 14.350784 0.000000
-1.049022 -47.754550 -2.053332 0.000000 41.000000 14.380022 0.000000
-1.429198 -47.825925 1.200238 0.000000 36.000000 14.375865 0.000000
0.364258 -52.609619 -0.069493 0.000000 73.000000 14.934253 25.000000
1.009244 -51.909959 -2.740939 0.000000 50.000000 14.367378 0.000000
0.833626 -51.195461 -4.005303 0.000000 40.000000 14.369109 0.000000
1.216261 -52.950502 -0.563999 0.000000 45.000000 14.369875 0.000000
-1.011714 -48.502868 -1.117461 0.000000 61.000000 14.554865 30.000000
0.349366 -50.572013 -1.864832 0.000000 43.000000 14.293233 0.000000
0.584286 -53.059833 0.844327 0.000000 71.000000 14.821333 20.000000
0.423628 -51.272484 -0.791294 0.000000 38.000000 14.398715 0.000000
0.520137 -52.461476 -0.417485 0.000000 64.000000 14.771714 25.000000
0.815114 -51.242781 -3.956413 0.000000 33.000000 14.400111 0.000000
0.779395 -51.953691 -0.848610 0.000000 40.000000 14.373748 0.000000
-1.327540 -47.642780 -0.654912 0.000000 61.000000 14.421438 0.000000
-0.944603 -48.405432 -1.190177 0.000000 77.000000 14.461739 30.000000
0.669531 -51.706757 -0.898309 0.000000 45.000000 14.373777 0.000000
0.349669 -50.864284 -2.307829 0.000000 62.000000 14.467788 3.000000
0.501808 -51.014051 -1.682814 0.000000 55.000000 14.322172 0.000000
-0.557613 -49.707460 -0.199681 0.000000 60.000000 14.550217 23.000000
0.512462 -51.334133 -0.958822 0.000000 40.000000 14.364316 0.000000
-1.475331 -48.654856 0.984432 0.000000 57.000000 14.792901 16.000000
-0.394255 -48.996894 -2.784866 0.000000 30.000000 14.401613 0.000000
-0.925341 -49.049516 0.320932 0.000000 34.000000 14.542229 21.000000
0.235935 -52.066689 0.712001 0.000000 41.000000 14.729605 20.000000
-0.604106 -50.469556 0.531462 0.000000 54.000000 14.829863 19.000000
-0.062012 -51.965359 1.018323 0.000000 68.000000 14.919115 20.000000
0.763919 -51.899154 -1.319591 0.000000 71.000000 14.419020 0.000000
0.011430 -49.821624 -1.714095 0.000000 50.000000 14.262115 0.000000
-0.252130 -49.795894 -1.035877 0.000000 43.000000 14.409718 0.000000
0.119598 -50.615873 -1.014692 0.000000 47.000000 14.420032 0.000000
-0.007695 -51.182957 0.691024 0.000000 72.000000 14.577174 18.000000
-0.432500 -50.796326 0.516558 0.000000 55.000000 14.815580 18.000000
-0.336954 -49.545467 -1.052573 0.000000 34.000000 14.381952 0.000000
-1.166365 -47.799627 -0.989228 0.000000 53.000000 14.381568 0.000000
1.389859 -52.225687 -3.273022 0.000000 24.000000 14.220352 0.000000
0.814288 -51.732164 -1.974174 0.000000 43.000000 14.378768 0.000000
-0.469331 -49.312704 -1.052085 0.000000 34.000000 14.402409 0.000000
0.562717 -50.981720 -2.578690 0.000000 48.000000 14.357294 0.000000
-0.525289 -49.194690 -1.049167 0.000000 37.000000 14.402444 0.000000
-0.181478 -49.520634 -2.782880 0.000000 63.000000 14.431693 0.000000
-0.217473 -49.919926 -0.995005 0.000000 52.000000 14.426311 0.000000
-0.656077 -48.963176 -1.035493 0.000000 38.000000 14.420478 0.000000
-1.219245 -48.113939 0.562849 0.000000 24.000000 14.382667 0.000000
-0.686834 -48.839473 -1.029618 0.000000 32.000000 14.395115 0.000000
-0.746627 -48.726595 -1.017324 0.000000 36.000000 14.399685 0.000000
0.424682 -51.243481 -0.535898 0.000000 38.000000 14.355983 0.000000
-0.555577 -48.620718 -2.555443 0.000000 51.000000 14.360962 0.000000
-0.729058 -49.269668 -0.718697 0.000000 34.000000 14.579100 10.000000
-0.473928 -49.362616 -0.921442 0.000000 37.000000 14.412555 0.000000
-1.328179 -48.927179 1.023646 0.000000 79.000000 14.771310 16.000000
-1.151000 -47.844900 -0.429837 0.000000 47.000000 14.322259 0.000000
-0.160939 -52.022139 0.881293 0.000000 76.000000 15.047879 20.000000
-0.259407 -50.882986 -0.707688 0.000000 64.000000 14.838162 13.000000
-1.206612 -47.842359 -0.845615 0.000000 28.000000 14.419216 0.000000
0.886592 -53.138211 0.043466 0.000000 36.000000 14.675352 26.000000
-1.268174 -47.740797 -0.814009 0.000000 35.000000 14.427931 0.000000
-0.929370 -49.402961 0.620780 0.000000 65.000000 14.660702 17.000000
-1.370441 -47.531523 -0.744241 0.000000 37.000000 14.423257 0.000000
-0.274699 -50.206942 -0.673011 0.000000 48.000000 14.561935 13.000000
-0.930106 -47.961418 -2.034693 0.000000 22.000000 14.358498 0.000000
-1.097470 -48.167028 -0.520403 0.000000 36.000000 14.420875 0.000000
-1.133159 -48.072946 -0.474436 0.000000 35.000000 14.407841 0.000000
0.232342 -50.078489 -4.349623 0.000000 46.000000 14.476822 27.000000
-0.625360 -48.513545 -1.707199 0.000000 49.000000 14.280311 0.000000
0.493536 -50.650971 -3.070549 0.000000 44.000000 14.336409 0.000000
-1.992028 -47.850883 0.952157 0.000000 70.000000 14.920927 15.000000
-1.213192 -47.604641 -0.221349 0.000000 35.000000 14.252429 0.000000
1.189412 -53.074406 1.221352 0.000000 40.000000 14.240077 0.000000
1.098620 -52.944961 1.203114 0.000000 41.000000 14.269028 0.000000
0.229249 -51.364511 1.109571 0.000000 38.000000 14.392648 0.000000
1.196756 -53.110901 -0.202513 0.000000 48.000000 14.413475 0.000000
0.229110 -51.436292 1.141779 0.000000 46.000000 14.419414 0.000000
-1.630720 -48.568088 1.132809 0.000000 66.000000 14.878703 16.000000
-0.186220 -49.781013 -1.422412 0.000000 25.000000 14.388860 0.000000
-0.955114 -48.501909 -1.157856 0.000000 66.000000 14.508260 30.000000
1.163778 -51.482563 -4.898998 0.000000 30.000000 14.297120 0.000000
-1.165898 -47.432024 -2.351606 0.000000 41.000000 14.383108 0.000000
-0.670491 -50.235050 1.026931 0.000000 78.000000 14.733068 19.000000
-2.081156 -48.009396 0.816805 0.000000 58.000000 15.083722 15.000000
-0.674334 -48.463437 -2.370094 0.000000 23.000000 14.379742 0.000000
0.156987 -51.895141 0.699263 0.000000 37.000000 14.729467 20.000000
-0.278081 -50.658093 -0.217376 0.000000 77.000000 14.703150 22.000000
-0.092971 -51.047220 -0.715583 0.000000 71.000000 14.758963 13.000000
0.408159 -50.435550 -3.146745 0.000000 32.000000 14.330825 0.000000
0.241203 -50.375344 -1.782564 0.000000 57.000000 14.297744 0.000000
1.047913 -51.622168 -4.054045 0.000000 37.000000 14.362650 0.000000
-0.643602 -48.775297 -4.372894 0.000000 69.000000 14.715507 8.000000
-1.054171 -48.051631 -1.130687 0.000000 53.000000 14.403680 0.000000
-1.060819 -48.081475 -0.834503 0.000000 45.000000 14.388048 0.000000
1.265437 -52.436587 -2.022206 0.000000 42.000000 14.276824 0.000000
0.633618 -50.717519 -3.381193 0.000000 26.000000 14.274565 0.000000
1.137598 -51.778393 -3.406979 0.000000 32.000000 14.273346 0.000000
0.339858 -50.319534 -3.097427 0.000000 45.000000 14.337435 0.000000
1.196959 -51.811549 -3.287822 0.000000 31.000000 14.220250 0.000000
0.697595 -50.791958 -3.128959 0.000000 27.000000 14.219403 0.000000
1.262897 -52.129931 -3.848245 0.000000 42.000000 14.360433 0.000000
-0.088151 -49.200759 -4.434775 0.000000 41.000000 14.403425 0.000000
-0.728529 -48.763652 -1.087446 0.000000 47.000000 14.407199 0.000000
-1.003351 -47.658130 -2.610237 0.000000 38.000000 14.362554 0.000000
1.077610 -51.959005 -2.871711 0.000000 37.000000 14.341795 0.000000
0.536416 -50.963591 -2.703518 0.000000 51.000000 14.387689 0.000000
-0.555340 -50.723695 -0.228642 0.000000 63.000000 14.981383 22.000000
-0.564825 -50.016155 0.340175 0.000000 57.000000 14.624881 23.000000
0.142412 -52.495319 0.972095 0.000000 75.000000 14.964906 20.000000
0.579172 -51.502437 -1.174791 0.000000 63.000000 14.400513 0.000000
0.503185 -50.414876 -3.473424 0.000000 29.000000 14.274432 0.000000
1.183218 -52.343641 -2.037501 0.000000 47.000000 14.313169 0.000000
1.091157 -52.165220 -2.363380 0.000000 44.000000 14.358098 0.000000
0.660948 -53.034566 0.051285 0.000000 59.000000 14.833401 25.000000
0.735555 -50.540900 -4.691874 0.000000 40.000000 14.259721 0.000000
0.867694 -52.062280 -1.023945 0.000000 44.000000 14.360587 0.000000
1.181225 -52.331218 -2.006861 0.000000 39.000000 14.306164 0.000000
0.738493 -51.341898 -1.855855 0.000000 35.000000 14.268132 0.000000
-0.091985 -51.807476 -0.025385 0.000000 69.000000 14.999893 25.000000
-1.072697 -48.169007 -0.479834 0.000000 44.000000 14.394759 0.000000
1.267822 -52.450643 -1.774944 0.000000 42.000000 14.252050 0.000000
-0.153415 -50.921387 -0.701344 0.000000 76.000000 14.758414 13.000000
1.277935 -52.515124 -1.656706 0.000000 47.000000 14.256571 0.000000
1.233839 -52.480614 -1.727118 0.000000 55.000000 14.289741 0.000000
-0.008892 -51.488816 0.087455 0.000000 39.000000 14.777382 25.000000
0.761336 -51.773592 -1.131449 0.000000 32.000000 14.346485 0.000000
-0.292572 -51.239197 0.768164 0.000000 60.000000 14.848075 18.000000
0.759317 -51.909728 -0.909167 0.000000 45.000000 14.380194 0.000000
-0.866681 -49.020193 0.818183 0.000000 32.000000 14.419638 0.000000
-1.114248 -49.201505 0.138314 0.000000 64.000000 14.797403 23.000000
0.799539 -53.137268 0.347267 0.000000 54.000000 14.718080 26.000000
0.147832 -50.211809 -3.525314 0.000000 69.000000 14.513900 7.000000
-0.417664 -48.130267 -4.875764 0.000000 23.000000 14.297722 0.000000
0.209009 -49.858311 -3.916067 0.000000 30.000000 14.354551 0.000000
0.247729 -50.896497 -2.289151 0.000000 70.000000 14.570872 3.000000
-1.189542 -49.188082 0.942690 0.000000 57.000000 14.766430 17.000000
-0.615855 -48.546160 -2.352121 0.000000 47.000000 14.360100 0.000000
0.469707 -50.378547 -4.019058 0.000000 36.000000 14.352213 0.000000
0.928370 -52.789082 -0.683626 0.000000 67.000000 14.574157 25.000000
-0.840739 -48.597673 -0.274987 0.000000 40.000000 14.343939 0.000000
0.192845 -50.891997 -2.363548 0.000000 39.000000 14.626892 3.000000
-0.299985 -48.862585 -3.325592 0.000000 49.000000 14.322570 0.000000
-0.118935 -50.100591 -1.099887 0.000000 66.000000 14.426294 0.000000
0.556559 -52.928199 -0.064375 0.000000 68.000000 14.895593 25.000000
-0.088717 -49.234606 -4.089561 0.000000 31.000000 14.378354 0.000000
-0.104169 -49.245210 -3.967921 0.000000 30.000000 14.382669 0.000000
-0.508978 -50.291272 1.079174 0.000000 53.000000 14.605655 19.000000
-1.487098 -47.829500 0.526398 0.000000 54.000000 14.507291 15.000000
-0.676405 -48.205895 -3.751152 0.000000 31.000000 14.432277 0.000000
0.741420 -51.954258 -2.105058 0.000000 66.000000 14.553328 9.000000
-0.134820 -49.290313 -3.610155 0.000000 30.000000 14.387945 0.000000
0.724583 -51.761079 -1.084465 0.000000 34.000000 14.368793 0.000000
-0.082319 -49.295644 -3.507248 0.000000 28.000000 14.331123 0.000000
-0.565152 -48.224813 -3.422287 0.000000 23.000000 14.302285 0.000000
-0.554132 -49.133273 -0.306567 0.000000 41.000000 14.316562 0.000000
-0.419914 -49.566939 -1.264152 0.000000 58.000000 14.490046 2.000000
1.215130 -52.836344 -0.975004 0.000000 48.000000 14.370103 0.000000
-0.079599 -49.190170 -3.194748 0.000000 21.000000 14.247947 0.000000
-0.342341 -49.209806 -2.129135 0.000000 37.000000 14.369231 0.000000
0.215637 -51.445862 0.866256 0.000000 71.000000 14.467414 20.000000
-0.087214 -49.400308 -3.036379 0.000000 27.000000 14.325375 0.000000
-0.665604 -48.379090 -2.916973 0.000000 26.000000 14.399422 0.000000
-0.166533 -49.453202 -2.899703 0.000000 40.000000 14.403239 0.000000
-1.156207 -49.486127 0.760191 0.000000 69.000000 14.883634 17.000000
-0.271074 -50.018210 -0.556305 0.000000 57.000000 14.465356 13.000000
-1.416759 -48.474951 0.712033 0.000000 25.000000 14.695644 16.000000
0.466446 -52.542661 0.006939 0.000000 70.000000 14.805257 25.000000
-0.411393 -49.473075 -0.345623 0.000000 50.000000 14.336527 0.000000
-0.645156 -48.541126 -2.442693 0.000000 32.000000 14.394772 0.000000
-1.125095 -47.918057 -0.953863 0.000000 56.000000 14.390485 0.000000
-0.628304 -48.585267 -2.325614 0.000000 31.000000 14.384766 0.000000
0.640712 -52.990992 0.531286 0.000000 72.000000 14.777680 20.000000
-0.623494 -48.634468 -2.209082 0.000000 28.000000 14.387787 0.000000
-1.299376 -48.944681 0.255932 0.000000 75.000000 14.841554 21.000000
-0.399482 -50.758068 -0.112883 0.000000 54.000000 14.842469 22.000000
-0.101033 -49.741625 -2.101603 0.000000 36.000000 14.374135 0.000000
-0.564950 -48.727048 -1.986654 0.000000 26.000000 14.348626 0.000000
-0.537905 -48.686237 -3.560703 0.000000 60.000000 14.488975 11.000000
0.744047 -51.855275 -0.949056 0.000000 52.000000 14.375495 0.000000
-1.015988 -48.343530 -0.525293 0.000000 51.000000 14.422868 0.000000
-0.438967 -48.808567 -1.777647 0.000000 27.000000 14.245728 0.000000
-1.022309 -48.414662 -0.134962 0.000000 46.000000 14.413527 0.000000
0.048405 -52.757949 0.755257 0.000000 48.000000 15.185544 20.000000
-0.782718 -50.205058 0.063674 0.000000 64.000000 14.932569 23.000000
0.384465 -51.899499 -1.431085 0.000000 73.000000 14.773078 6.000000
-0.084317 -50.090157 -1.436954 0.000000 40.000000 14.429724 0.000000
0.158851 -50.269196 -2.028693 0.000000 33.000000 14.355302 0.000000
-0.151037 -51.257193 0.786055 0.000000 42.000000 14.726418 18.000000
0.249202 -49.897877 -4.251919 0.000000 28.000000 14.373980 0.000000
-0.003541 -50.276405 -1.126903 0.000000 47.000000 14.400076 0.000000
0.066073 -50.503521 -0.464858 0.000000 37.000000 14.357067 0.000000
-1.118973 -48.164319 -1.301715 0.000000 64.000000 14.529353 1.000000
-1.252692 -47.808573 -0.605727 0.000000 43.000000 14.418614 0.000000
0.038321 -50.415708 -0.921993 0.000000 46.000000 14.397696 0.000000
0.177826 -51.729824 -0.200080 0.000000 56.000000 14.744749 25.000000
0.551244 -52.412905 -0.188325 0.000000 69.000000 14.696728 25.000000
0.550799 -52.366341 -0.666516 0.000000 60.000000 14.732697 25.000000
-0.287117 -49.758672 -0.388926 0.000000 31.000000 14.350647 0.000000
-1.244938 -49.337368 -0.028400 0.000000 62.000000 14.991594 23.000000
-0.148547 -49.815993 -0.300080 0.000000 32.000000 14.240088 0.000000
-0.538777 -49.262352 -1.377108 0.000000 68.000000 14.481087 2.000000
-0.526352 -49.309395 -0.444518 0.000000 42.000000 14.382038 0.000000
-0.773883 -47.724202 -3.127697 0.000000 31.000000 14.244076 0.000000
0.276831 -51.033437 -0.145666 0.000000 37.000000 14.354913 0.000000
-1.293547 -48.261708 0.602294 0.000000 40.000000 14.507392 16.000000
1.305880 -51.994054 -3.253952 0.000000 33.000000 14.195643 0.000000
0.319785 -51.298112 0.128733 0.000000 50.000000 14.396553 0.000000
-0.741791 -50.492362 0.644992 0.000000 54.000000 14.950131 19.000000
1.061206 -51.961860 -1.812322 0.000000 39.000000 14.235309 0.000000
-0.469193 -48.952133 -2.047189 0.000000 41.000000 14.364773 0.000000
-0.331323 -50.817367 0.621483 0.000000 51.000000 14.721423 18.000000
-0.473188 -51.060201 0.960047 0.000000 75.000000 14.912511 18.000000
-1.966681 -47.891600 1.008740 0.000000 50.000000 14.908830 15.000000
-0.020245 -50.657097 0.528420 0.000000 37.000000 14.384809 0.000000
-1.202005 -49.412672 0.808952 0.000000 44.000000 14.888088 17.000000
-0.351867 -48.391647 -4.575903 0.000000 40.000000 14.314496 0.000000
-0.161910 -49.567966 -2.220753 0.000000 43.000000 14.369161 0.000000
1.046671 -52.469341 -1.059894 0.000000 48.000000 14.376073 0.000000
0.514179 -51.557955 -0.551374 0.000000 37.000000 14.410359 0.000000
1.054808 -52.928622 -1.394539 0.000000 67.000000 14.601710 5.000000
0.280981 -49.595236 -4.897603 0.000000 38.000000 14.292027 0.000000
1.312368 -52.207742 -4.080578 0.000000 29.000000 14.375737 0.000000
0.712851 -51.337178 -2.409321 0.000000 64.000000 14.353146 0.000000
1.677427 -52.946941 -4.299750 0.000000 39.000000 14.385655 0.000000
0.391839 -52.720212 1.099563 0.000000 68.000000 14.821135 20.000000
1.638841 -52.826355 -4.358415 0.000000 44.000000 14.376106 0.000000
0.460341 -50.751033 -1.918518 0.000000 43.000000 14.275425 0.000000
0.356740 -50.323891 -4.362416 0.000000 38.000000 14.470304 27.000000
1.554738 -52.584726 -4.466371 0.000000 28.000000 14.361961 0.000000
-0.469265 -50.809608 0.592293 0.000000 43.000000 14.845488 18.000000
1.543218 -52.335259 -4.583355 0.000000 29.000000 14.280311 0.000000
0.988306 -51.365999 -4.474884 0.000000 24.000000 14.356501 0.000000
-0.431042 -48.931916 -2.224815 0.000000 45.000000 14.342462 0.000000
-0.923821 -47.574284 -2.992505 0.000000 28.000000 14.299791 0.000000
1.160016 -53.058121 1.055731 0.000000 28.000000 14.278750 0.000000
0.640133 -52.382242 -0.216832 0.000000 62.000000 14.607165 25.000000
1.395138 -51.970254 -4.703142 0.000000 29.000000 14.272844 0.000000
-0.318822 -49.532321 -1.434053 0.000000 55.000000 14.404184 0.000000
0.228809 -50.904446 -0.828094 0.000000 62.000000 14.422380 0.000000
-1.406511 -48.922201 0.899636 0.000000 74.000000 14.853937 16.000000
0.785301 -51.046370 -4.080926 0.000000 43.000000 14.358215 0.000000
-0.666908 -50.666982 0.918408 0.000000 72.000000 14.925095 19.000000
-1.145320 -48.880890 1.046813 0.000000 57.000000 14.584711 16.000000
0.489765 -51.240573 -1.389059 0.000000 37.000000 14.394863 0.000000
-0.089366 -49.754617 -1.914541 0.000000 50.000000 14.347526 0.000000
-1.303716 -47.932223 0.556839 0.000000 45.000000 14.382414 0.000000
-0.769192 -48.876207 -0.484703 0.000000 54.000000 14.421694 0.000000
-0.847259 -47.745434 -3.333976 0.000000 38.000000 14.342842 0.000000
-1.446739 -47.902872 -1.239751 0.000000 41.000000 14.706174 1.000000
-0.195800 -51.057926 -0.795004 0.000000 58.000000 14.865087 13.000000
-0.956264 -49.062060 0.473283 0.000000 42.000000 14.557719 21.000000
0.300536 -51.117429 -3.727203 0.000000 70.000000 14.783065 7.000000
0.909750 -51.021184 -4.866656 0.000000 28.000000 14.326524 0.000000
0.200209 -50.985104 -0.464884 0.000000 43.000000 14.440225 13.000000
-0.228586 -51.027304 1.079433 0.000000 56.000000 14.664966 18.000000
1.239103 -52.297122 -1.849507 0.000000 24.000000 14.221539 0.000000
0.540777 -52.178349 -0.274568 0.000000 62.000000 14.616886 25.000000
