-6.213328 21.253352 -14.073002 0.000000 63.000000 14.772970 7.000000
-9.296051 21.870353 -15.254461 0.000000 50.000000 15.117002 10.000000
-7.688544 21.584084 -15.024865 0.000000 42.000000 15.268897 9.000000
-8.624064 20.095661 -14.226830 0.000000 49.000000 15.040185 26.000000
-11.666783 22.754596 -15.337732 0.000000 42.000000 14.470492 0.000000
-8.940816 23.482241 -16.240996 0.000000 64.000000 15.377043 23.000000
-7.671406 21.585335 -14.972938 0.000000 68.000000 15.224393 9.000000
-12.846386 23.808577 -15.819512 0.000000 40.000000 14.285692 0.000000
-11.998278 24.325607 -16.075117 0.000000 40.000000 14.423068 0.000000
-6.327078 23.914889 -14.988504 0.000000 56.000000 14.459856 0.000000
-7.772700 23.548316 -15.196930 0.000000 55.000000 14.586733 29.000000
-7.984643 24.189253 -15.300544 0.000000 37.000000 14.379404 0.000000
-7.534346 25.346520 -16.415196 0.000000 63.000000 14.958920 15.000000
-8.416213 24.921444 -16.388098 0.000000 82.000000 14.982661 16.000000
-8.805311 20.619735 -14.527906 0.000000 60.000000 15.063271 26.000000
-11.878694 24.130483 -15.962898 0.000000 44.000000 14.422060 0.000000
-6.461632 22.983500 -15.132587 0.000000 56.000000 14.959680 13.000000
-8.861477 22.204129 -15.267236 0.000000 69.000000 15.052649 24.000000
-8.418268 23.242668 -15.538066 0.000000 62.000000 14.925113 18.000000
-11.405898 20.398628 -14.048503 0.000000 40.000000 14.342436 0.000000
-10.751862 22.335892 -14.794786 0.000000 40.000000 14.294955 0.000000
-11.055387 20.174069 -13.987371 0.000000 48.000000 14.433646 0.000000
-10.706178 24.281572 -16.496055 0.000000 63.000000 15.009445 11.000000
-12.530237 23.662987 -16.643147 0.000000 73.000000 15.131181 2.000000
-9.863194 24.610766 -16.330788 0.000000 62.000000 14.847877 22.000000
-9.967356 23.265946 -15.819605 0.000000 75.000000 14.938679 12.000000
-11.480566 23.006910 -15.405890 0.000000 53.000000 14.453223 0.000000
-10.116710 20.009009 -13.921569 0.000000 50.000000 14.582606 27.000000
-12.531266 22.745775 -15.229665 0.000000 39.000000 14.249690 0.000000
-9.036592 19.906883 -13.625476 0.000000 42.000000 14.519796 26.000000
-11.718241 21.177506 -14.429760 0.000000 47.000000 14.311101 0.000000
-9.056666 25.163987 -16.557667 0.000000 45.000000 14.938201 16.000000
-9.452072 19.938406 -13.811235 0.000000 81.000000 14.611579 28.000000
-11.286554 22.313653 -14.971014 0.000000 37.000000 14.383140 0.000000
-6.320402 22.537150 -15.161680 0.000000 65.000000 15.193812 13.000000
-10.891651 22.175490 -14.787372 0.000000 36.000000 14.334940 0.000000
-9.137885 20.291058 -14.064761 0.000000 60.000000 14.737162 26.000000
-7.836596 23.175807 -15.512804 0.000000 45.000000 15.016458 18.000000
-9.760636 24.669469 -16.532567 0.000000 60.000000 15.019137 22.000000
-9.203404 23.533666 -16.280251 0.000000 75.000000 15.351843 23.000000
-10.927006 23.100354 -15.174356 0.000000 29.000000 14.288424 0.000000
-6.675626 21.117961 -14.402132 0.000000 66.000000 15.056260 19.000000
-9.565413 19.742847 -13.603348 0.000000 51.000000 14.490656 0.000000
-9.890822 19.921994 -13.698424 0.000000 47.000000 14.452604 0.000000
-7.341126 22.512852 -14.953278 0.000000 64.000000 14.866551 17.000000
-10.892444 20.991095 -14.311471 0.000000 45.000000 14.405329 0.000000
-9.138860 23.671129 -16.102374 0.000000 62.000000 15.144400 23.000000
-11.055965 21.154740 -14.407842 0.000000 38.000000 14.398854 0.000000
-9.742691 22.215039 -15.292842 0.000000 68.000000 14.940829 10.000000
-11.220615 21.315504 -14.506942 0.000000 38.000000 14.395865 0.000000
-10.669298 19.904439 -13.763973 0.000000 42.000000 14.403676 0.000000
-9.614364 24.721878 -16.670305 0.000000 44.000000 15.142134 22.000000
-11.239918 19.489948 -13.661078 0.000000 29.000000 14.401066 0.000000
-8.887819 22.284055 -15.117738 0.000000 69.000000 14.881331 24.000000
-5.706424 21.054265 -13.995032 0.000000 62.000000 14.861519 7.000000
-8.784321 25.088836 -16.459983 0.000000 59.000000 14.922460 16.000000
-11.533877 20.684522 -14.170560 0.000000 43.000000 14.312943 0.000000
-10.784471 24.602430 -16.258628 0.000000 50.000000 14.650642 11.000000
-11.699870 20.821846 -14.228019 0.000000 43.000000 14.282290 0.000000
-10.389439 24.098652 -15.705233 0.000000 33.000000 14.424626 0.000000
-7.904722 20.850622 -14.252199 0.000000 39.000000 14.852525 25.000000
-12.388266 22.545779 -15.106998 0.000000 42.000000 14.244827 0.000000
-12.815831 23.875634 -15.836891 0.000000 39.000000 14.277646 0.000000
-7.241462 24.399414 -15.924108 0.000000 56.000000 14.959565 15.000000
-9.909537 22.318357 -15.092242 0.000000 61.000000 14.693172 4.000000
-6.746419 20.790558 -13.830919 0.000000 71.000000 14.671494 19.000000
-11.844101 21.146140 -14.402894 0.000000 39.000000 14.281600 0.000000
-6.804045 23.831240 -15.525000 0.000000 48.000000 14.905013 15.000000
-9.064561 21.652683 -15.040161 0.000000 75.000000 15.050550 10.000000
-11.593605 23.649251 -15.996308 0.000000 79.000000 14.695941 3.000000
-6.851382 23.541519 -15.424015 0.000000 50.000000 14.929085 15.000000
-6.636462 24.457571 -15.385063 0.000000 32.000000 14.541730 6.000000
-9.815248 22.583504 -14.884376 0.000000 40.000000 14.409708 0.000000
-10.296797 19.947254 -13.989183 0.000000 63.000000 14.642465 27.000000
-10.470035 24.258066 -16.146044 0.000000 63.000000 14.740687 11.000000
-11.931544 22.698195 -15.848453 0.000000 70.000000 14.912483 1.000000
-8.342326 24.295438 -15.787934 0.000000 69.000000 14.718578 18.000000
-8.917774 20.074232 -14.480308 0.000000 73.000000 15.232822 26.000000
-8.319581 25.295375 -16.672175 0.000000 24.000000 15.094544 16.000000
-9.602722 20.321281 -14.267020 0.000000 68.000000 14.836979 30.000000
-11.757385 20.858602 -14.240411 0.000000 32.000000 14.269476 0.000000
-7.324531 24.679837 -15.772736 0.000000 61.000000 14.694095 15.000000
-7.711158 20.215998 -13.496322 0.000000 57.000000 14.470266 0.000000
-8.427822 25.164369 -16.220623 0.000000 44.000000 14.729051 16.000000
-11.443746 24.077832 -15.966673 0.000000 36.000000 14.511778 3.000000
-10.978606 22.610134 -14.981525 0.000000 24.000000 14.313695 0.000000
-10.516409 22.879960 -15.189180 0.000000 40.000000 14.454797 0.000000
-11.045862 24.499769 -16.559249 0.000000 63.000000 14.924349 11.000000
-7.557308 25.753320 -16.451893 0.000000 68.000000 14.817775 15.000000
-11.020056 23.079700 -15.161533 0.000000 38.000000 14.271855 0.000000
-10.044694 21.088406 -14.227887 0.000000 38.000000 14.414885 0.000000
-10.969622 21.994717 -14.796662 0.000000 57.000000 14.407564 0.000000
-5.829957 21.439447 -14.107045 0.000000 67.000000 14.782043 14.000000
-11.054307 20.744076 -14.252829 0.000000 40.000000 14.432498 0.000000
-11.047395 19.236562 -13.404642 0.000000 25.000000 14.306096 0.000000
-12.429086 22.504441 -15.114713 0.000000 41.000000 14.263045 0.000000
-12.799176 23.438426 -15.635740 0.000000 43.000000 14.283314 0.000000
-8.833003 23.948487 -15.733763 0.000000 47.000000 14.743092 23.000000
-11.385220 23.969609 -15.790252 0.000000 35.000000 14.407797 0.000000
-10.438188 21.944352 -15.356501 0.000000 57.000000 15.008637 4.000000
-8.320163 19.762857 -13.938373 0.000000 74.000000 14.966299 26.000000
-7.409921 23.984549 -15.210093 0.000000 38.000000 14.469148 0.000000
-8.682066 20.696187 -14.391315 0.000000 59.000000 14.927069 26.000000
-7.028155 24.468856 -15.776104 0.000000 69.000000 14.829385 15.000000
-9.638171 22.063182 -15.193306 0.000000 61.000000 14.930809 10.000000
-9.145220 22.880755 -15.437014 0.000000 70.000000 14.879007 23.000000
-5.840305 20.626606 -14.142693 0.000000 68.000000 15.153370 7.000000
-12.105039 23.509875 -16.313491 0.000000 51.000000 14.962944 2.000000
-10.561951 20.538512 -14.095321 0.000000 49.000000 14.450373 0.000000
-8.806306 20.004130 -14.000987 0.000000 67.000000 14.849369 26.000000
-8.045311 21.174576 -14.374640 0.000000 43.000000 14.805551 25.000000
-11.094902 24.290701 -16.116986 0.000000 50.000000 14.608663 11.000000
-11.067367 21.102190 -14.411824 0.000000 45.000000 14.422777 0.000000
-9.580505 22.065798 -15.578933 0.000000 57.000000 15.283633 10.000000
-8.588133 20.204638 -14.328625 0.000000 49.000000 15.090963 26.000000
-6.927096 25.581506 -16.229918 0.000000 44.000000 14.784117 5.000000
-8.691563 20.887436 -14.612898 0.000000 38.000000 15.043921 26.000000
-9.516866 24.687871 -16.852352 0.000000 67.000000 15.333858 22.000000
-7.336056 24.392938 -15.650108 0.000000 42.000000 14.702889 15.000000
-7.060236 21.985454 -14.970830 0.000000 70.000000 15.144972 17.000000
-11.120143 21.350476 -14.531157 0.000000 40.000000 14.417728 0.000000
-10.361562 19.648558 -13.610355 0.000000 42.000000 14.418866 0.000000
-11.401576 19.653069 -13.736747 0.000000 60.000000 14.376544 0.000000
-10.159277 19.550547 -13.554763 0.000000 52.000000 14.440064 0.000000
-10.746978 21.181316 -14.415894 0.000000 52.000000 14.440565 0.000000
-10.325864 20.967583 -14.144846 0.000000 38.000000 14.349645 0.000000
-10.100998 20.849786 -13.971461 0.000000 40.000000 14.276972 0.000000
-8.323076 24.429217 -15.693319 0.000000 43.000000 14.580566 18.000000
-7.929009 21.668210 -14.728920 0.000000 61.000000 14.933014 9.000000
-8.014416 21.126514 -14.213924 0.000000 55.000000 14.686322 25.000000
-8.213984 23.142577 -15.703917 0.000000 65.000000 15.145823 18.000000
-11.405814 20.341618 -14.058154 0.000000 43.000000 14.375004 0.000000
-9.153536 21.737196 -15.006321 0.000000 73.000000 14.971649 10.000000
-10.715564 20.132652 -13.928247 0.000000 34.000000 14.448262 0.000000
-7.640124 25.481986 -16.373619 0.000000 55.000000 14.849236 15.000000
-9.289494 23.468868 -16.053717 0.000000 25.000000 15.163399 23.000000
-11.823016 20.859739 -14.266246 0.000000 37.000000 14.282444 0.000000
-11.303570 19.480924 -13.643438 0.000000 41.000000 14.379648 0.000000
-6.784064 22.829487 -15.244292 0.000000 65.000000 15.076698 13.000000
-10.433667 23.345030 -15.861290 0.000000 45.000000 14.873960 12.000000
-8.914599 23.422608 -16.088921 0.000000 57.000000 15.269715 23.000000
-12.113271 22.003625 -14.853556 0.000000 41.000000 14.285839 0.000000
-9.088668 21.593071 -14.995503 0.000000 68.000000 15.031992 10.000000
-8.624675 24.543200 -15.935829 0.000000 48.000000 14.705418 18.000000
-11.682890 23.224091 -15.474558 0.000000 39.000000 14.393748 0.000000
-11.003059 21.810123 -14.731560 0.000000 52.000000 14.421736 0.000000
-6.273687 21.161345 -13.697157 0.000000 41.000000 14.466003 0.000000
-11.108147 23.117097 -15.206162 0.000000 37.000000 14.283130 0.000000
-6.067951 22.022893 -14.660286 0.000000 40.000000 14.997705 13.000000
-9.339862 23.395592 -15.418374 0.000000 58.000000 14.617622 23.000000
-8.993812 23.320754 -16.192610 0.000000 61.000000 15.393607 23.000000
-9.228493 23.036768 -14.843757 0.000000 30.000000 14.269896 0.000000
-11.797952 24.153708 -16.414757 0.000000 71.000000 14.828972 3.000000
-6.135194 22.193518 -14.732691 0.000000 50.000000 14.981060 13.000000
-7.556125 23.663881 -15.403789 0.000000 63.000000 14.755538 29.000000
-6.249340 23.534635 -14.677763 0.000000 34.000000 14.352500 0.000000
-9.299273 21.248300 -14.927280 0.000000 68.000000 15.084379 10.000000
-5.785267 22.064769 -14.587134 0.000000 51.000000 14.956380 8.000000
-9.277951 20.105222 -13.738183 0.000000 38.000000 14.501903 0.000000
-10.037649 19.752073 -13.949883 0.000000 69.000000 14.727412 27.000000
-8.708528 22.225441 -15.537034 0.000000 50.000000 15.307960 24.000000
-9.391297 22.393983 -15.426532 0.000000 68.000000 15.037431 10.000000
-6.899856 24.870154 -15.696883 0.000000 37.000000 14.609067 15.000000
-11.604143 20.176017 -14.055846 0.000000 34.000000 14.413095 0.000000
-10.916368 22.227562 -14.829554 0.000000 37.000000 14.347231 0.000000
-8.826081 24.969138 -15.867850 0.000000 36.000000 14.436128 0.000000
-9.786753 24.515548 -16.245241 0.000000 72.000000 14.822482 22.000000
-10.802712 21.170566 -14.403548 0.000000 60.000000 14.425782 0.000000
-11.457564 22.586149 -15.144805 0.000000 38.000000 14.399248 0.000000
-10.779471 24.093820 -16.400762 0.000000 36.000000 14.992012 11.000000
-8.049385 25.028336 -16.302285 0.000000 71.000000 14.915156 16.000000
-12.498904 23.198116 -15.674227 0.000000 49.000000 14.462937 0.000000
-7.634362 21.231362 -14.223006 0.000000 65.000000 14.706625 20.000000
-6.078669 22.059914 -14.322007 0.000000 34.000000 14.677601 14.000000
-7.111899 22.625079 -14.827496 0.000000 69.000000 14.740682 17.000000
-11.021679 19.791667 -14.139250 0.000000 66.000000 14.735051 21.000000
-7.642189 25.345402 -16.418490 0.000000 58.000000 14.946408 15.000000
-10.609458 20.842438 -14.554578 0.000000 53.000000 14.727232 27.000000
-8.263987 20.918824 -14.442640 0.000000 53.000000 14.941422 26.000000
-11.758761 21.768201 -15.482926 0.000000 81.000000 15.000672 1.000000
-7.982043 21.869359 -14.948597 0.000000 59.000000 15.037575 9.000000
-12.172616 22.633400 -16.146043 0.000000 56.000000 15.170595 1.000000
-7.960879 23.130370 -15.504400 0.000000 70.000000 15.009628 18.000000
-8.393742 20.725483 -14.343591 0.000000 60.000000 14.914629 26.000000
-7.296421 24.478809 -15.667412 0.000000 57.000000 14.688226 15.000000
-7.908854 20.987492 -14.122451 0.000000 57.000000 14.678294 25.000000
-9.889466 22.616168 -14.923556 0.000000 43.000000 14.420137 0.000000
-10.740268 19.785052 -13.740148 0.000000 38.000000 14.421926 0.000000
-10.287560 22.732238 -15.065321 0.000000 50.000000 14.439623 0.000000
-11.928606 24.045311 -15.979160 0.000000 35.000000 14.464976 0.000000
-11.054165 24.021920 -15.597320 0.000000 36.000000 14.261955 0.000000
-10.432489 20.531575 -14.335010 0.000000 51.000000 14.687094 27.000000
-11.240756 24.066174 -15.662350 0.000000 50.000000 14.274076 0.000000
-10.805028 22.810716 -14.986088 0.000000 43.000000 14.259295 0.000000
-11.009621 22.871546 -15.112185 0.000000 36.000000 14.316501 0.000000
-11.430783 23.005489 -15.443260 0.000000 64.000000 14.494645 0.000000
-11.583135 23.001715 -15.347463 0.000000 40.000000 14.387917 0.000000
-9.638724 23.884537 -15.775057 0.000000 71.000000 14.687873 23.000000
-7.886612 24.256422 -15.699006 0.000000 60.000000 14.722612 29.000000
-8.661251 19.999302 -14.600950 0.000000 61.000000 15.410203 26.000000
-11.792594 21.295421 -14.513668 0.000000 23.000000 14.325816 0.000000
-6.795384 25.141933 -16.071829 0.000000 75.000000 14.846344 6.000000
-7.189293 25.357334 -15.947435 0.000000 39.000000 14.586390 15.000000
-11.582416 21.844293 -15.441261 0.000000 41.000000 14.957489 1.000000
-7.781091 21.959987 -15.197961 0.000000 59.000000 15.252602 9.000000
-10.695850 24.502980 -16.406090 0.000000 74.000000 14.837526 11.000000
-11.709079 23.779396 -16.298691 0.000000 67.000000 14.895138 3.000000
-12.901605 23.942386 -15.866790 0.000000 44.000000 14.263758 0.000000
-8.913909 19.743350 -13.785827 0.000000 71.000000 14.750134 26.000000
-11.197561 19.174633 -13.357870 0.000000 36.000000 14.267994 0.000000
-6.549800 20.803667 -14.710575 0.000000 2.000000 15.482941 19.000000
-11.011439 19.041393 -13.300082 0.000000 38.000000 14.299614 0.000000
-10.444385 23.519430 -15.842262 0.000000 59.000000 14.782185 12.000000
-8.248338 20.049066 -13.938082 0.000000 67.000000 14.856605 26.000000
-11.798179 23.544823 -16.254536 0.000000 59.000000 14.940812 3.000000
-11.199035 20.466378 -14.118015 0.000000 47.000000 14.406840 0.000000
-11.013341 20.345535 -14.033478 0.000000 45.000000 14.409238 0.000000
-6.671333 20.969485 -14.458921 0.000000 25.000000 15.170035 19.000000
-8.019050 23.284614 -15.804641 0.000000 64.000000 15.205264 18.000000
-9.321848 23.627866 -16.136315 0.000000 64.000000 15.165914 23.000000
-10.269828 24.168223 -15.978472 0.000000 72.000000 14.657854 11.000000
-9.422358 19.420272 -13.355021 0.000000 28.000000 14.424661 0.000000
-11.955831 21.304341 -14.502349 0.000000 42.000000 14.287822 0.000000
-12.114228 22.696026 -16.226859 0.000000 6.000000 15.225340 1.000000
-9.095715 22.383324 -15.537355 0.000000 55.000000 15.184830 10.000000
-8.465428 23.048642 -15.312533 0.000000 50.000000 14.797519 18.000000
-10.634695 19.844111 -13.755916 0.000000 47.000000 14.426875 0.000000
-12.466521 22.872583 -16.045621 0.000000 7.000000 14.936911 1.000000
-11.156611 22.316953 -14.962385 0.000000 39.000000 14.393223 0.000000
-8.671987 23.100257 -15.268706 0.000000 57.000000 14.706100 23.000000
-12.807435 23.489408 -15.684291 0.000000 38.000000 14.304198 0.000000
-8.567027 23.373732 -15.442461 0.000000 62.000000 14.762534 23.000000
-7.955481 21.558450 -14.265847 0.000000 60.000000 14.560370 9.000000
-8.406860 20.926914 -14.358049 0.000000 62.000000 14.841156 26.000000
-7.581386 20.868404 -14.241701 0.000000 68.000000 14.883430 20.000000
-11.574614 22.005539 -15.057336 0.000000 55.000000 14.547133 1.000000
-7.661394 20.196872 -13.449573 0.000000 45.000000 14.443767 0.000000
-9.542353 19.787556 -13.598074 0.000000 44.000000 14.470586 0.000000
-8.344019 23.219034 -15.153677 0.000000 65.000000 14.601702 18.000000
-10.254682 21.693983 -14.886578 0.000000 73.000000 14.719852 4.000000
-10.059197 20.334139 -13.931204 0.000000 37.000000 14.463364 0.000000
-8.583728 21.573139 -14.695928 0.000000 66.000000 14.846619 25.000000
-9.796668 22.716548 -15.285184 0.000000 57.000000 14.715651 10.000000
-8.923492 22.325473 -15.253765 0.000000 66.000000 14.980527 24.000000
-9.596993 20.483151 -14.418124 0.000000 44.000000 14.905274 30.000000
-11.786407 23.588431 -16.133696 0.000000 43.000000 14.816025 3.000000
-10.507591 19.913200 -13.760319 0.000000 42.000000 14.420618 0.000000
-11.618687 23.917070 -16.272726 0.000000 58.000000 14.827490 3.000000
-12.091407 23.544108 -16.160677 0.000000 73.000000 14.813726 2.000000
-10.871588 20.243707 -13.985302 0.000000 44.000000 14.429737 0.000000
-8.649030 20.105252 -14.022871 0.000000 72.000000 14.849791 26.000000
-7.426071 23.716242 -15.366395 0.000000 46.000000 14.719295 29.000000
-10.209211 24.494058 -16.596212 0.000000 42.000000 15.083448 11.000000
-10.233815 22.539267 -15.076316 0.000000 43.000000 14.538348 4.000000
-10.755446 23.276090 -15.470517 0.000000 62.000000 14.505328 12.000000
-9.259658 24.554033 -16.102074 0.000000 63.000000 14.755974 22.000000
-7.962270 21.481854 -14.257247 0.000000 42.000000 14.583791 25.000000
-12.109094 22.657378 -16.004670 0.000000 51.000000 15.043296 1.000000
-9.655322 19.708712 -13.529722 0.000000 29.000000 14.425745 0.000000
-12.769575 23.900811 -16.085167 0.000000 46.000000 14.496298 0.000000
-9.231237 23.099909 -15.289612 0.000000 38.000000 14.642355 23.000000
-11.918919 23.897478 -15.914565 0.000000 43.000000 14.470554 0.000000
-8.097460 22.094507 -15.009588 0.000000 54.000000 14.980721 9.000000
-7.828594 21.560935 -14.640416 0.000000 56.000000 14.913570 9.000000
-10.854009 22.546134 -14.896288 0.000000 37.000000 14.282598 0.000000
-10.668869 22.558980 -14.880995 0.000000 38.000000 14.290863 0.000000
-12.290715 22.987136 -16.106065 0.000000 53.000000 14.968975 1.000000
-11.327372 24.386981 -16.008820 0.000000 33.000000 14.437055 0.000000
-11.936034 22.731559 -15.897279 0.000000 68.000000 14.941559 1.000000
-7.468375 20.856494 -14.291227 0.000000 64.000000 14.949480 20.000000
-6.636041 24.540416 -15.603976 0.000000 49.000000 14.703123 6.000000
-10.720205 21.933184 -15.186365 0.000000 60.000000 14.819271 4.000000
-9.968251 24.257534 -15.808184 0.000000 59.000000 14.512420 11.000000
-8.702792 24.473755 -15.680020 0.000000 51.000000 14.493879 0.000000
-10.545057 22.126431 -15.210493 0.000000 43.000000 14.785703 4.000000
-8.287735 24.543358 -15.428643 0.000000 30.000000 14.300846 0.000000
-9.903773 24.865090 -16.459724 0.000000 65.000000 14.850698 22.000000
-11.089749 18.933107 -13.242476 0.000000 39.000000 14.281866 0.000000
-9.541559 19.916544 -13.705518 0.000000 54.000000 14.512840 28.000000
-6.951784 23.555722 -14.988969 0.000000 48.000000 14.518630 13.000000
-8.177423 22.640907 -14.675219 0.000000 38.000000 14.440244 0.000000
-5.632063 21.607982 -14.195268 0.000000 47.000000 14.819610 14.000000
-10.792311 22.347734 -14.810887 0.000000 27.000000 14.298434 0.000000
-8.744918 20.011873 -13.999262 0.000000 77.000000 14.853645 26.000000
-10.519801 22.371597 -15.188005 0.000000 62.000000 14.666463 4.000000
-9.234451 24.105780 -15.842110 0.000000 49.000000 14.714859 23.000000
-7.619421 22.195670 -15.077128 0.000000 61.000000 15.069405 9.000000
-9.412936 21.096848 -14.801746 0.000000 72.000000 15.018671 10.000000
-7.570307 21.465171 -14.481709 0.000000 50.000000 14.849740 9.000000
-11.741880 20.809826 -14.231367 0.000000 35.000000 14.284124 0.000000
-9.581879 24.373548 -16.312342 0.000000 67.000000 14.972408 22.000000
-8.099210 21.727842 -14.755870 0.000000 51.000000 14.906998 9.000000
-12.802770 23.509930 -15.720836 0.000000 42.000000 14.329012 0.000000
-9.644181 24.826666 -16.708414 0.000000 73.000000 15.127912 22.000000
-11.238656 24.120443 -15.697135 0.000000 53.000000 14.282781 0.000000
-8.901691 22.860704 -15.199678 0.000000 39.000000 14.710814 23.000000
-10.028707 22.462423 -15.046154 0.000000 55.000000 14.573862 4.000000
-11.082565 21.526034 -14.606859 0.000000 24.000000 14.417452 0.000000
-5.918395 21.659012 -14.292125 0.000000 68.000000 14.842662 14.000000
-8.347231 20.648077 -14.598740 0.000000 49.000000 15.182500 26.000000
-8.664510 24.558046 -15.682078 0.000000 64.000000 14.466024 0.000000
-10.366657 24.109354 -16.258953 0.000000 66.000000 14.919465 11.000000
-9.675042 23.796112 -15.546631 0.000000 61.000000 14.514997 23.000000
-9.355651 22.118026 -15.452851 0.000000 72.000000 15.182014 10.000000
-11.855576 20.909920 -14.282026 0.000000 36.000000 14.270721 0.000000
-10.342280 23.521863 -15.896991 0.000000 21.000000 14.845268 12.000000
-6.099422 20.706479 -13.621425 0.000000 48.000000 14.614697 7.000000
-11.084294 19.296309 -13.613298 0.000000 35.000000 14.462477 0.000000
-9.228297 22.154615 -15.073409 0.000000 58.000000 14.845618 10.000000
-12.234962 21.990966 -14.826948 0.000000 37.000000 14.249339 0.000000
-11.624934 20.508330 -14.211054 0.000000 55.000000 14.409661 0.000000
-7.779192 25.247181 -16.163184 0.000000 36.000000 14.738691 15.000000
-7.057098 23.815361 -15.498252 0.000000 59.000000 14.850333 15.000000
-11.770192 21.917782 -15.740691 0.000000 30.000000 15.167123 1.000000
-11.053910 20.198143 -13.994557 0.000000 51.000000 14.430203 0.000000
-10.961783 23.180184 -15.194726 0.000000 21.000000 14.268049 0.000000
-10.651726 19.986322 -13.816022 0.000000 40.000000 14.418548 0.000000
-8.191666 21.529332 -14.878295 0.000000 48.000000 15.086255 25.000000
-8.120325 24.431258 -15.588984 0.000000 49.000000 14.516210 29.000000
-10.996246 21.429423 -14.526168 0.000000 40.000000 14.398451 0.000000
-8.795334 24.452655 -15.866717 0.000000 60.000000 14.656281 18.000000
-6.630803 22.127653 -14.316646 0.000000 74.000000 14.562823 13.000000
-10.961866 19.962192 -14.165100 0.000000 65.000000 14.695518 21.000000
-9.623821 19.517359 -13.455007 0.000000 37.000000 14.443735 0.000000
-7.658373 20.317570 -13.534459 0.000000 34.000000 14.469621 0.000000
-9.396516 19.411985 -13.336937 0.000000 34.000000 14.415757 0.000000
-10.019745 21.033254 -14.150611 0.000000 38.000000 14.372487 0.000000
-10.950437 24.476031 -16.688635 0.000000 64.000000 15.064292 11.000000
-10.570009 20.982902 -14.770926 0.000000 66.000000 14.867927 27.000000
-10.315154 20.754144 -14.014075 0.000000 27.000000 14.323619 0.000000
-9.233083 20.787513 -13.968419 0.000000 45.000000 14.428581 0.000000
-9.104925 24.390604 -16.150013 0.000000 75.000000 14.890317 22.000000
-8.496921 22.206478 -15.021097 0.000000 39.000000 14.885055 24.000000
-8.622441 20.093376 -14.317072 0.000000 72.000000 15.122213 26.000000
-11.381000 20.473210 -14.074081 0.000000 42.000000 14.337742 0.000000
-10.836795 19.095533 -13.460196 0.000000 40.000000 14.446118 0.000000
-11.114059 19.474355 -13.763147 0.000000 56.000000 14.517621 21.000000
-11.666621 20.809587 -14.231744 0.000000 42.000000 14.295680 0.000000
-10.260629 20.201972 -14.340681 0.000000 54.000000 14.855806 27.000000
-7.121861 25.584176 -16.403774 0.000000 58.000000 14.909946 5.000000
-9.205074 24.436092 -16.132815 0.000000 45.000000 14.841039 22.000000
-12.750305 23.291382 -15.592415 0.000000 42.000000 14.313402 0.000000
-10.564433 21.816658 -15.341288 0.000000 65.000000 15.029919 4.000000
-9.341235 23.491678 -16.178179 0.000000 76.000000 15.257668 23.000000
-11.559282 22.417541 -15.275447 0.000000 64.000000 14.571954 1.000000
-9.374378 21.293435 -14.962041 0.000000 53.000000 15.085488 10.000000
-7.527121 20.998231 -14.343805 0.000000 61.000000 14.928446 20.000000
-11.719371 22.711965 -15.708660 0.000000 74.000000 14.812840 1.000000
-9.260680 20.550448 -13.861516 0.000000 41.000000 14.428183 0.000000
-10.854013 21.732636 -14.651193 0.000000 45.000000 14.404271 0.000000
-5.901136 20.910755 -14.285382 0.000000 78.000000 15.153010 7.000000
-7.402581 23.667813 -15.381442 0.000000 64.000000 14.756555 29.000000
-7.550546 24.594294 -15.648199 0.000000 54.000000 14.585039 15.000000
-8.813541 22.275200 -15.353604 0.000000 51.000000 15.107281 24.000000
-9.221644 24.202820 -16.101794 0.000000 54.000000 14.908646 22.000000
-7.210328 20.925870 -14.190669 0.000000 61.000000 14.868433 19.000000
-10.076072 21.304422 -14.363225 0.000000 43.000000 14.440867 0.000000
-10.041019 23.364751 -15.420941 0.000000 50.000000 14.529277 12.000000
-10.547299 22.064434 -15.031387 0.000000 62.000000 14.650951 4.000000
-9.116668 19.978774 -13.572678 0.000000 56.000000 14.430523 0.000000
-9.854804 20.463543 -13.747007 0.000000 35.000000 14.274301 0.000000
-8.916087 24.539730 -15.661706 0.000000 35.000000 14.418295 0.000000
-10.081482 20.632944 -13.961347 0.000000 54.000000 14.361745 0.000000
-5.897631 22.275134 -14.571881 0.000000 43.000000 14.837887 8.000000
-11.465343 24.187616 -16.153464 0.000000 37.000000 14.629848 3.000000
-8.299246 20.721302 -14.513946 0.000000 72.000000 15.082927 26.000000
-6.623008 20.984057 -14.373332 0.000000 72.000000 15.094400 19.000000
-10.858972 21.125317 -14.369935 0.000000 53.000000 14.406343 0.000000
-10.800168 24.290275 -16.693221 0.000000 49.000000 15.168509 11.000000
-10.750678 24.402336 -16.337174 0.000000 73.000000 14.809912 11.000000
-11.410684 21.450597 -14.612905 0.000000 45.000000 14.406035 0.000000
-12.542983 23.082136 -15.630082 0.000000 63.000000 14.465530 0.000000
-7.269979 20.434590 -14.037139 0.000000 44.000000 14.928161 20.000000
-7.692843 21.991660 -15.056536 0.000000 53.000000 15.125681 9.000000
-8.876556 22.474025 -15.355723 0.000000 42.000000 15.016478 24.000000
-7.557997 22.741225 -14.787173 0.000000 64.000000 14.589950 17.000000
-9.809591 20.347821 -13.711068 0.000000 34.000000 14.297326 0.000000
-11.480263 23.134281 -15.517031 0.000000 61.000000 14.499393 0.000000
-9.584146 24.680101 -16.387653 0.000000 76.000000 14.910952 22.000000
-11.087214 23.151939 -15.218416 0.000000 38.000000 14.282585 0.000000
-11.036423 24.686596 -16.273569 0.000000 39.000000 14.591504 11.000000
-7.721663 21.213081 -14.070150 0.000000 44.000000 14.564484 20.000000
-11.318409 19.687278 -13.852880 0.000000 59.000000 14.478501 0.000000
-10.204690 24.065458 -15.633377 0.000000 19.000000 14.401480 0.000000
-10.576641 20.322089 -14.210938 0.000000 68.000000 14.642533 27.000000
-8.997201 21.019007 -14.374270 0.000000 37.000000 14.729849 26.000000
-8.855069 21.191876 -14.588695 0.000000 70.000000 14.870398 10.000000
-10.227016 22.435116 -15.120537 0.000000 71.000000 14.622644 4.000000
-10.739006 23.789485 -15.609675 0.000000 39.000000 14.417068 0.000000
-10.306214 22.564306 -15.018147 0.000000 62.000000 14.465049 0.000000
-6.421293 20.802341 -13.929042 0.000000 38.000000 14.802470 19.000000
-9.928272 24.223997 -16.170908 0.000000 67.000000 14.857281 11.000000
-12.064524 24.079690 -16.396961 0.000000 56.000000 14.804697 2.000000
-6.216697 22.675106 -15.098238 0.000000 51.000000 15.094446 13.000000
-10.812265 22.617024 -14.914082 0.000000 36.000000 14.274970 0.000000
-8.806198 20.782730 -14.273061 0.000000 30.000000 14.766514 26.000000
-12.021241 22.287963 -15.656561 0.000000 70.000000 14.899418 1.000000
-10.099290 23.321659 -15.702971 0.000000 37.000000 14.791354 12.000000
-10.654692 22.293077 -15.191933 0.000000 28.000000 14.682988 4.000000
-12.824895 24.061952 -16.002839 0.000000 58.000000 14.346799 0.000000
-9.984098 21.682971 -15.170094 0.000000 69.000000 15.018385 4.000000
-12.884815 23.691224 -15.883665 0.000000 45.000000 14.386697 0.000000
-8.756137 21.561367 -14.812227 0.000000 68.000000 14.930255 25.000000
-7.183801 20.126929 -14.026504 0.000000 65.000000 15.060407 20.000000
-6.501832 24.162205 -14.957627 0.000000 33.000000 14.302653 0.000000
-10.479699 20.841298 -14.676323 0.000000 64.000000 14.855925 27.000000
-7.848054 22.545260 -14.803909 0.000000 35.000000 14.644284 9.000000
-11.340170 24.081652 -15.689278 0.000000 48.000000 14.277017 0.000000
-8.376415 20.441951 -14.698287 0.000000 71.000000 15.353806 26.000000
-12.796711 23.703495 -15.814803 0.000000 53.000000 14.332886 0.000000
-7.163793 22.969030 -15.009967 0.000000 43.000000 14.752192 17.000000
-11.689587 20.702737 -14.181584 0.000000 41.000000 14.292175 0.000000
-10.992847 18.997703 -13.285121 0.000000 39.000000 14.307284 0.000000
-11.517702 20.595067 -14.135956 0.000000 42.000000 14.321858 0.000000
-9.182192 21.651999 -15.136948 0.000000 65.000000 15.120150 10.000000
-8.988837 24.031598 -15.909834 0.000000 52.000000 14.842916 23.000000
-11.179431 20.402604 -14.098659 0.000000 51.000000 14.419147 0.000000
-10.174989 24.042310 -16.363317 0.000000 50.000000 15.069377 11.000000
-7.217797 20.750149 -14.220841 0.000000 62.000000 14.968057 19.000000
-8.249495 23.332371 -15.082215 0.000000 53.000000 14.504121 18.000000
-8.717093 24.152812 -15.853660 0.000000 52.000000 14.781906 18.000000
-9.182215 23.291571 -15.551061 0.000000 36.000000 14.803386 23.000000
-8.871359 23.499003 -16.063171 0.000000 65.000000 15.220997 23.000000
-8.931216 19.608324 -13.386066 0.000000 36.000000 14.446149 0.000000
-8.941298 21.283756 -14.775977 0.000000 69.000000 14.986870 10.000000
-8.032664 25.644207 -16.366986 0.000000 42.000000 14.717267 16.000000
-11.593274 21.084980 -14.485698 0.000000 45.000000 14.418473 0.000000
-8.743063 22.202474 -15.206613 0.000000 45.000000 15.016537 24.000000
-6.570906 24.393825 -15.571715 0.000000 56.000000 14.745334 6.000000
-7.220931 25.381607 -16.157583 0.000000 63.000000 14.759763 15.000000
-9.927636 22.923468 -15.357626 0.000000 59.000000 14.674401 10.000000
-9.499676 21.957658 -15.336428 0.000000 71.000000 15.123721 10.000000
-6.794509 21.342817 -14.092553 0.000000 47.000000 14.667102 19.000000
-8.904438 25.064408 -16.459566 0.000000 57.000000 14.914587 16.000000
-6.042670 20.855904 -14.051885 0.000000 58.000000 14.945966 7.000000
-8.774681 24.244860 -15.597419 0.000000 30.000000 14.505279 18.000000
-9.825185 20.573599 -13.993826 0.000000 47.000000 14.453589 0.000000
-8.762125 22.192135 -15.388714 0.000000 68.000000 15.181163 24.000000
-7.712999 20.230212 -13.486867 0.000000 53.000000 14.455564 0.000000
-10.315791 19.546506 -13.536736 0.000000 35.000000 14.402491 0.000000
-7.085966 21.741309 -14.366590 0.000000 48.000000 14.702360 19.000000
-7.855643 22.769212 -14.873925 0.000000 66.000000 14.611944 17.000000
-8.563486 25.376539 -16.568295 0.000000 65.000000 14.931426 16.000000
-9.904555 19.365563 -13.425283 0.000000 43.000000 14.439307 0.000000
-8.221257 25.144544 -16.581364 0.000000 47.000000 15.090993 16.000000
-8.493768 23.234907 -15.363432 0.000000 58.000000 14.760797 18.000000
-10.263933 19.681041 -13.599747 0.000000 44.000000 14.410163 0.000000
-7.811895 21.870309 -15.215120 0.000000 57.000000 15.301034 9.000000
-11.919930 22.641631 -15.809036 0.000000 62.000000 14.902618 1.000000
-9.322381 19.418492 -13.561643 0.000000 66.000000 14.625246 28.000000
-10.627817 19.993657 -13.802508 0.000000 39.000000 14.406899 0.000000
-11.321723 21.479585 -14.611517 0.000000 41.000000 14.405776 0.000000
-10.027823 23.983062 -16.023829 0.000000 64.000000 14.811892 11.000000
-10.992222 20.295602 -14.015014 0.000000 48.000000 14.416763 0.000000
-7.470440 25.242195 -16.472629 0.000000 40.000000 15.063560 15.000000
-11.339569 20.564164 -14.168388 0.000000 41.000000 14.390184 0.000000
-10.100548 24.779892 -16.072321 0.000000 55.000000 14.510371 11.000000
-12.114001 22.067627 -14.860393 0.000000 38.000000 14.265011 0.000000
-11.666645 20.788159 -14.219125 0.000000 47.000000 14.293361 0.000000
-7.780727 21.636042 -14.801228 0.000000 45.000000 15.033177 9.000000
-10.351961 24.532326 -16.830310 0.000000 70.000000 15.255989 11.000000
-12.302174 22.249798 -14.968073 0.000000 40.000000 14.257253 0.000000
-12.730018 23.549408 -15.719651 0.000000 48.000000 14.322140 0.000000
-8.775255 21.731109 -14.842700 0.000000 64.000000 14.883531 25.000000
-6.192358 20.755840 -13.887229 0.000000 46.000000 14.818342 7.000000
-9.936562 20.192109 -13.694000 0.000000 29.000000 14.328591 0.000000
-7.308286 24.938453 -16.304623 0.000000 36.000000 15.064430 15.000000
-10.679219 22.301572 -14.745682 0.000000 41.000000 14.276099 0.000000
-10.773696 19.247863 -13.817159 0.000000 53.000000 14.711276 21.000000
-7.131967 25.685620 -16.322822 0.000000 55.000000 14.793397 5.000000
-7.376859 25.132179 -16.443288 0.000000 58.000000 15.097247 15.000000
-10.727776 23.731866 -15.591806 0.000000 42.000000 14.426889 0.000000
-11.513312 20.307222 -14.021333 0.000000 26.000000 14.340569 0.000000
-8.009481 24.985472 -16.629483 0.000000 52.000000 15.232097 16.000000
-10.213681 23.817871 -15.520010 0.000000 33.000000 14.402455 0.000000
-10.067211 24.268513 -16.072622 0.000000 83.000000 14.730051 11.000000
-10.493048 20.795073 -14.579574 0.000000 67.000000 14.786684 27.000000
-8.735624 24.249819 -15.543755 0.000000 41.000000 14.460902 0.000000
-10.189019 22.013893 -15.434989 0.000000 28.000000 15.086580 4.000000
-9.908443 24.672015 -16.321736 0.000000 82.000000 14.807395 22.000000
-12.100655 23.632270 -16.529218 0.000000 66.000000 15.105480 2.000000
-9.789944 23.921376 -15.908858 0.000000 77.000000 14.769927 23.000000
-7.564262 25.002588 -16.362476 0.000000 54.000000 15.051534 15.000000
-6.860942 25.130141 -15.634099 0.000000 44.000000 14.449535 0.000000
-10.082823 22.351478 -15.148763 0.000000 46.000000 14.704306 4.000000
-7.791154 21.382557 -14.008618 0.000000 44.000000 14.428022 0.000000
-8.363942 23.676063 -15.734839 0.000000 57.000000 14.927609 18.000000
-8.854507 19.997765 -13.906647 0.000000 69.000000 14.760418 26.000000
-10.149306 22.604229 -15.031845 0.000000 57.000000 14.483753 0.000000
-8.694015 21.481072 -14.590455 0.000000 68.000000 14.774471 25.000000
-12.257595 23.939920 -16.513510 0.000000 76.000000 14.939190 2.000000
-10.662451 22.789568 -15.057716 0.000000 34.000000 14.353384 0.000000
-8.639355 21.501173 -14.399589 0.000000 56.000000 14.603158 25.000000
-7.611396 21.994544 -14.943330 0.000000 57.000000 15.035106 9.000000
-8.506113 20.849373 -14.358653 0.000000 40.000000 14.859557 26.000000
-9.383876 24.193331 -16.178160 0.000000 62.000000 14.957060 22.000000
-6.108710 21.723435 -14.565335 0.000000 52.000000 15.032238 14.000000
-8.670084 19.685268 -13.870709 0.000000 57.000000 14.886543 26.000000
-8.822407 21.479178 -14.836803 0.000000 48.000000 14.976950 25.000000
-11.581486 23.123075 -15.412008 0.000000 43.000000 14.395072 0.000000
-10.244687 20.515550 -14.142278 0.000000 52.000000 14.548931 27.000000
-10.004545 19.779122 -13.919724 0.000000 69.000000 14.693944 27.000000
-9.346764 21.452149 -15.085130 0.000000 72.000000 15.133248 10.000000
-8.042609 21.894998 -14.725659 0.000000 70.000000 14.818191 9.000000
-9.249523 19.873320 -13.876777 0.000000 41.000000 14.727505 28.000000
-8.983136 20.023173 -13.851320 0.000000 76.000000 14.681204 26.000000
-11.582905 20.973312 -14.362581 0.000000 25.000000 14.356566 0.000000
-7.470738 24.805663 -16.028604 0.000000 61.000000 14.848900 15.000000
-11.008155 23.760373 -15.462048 0.000000 38.000000 14.257290 0.000000
-7.560141 24.774504 -15.813595 0.000000 44.000000 14.656180 15.000000
-10.502544 24.154367 -15.821416 0.000000 39.000000 14.488614 0.000000
-9.566159 20.358651 -13.796255 0.000000 33.000000 14.405046 0.000000
-10.412293 21.793305 -14.762304 0.000000 61.000000 14.543599 4.000000
-9.519637 22.136297 -15.595158 0.000000 66.000000 15.277588 10.000000
-7.618134 25.653513 -16.292538 0.000000 58.000000 14.707919 15.000000
-8.861833 23.633738 -15.965396 0.000000 53.000000 15.078317 23.000000
-12.505526 23.830301 -16.623785 0.000000 65.000000 15.047313 2.000000
-6.508165 22.288110 -14.953927 0.000000 65.000000 15.084446 13.000000
-7.261924 24.793931 -15.801921 0.000000 45.000000 14.681630 15.000000
-9.914883 24.608903 -16.026993 0.000000 45.000000 14.568916 22.000000
-10.346497 24.464093 -16.814533 0.000000 39.000000 15.271283 11.000000
-11.991606 24.342083 -16.049995 0.000000 39.000000 14.394641 0.000000
-9.659758 22.395288 -15.418759 0.000000 69.000000 14.990262 10.000000
-11.780454 23.117387 -15.441907 0.000000 41.000000 14.394845 0.000000
-8.685670 22.260416 -15.507261 0.000000 71.000000 15.270000 24.000000
-9.782919 20.222465 -13.665615 0.000000 29.000000 14.313132 0.000000
-9.106749 22.950994 -15.307777 0.000000 72.000000 14.739474 23.000000
-11.142960 18.943923 -13.243000 0.000000 36.000000 14.269938 0.000000
-12.009770 21.794850 -14.728898 0.000000 23.000000 14.277039 0.000000
-9.102050 21.098624 -14.984193 0.000000 68.000000 15.227268 10.000000
-9.428340 21.493281 -14.976622 0.000000 53.000000 15.006756 10.000000
-12.079404 21.399420 -14.584484 0.000000 45.000000 14.303256 0.000000
-7.931076 22.506853 -14.840334 0.000000 57.000000 14.680753 9.000000
-8.295895 25.220024 -16.934772 0.000000 4.000000 15.364853 16.000000
-9.614888 24.272356 -16.155777 0.000000 75.000000 14.869740 22.000000
-11.728058 21.231050 -14.477996 0.000000 39.000000 14.330397 0.000000
-9.034756 22.667365 -15.280802 0.000000 64.000000 14.844909 24.000000
-9.662840 22.777274 -15.616000 0.000000 68.000000 15.006259 10.000000
-11.696455 21.261678 -14.508792 0.000000 22.000000 14.349803 0.000000
-7.954155 23.016394 -15.079446 0.000000 70.000000 14.677800 18.000000
-10.423867 23.009214 -15.222823 0.000000 43.000000 14.444389 0.000000
-8.165568 23.187300 -15.223991 0.000000 77.000000 14.704353 18.000000
-7.397611 21.523255 -14.679514 0.000000 42.000000 15.028061 9.000000
-8.733041 21.648085 -14.849516 0.000000 62.000000 14.930694 25.000000
-11.225972 20.076474 -14.023072 0.000000 65.000000 14.481357 0.000000
-11.368391 20.227870 -14.060337 0.000000 42.000000 14.430196 0.000000
-9.260883 21.456544 -15.098064 0.000000 57.000000 15.155676 10.000000
-7.099182 23.981444 -15.660697 0.000000 73.000000 14.919956 15.000000
-10.134179 24.937438 -16.159903 0.000000 56.000000 14.517770 11.000000
-11.887820 22.235461 -15.744096 0.000000 67.000000 15.019553 1.000000
-12.041323 21.361236 -14.561564 0.000000 39.000000 14.304367 0.000000
-6.904782 23.872480 -15.555928 0.000000 59.000000 14.900537 15.000000
-10.600845 23.501189 -15.813744 0.000000 49.000000 14.741179 12.000000
-10.200748 23.398071 -15.574511 0.000000 64.000000 14.629256 12.000000
-11.529021 21.333410 -14.684660 0.000000 69.000000 14.501975 0.000000
-9.792579 20.349048 -13.718742 0.000000 31.000000 14.306198 0.000000
-7.237201 24.682385 -15.982573 0.000000 66.000000 14.893876 15.000000
-10.945040 21.224810 -14.459963 0.000000 44.000000 14.432536 0.000000
-11.443426 22.592338 -15.162201 0.000000 38.000000 14.414322 0.000000
-8.321166 20.807269 -14.502329 0.000000 57.000000 15.033227 26.000000
-10.676589 19.352969 -13.833645 0.000000 62.000000 14.696304 21.000000
-10.219326 20.345743 -14.186906 0.000000 42.000000 14.663872 27.000000
-12.188848 22.570522 -16.008019 0.000000 71.000000 15.070943 1.000000
-7.058291 23.100300 -15.136859 0.000000 73.000000 14.826375 13.000000
-8.057491 25.091870 -16.687529 0.000000 71.000000 15.232370 16.000000
-12.054531 23.835216 -16.549441 0.000000 16.000000 15.045287 2.000000
-9.957334 21.698304 -14.809979 0.000000 44.000000 14.693357 4.000000
-6.657843 21.459776 -14.341625 0.000000 51.000000 14.861326 19.000000
-7.240579 25.289754 -16.132389 0.000000 41.000000 14.772820 15.000000
-10.355753 22.543321 -14.967926 0.000000 43.000000 14.421550 0.000000
-10.197315 22.566034 -15.029874 0.000000 55.000000 14.490915 0.000000
-9.389582 21.120448 -14.158132 0.000000 40.000000 14.435744 0.000000
-12.047340 22.776482 -15.948388 0.000000 75.000000 14.952052 1.000000
-8.021695 24.614786 -15.821123 0.000000 64.000000 14.661728 29.000000
-8.177075 22.735107 -14.749042 0.000000 34.000000 14.466908 0.000000
-6.242794 21.475095 -13.821948 0.000000 38.000000 14.450746 0.000000
-10.184841 23.646734 -15.815072 0.000000 61.000000 14.742778 12.000000
-6.525449 22.222950 -15.007884 0.000000 47.000000 15.157551 13.000000
-9.349394 23.674654 -16.297014 0.000000 69.000000 15.286156 23.000000
-8.637935 20.184879 -14.073214 0.000000 59.000000 14.863124 26.000000
-8.971946 19.635036 -13.433122 0.000000 45.000000 14.471076 0.000000
-10.723736 24.033557 -15.732395 0.000000 35.000000 14.426873 0.000000
-10.686994 22.179054 -14.712484 0.000000 31.000000 14.296603 0.000000
-9.262568 19.604343 -13.834057 0.000000 65.000000 14.800130 28.000000
-10.647095 21.673678 -14.543256 0.000000 38.000000 14.362888 0.000000
-7.083976 20.894757 -13.885070 0.000000 47.000000 14.626427 19.000000
-9.051601 21.509715 -14.896365 0.000000 71.000000 14.983632 10.000000
-9.442785 19.632323 -13.559990 0.000000 52.000000 14.516292 28.000000
-6.615876 22.162290 -14.509625 0.000000 46.000000 14.723350 13.000000
-8.144448 20.794261 -14.427147 0.000000 70.000000 14.997449 26.000000
-8.256083 25.176295 -16.423597 0.000000 49.000000 14.931222 16.000000
-12.561152 23.712360 -16.618978 0.000000 67.000000 15.084258 2.000000
-11.662403 21.968216 -15.389924 0.000000 69.000000 14.847715 1.000000
-12.390768 22.526714 -15.109071 0.000000 41.000000 14.254310 0.000000
-11.999356 21.288870 -14.541952 0.000000 44.000000 14.323353 0.000000
-7.528945 24.048962 -15.407156 0.000000 39.000000 14.601056 29.000000
-10.241422 23.310507 -15.526165 0.000000 62.000000 14.616671 12.000000
-12.247408 22.413174 -15.299295 0.000000 45.000000 14.493492 0.000000
-5.738240 21.978798 -14.257023 0.000000 42.000000 14.703709 8.000000
-9.121433 24.227926 -16.037197 0.000000 55.000000 14.855061 22.000000
-6.906028 25.560009 -16.295643 0.000000 61.000000 14.855115 5.000000
-6.779191 24.055328 -15.454563 0.000000 34.000000 14.751607 15.000000
-10.407388 24.426925 -16.615248 0.000000 37.000000 15.099380 11.000000
-12.330984 22.515979 -15.528235 0.000000 36.000000 14.643085 1.000000
-9.142299 23.412768 -16.179572 0.000000 65.000000 15.321400 23.000000
-8.914065 19.952718 -14.433240 0.000000 67.000000 15.242178 26.000000
-12.108338 23.614875 -16.475972 0.000000 70.000000 15.063949 2.000000
-9.622364 21.738727 -14.966075 0.000000 69.000000 14.865700 10.000000
-10.227501 20.154124 -14.268099 0.000000 65.000000 14.815758 27.000000
-7.352932 22.543119 -14.456142 0.000000 30.000000 14.406834 0.000000
-8.177485 23.140457 -15.417828 0.000000 59.000000 14.895858 18.000000
-8.573984 20.272551 -14.418900 0.000000 62.000000 15.145427 26.000000
-11.351541 21.679256 -14.735871 0.000000 28.000000 14.429006 0.000000
-12.341127 23.854918 -16.759864 0.000000 46.000000 15.183159 2.000000
-9.478102 20.495463 -14.123518 0.000000 74.000000 14.653798 30.000000
-10.446741 23.222119 -15.891115 0.000000 38.000000 14.950294 12.000000
-9.241068 20.459917 -13.807838 0.000000 25.000000 14.420972 0.000000
-10.890791 23.394392 -15.350651 0.000000 57.000000 14.328352 0.000000
-8.961826 24.283976 -16.050931 0.000000 37.000000 14.867432 22.000000
-11.490700 23.608454 -16.112773 0.000000 85.000000 14.832571 3.000000
-7.071315 24.664727 -15.968343 0.000000 44.000000 14.913042 15.000000
-11.027987 22.244268 -14.900964 0.000000 42.000000 14.387696 0.000000
-8.598627 19.421803 -13.871304 0.000000 79.000000 15.008135 26.000000
-11.398867 22.291281 -15.006885 0.000000 43.000000 14.408061 0.000000
-12.262842 22.302729 -14.994888 0.000000 40.000000 14.264881 0.000000
-9.937911 22.270477 -15.055849 0.000000 53.000000 14.676466 4.000000
-12.621312 23.165536 -15.498982 0.000000 45.000000 14.301553 0.000000
-12.518736 23.306407 -15.757683 0.000000 58.000000 14.489338 0.000000
-6.949826 21.054232 -13.769311 0.000000 46.000000 14.475673 0.000000
-9.694309 22.052502 -15.163922 0.000000 59.000000 14.900676 10.000000
-11.232902 24.292199 -16.000790 0.000000 36.000000 14.483573 0.000000
-9.036088 22.009870 -15.071930 0.000000 68.000000 14.933398 10.000000
-9.839537 23.329191 -15.926422 0.000000 74.000000 15.026710 12.000000
-10.546112 20.308492 -14.178053 0.000000 51.000000 14.623291 27.000000
-8.190903 23.969340 -15.297889 0.000000 34.000000 14.438793 0.000000
-12.380764 23.224077 -15.983628 0.000000 66.000000 14.746628 2.000000
-10.171772 23.807451 -15.516123 0.000000 38.000000 14.409535 0.000000
-10.695609 23.727702 -15.616053 0.000000 54.000000 14.455105 0.000000
-10.828493 23.663712 -15.475732 0.000000 38.000000 14.336629 0.000000
-10.975441 23.609830 -15.394112 0.000000 38.000000 14.264414 0.000000
-8.198850 20.637244 -13.859224 0.000000 66.000000 14.546587 26.000000
-12.971336 23.936649 -15.944694 0.000000 42.000000 14.325641 0.000000
-9.974174 23.350038 -15.911690 0.000000 42.000000 14.984881 12.000000
-11.458424 20.181013 -14.003933 0.000000 36.000000 14.386028 0.000000
-11.279495 20.067898 -13.932445 0.000000 45.000000 14.395874 0.000000
-10.937770 19.882759 -13.900104 0.000000 59.000000 14.495040 0.000000
-10.556817 19.652626 -13.714903 0.000000 65.000000 14.481958 0.000000
-8.242649 23.778872 -15.451121 0.000000 56.000000 14.648284 18.000000
-9.834269 23.495440 -15.979976 0.000000 78.000000 15.005727 12.000000
-9.945317 19.290485 -13.366515 0.000000 42.000000 14.412137 0.000000
-10.304152 20.343100 -14.292230 0.000000 62.000000 14.746787 27.000000
-9.101697 22.243902 -15.235961 0.000000 71.000000 14.972468 10.000000
-9.911191 20.852879 -13.986872 0.000000 31.000000 14.317518 0.000000
-11.559350 20.401664 -14.064498 0.000000 50.000000 14.332820 0.000000
-10.786930 19.192861 -13.757817 0.000000 65.000000 14.679239 21.000000
-6.772387 25.103404 -16.078183 0.000000 51.000000 14.871592 6.000000
-10.209276 23.946273 -16.402764 0.000000 69.000000 15.139924 11.000000
-11.000231 20.237689 -13.983199 0.000000 43.000000 14.411373 0.000000
-10.810399 20.186326 -13.954741 0.000000 54.000000 14.435470 0.000000
-11.320121 21.620953 -14.679648 0.000000 47.000000 14.407743 0.000000
-10.655591 20.046039 -13.882265 0.000000 48.000000 14.452263 0.000000
-11.502796 24.059492 -16.167938 0.000000 40.000000 14.691018 3.000000
-9.897671 20.040017 -13.748699 0.000000 34.000000 14.447121 0.000000
-9.645372 22.779363 -15.642110 0.000000 47.000000 15.031350 10.000000
-10.412474 23.423801 -15.953283 0.000000 43.000000 14.926449 12.000000
-9.784300 19.893427 -13.605597 0.000000 55.000000 14.397177 0.000000
-9.591473 19.865590 -13.611567 0.000000 50.000000 14.442686 0.000000
-10.192102 24.178074 -16.572877 0.000000 62.000000 15.197606 11.000000
-6.977582 21.140654 -13.698400 0.000000 36.000000 14.371810 0.000000
-9.641651 19.693469 -13.576138 0.000000 47.000000 14.475732 0.000000
-8.286361 23.687498 -15.772805 0.000000 65.000000 14.968280 18.000000
-11.569312 23.096591 -15.417557 0.000000 37.000000 14.412948 0.000000
-8.280982 25.121143 -16.345287 0.000000 50.000000 14.880534 16.000000
-10.180736 21.651422 -15.050093 0.000000 61.000000 14.895085 4.000000
-11.740810 24.067051 -16.406840 0.000000 74.000000 14.866668 3.000000
-10.333720 19.338364 -13.467323 0.000000 41.000000 14.424970 0.000000
-8.385089 20.395599 -14.666892 0.000000 70.000000 15.343846 26.000000
-9.408531 21.574501 -15.067402 0.000000 59.000000 15.056927 10.000000
-9.468626 22.042502 -15.385305 0.000000 75.000000 15.136500 10.000000
-11.256250 20.023694 -13.931279 0.000000 48.000000 14.416803 0.000000
-8.642513 23.236741 -15.168645 0.000000 54.000000 14.563586 23.000000
-8.897740 23.396045 -15.963165 0.000000 73.000000 15.170709 23.000000
-8.632327 22.102456 -15.090079 0.000000 59.000000 14.970467 24.000000
-6.116667 21.409992 -14.195987 0.000000 57.000000 14.831707 14.000000
-6.717022 20.964207 -13.951276 0.000000 74.000000 14.710807 19.000000
-11.733696 24.055078 -16.470445 0.000000 52.000000 14.929711 3.000000
