-16.964802 -10.918710 66.558875 0.000000 68.000000 14.606376 30.000000
-19.925241 -9.960911 69.078943 0.000000 42.000000 14.171028 0.000000
-16.825311 -10.996680 64.503279 0.000000 46.000000 14.766467 17.000000
-16.356656 -11.048983 67.069330 0.000000 49.000000 14.573896 19.000000
-15.558099 -11.003703 66.529015 0.000000 36.000000 14.387567 0.000000
-15.840371 -11.648507 69.817973 0.000000 70.000000 14.894398 23.000000
-19.180084 -9.927966 64.479923 0.000000 31.000000 14.233637 0.000000
-19.321209 -9.919802 64.624358 0.000000 30.000000 14.248089 0.000000
-19.015229 -10.294981 70.273158 0.000000 43.000000 14.234166 0.000000
-18.034532 -10.441763 64.432330 0.000000 40.000000 14.490164 29.000000
-14.994642 -11.110157 67.810588 0.000000 39.000000 14.298679 20.000000
-18.859258 -10.270350 69.216197 0.000000 38.000000 14.235219 0.000000
-17.277800 -10.753183 67.899509 0.000000 39.000000 14.438044 9.000000
-18.511679 -9.985248 66.077409 0.000000 15.000000 14.056638 0.000000
-20.077281 -10.423089 65.533826 0.000000 52.000000 14.851264 5.000000
-18.775348 -10.200580 68.051778 0.000000 35.000000 14.213773 0.000000
-18.760391 -10.209837 67.827679 0.000000 38.000000 14.232018 0.000000
-18.761076 -10.175806 67.566784 0.000000 40.000000 14.213478 0.000000
-18.757992 -10.147017 67.064831 0.000000 38.000000 14.212622 0.000000
-20.484525 -9.983310 65.910506 0.000000 50.000000 14.489421 6.000000
-19.512452 -9.929079 65.696752 0.000000 37.000000 14.238815 0.000000
-18.824718 -10.065494 65.490562 0.000000 39.000000 14.234960 0.000000
-17.995124 -10.340675 67.065402 0.000000 39.000000 14.236890 0.000000
-17.635723 -10.401585 66.536392 0.000000 28.000000 14.248152 0.000000
-16.035225 -11.361339 67.102483 0.000000 60.000000 14.807259 25.000000
-16.429640 -10.791418 67.946434 0.000000 35.000000 14.289825 0.000000
-17.717376 -10.337711 65.748296 0.000000 36.000000 14.247255 0.000000
-15.117520 -11.479077 69.268767 0.000000 45.000000 14.603853 26.000000
-18.551579 -9.995558 66.222527 0.000000 14.000000 14.067234 0.000000
-17.833374 -10.271734 64.944042 0.000000 28.000000 14.252611 0.000000
-20.317599 -9.779081 66.772711 0.000000 32.000000 14.206442 0.000000
-16.640088 -10.889782 65.400281 0.000000 71.000000 14.572498 18.000000
-20.362806 -9.952453 69.944848 0.000000 46.000000 14.209047 0.000000
-20.750966 -10.506333 69.544834 0.000000 49.000000 14.854935 13.000000
-20.533860 -9.860276 68.739483 0.000000 43.000000 14.223008 0.000000
-20.586750 -9.817125 68.472890 0.000000 39.000000 14.207150 0.000000
-20.631515 -9.800797 68.224193 0.000000 44.000000 14.214695 0.000000
-17.046786 -11.671889 69.915401 0.000000 0.000000 15.171920 16.000000
-16.002694 -10.927854 65.069654 0.000000 62.000000 14.490535 11.000000
-19.418515 -9.917622 64.762056 0.000000 42.000000 14.259298 0.000000
-17.893390 -10.538455 70.020274 0.000000 44.000000 14.243670 0.000000
-16.925841 -10.792463 64.549793 0.000000 47.000000 14.586471 17.000000
-18.372045 -10.290718 70.186747 0.000000 37.000000 14.096120 0.000000
-15.788236 -11.426520 69.794520 0.000000 67.000000 14.668044 23.000000
-15.750721 -10.720920 65.723902 0.000000 20.000000 14.198130 0.000000
-16.032943 -11.259355 65.619986 0.000000 53.000000 14.789673 11.000000
-17.180910 -10.410284 66.449570 0.000000 24.000000 14.163383 0.000000
-18.586325 -10.037239 64.928657 0.000000 30.000000 14.187215 0.000000
-19.760237 -9.907014 65.419459 0.000000 27.000000 14.286133 5.000000
-18.874675 -10.045590 65.228144 0.000000 40.000000 14.240902 0.000000
-19.022006 -10.023862 65.359828 0.000000 40.000000 14.244174 0.000000
-18.311760 -10.213842 67.411767 0.000000 26.000000 14.162282 0.000000
-16.053138 -11.389815 67.210194 0.000000 72.000000 14.832901 25.000000
-18.581236 -10.121580 67.643781 0.000000 24.000000 14.117558 0.000000
-20.746621 -10.396283 69.305527 0.000000 55.000000 14.760000 14.000000
-18.692101 -10.156623 67.831263 0.000000 22.000000 14.165215 0.000000
-20.032453 -9.735539 66.255163 0.000000 27.000000 14.131250 0.000000
-15.372478 -11.407888 64.462217 0.000000 63.000000 14.856359 7.000000
-15.266183 -11.409084 68.931337 0.000000 59.000000 14.586413 12.000000
-18.914311 -10.197047 68.184247 0.000000 39.000000 14.232936 0.000000
-19.367445 -10.077336 67.767462 0.000000 32.000000 14.237086 0.000000
-19.027946 -10.185316 68.339629 0.000000 43.000000 14.237374 0.000000
-16.361919 -11.286638 70.286156 0.000000 45.000000 14.628074 27.000000
-19.140848 -10.173101 68.495480 0.000000 45.000000 14.241155 0.000000
-20.486747 -9.769097 66.997950 0.000000 52.000000 14.220675 0.000000
-20.891507 -10.344382 65.179226 0.000000 42.000000 14.969797 6.000000
-16.902931 -11.292075 67.901968 0.000000 2.000000 14.882438 19.000000
-17.230853 -10.465799 68.291764 0.000000 25.000000 14.125967 0.000000
-20.717017 -9.719855 67.322830 0.000000 40.000000 14.204279 0.000000
-19.443092 -10.540311 69.502940 0.000000 55.000000 14.608370 8.000000
-15.522016 -11.224156 69.852606 0.000000 58.000000 14.410130 23.000000
-20.144898 -9.948136 70.060843 0.000000 40.000000 14.151409 0.000000
-20.202325 -10.014471 70.284639 0.000000 43.000000 14.216033 0.000000
-17.013424 -10.629586 70.350936 0.000000 34.000000 14.124404 0.000000
-16.175669 -11.236755 65.757174 0.000000 39.000000 14.790798 11.000000
-19.854977 -10.130005 69.345048 0.000000 39.000000 14.305948 0.000000
-18.272817 -10.265081 66.976870 0.000000 33.000000 14.227989 0.000000
-18.287776 -10.259314 66.726299 0.000000 27.000000 14.239508 0.000000
-19.924377 -10.445012 64.195401 0.000000 61.000000 14.913995 3.000000
-18.332918 -10.231751 66.208887 0.000000 28.000000 14.251105 0.000000
-18.395578 -10.074999 65.818321 0.000000 24.000000 14.133490 0.000000
-16.391351 -11.258527 70.052936 0.000000 67.000000 14.619967 27.000000
-16.151556 -10.753829 65.203675 0.000000 43.000000 14.345535 11.000000
-17.565343 -10.393068 66.760723 0.000000 34.000000 14.212214 0.000000
-17.676183 -10.746196 68.904202 0.000000 52.000000 14.461340 10.000000
-15.614924 -10.770497 66.279819 0.000000 27.000000 14.186307 0.000000
-17.082750 -10.486242 66.974042 0.000000 40.000000 14.187141 0.000000
-17.968202 -10.395269 67.671725 0.000000 38.000000 14.250636 0.000000
-18.122054 -10.321864 67.750436 0.000000 32.000000 14.207878 0.000000
-16.747372 -10.881130 64.397481 0.000000 53.000000 14.642887 17.000000
-15.732709 -11.081517 67.062416 0.000000 65.000000 14.471456 25.000000
-18.537494 -10.251226 68.123486 0.000000 38.000000 14.207877 0.000000
-15.896166 -11.719121 69.865069 0.000000 51.000000 14.972655 23.000000
-20.058886 -10.352685 65.366629 0.000000 36.000000 14.787947 5.000000
-15.517006 -11.079853 64.243184 0.000000 53.000000 14.579887 7.000000
-19.170121 -10.182117 68.828421 0.000000 41.000000 14.237767 0.000000
-18.134981 -10.449604 70.228731 0.000000 33.000000 14.197567 0.000000
-16.924596 -10.953984 67.765598 0.000000 51.000000 14.565079 19.000000
-16.620340 -10.772334 68.645938 0.000000 42.000000 14.273494 0.000000
-17.540664 -10.868498 69.380843 0.000000 52.000000 14.524880 10.000000
-20.093132 -9.968219 69.978713 0.000000 42.000000 14.164387 0.000000
-15.409363 -11.261010 65.912804 0.000000 63.000000 14.640563 22.000000
-16.577244 -11.035978 67.096152 0.000000 77.000000 14.607293 19.000000
-18.652991 -10.007882 64.756875 0.000000 25.000000 14.182510 0.000000
-18.302649 -10.512131 64.527849 0.000000 33.000000 14.611275 29.000000
-18.877363 -10.056357 65.166899 0.000000 37.000000 14.255379 0.000000
-19.886032 -10.398522 66.034331 0.000000 41.000000 14.758280 5.000000
-19.571619 -9.869782 66.151983 0.000000 28.000000 14.168483 0.000000
-19.650738 -9.919676 66.392321 0.000000 28.000000 14.220839 0.000000
-19.789851 -9.775747 66.466886 0.000000 26.000000 14.106378 0.000000
-18.472677 -10.193195 67.602032 0.000000 17.000000 14.166285 0.000000
-15.218136 -11.299451 64.511215 0.000000 49.000000 14.714642 7.000000
-20.032110 -9.820374 67.105471 0.000000 40.000000 14.166660 0.000000
-15.170073 -11.387152 67.093647 0.000000 59.000000 14.646363 21.000000
-20.177534 -9.849277 67.532262 0.000000 36.000000 14.202493 0.000000
-16.185524 -11.349975 70.304030 0.000000 46.000000 14.650793 27.000000
-20.322652 -9.847081 67.935995 0.000000 43.000000 14.209223 0.000000
-15.677387 -11.234785 68.915611 0.000000 41.000000 14.506030 23.000000
-14.994444 -11.073219 65.565710 0.000000 24.000000 14.387294 22.000000
-20.519286 -9.833496 68.538690 0.000000 41.000000 14.204908 0.000000
-17.215696 -10.561143 68.587109 0.000000 34.000000 14.199248 0.000000
-17.730259 -10.460112 67.698078 0.000000 31.000000 14.261081 0.000000
-19.910485 -10.194608 68.390833 0.000000 50.000000 14.433890 15.000000
-15.774942 -11.496004 69.180555 0.000000 73.000000 14.767013 23.000000
-16.588560 -11.099572 69.809035 0.000000 59.000000 14.521071 16.000000
-15.640985 -10.855953 66.695122 0.000000 35.000000 14.252174 0.000000
-16.924220 -10.672346 66.744425 0.000000 30.000000 14.347141 30.000000
-20.463964 -10.047551 65.805423 0.000000 45.000000 14.553451 6.000000
-15.235549 -11.289690 65.602796 0.000000 63.000000 14.648260 22.000000
-16.658693 -11.160291 66.249955 0.000000 54.000000 14.793042 30.000000
-18.665236 -10.330776 69.799647 0.000000 50.000000 14.219890 0.000000
-15.222558 -11.260569 64.364396 0.000000 70.000000 14.685843 7.000000
-20.024010 -10.546990 65.479465 0.000000 46.000000 14.963587 5.000000
-16.839641 -10.772144 68.217027 0.000000 44.000000 14.344416 19.000000
-18.647401 -10.278983 69.103407 0.000000 41.000000 14.204216 0.000000
-19.444132 -10.555011 69.649444 0.000000 42.000000 14.614790 8.000000
-18.654095 -10.233552 68.847182 0.000000 40.000000 14.175599 0.000000
-17.711895 -11.196267 69.026752 0.000000 4.000000 14.901007 10.000000
-16.321435 -10.880062 66.358485 0.000000 44.000000 14.441098 30.000000
-15.234458 -11.259985 67.348160 0.000000 50.000000 14.522138 21.000000
-16.151410 -11.286235 68.744037 0.000000 76.000000 14.667930 23.000000
-17.187401 -10.716245 68.752729 0.000000 50.000000 14.335157 0.000000
-20.789652 -9.999369 69.238210 0.000000 38.000000 14.386068 14.000000
-19.794102 -9.879499 66.573350 0.000000 29.000000 14.202530 0.000000
-19.839245 -9.772581 66.221675 0.000000 29.000000 14.127560 0.000000
-16.962855 -10.930289 65.727662 0.000000 45.000000 14.663405 18.000000
-19.860909 -9.741335 65.935860 0.000000 27.000000 14.117643 0.000000
-20.423772 -10.440454 64.785425 0.000000 49.000000 14.984469 3.000000
-18.235658 -10.389649 68.995848 0.000000 29.000000 14.229294 0.000000
-20.729125 -10.049662 69.403563 0.000000 45.000000 14.412864 13.000000
-18.954344 -10.238468 66.405227 0.000000 53.000000 14.380748 2.000000
-16.412346 -10.970107 67.914970 0.000000 34.000000 14.462046 24.000000
-19.620477 -10.509527 66.070706 0.000000 71.000000 14.807217 5.000000
-15.732597 -11.087349 68.592974 0.000000 53.000000 14.392118 24.000000
-17.388284 -10.673186 68.001045 0.000000 44.000000 14.378240 9.000000
-17.014679 -10.677898 64.616115 0.000000 47.000000 14.490255 17.000000
-18.167730 -10.609501 64.280745 0.000000 49.000000 14.690831 29.000000
-19.937650 -9.997450 68.088433 0.000000 51.000000 14.264333 0.000000
-20.488799 -9.973403 70.203058 0.000000 63.000000 14.242298 0.000000
-15.671914 -10.749019 65.693037 0.000000 26.000000 14.210245 0.000000
-17.241097 -10.315645 64.606225 0.000000 32.000000 14.186467 0.000000
-18.544557 -10.019343 65.481913 0.000000 25.000000 14.130037 0.000000
-20.649087 -10.356723 69.895744 0.000000 59.000000 14.667625 13.000000
-18.261201 -10.312817 68.445322 0.000000 35.000000 14.190472 0.000000
-19.447829 -10.016824 66.965571 0.000000 41.000000 14.239959 0.000000
-17.230583 -10.739202 69.281698 0.000000 47.000000 14.337473 10.000000
-19.560550 -9.972974 67.119017 0.000000 43.000000 14.212995 0.000000
-20.360663 -10.372694 64.684587 0.000000 50.000000 14.910402 3.000000
-19.646061 -10.005945 67.339490 0.000000 34.000000 14.251333 0.000000
-18.570828 -10.220256 68.900410 0.000000 31.000000 14.141726 0.000000
-18.410860 -10.208665 64.442823 0.000000 41.000000 14.343483 29.000000
-15.687340 -11.099295 68.226432 0.000000 55.000000 14.414361 24.000000
-16.126817 -11.257851 67.082625 0.000000 59.000000 14.727222 25.000000
-16.997696 -10.639828 66.741740 0.000000 30.000000 14.331433 0.000000
-19.957670 -9.878536 67.822227 0.000000 37.000000 14.167505 0.000000
-18.897978 -10.287091 69.665603 0.000000 41.000000 14.234931 0.000000
-15.281678 -10.879160 64.874165 0.000000 49.000000 14.298447 7.000000
-17.107283 -10.921776 70.038165 0.000000 53.000000 14.446867 16.000000
-16.542813 -10.693406 68.311849 0.000000 33.000000 14.198383 0.000000
-18.317858 -10.427009 64.475040 0.000000 29.000000 14.534502 29.000000
-19.033119 -10.212510 66.005556 0.000000 44.000000 14.394623 2.000000
-16.798195 -11.231212 70.056509 0.000000 50.000000 14.680867 16.000000
-17.204113 -10.468818 64.447816 0.000000 44.000000 14.336617 0.000000
-17.270361 -10.592770 68.225110 0.000000 61.000000 14.261972 0.000000
-17.042079 -10.889292 66.636113 0.000000 69.000000 14.590070 30.000000
-20.821618 -10.106608 69.166674 0.000000 46.000000 14.501480 14.000000
-19.877218 -9.927367 69.511598 0.000000 41.000000 14.103944 0.000000
-16.896975 -10.941322 67.678438 0.000000 36.000000 14.551620 19.000000
-17.554026 -10.548023 67.193955 0.000000 48.000000 14.336780 0.000000
-18.756401 -10.320304 69.691526 0.000000 53.000000 14.235343 0.000000
-19.839488 -10.065166 68.092449 0.000000 48.000000 14.308959 0.000000
-16.767301 -11.063126 65.260523 0.000000 68.000000 14.776683 18.000000
-18.766085 -10.278918 69.219606 0.000000 42.000000 14.223292 0.000000
-15.221173 -11.280253 64.441092 0.000000 68.000000 14.700475 7.000000
-18.773398 -10.265171 68.985638 0.000000 44.000000 14.224460 0.000000
-15.631821 -11.237054 70.100759 0.000000 54.000000 14.432600 23.000000
-18.777855 -10.267091 68.760623 0.000000 44.000000 14.239789 0.000000
-19.918641 -9.752688 67.032810 0.000000 26.000000 14.080241 0.000000
-20.265801 -10.300378 69.391975 0.000000 61.000000 14.558023 14.000000
-16.796942 -11.179645 70.263245 0.000000 56.000000 14.618844 16.000000
-18.806765 -10.226526 68.267425 0.000000 43.000000 14.233866 0.000000
-18.376512 -10.082653 64.965316 0.000000 21.000000 14.184212 0.000000
-18.828661 -10.200574 68.016366 0.000000 42.000000 14.227230 0.000000
-19.965912 -9.751908 66.265434 0.000000 34.000000 14.132289 0.000000
-20.423581 -9.797980 65.985462 0.000000 33.000000 14.291439 6.000000
-14.978283 -11.279842 67.133069 0.000000 46.000000 14.498202 21.000000
-16.537159 -10.940968 64.899489 0.000000 66.000000 14.628016 17.000000
-20.534654 -10.350908 64.774797 0.000000 32.000000 14.921671 3.000000
-15.706562 -10.713391 66.453073 0.000000 48.000000 14.140773 0.000000
-19.177272 -10.000803 65.337717 0.000000 41.000000 14.256402 0.000000
-17.039855 -10.565865 67.227305 0.000000 44.000000 14.241452 0.000000
-17.949083 -10.428504 68.190216 0.000000 39.000000 14.250121 0.000000
-16.462331 -10.649138 66.640122 0.000000 31.000000 14.230712 0.000000
-17.160857 -10.628720 69.806015 0.000000 35.000000 14.185612 0.000000
-18.198009 -10.357722 68.457977 0.000000 50.000000 14.219921 0.000000
-17.919465 -10.502345 70.116451 0.000000 28.000000 14.208748 0.000000
-20.314295 -10.186528 64.900095 0.000000 55.000000 14.706944 3.000000
-18.563733 -10.209210 68.841237 0.000000 39.000000 14.132714 0.000000
-18.653897 -10.266575 69.053700 0.000000 41.000000 14.196281 0.000000
-16.542451 -10.917809 65.651788 0.000000 52.000000 14.564801 18.000000
-18.856094 -10.270522 69.397892 0.000000 51.000000 14.224614 0.000000
-20.314083 -10.138794 69.635725 0.000000 48.000000 14.397370 14.000000
-20.192043 -10.014317 70.224475 0.000000 56.000000 14.217007 0.000000
-20.262321 -9.960743 69.967832 0.000000 48.000000 14.194185 0.000000
-15.873805 -11.482822 69.953398 0.000000 63.000000 14.732561 23.000000
-15.182522 -11.526024 69.531884 0.000000 52.000000 14.649026 26.000000
-20.850340 -10.152591 66.258041 0.000000 55.000000 14.714032 6.000000
-17.867604 -10.296428 65.630212 0.000000 37.000000 14.245960 0.000000
-15.504085 -11.234018 68.954271 0.000000 40.000000 14.465767 12.000000
-18.268691 -10.193931 66.343034 0.000000 25.000000 14.192935 0.000000
-18.348743 -10.226478 66.578152 0.000000 27.000000 14.228869 0.000000
-16.576174 -11.033361 65.862722 0.000000 72.000000 14.673009 18.000000
-20.012612 -10.055707 68.786899 0.000000 67.000000 14.298503 15.000000
-16.369075 -10.766310 66.169722 0.000000 35.000000 14.350957 30.000000
-17.544590 -10.694998 67.742820 0.000000 52.000000 14.447549 9.000000
-18.749021 -10.188720 67.578645 0.000000 44.000000 14.222810 0.000000
-17.103573 -11.002259 69.262213 0.000000 52.000000 14.567621 16.000000
-18.879499 -10.204145 68.004910 0.000000 42.000000 14.242309 0.000000
-20.765226 -10.049170 65.069599 0.000000 26.000000 14.660854 6.000000
-15.444156 -10.945477 64.614279 0.000000 40.000000 14.412567 7.000000
-20.179267 -9.811753 66.593679 0.000000 54.000000 14.218409 0.000000
-19.005159 -10.193285 68.402605 0.000000 43.000000 14.236732 0.000000
-15.800962 -11.211085 67.252775 0.000000 59.000000 14.601917 25.000000
-16.514251 -11.159313 69.383629 0.000000 73.000000 14.586915 16.000000
-16.480683 -11.101878 67.378459 0.000000 57.000000 14.635040 19.000000
-19.115394 -10.194528 68.814547 0.000000 38.000000 14.238836 0.000000
-20.341879 -9.805228 67.269907 0.000000 50.000000 14.209557 0.000000
-17.371689 -10.418157 64.573351 0.000000 43.000000 14.316391 4.000000
-19.492739 -10.162346 65.646890 0.000000 44.000000 14.464744 5.000000
-16.739998 -10.802742 69.133826 0.000000 56.000000 14.301846 16.000000
-16.269817 -11.031057 67.103910 0.000000 54.000000 14.535775 25.000000
-20.506530 -9.829585 68.188038 0.000000 44.000000 14.217819 0.000000
-20.163140 -10.407924 69.379061 0.000000 51.000000 14.641450 14.000000
-18.582220 -10.072983 66.791062 0.000000 27.000000 14.117749 0.000000
-18.445315 -10.313978 70.138780 0.000000 46.000000 14.137259 0.000000
-18.377841 -10.343413 69.966164 0.000000 54.000000 14.160991 0.000000
-18.324469 -10.329914 69.762992 0.000000 51.000000 14.147605 0.000000
-18.265644 -10.335467 69.567095 0.000000 40.000000 14.151214 0.000000
-18.204290 -10.365566 69.388004 0.000000 36.000000 14.177274 0.000000
-19.988596 -10.352411 68.527206 0.000000 28.000000 14.597001 15.000000
-17.127861 -10.688655 70.214123 0.000000 45.000000 14.214263 0.000000
-17.089496 -10.636932 69.978651 0.000000 38.000000 14.168643 0.000000
-17.412442 -10.548997 64.373259 0.000000 60.000000 14.463846 4.000000
-15.245483 -11.072263 69.976846 0.000000 38.000000 14.195522 0.000000
-15.159970 -11.266390 68.244319 0.000000 43.000000 14.462552 20.000000
-18.554617 -10.341531 70.215691 0.000000 51.000000 14.183417 0.000000
-19.533872 -10.081305 68.765273 0.000000 40.000000 14.221429 0.000000
-20.264257 -10.544986 64.672086 0.000000 32.000000 15.058275 3.000000
-15.057285 -11.162383 64.537253 0.000000 42.000000 14.544885 7.000000
-15.128911 -11.366042 69.185726 0.000000 63.000000 14.500724 12.000000
-19.514651 -10.384719 64.161700 0.000000 48.000000 14.768739 3.000000
-17.403261 -10.930206 68.932465 0.000000 65.000000 14.580311 10.000000
-19.587386 -10.014028 68.005471 0.000000 54.000000 14.209575 0.000000
-16.176996 -11.237081 65.469660 0.000000 58.000000 14.807369 11.000000
-19.618369 -9.966239 67.725730 0.000000 45.000000 14.185202 0.000000
-18.619926 -10.261669 69.057661 0.000000 41.000000 14.183953 0.000000
-16.161153 -11.405780 68.031876 0.000000 59.000000 14.826125 24.000000
-15.785234 -11.492133 69.408101 0.000000 75.000000 14.752822 23.000000
-16.145828 -11.462381 67.915364 0.000000 58.000000 14.884470 24.000000
-15.837229 -11.223565 68.825139 0.000000 47.000000 14.534583 23.000000
-16.652025 -11.014366 66.722670 0.000000 55.000000 14.623090 30.000000
-18.418398 -10.201188 65.515433 0.000000 28.000000 14.278252 1.000000
-15.900884 -11.139502 65.569489 0.000000 79.000000 14.647158 11.000000
-18.712716 -10.217402 68.104012 0.000000 46.000000 14.213766 0.000000
-16.137423 -11.417785 68.058749 0.000000 65.000000 14.831219 24.000000
-16.457137 -11.147950 67.363100 0.000000 56.000000 14.675730 19.000000
-18.771073 -10.209710 67.619278 0.000000 49.000000 14.245771 0.000000
-17.877241 -10.694470 64.479042 0.000000 74.000000 14.700017 4.000000
-20.333610 -10.429341 64.656108 0.000000 31.000000 14.961375 3.000000
-18.948363 -10.105838 66.546531 0.000000 43.000000 14.242310 0.000000
-19.113165 -10.031801 65.713830 0.000000 48.000000 14.251912 0.000000
-15.579156 -10.780124 66.316368 0.000000 30.000000 14.185950 0.000000
-17.531438 -11.087324 69.331567 0.000000 57.000000 14.738959 10.000000
-16.487285 -11.141780 69.922760 0.000000 55.000000 14.534067 16.000000
-15.298755 -11.532915 66.531915 0.000000 68.000000 14.847410 22.000000
-16.987203 -10.499241 68.140972 0.000000 30.000000 14.114406 0.000000
-15.341619 -11.861234 68.993337 0.000000 53.000000 15.040035 12.000000
-20.654385 -10.069005 69.820649 0.000000 43.000000 14.392443 13.000000
-16.002412 -10.813103 65.115321 0.000000 27.000000 14.376068 11.000000
-18.199525 -10.298490 67.062892 0.000000 37.000000 14.239979 0.000000
-15.335492 -11.756010 69.232066 0.000000 49.000000 14.922873 26.000000
-19.532704 -10.375428 64.141543 0.000000 52.000000 14.764693 3.000000
-16.003839 -11.330061 69.133710 0.000000 58.000000 14.657196 23.000000
-16.676930 -10.939916 66.633047 0.000000 57.000000 14.560857 30.000000
-15.689040 -11.395991 70.020958 0.000000 78.000000 14.604317 23.000000
-17.669959 -10.561005 69.633988 0.000000 38.000000 14.238928 0.000000
-16.146493 -11.408399 69.633112 0.000000 60.000000 14.736593 23.000000
-15.800109 -11.530320 69.338353 0.000000 71.000000 14.797132 23.000000
-15.406991 -11.327308 65.776718 0.000000 74.000000 14.712243 22.000000
-19.002897 -10.225304 68.997372 0.000000 49.000000 14.234429 0.000000
-19.064320 -10.231208 69.201845 0.000000 57.000000 14.242075 0.000000
-20.259005 -9.999380 70.237135 0.000000 64.000000 14.216181 0.000000
-20.326910 -9.958576 69.989678 0.000000 54.000000 14.204786 0.000000
-15.135856 -11.215020 65.832150 0.000000 68.000000 14.541230 22.000000
-19.882579 -9.915619 69.487154 0.000000 42.000000 14.095004 0.000000
-17.647212 -10.754010 64.186002 0.000000 43.000000 14.724734 4.000000
-20.391476 -9.835049 68.075602 0.000000 56.000000 14.204580 0.000000
-20.724198 -9.866057 68.950622 0.000000 42.000000 14.257960 14.000000
-20.613248 -9.743529 67.533451 0.000000 45.000000 14.193287 0.000000
-17.473249 -10.525628 68.729358 0.000000 31.000000 14.212261 0.000000
-17.654149 -10.537928 70.019685 0.000000 31.000000 14.191602 0.000000
-17.491018 -10.372451 64.961437 0.000000 40.000000 14.276011 0.000000
-18.596651 -10.102550 65.079013 0.000000 43.000000 14.244764 0.000000
-18.250260 -10.333222 65.745333 0.000000 29.000000 14.357949 1.000000
-15.442773 -11.472260 69.639113 0.000000 62.000000 14.646775 23.000000
-17.498769 -11.189613 69.309747 0.000000 63.000000 14.832848 10.000000
-18.758889 -10.215140 65.884141 0.000000 58.000000 14.344797 2.000000
-18.980032 -10.110497 66.952211 0.000000 42.000000 14.231151 0.000000
-15.953279 -11.214607 68.811250 0.000000 58.000000 14.551645 23.000000
-16.794549 -10.931808 67.235655 0.000000 48.000000 14.544848 19.000000
-20.051701 -10.215236 68.658029 0.000000 45.000000 14.469612 15.000000
-20.290632 -9.799622 66.279047 0.000000 52.000000 14.248069 0.000000
-15.187210 -11.112227 70.199729 0.000000 36.000000 14.209540 0.000000
-20.312391 -9.785633 66.518374 0.000000 44.000000 14.225832 0.000000
-20.323930 -9.789623 66.770873 0.000000 42.000000 14.218187 0.000000
-17.016641 -10.687968 65.461417 0.000000 50.000000 14.453551 18.000000
-15.617959 -11.109643 69.696787 0.000000 63.000000 14.327833 23.000000
-16.118974 -11.485766 68.232455 0.000000 56.000000 14.883869 24.000000
-15.165745 -11.229605 67.414562 0.000000 46.000000 14.474016 20.000000
-19.170984 -10.186978 69.038036 0.000000 42.000000 14.231052 0.000000
-17.506253 -10.728634 67.814905 0.000000 59.000000 14.468071 9.000000
-15.307204 -11.643732 68.605206 0.000000 51.000000 14.842127 12.000000
-16.094873 -11.313760 69.100401 0.000000 53.000000 14.662783 23.000000
-16.216693 -11.066401 67.038336 0.000000 59.000000 14.562418 25.000000
-15.525804 -11.129638 65.826670 0.000000 38.000000 14.542380 22.000000
-17.114686 -11.206361 69.927397 0.000000 65.000000 14.732055 16.000000
-15.967058 -11.372837 68.561190 0.000000 69.000000 14.722761 24.000000
-16.569356 -10.827583 65.561413 0.000000 58.000000 14.487661 18.000000
-20.760032 -9.774717 68.217296 0.000000 45.000000 14.217365 0.000000
-20.339881 -9.968118 69.729593 0.000000 53.000000 14.231329 0.000000
-19.253865 -10.300030 69.749332 0.000000 47.000000 14.319635 8.000000
-15.787529 -10.854116 67.189917 0.000000 41.000000 14.254504 25.000000
-17.065918 -10.658667 70.131151 0.000000 45.000000 14.176279 0.000000
-15.986484 -10.698513 64.717177 0.000000 40.000000 14.283031 0.000000
-15.566157 -10.845535 66.816740 0.000000 34.000000 14.219129 0.000000
-15.432141 -10.854972 66.374974 0.000000 26.000000 14.223964 0.000000
-15.359485 -10.998547 69.569385 0.000000 35.000000 14.170867 0.000000
-15.152764 -11.113738 66.359283 0.000000 54.000000 14.416863 22.000000
-14.961153 -11.744072 68.831537 0.000000 74.000000 14.852759 12.000000
-18.195794 -10.348528 69.834597 0.000000 41.000000 14.134030 0.000000
-16.803994 -10.993467 66.127476 0.000000 44.000000 14.668538 30.000000
-18.074642 -10.455513 69.503772 0.000000 41.000000 14.230577 0.000000
-18.028861 -10.467467 69.308261 0.000000 52.000000 14.243217 0.000000
-17.091536 -10.713337 70.316840 0.000000 58.000000 14.224789 0.000000
-17.062041 -10.664911 70.083391 0.000000 44.000000 14.184183 0.000000
-17.880212 -10.435966 68.431944 0.000000 50.000000 14.229120 0.000000
-16.875740 -11.303503 70.201083 0.000000 45.000000 14.760035 16.000000
-16.436626 -10.824040 66.871229 0.000000 44.000000 14.382845 0.000000
-15.700105 -11.203025 68.673294 0.000000 50.000000 14.493423 24.000000
-17.660612 -10.374486 66.267613 0.000000 39.000000 14.242026 0.000000
-20.210554 -9.790781 66.480108 0.000000 30.000000 14.211017 0.000000
-16.083745 -11.292764 70.247681 0.000000 67.000000 14.576200 27.000000
-17.632189 -10.303512 65.170381 0.000000 35.000000 14.227640 0.000000
-17.625300 -10.311333 64.907072 0.000000 37.000000 14.248401 0.000000
-16.217511 -11.294969 70.096715 0.000000 51.000000 14.615578 27.000000
-15.552945 -10.847314 66.536593 0.000000 33.000000 14.233572 0.000000
-17.061982 -11.189084 69.449995 0.000000 41.000000 14.730359 16.000000
-17.082474 -10.542317 68.239177 0.000000 50.000000 14.171491 0.000000
-17.187506 -10.551176 68.418416 0.000000 43.000000 14.192821 0.000000
-17.786812 -10.515707 69.439439 0.000000 51.000000 14.230768 0.000000
-17.881572 -10.496638 69.601910 0.000000 54.000000 14.223588 0.000000
-18.063596 -10.451358 69.925091 0.000000 48.000000 14.200747 0.000000
-18.173102 -10.343470 70.027840 0.000000 44.000000 14.113474 0.000000
-19.485903 -10.450821 70.112483 0.000000 52.000000 14.496507 28.000000
-18.924020 -10.292349 70.276391 0.000000 52.000000 14.211753 0.000000
-18.921326 -10.315989 70.076759 0.000000 67.000000 14.245306 0.000000
-18.932357 -10.301915 69.852343 0.000000 53.000000 14.246426 0.000000
-14.671165 -11.003762 64.669210 0.000000 25.000000 14.299659 7.000000
-18.992300 -10.216390 69.120391 0.000000 51.000000 14.216623 0.000000
-18.102435 -10.433798 70.348166 0.000000 41.000000 14.168507 0.000000
-17.473898 -10.505333 66.964975 0.000000 40.000000 14.290600 0.000000
-14.854313 -11.225572 68.145600 0.000000 34.000000 14.362333 0.000000
-19.035223 -10.191547 68.642611 0.000000 55.000000 14.228192 0.000000
-15.385255 -11.342807 66.141146 0.000000 58.000000 14.702428 22.000000
-19.060259 -10.176768 68.397143 0.000000 72.000000 14.232814 0.000000
-17.000687 -10.758772 67.467678 0.000000 34.000000 14.407721 19.000000
-19.092025 -10.151234 68.142642 0.000000 70.000000 14.228904 0.000000
-16.242062 -11.277697 68.999048 0.000000 63.000000 14.664992 23.000000
-15.005741 -11.171492 67.488349 0.000000 59.000000 14.378763 0.000000
-18.247897 -10.252448 69.122534 0.000000 35.000000 14.091141 0.000000
-16.579374 -11.087473 69.884533 0.000000 55.000000 14.503103 16.000000
-18.124180 -10.358417 65.686134 0.000000 36.000000 14.358612 1.000000
-16.756306 -11.031164 67.324365 0.000000 58.000000 14.628538 19.000000
-18.321877 -10.191031 68.622657 0.000000 40.000000 14.074979 0.000000
-16.091968 -11.433447 66.000588 0.000000 63.000000 14.950985 11.000000
-18.331453 -10.279654 68.460977 0.000000 38.000000 14.172421 0.000000
-19.285279 -10.053339 66.832660 0.000000 59.000000 14.247888 0.000000
-20.149738 -10.405951 68.789365 0.000000 44.000000 14.669386 15.000000
-16.678997 -11.094987 67.787857 0.000000 40.000000 14.648348 19.000000
-15.201745 -11.380472 66.532942 0.000000 69.000000 14.677819 22.000000
-19.394981 -9.978251 66.257399 0.000000 38.000000 14.230286 0.000000
-18.479005 -10.156348 67.657964 0.000000 37.000000 14.128621 0.000000
-16.734613 -11.125400 70.015155 0.000000 49.000000 14.566298 16.000000
-15.346056 -11.357641 64.526618 0.000000 44.000000 14.798099 7.000000
-18.626058 -10.132171 66.907673 0.000000 37.000000 14.178428 0.000000
-18.677218 -10.141431 66.666431 0.000000 49.000000 14.211884 0.000000
-16.704799 -10.971549 67.351875 0.000000 45.000000 14.557785 19.000000
-16.509061 -11.071692 66.056090 0.000000 54.000000 14.685167 30.000000
-18.275037 -10.387573 65.505314 0.000000 35.000000 14.429607 1.000000
-15.664805 -10.655705 64.310317 0.000000 39.000000 14.194528 0.000000
-18.202121 -10.599996 65.604087 0.000000 48.000000 14.615489 1.000000
-17.686843 -10.609615 64.556584 0.000000 74.000000 14.571931 4.000000
-16.122021 -10.598832 64.162017 0.000000 30.000000 14.245909 0.000000
-16.140075 -11.258844 67.665755 0.000000 59.000000 14.698665 25.000000
-18.282333 -10.136257 66.024259 0.000000 25.000000 14.157354 0.000000
-15.142295 -11.495902 69.364162 0.000000 75.000000 14.620301 26.000000
-18.425842 -10.044896 66.407657 0.000000 23.000000 14.077940 0.000000
-16.563657 -10.674755 65.847396 0.000000 36.000000 14.321558 18.000000
-18.490310 -10.206971 67.000218 0.000000 36.000000 14.216939 0.000000
-18.568592 -10.102529 67.143156 0.000000 35.000000 14.124061 0.000000
-18.594127 -10.181181 67.436083 0.000000 53.000000 14.189977 0.000000
-16.765477 -11.314034 69.395147 0.000000 44.000000 14.791283 16.000000
-20.758378 -10.249268 64.957969 0.000000 51.000000 14.860651 6.000000
-17.698485 -10.544613 69.580284 0.000000 42.000000 14.232081 0.000000
-17.799761 -10.673017 64.487721 0.000000 43.000000 14.661913 4.000000
-15.860636 -11.518630 69.898017 0.000000 40.000000 14.767706 23.000000
-19.664008 -10.386224 69.529439 0.000000 57.000000 14.504316 8.000000
-14.984722 -11.137294 66.551632 0.000000 60.000000 14.392911 22.000000
-18.766821 -10.247064 68.604129 0.000000 55.000000 14.226577 0.000000
-15.935931 -11.212287 65.769219 0.000000 56.000000 14.714581 11.000000
-17.492111 -10.528797 67.405987 0.000000 43.000000 14.292911 9.000000
-15.957536 -11.313120 68.962359 0.000000 62.000000 14.640212 23.000000
-17.729251 -10.425499 67.076643 0.000000 44.000000 14.261630 0.000000
-18.866255 -10.265019 69.490863 0.000000 57.000000 14.216277 0.000000
-17.502205 -10.781765 67.612091 0.000000 42.000000 14.530258 9.000000
-18.904135 -10.316595 70.163141 0.000000 73.000000 14.237392 0.000000
-19.860934 -9.923731 68.854832 0.000000 43.000000 14.133361 0.000000
-15.738361 -11.356610 67.470325 0.000000 63.000000 14.718209 25.000000
-20.220971 -9.877328 67.895587 0.000000 56.000000 14.219029 0.000000
-19.763537 -10.218346 69.929651 0.000000 30.000000 14.339889 28.000000
-20.438992 -9.799909 67.361446 0.000000 53.000000 14.220228 0.000000
-20.747191 -10.236759 65.022464 0.000000 38.000000 14.842463 6.000000
-17.208333 -10.974295 69.506070 0.000000 48.000000 14.549406 16.000000
-20.206587 -10.288932 64.368188 0.000000 55.000000 14.813091 3.000000
-16.241268 -11.164506 67.588208 0.000000 41.000000 14.632822 25.000000
-16.638049 -10.740243 64.318292 0.000000 61.000000 14.486362 17.000000
-16.357452 -11.249179 67.922499 0.000000 68.000000 14.721857 24.000000
-20.307013 -9.817147 67.033589 0.000000 59.000000 14.226783 0.000000
-16.152255 -11.428316 68.390306 0.000000 63.000000 14.826271 24.000000
-20.693376 -10.392748 65.492573 0.000000 9.000000 14.956825 6.000000
-15.171200 -11.184968 67.486937 0.000000 41.000000 14.427657 20.000000
-19.012495 -10.103921 66.768904 0.000000 41.000000 14.241920 0.000000
-16.220361 -11.168301 65.344056 0.000000 58.000000 14.756642 11.000000
-17.387979 -10.879970 68.893044 0.000000 70.000000 14.530230 10.000000
-20.116279 -9.795737 66.134680 0.000000 43.000000 14.214703 0.000000
-18.947222 -10.191464 68.036263 0.000000 57.000000 14.242809 0.000000
-20.083843 -9.820715 66.416597 0.000000 46.000000 14.216403 0.000000
-18.926642 -10.211173 68.283481 0.000000 49.000000 14.243856 0.000000
-15.685547 -10.938473 68.109582 0.000000 41.000000 14.263680 24.000000
-16.459501 -11.200913 67.248463 0.000000 46.000000 14.734240 19.000000
-18.247190 -10.240900 67.998069 0.000000 26.000000 14.142177 0.000000
-19.991042 -10.301297 64.305381 0.000000 45.000000 14.782156 3.000000
-18.855501 -10.255354 69.001128 0.000000 48.000000 14.231734 0.000000
-16.957767 -10.613088 68.391382 0.000000 27.000000 14.205141 0.000000
-16.508405 -11.150223 70.016364 0.000000 53.000000 14.541654 16.000000
-16.794580 -10.832229 67.067585 0.000000 45.000000 14.457110 19.000000
-16.859893 -10.775697 64.527255 0.000000 58.000000 14.557157 17.000000
-15.458999 -11.068697 65.552009 0.000000 55.000000 14.483818 22.000000
-18.720354 -10.354125 69.952314 0.000000 42.000000 14.246059 0.000000
-16.756692 -10.856889 64.264880 0.000000 72.000000 14.628629 17.000000
-19.719095 -9.991907 68.767933 0.000000 38.000000 14.174067 0.000000
-17.676026 -10.793787 69.623475 0.000000 54.000000 14.467758 10.000000
-15.597118 -10.725434 66.725875 0.000000 30.000000 14.113765 0.000000
-16.643817 -10.860628 69.060095 0.000000 49.000000 14.341633 0.000000
-19.686897 -10.592421 65.923969 0.000000 46.000000 14.910501 5.000000
-16.476240 -10.588299 64.946575 0.000000 29.000000 14.268450 17.000000
-14.995939 -11.052104 64.542171 0.000000 76.000000 14.423873 7.000000
-18.974812 -10.232313 66.318469 0.000000 42.000000 14.383978 2.000000
-20.724888 -10.359413 69.151921 0.000000 45.000000 14.727901 14.000000
-16.802042 -10.978369 67.169542 0.000000 57.000000 14.595528 19.000000
-20.395206 -9.841921 67.778420 0.000000 47.000000 14.228588 0.000000
-19.919341 -9.986447 69.025468 0.000000 55.000000 14.197621 0.000000
-16.239218 -11.177872 69.133930 0.000000 64.000000 14.559569 23.000000
-16.969631 -10.893978 69.416234 0.000000 44.000000 14.424623 16.000000
-15.920525 -11.105731 65.664102 0.000000 63.000000 14.613216 11.000000
-15.823320 -11.294953 67.741459 0.000000 73.000000 14.661362 25.000000
-16.501737 -11.521279 69.977235 0.000000 80.000000 14.904129 16.000000
-20.131529 -10.014413 70.232081 0.000000 50.000000 14.203630 0.000000
-16.925794 -10.715285 68.868039 0.000000 47.000000 14.271408 0.000000
-17.192784 -10.675048 70.156269 0.000000 50.000000 14.218210 0.000000
-16.215173 -11.195957 65.352518 0.000000 55.000000 14.782015 11.000000
-19.240523 -10.036162 66.480664 0.000000 38.000000 14.241040 0.000000
-16.540214 -10.841196 65.800915 0.000000 51.000000 14.481347 18.000000
-16.743961 -10.914737 64.960827 0.000000 51.000000 14.643630 17.000000
-20.670087 -10.255445 65.566360 0.000000 40.000000 14.813848 6.000000
-16.506412 -10.832780 66.694024 0.000000 52.000000 14.416255 30.000000
-19.983875 -9.760516 67.143760 0.000000 20.000000 14.095778 0.000000
-17.789811 -10.532177 68.214612 0.000000 35.000000 14.315492 0.000000
-15.969926 -11.376980 65.957914 0.000000 61.000000 14.871990 11.000000
-17.149416 -10.448220 68.829536 0.000000 23.000000 14.061405 0.000000
-17.142384 -10.667510 70.063717 0.000000 50.000000 14.205134 0.000000
-17.242115 -10.699449 70.240902 0.000000 57.000000 14.247936 0.000000
-20.145183 -10.053273 68.299254 0.000000 45.000000 14.351797 15.000000
-16.094989 -11.366335 65.953895 0.000000 66.000000 14.888803 11.000000
-15.225259 -11.278177 66.158402 0.000000 55.000000 14.603962 22.000000
-17.736174 -10.521189 69.589333 0.000000 50.000000 14.216869 0.000000
-17.487737 -10.425992 66.553475 0.000000 40.000000 14.239087 0.000000
-16.818746 -10.781494 65.668550 0.000000 35.000000 14.490554 18.000000
-14.788692 -11.172492 68.577563 0.000000 32.000000 14.272447 0.000000
-19.738607 -9.961889 64.719687 0.000000 41.000000 14.373828 3.000000
-15.379949 -10.763094 64.564150 0.000000 28.000000 14.223702 0.000000
-19.979371 -10.318496 65.720862 0.000000 41.000000 14.717798 5.000000
-15.627063 -10.758074 64.953886 0.000000 36.000000 14.250449 0.000000
-15.523038 -10.923527 67.851128 0.000000 41.000000 14.228420 0.000000
-17.302044 -10.491577 64.651128 0.000000 61.000000 14.368631 4.000000
-20.127866 -9.800126 67.643192 0.000000 29.000000 14.137706 0.000000
-20.733951 -10.353935 69.078789 0.000000 60.000000 14.728575 14.000000
-17.764236 -10.546770 69.789273 0.000000 51.000000 14.236756 0.000000
-16.426366 -10.796569 66.725583 0.000000 33.000000 14.361940 0.000000
-17.860915 -10.547772 70.188975 0.000000 61.000000 14.236382 0.000000
-17.179398 -10.478312 66.986989 0.000000 41.000000 14.199532 0.000000
-18.181681 -10.378470 70.089953 0.000000 46.000000 14.145996 0.000000
-17.735430 -10.445314 66.844893 0.000000 31.000000 14.295151 0.000000
-18.219993 -10.377681 69.654691 0.000000 46.000000 14.177660 0.000000
-20.778361 -10.497543 69.564734 0.000000 46.000000 14.851167 13.000000
-16.724889 -10.878086 66.087989 0.000000 47.000000 14.541190 30.000000
-18.336451 -10.220023 68.868936 0.000000 38.000000 14.092708 0.000000
-20.838733 -10.035977 64.829526 0.000000 38.000000 14.677176 6.000000
-18.383370 -10.278552 68.453709 0.000000 47.000000 14.182945 0.000000
-15.289764 -11.191776 64.808038 0.000000 39.000000 14.608631 7.000000
-18.471778 -10.222954 67.936057 0.000000 41.000000 14.176554 0.000000
-15.867480 -11.104089 65.505877 0.000000 53.000000 14.608964 11.000000
-19.586845 -9.922988 64.938599 0.000000 41.000000 14.291022 0.000000
-15.828007 -11.287507 68.213890 0.000000 45.000000 14.628876 24.000000
-20.818717 -10.378653 65.515070 0.000000 49.000000 14.968861 6.000000
-17.810905 -10.448780 68.385278 0.000000 42.000000 14.229259 0.000000
-18.727634 -10.142495 66.643375 0.000000 48.000000 14.225073 0.000000
-16.718146 -10.837517 64.694256 0.000000 60.000000 14.577585 17.000000
-17.923355 -10.401124 67.888050 0.000000 39.000000 14.234660 0.000000
-16.600245 -10.855613 67.969618 0.000000 50.000000 14.387908 19.000000
-18.045571 -10.361123 67.382174 0.000000 50.000000 14.250110 0.000000
-19.783281 -9.930184 64.714038 0.000000 42.000000 14.352866 3.000000
-18.193244 -10.272089 66.825569 0.000000 34.000000 14.226065 0.000000
-18.244805 -10.399732 65.510569 0.000000 31.000000 14.434650 1.000000
-19.419780 -10.368342 70.177977 0.000000 43.000000 14.398203 28.000000
-18.466756 -10.041062 65.879846 0.000000 23.000000 14.112335 0.000000
-20.476495 -9.987155 70.191426 0.000000 42.000000 14.253699 13.000000
-17.586062 -10.738151 67.749621 0.000000 41.000000 14.498183 9.000000
-18.707007 -10.050149 65.117994 0.000000 38.000000 14.215309 0.000000
-15.341700 -11.651292 69.396532 0.000000 47.000000 14.812990 26.000000
-18.897666 -10.012957 64.556491 0.000000 40.000000 14.251345 0.000000
-19.005512 -9.964182 64.244842 0.000000 40.000000 14.244357 0.000000
-15.736297 -10.950093 66.545485 0.000000 60.000000 14.372813 0.000000
-17.091133 -10.575994 66.802906 0.000000 43.000000 14.285952 0.000000
-18.081130 -10.212261 64.833725 0.000000 41.000000 14.254181 0.000000
-17.110933 -10.488239 66.788071 0.000000 44.000000 14.205494 0.000000
-18.202108 -10.196228 65.845389 0.000000 28.000000 14.208454 0.000000
-15.828471 -11.053737 65.607625 0.000000 43.000000 14.545814 11.000000
-16.726026 -10.952433 69.113845 0.000000 37.000000 14.445875 16.000000
-15.123107 -11.238278 68.576992 0.000000 69.000000 14.408722 12.000000
-15.016840 -11.269847 64.298460 0.000000 58.000000 14.654191 7.000000
-18.268929 -10.222041 66.862863 0.000000 27.000000 14.191522 0.000000
-15.055520 -10.875299 64.628473 0.000000 53.000000 14.259562 7.000000
-17.783353 -10.413228 66.930709 0.000000 42.000000 14.269438 0.000000
-18.299098 -10.207537 67.572417 0.000000 26.000000 14.144483 0.000000
-15.744327 -11.656684 70.023803 0.000000 77.000000 14.870229 23.000000
-18.266480 -10.353816 68.159713 0.000000 46.000000 14.247441 0.000000
-16.833326 -10.882502 64.538713 0.000000 57.000000 14.654915 17.000000
-15.163153 -11.269720 67.993408 0.000000 43.000000 14.480419 20.000000
-15.719856 -11.099516 67.747061 0.000000 68.000000 14.448210 25.000000
-20.135830 -10.159991 64.214675 0.000000 53.000000 14.680655 3.000000
-16.909563 -10.938492 70.329501 0.000000 49.000000 14.404349 16.000000
-16.833671 -11.481201 69.927812 0.000000 32.000000 14.939376 16.000000
-17.524863 -10.575280 64.382042 0.000000 59.000000 14.513223 4.000000
-17.746072 -11.003896 69.198179 0.000000 61.000000 14.711314 10.000000
-15.903046 -10.651691 64.662400 0.000000 38.000000 14.222434 0.000000
-18.268898 -10.328700 70.327698 0.000000 45.000000 14.103079 0.000000
-16.457617 -10.507914 64.395842 0.000000 33.000000 14.216652 0.000000
-18.419744 -10.309260 69.898737 0.000000 51.000000 14.140476 0.000000
-19.188287 -10.717237 69.576037 0.000000 40.000000 14.721851 8.000000
-18.587442 -10.266703 69.449656 0.000000 47.000000 14.160087 0.000000
-18.666244 -10.279794 69.244197 0.000000 51.000000 14.201252 0.000000
-18.762266 -10.249058 69.003690 0.000000 51.000000 14.205349 0.000000
-16.536531 -10.753889 64.450734 0.000000 61.000000 14.470420 17.000000
-15.550122 -11.268384 69.254462 0.000000 62.000000 14.492526 26.000000
-18.960742 -10.188162 68.522313 0.000000 48.000000 14.215513 0.000000
-18.395781 -10.293651 70.213925 0.000000 25.000000 14.102588 0.000000
-17.748000 -10.414073 67.026385 0.000000 39.000000 14.257325 0.000000
-18.266616 -10.283240 69.575092 0.000000 40.000000 14.100064 0.000000
-14.751194 -11.129158 66.787302 0.000000 34.000000 14.321536 0.000000
-15.214540 -11.248511 66.004572 0.000000 66.000000 14.581272 22.000000
-16.676615 -11.155623 69.434756 0.000000 43.000000 14.615488 16.000000
-16.737758 -10.948732 66.646837 0.000000 57.000000 14.581801 30.000000
-16.190079 -11.373802 69.380680 0.000000 67.000000 14.726281 23.000000
-20.719156 -10.154638 69.695392 0.000000 50.000000 14.496849 13.000000
-15.303807 -11.331657 66.082460 0.000000 64.000000 14.677254 22.000000
-16.162426 -11.335956 65.703970 0.000000 67.000000 14.887608 11.000000
-18.777161 -10.236666 68.508551 0.000000 50.000000 14.223977 0.000000
-16.804235 -11.135541 70.318246 0.000000 65.000000 14.574364 16.000000
-18.897578 -10.197661 68.267631 0.000000 57.000000 14.225296 0.000000
-16.625589 -11.179698 67.363766 0.000000 49.000000 14.742967 19.000000
-19.018654 -10.165730 68.032963 0.000000 63.000000 14.233307 0.000000
-20.075551 -9.781277 66.133039 0.000000 45.000000 14.191915 0.000000
-16.185842 -11.045315 66.531464 0.000000 47.000000 14.563358 11.000000
-20.197952 -9.796040 65.906731 0.000000 50.000000 14.245269 0.000000
-19.276431 -10.085652 67.543529 0.000000 51.000000 14.238004 0.000000
-16.600112 -10.778910 65.265715 0.000000 60.000000 14.463262 17.000000
-19.464058 -10.070180 65.666009 0.000000 56.000000 14.367646 5.000000
-15.157653 -11.299477 68.046672 0.000000 69.000000 14.505285 20.000000
-15.128034 -11.157267 64.289943 0.000000 55.000000 14.568887 7.000000
-19.895624 -9.749407 66.394328 0.000000 39.000000 14.107537 0.000000
-15.825567 -11.298235 68.450183 0.000000 68.000000 14.625687 24.000000
-15.489236 -10.940604 70.213468 0.000000 32.000000 14.106588 0.000000
-16.038100 -11.275575 66.142155 0.000000 68.000000 14.777599 11.000000
-16.864112 -10.906263 68.012059 0.000000 47.000000 14.491827 19.000000
-18.893231 -10.023338 64.875871 0.000000 44.000000 14.242772 0.000000
-16.567597 -11.065777 65.452241 0.000000 85.000000 14.725558 18.000000
-18.832050 -10.076229 65.452767 0.000000 46.000000 14.249105 0.000000
-18.684447 -10.164111 66.557899 0.000000 50.000000 14.241581 0.000000
-16.625765 -10.705073 65.181179 0.000000 51.000000 14.401506 17.000000
-16.744611 -10.887245 67.149835 0.000000 56.000000 14.495402 19.000000
-18.569847 -10.162574 67.299833 0.000000 36.000000 14.174169 0.000000
-18.531526 -10.150761 67.529799 0.000000 42.000000 14.141618 0.000000
-18.233656 -10.415305 64.677223 0.000000 41.000000 14.493708 29.000000
-18.413354 -10.256794 68.088078 0.000000 40.000000 14.188504 0.000000
-19.408316 -10.013499 66.584728 0.000000 59.000000 14.249348 0.000000
-18.352635 -10.306776 68.358859 0.000000 38.000000 14.209100 0.000000
-19.338663 -10.045352 66.864033 0.000000 58.000000 14.249870 0.000000
-20.193256 -10.604994 65.339227 0.000000 6.000000 15.064417 5.000000
-16.128323 -10.971562 70.143714 0.000000 40.000000 14.278448 27.000000
-18.277241 -10.214447 68.746064 0.000000 31.000000 14.081329 0.000000
-16.118688 -11.449164 69.725715 0.000000 67.000000 14.765196 23.000000
-19.124945 -10.125624 67.670518 0.000000 53.000000 14.237255 0.000000
-18.138928 -10.338409 69.281153 0.000000 33.000000 14.142638 0.000000
-17.576357 -10.590263 69.511732 0.000000 42.000000 14.254057 10.000000
-15.400393 -11.491494 66.523712 0.000000 72.000000 14.829400 22.000000
-18.479870 -10.150919 68.466968 0.000000 31.000000 14.078588 0.000000
-15.203120 -11.405931 68.157825 0.000000 63.000000 14.612698 20.000000
-16.732266 -11.095118 65.645534 0.000000 39.000000 14.778936 18.000000
-16.777374 -10.939671 64.851178 0.000000 62.000000 14.681232 17.000000
-18.591736 -10.285078 69.386690 0.000000 55.000000 14.182424 0.000000
-15.935673 -10.985931 65.153810 0.000000 74.000000 14.528028 11.000000
-16.596937 -11.147471 69.519322 0.000000 54.000000 14.585663 16.000000
-18.351585 -10.326523 70.053651 0.000000 61.000000 14.134005 0.000000
-18.275332 -10.321079 70.254886 0.000000 43.000000 14.101080 0.000000
-18.375487 -10.297372 70.230694 0.000000 45.000000 14.100908 0.000000
-18.497505 -10.308397 70.057352 0.000000 67.000000 14.147593 0.000000
-18.620291 -10.316083 69.881898 0.000000 65.000000 14.191306 0.000000
-18.752966 -10.303108 69.693196 0.000000 59.000000 14.217745 0.000000
-15.856065 -11.268239 67.853298 0.000000 64.000000 14.636168 24.000000
-20.499282 -10.141353 70.000765 0.000000 58.000000 14.419527 13.000000
-18.669321 -10.158035 68.016163 0.000000 22.000000 14.151411 0.000000
-14.958961 -11.181311 67.276557 0.000000 57.000000 14.390010 21.000000
-18.682181 -10.339489 70.035274 0.000000 48.000000 14.218953 0.000000
-20.127873 -10.266675 68.830931 0.000000 50.000000 14.526582 15.000000
-20.050699 -10.465064 68.623250 0.000000 37.000000 14.714884 15.000000
-20.211729 -9.857076 67.705852 0.000000 61.000000 14.207829 0.000000
-16.253387 -11.470267 69.230282 0.000000 60.000000 14.842328 23.000000
-20.585981 -9.736951 67.238513 0.000000 44.000000 14.197373 0.000000
-17.198909 -10.514424 66.250239 0.000000 35.000000 14.279859 0.000000
-15.155938 -11.411690 68.182167 0.000000 63.000000 14.606786 20.000000
-20.588738 -9.769980 67.792942 0.000000 54.000000 14.199378 0.000000
-20.243862 -10.525620 64.429854 0.000000 59.000000 15.048450 3.000000
-20.173134 -9.805360 66.643741 0.000000 47.000000 14.208073 0.000000
-20.049628 -9.859606 66.927398 0.000000 49.000000 14.218573 0.000000
-19.959095 -9.813860 67.123581 0.000000 41.000000 14.143559 0.000000
-17.846732 -10.710429 69.345168 0.000000 37.000000 14.438758 10.000000
-19.692476 -9.973585 67.707429 0.000000 43.000000 14.209359 0.000000
-19.571953 -10.009883 67.959362 0.000000 53.000000 14.204767 0.000000
-17.471552 -11.016342 69.243797 0.000000 55.000000 14.661721 10.000000
-16.913773 -11.689149 70.002880 0.000000 2.000000 15.155207 16.000000
-20.097743 -10.274977 64.640992 0.000000 53.000000 14.760866 3.000000
-20.334190 -9.803996 66.956456 0.000000 65.000000 14.224105 0.000000
