-48.943353 36.358240 3.941152 0.000000 43.000000 14.177444 0.000000
-49.742758 36.696568 4.131515 0.000000 36.000000 14.104994 0.000000
-49.273375 36.724797 3.810094 0.000000 62.000000 14.224656 0.000000
-47.870581 37.547747 2.489516 0.000000 70.000000 14.560460 27.000000
-46.931843 34.676430 4.110564 0.000000 48.000000 14.178123 0.000000
-46.263091 35.303898 3.307936 0.000000 59.000000 14.380733 18.000000
-48.200998 38.184192 2.456305 0.000000 65.000000 14.405723 27.000000
-45.829145 34.585357 3.737937 0.000000 51.000000 14.205171 0.000000
-45.940835 35.309752 3.035904 0.000000 56.000000 14.512322 30.000000
-50.367724 36.837449 4.117491 0.000000 61.000000 14.240779 0.000000
-46.477768 34.801346 3.900936 0.000000 53.000000 14.165023 0.000000
-48.570161 39.051463 1.837395 0.000000 79.000000 14.656100 22.000000
-46.921967 34.933209 4.015234 0.000000 49.000000 14.142363 0.000000
-48.409647 36.173676 3.865018 0.000000 29.000000 14.164438 0.000000
-48.818698 37.861255 2.783753 0.000000 70.000000 14.455389 21.000000
-47.553819 35.848798 3.691879 0.000000 63.000000 14.199562 0.000000
-48.069655 35.241415 4.337776 0.000000 46.000000 14.075137 0.000000
-45.909234 36.279704 2.352366 0.000000 61.000000 14.652616 30.000000
-50.279365 35.417767 5.037941 0.000000 29.000000 14.063040 0.000000
-46.997527 33.955083 4.533744 0.000000 34.000000 14.158413 0.000000
-46.836286 36.556880 3.094396 0.000000 27.000000 14.178433 0.000000
-48.316638 36.262509 3.786477 0.000000 42.000000 14.163928 0.000000
-48.710612 35.270745 4.454367 0.000000 47.000000 14.154466 0.000000
-51.660590 35.783018 5.183311 0.000000 42.000000 14.190087 0.000000
-45.918333 35.223687 3.027106 0.000000 62.000000 14.551098 30.000000
-46.567548 33.812668 4.327619 0.000000 71.000000 14.267670 17.000000
-50.070972 37.746156 3.639001 0.000000 38.000000 14.155652 0.000000
-50.391569 36.713754 4.219609 0.000000 51.000000 14.216141 0.000000
-46.907306 36.780033 2.574792 0.000000 74.000000 14.540625 28.000000
-45.924279 35.398244 3.168329 0.000000 44.000000 14.356232 30.000000
-46.611998 36.811409 2.264169 0.000000 70.000000 14.701616 24.000000
-51.181274 36.498947 4.542802 0.000000 34.000000 14.272861 0.000000
-49.362894 38.175997 2.730010 0.000000 73.000000 14.523883 21.000000
-46.898004 35.855137 3.014618 0.000000 80.000000 14.574448 18.000000
-48.578907 32.133333 5.634395 0.000000 65.000000 14.503304 11.000000
-48.903726 34.146492 5.140387 0.000000 34.000000 14.128377 0.000000
-49.414931 37.377566 3.601604 0.000000 42.000000 14.154754 0.000000
-51.111123 35.548529 5.204432 0.000000 41.000000 14.112159 0.000000
-46.957041 36.560651 2.318345 0.000000 57.000000 14.869384 28.000000
-49.766189 34.159078 5.444475 0.000000 34.000000 14.122443 0.000000
-46.859736 37.208136 2.394194 0.000000 53.000000 14.490070 24.000000
-50.095596 38.213514 3.412668 0.000000 43.000000 14.147954 0.000000
-45.353368 34.972974 3.373369 0.000000 26.000000 14.200609 0.000000
-47.928598 33.289387 5.288449 0.000000 21.000000 14.091391 0.000000
-50.594405 34.070273 5.725931 0.000000 57.000000 14.170265 0.000000
-49.446746 38.618189 2.845069 0.000000 75.000000 14.256086 21.000000
-51.189753 34.914356 5.256204 0.000000 73.000000 14.372041 14.000000
-51.511098 37.204507 4.557819 0.000000 32.000000 14.046597 0.000000
-49.853019 37.089667 3.939293 0.000000 43.000000 14.126762 0.000000
-49.563697 36.810204 3.887841 0.000000 46.000000 14.207614 0.000000
-50.680258 37.937405 3.894134 0.000000 41.000000 14.036761 0.000000
-49.693616 35.519043 4.652145 0.000000 48.000000 14.170224 0.000000
-47.587107 34.404188 4.458070 0.000000 45.000000 14.199603 0.000000
-48.203201 36.515968 3.607894 0.000000 48.000000 14.169229 0.000000
-49.202819 35.418416 4.540810 0.000000 32.000000 14.162690 0.000000
-48.411394 35.977156 3.932695 0.000000 57.000000 14.194545 0.000000
-46.448433 35.939440 3.015525 0.000000 52.000000 14.402496 30.000000
-45.639116 34.395578 4.006628 0.000000 23.000000 14.005082 0.000000
-48.169820 38.736991 2.382376 0.000000 55.000000 14.214688 0.000000
-49.275352 36.830736 3.779623 0.000000 56.000000 14.204209 0.000000
-48.207266 38.565337 2.306161 0.000000 56.000000 14.366192 27.000000
-46.723934 36.404597 2.706199 0.000000 64.000000 14.540730 28.000000
-45.932875 35.153170 3.403716 0.000000 50.000000 14.267931 0.000000
-46.793859 37.207919 2.857201 0.000000 40.000000 14.078775 0.000000
-50.864606 35.585233 4.956401 0.000000 35.000000 14.232368 0.000000
-46.913821 35.102545 3.855021 0.000000 43.000000 14.200663 0.000000
-44.584832 34.976871 2.944955 0.000000 38.000000 14.332436 26.000000
-45.964256 35.034147 3.608818 0.000000 40.000000 14.156336 0.000000
-45.691262 35.659374 2.614142 0.000000 77.000000 14.640331 30.000000
-47.833477 32.321509 5.312507 0.000000 53.000000 14.470439 10.000000
-45.999500 34.881022 3.749632 0.000000 56.000000 14.115358 0.000000
-47.997641 38.078225 2.278908 0.000000 68.000000 14.542076 27.000000
-48.394045 38.045150 2.491508 0.000000 65.000000 14.494894 27.000000
-50.256856 34.003699 5.352133 0.000000 59.000000 14.415415 14.000000
-45.167497 34.581324 3.514661 0.000000 40.000000 14.198769 0.000000
-47.911102 32.642024 5.419802 0.000000 44.000000 14.261130 10.000000
-48.906062 36.127988 3.903629 0.000000 56.000000 14.299842 0.000000
-47.994378 32.363540 5.562109 0.000000 43.000000 14.288600 10.000000
-49.345541 36.856109 3.763365 0.000000 51.000000 14.227662 0.000000
-46.521547 35.600432 3.014238 0.000000 73.000000 14.575186 18.000000
-50.041747 38.255240 3.339060 0.000000 57.000000 14.175754 0.000000
-47.731548 37.619889 2.911446 0.000000 52.000000 14.130149 0.000000
-47.613616 38.104439 1.966370 0.000000 86.000000 14.680540 23.000000
-47.553502 33.543255 4.944427 0.000000 42.000000 14.158546 0.000000
-46.678930 33.594292 4.658517 0.000000 40.000000 14.117374 0.000000
-45.967207 36.012617 2.615532 0.000000 68.000000 14.565248 30.000000
-49.483087 38.658121 3.115490 0.000000 35.000000 14.020451 0.000000
-48.653365 37.625562 3.398331 0.000000 32.000000 13.990281 0.000000
-50.107966 35.820973 4.657564 0.000000 32.000000 14.155639 0.000000
-50.067192 36.572653 4.203092 0.000000 42.000000 14.195843 0.000000
-49.948138 37.790327 3.570435 0.000000 58.000000 14.157555 0.000000
-48.342172 33.357406 5.408244 0.000000 42.000000 14.083172 0.000000
-46.777047 36.734774 2.513298 0.000000 61.000000 14.573856 28.000000
-46.929027 35.464437 3.511198 0.000000 53.000000 14.336180 0.000000
-49.017775 38.688692 2.791277 0.000000 47.000000 14.142653 0.000000
-51.606112 36.338043 4.727089 0.000000 48.000000 14.314598 8.000000
-49.091319 36.590311 3.806139 0.000000 42.000000 14.233202 0.000000
-50.455308 36.367288 4.487681 0.000000 42.000000 14.161420 0.000000
-46.965633 33.178263 4.768763 0.000000 31.000000 14.293359 0.000000
-51.202921 35.004509 5.520416 0.000000 41.000000 14.112562 0.000000
-47.338854 33.532746 4.881870 0.000000 23.000000 14.152177 0.000000
-49.213859 38.125667 3.334370 0.000000 26.000000 13.990357 0.000000
-50.541311 34.879604 5.331194 0.000000 28.000000 14.130776 0.000000
-50.269269 34.737583 5.284265 0.000000 35.000000 14.152208 0.000000
-49.659265 38.041075 3.070345 0.000000 49.000000 14.383829 15.000000
-46.794572 33.697865 4.639982 0.000000 44.000000 14.121734 0.000000
-47.204129 36.957644 2.442488 0.000000 70.000000 14.662504 28.000000
-48.544434 39.304826 2.228240 0.000000 54.000000 14.205757 0.000000
-48.314191 37.928954 2.930178 0.000000 41.000000 14.151282 0.000000
-46.906170 36.606258 3.141002 0.000000 39.000000 14.137994 0.000000
-50.293336 35.241407 4.959885 0.000000 42.000000 14.211188 0.000000
-46.730251 33.764437 4.572850 0.000000 31.000000 14.129956 0.000000
-45.956689 35.798708 2.567910 0.000000 74.000000 14.696943 30.000000
-51.150994 34.933139 5.247193 0.000000 66.000000 14.359818 14.000000
-49.570641 35.022672 4.919234 0.000000 53.000000 14.126961 0.000000
-47.404525 36.636319 3.042602 0.000000 81.000000 14.356429 19.000000
-49.781515 37.687527 3.570085 0.000000 46.000000 14.153645 0.000000
-47.411209 37.125736 2.458065 0.000000 61.000000 14.636727 28.000000
-48.745521 37.359210 3.510067 0.000000 35.000000 14.040901 0.000000
-49.198289 33.343929 5.645431 0.000000 45.000000 14.143473 0.000000
-47.413766 33.576519 4.875335 0.000000 39.000000 14.160679 0.000000
-48.583770 34.656649 4.757083 0.000000 38.000000 14.131932 0.000000
-48.086309 37.782422 2.239294 0.000000 73.000000 14.732735 27.000000
-51.731054 36.364874 4.992074 0.000000 31.000000 14.115747 0.000000
-50.003441 38.074185 3.139033 0.000000 74.000000 14.413607 15.000000
-46.143583 36.089135 2.352763 0.000000 62.000000 14.806313 30.000000
-49.491090 32.903832 5.868320 0.000000 40.000000 14.236599 0.000000
-47.648241 34.343305 4.583718 0.000000 43.000000 14.138406 0.000000
-47.007723 36.134693 3.169331 0.000000 69.000000 14.352679 18.000000
-47.222373 34.251637 4.528040 0.000000 38.000000 14.099162 0.000000
-46.987923 34.155752 4.457528 0.000000 49.000000 14.131357 0.000000
-46.161462 34.635278 3.972858 0.000000 29.000000 14.083331 0.000000
-45.917534 33.848125 4.195423 0.000000 42.000000 14.170216 0.000000
-46.248642 33.676646 4.259629 0.000000 52.000000 14.290309 17.000000
-48.798932 37.861011 3.347224 0.000000 28.000000 13.972835 0.000000
-46.656459 33.847728 4.385230 0.000000 51.000000 14.229915 17.000000
-48.822155 37.793291 2.620312 0.000000 42.000000 14.624748 21.000000
-48.507359 39.405282 2.274060 0.000000 49.000000 14.111547 0.000000
-50.580043 37.203601 4.079771 0.000000 53.000000 14.174129 0.000000
-45.786864 34.673150 3.536307 0.000000 66.000000 14.324382 4.000000
-48.548360 38.107490 2.460347 0.000000 73.000000 14.539681 27.000000
-50.145661 34.581894 5.136425 0.000000 55.000000 14.309282 0.000000
-46.863119 35.487171 3.813823 0.000000 37.000000 14.050437 0.000000
-45.062830 35.491087 3.191347 0.000000 37.000000 14.039099 0.000000
-45.908126 35.275018 3.454109 0.000000 49.000000 14.164070 0.000000
-46.309203 34.764463 3.919284 0.000000 47.000000 14.115582 0.000000
-48.422487 37.399695 3.454630 0.000000 33.000000 13.973685 0.000000
-47.102584 36.702718 3.153847 0.000000 38.000000 14.143008 0.000000
-46.725356 34.024410 4.300899 0.000000 36.000000 14.243713 0.000000
-49.691496 37.588380 3.505977 0.000000 51.000000 14.224890 0.000000
-50.354592 37.334249 4.010643 0.000000 44.000000 14.107720 0.000000
-48.174716 35.666857 4.021179 0.000000 46.000000 14.186301 0.000000
-46.083771 36.750099 2.861964 0.000000 32.000000 14.065537 0.000000
-46.405847 35.708509 3.196523 0.000000 64.000000 14.338718 18.000000
-45.706864 34.778986 3.436781 0.000000 46.000000 14.337990 4.000000
-50.330577 37.486583 3.921712 0.000000 51.000000 14.108491 0.000000
-48.805849 38.433276 2.858740 0.000000 39.000000 14.135315 0.000000
-49.723129 38.100249 2.986626 0.000000 74.000000 14.447541 15.000000
-48.281913 33.411775 5.369147 0.000000 36.000000 14.074275 0.000000
-52.064093 36.660839 4.944747 0.000000 38.000000 14.124207 0.000000
-48.143295 34.377903 4.722788 0.000000 41.000000 14.152920 0.000000
-49.233769 38.355001 2.554271 0.000000 79.000000 14.555007 21.000000
-50.787588 35.420307 4.935218 0.000000 50.000000 14.300235 6.000000
-47.138919 35.000433 4.052875 0.000000 45.000000 14.145434 0.000000
-48.224613 32.873098 5.393401 0.000000 53.000000 14.274744 10.000000
-48.933733 35.861614 4.253770 0.000000 49.000000 14.129539 0.000000
-47.693489 36.758503 2.963714 0.000000 66.000000 14.455264 20.000000
-50.720978 37.657492 4.070515 0.000000 43.000000 14.023353 0.000000
-48.011193 35.208783 4.218642 0.000000 42.000000 14.172947 0.000000
-47.853732 35.835937 3.859080 0.000000 41.000000 14.153114 0.000000
-47.885367 36.823310 2.702985 0.000000 63.000000 14.704396 20.000000
-47.201977 36.828798 3.112656 0.000000 43.000000 14.151751 0.000000
-49.172714 38.443761 2.701386 0.000000 68.000000 14.373113 21.000000
-45.974364 34.699097 3.813709 0.000000 41.000000 14.134052 0.000000
-48.062800 38.412301 2.020498 0.000000 85.000000 14.632497 23.000000
-50.382536 36.831138 4.194136 0.000000 45.000000 14.183128 0.000000
-46.027141 35.911353 2.556073 0.000000 59.000000 14.678165 30.000000
-49.815340 33.254782 5.778573 0.000000 37.000000 14.254034 13.000000
-46.815821 35.614979 3.118678 0.000000 76.000000 14.568051 18.000000
-48.856120 37.764561 2.955300 0.000000 64.000000 14.364117 21.000000
-48.831896 38.453912 2.360698 0.000000 67.000000 14.555366 27.000000
-51.211379 37.064041 4.413443 0.000000 44.000000 14.141548 0.000000
-50.067652 37.142881 3.989095 0.000000 47.000000 14.125045 0.000000
-48.767635 34.586102 4.858471 0.000000 43.000000 14.132094 0.000000
-50.211245 35.806820 4.872774 0.000000 34.000000 14.010563 0.000000
-48.751769 38.511171 2.199678 0.000000 67.000000 14.642436 27.000000
-45.832016 34.601805 3.666523 0.000000 65.000000 14.259182 4.000000
-46.547176 36.460349 2.477621 0.000000 60.000000 14.656843 28.000000
-48.402343 34.936384 4.462450 0.000000 22.000000 14.203559 0.000000
-48.539864 39.060945 1.961315 0.000000 65.000000 14.538032 22.000000
-51.551449 35.796811 5.167510 0.000000 37.000000 14.164848 0.000000
-49.758834 38.510396 3.235513 0.000000 30.000000 14.066326 0.000000
-48.817872 37.854016 2.656956 0.000000 66.000000 14.565629 21.000000
-49.241691 37.944731 3.215643 0.000000 43.000000 14.179069 0.000000
-49.100640 37.901144 3.341064 0.000000 42.000000 14.050190 0.000000
-48.342710 38.268400 2.348515 0.000000 70.000000 14.501930 27.000000
-48.780655 32.846419 5.760350 0.000000 38.000000 14.141691 0.000000
-48.484470 37.394574 3.471404 0.000000 25.000000 13.980219 0.000000
-49.864875 38.559698 3.215121 0.000000 44.000000 14.093381 0.000000
-47.901256 37.637642 2.925339 0.000000 49.000000 14.161104 0.000000
-49.850559 37.121279 3.826477 0.000000 56.000000 14.207517 0.000000
-48.042940 36.996349 3.499966 0.000000 34.000000 14.000510 0.000000
-49.333701 38.056089 3.206849 0.000000 29.000000 14.164708 0.000000
-46.199075 36.474035 2.674570 0.000000 68.000000 14.380449 30.000000
-49.537255 38.755644 3.062390 0.000000 36.000000 14.038419 0.000000
-49.970212 38.240171 3.349087 0.000000 53.000000 14.152618 0.000000
-48.956632 37.866765 3.367512 0.000000 26.000000 14.000104 0.000000
-47.552519 36.194210 2.871369 0.000000 77.000000 14.740787 19.000000
-48.451681 38.155162 2.291745 0.000000 75.000000 14.632472 27.000000
-47.989112 37.659381 2.216406 0.000000 72.000000 14.777523 27.000000
-48.207234 37.204712 3.346610 0.000000 38.000000 14.087131 0.000000
-46.758919 34.258414 4.168565 0.000000 42.000000 14.262269 0.000000
-48.234317 35.268748 4.080770 0.000000 34.000000 14.329573 0.000000
-49.217306 33.916754 5.024062 0.000000 65.000000 14.421749 9.000000
-50.658293 36.471042 4.492142 0.000000 62.000000 14.172262 0.000000
-47.010727 35.227098 3.856569 0.000000 49.000000 14.173176 0.000000
-45.994710 35.527992 3.328766 0.000000 42.000000 14.184122 0.000000
-47.319661 33.547872 4.676728 0.000000 35.000000 14.313354 0.000000
-48.972235 38.567758 2.020627 0.000000 72.000000 14.834607 27.000000
-46.270033 35.043457 3.221227 0.000000 73.000000 14.571267 18.000000
-49.704041 37.876363 3.195953 0.000000 60.000000 14.363679 15.000000
-48.008356 37.942447 2.330890 0.000000 67.000000 14.561290 27.000000
-46.192265 34.510474 3.915423 0.000000 50.000000 14.196260 0.000000
-48.470240 36.740556 3.592689 0.000000 46.000000 14.162391 0.000000
-49.143288 36.502710 3.786904 0.000000 52.000000 14.303673 0.000000
-48.292501 37.031192 2.755268 0.000000 77.000000 14.689572 20.000000
-48.885803 37.862203 2.751881 0.000000 80.000000 14.501929 21.000000
-46.197898 36.685638 2.944777 0.000000 47.000000 14.057952 0.000000
-46.401169 34.871002 3.868411 0.000000 30.000000 14.138941 0.000000
-49.724021 37.882275 2.998191 0.000000 54.000000 14.534352 15.000000
-49.868040 36.985159 3.983227 0.000000 58.000000 14.140250 0.000000
-49.105480 39.098231 2.587755 0.000000 53.000000 14.159997 0.000000
-46.467897 35.300508 3.191950 0.000000 67.000000 14.541383 18.000000
-47.408981 32.972272 5.158563 0.000000 44.000000 14.186643 0.000000
-47.532739 35.502234 3.857261 0.000000 56.000000 14.206506 0.000000
-48.233220 37.893320 2.688402 0.000000 58.000000 14.347484 27.000000
-47.801539 33.249122 5.150039 0.000000 38.000000 14.188448 0.000000
-51.315225 36.473350 4.876435 0.000000 40.000000 14.041778 0.000000
-49.260202 38.418942 2.716502 0.000000 76.000000 14.397355 21.000000
-52.062190 36.668251 4.610420 0.000000 56.000000 14.403250 7.000000
-50.373803 38.044602 3.626441 0.000000 29.000000 14.124599 0.000000
-47.612963 33.834613 4.780651 0.000000 37.000000 14.186074 0.000000
-49.969727 34.423703 5.339540 0.000000 43.000000 14.154919 0.000000
-49.154996 38.767054 2.766421 0.000000 46.000000 14.169932 0.000000
-48.917024 37.702759 3.427358 0.000000 42.000000 14.010148 0.000000
-47.818028 37.458290 2.480331 0.000000 73.000000 14.592111 27.000000
-48.940572 33.122013 5.652803 0.000000 39.000000 14.158535 0.000000
-46.936095 37.178974 2.608442 0.000000 68.000000 14.344422 28.000000
-49.655801 38.026512 3.109951 0.000000 52.000000 14.355721 15.000000
-47.327971 37.432114 2.605768 0.000000 58.000000 14.351553 28.000000
-48.900525 37.767651 3.082196 0.000000 60.000000 14.268608 0.000000
-48.237086 38.362572 2.299346 0.000000 66.000000 14.470450 27.000000
-46.392698 35.608941 3.092933 0.000000 66.000000 14.466455 18.000000
-50.441849 36.184774 4.620117 0.000000 38.000000 14.126011 0.000000
-47.968316 34.512408 4.561033 0.000000 34.000000 14.178218 0.000000
-49.918741 35.854642 4.570912 0.000000 45.000000 14.157709 0.000000
-51.429252 37.161448 4.498773 0.000000 40.000000 14.091204 0.000000
-50.608696 36.696036 4.379045 0.000000 46.000000 14.153749 0.000000
-51.106115 36.933190 4.434388 0.000000 43.000000 14.150296 0.000000
-49.530043 35.315249 4.697141 0.000000 36.000000 14.173487 0.000000
-52.221911 36.074352 4.956135 0.000000 64.000000 14.420775 12.000000
-47.254665 37.750663 2.440385 0.000000 48.000000 14.328874 24.000000
-50.584531 36.673926 4.430967 0.000000 42.000000 14.112388 0.000000
-51.780350 35.403727 5.078076 0.000000 44.000000 14.482430 12.000000
-47.034781 35.796127 3.069430 0.000000 60.000000 14.594894 18.000000
-48.142474 36.986338 3.108248 0.000000 62.000000 14.366033 20.000000
-51.202899 34.827162 5.419157 0.000000 54.000000 14.276611 14.000000
-48.487470 35.095075 4.496416 0.000000 43.000000 14.130047 0.000000
-50.561663 36.416532 4.448790 0.000000 38.000000 14.204248 0.000000
-46.113400 34.818628 3.678031 0.000000 57.000000 14.237448 0.000000
-49.700322 36.161114 4.311864 0.000000 60.000000 14.176390 0.000000
-50.994704 37.152909 4.310142 0.000000 39.000000 14.125134 0.000000
-48.779022 35.750712 4.272833 0.000000 39.000000 14.116332 0.000000
-48.295239 31.950246 5.846253 0.000000 54.000000 14.320452 0.000000
-48.259184 35.452167 4.167001 0.000000 54.000000 14.182958 0.000000
-48.368370 35.722556 4.047200 0.000000 53.000000 14.197358 0.000000
-46.247281 33.997305 4.205177 0.000000 42.000000 14.194266 0.000000
-47.347771 35.081199 4.076728 0.000000 44.000000 14.151776 0.000000
-48.002542 36.605893 3.575586 0.000000 41.000000 14.097048 0.000000
-44.938385 34.544155 2.753801 0.000000 85.000000 14.790735 25.000000
-49.102907 35.431222 3.984448 0.000000 69.000000 14.598025 1.000000
-46.901508 34.903350 4.015912 0.000000 47.000000 14.148890 0.000000
-48.440042 38.112183 2.349480 0.000000 69.000000 14.599147 27.000000
-46.446637 34.684301 3.912717 0.000000 65.000000 14.197506 0.000000
-45.597091 35.440912 2.659530 0.000000 68.000000 14.670420 30.000000
-49.122444 37.432636 3.145454 0.000000 66.000000 14.429249 16.000000
-45.892407 34.646041 3.952273 0.000000 40.000000 14.015841 0.000000
-48.335900 37.083094 3.136945 0.000000 64.000000 14.356612 20.000000
-49.293695 36.588063 3.817712 0.000000 59.000000 14.284691 0.000000
-47.570819 32.716093 5.417322 0.000000 36.000000 14.129125 0.000000
-47.721455 32.652829 5.510413 0.000000 40.000000 14.123190 0.000000
-47.235999 37.537098 2.162388 0.000000 77.000000 14.652919 24.000000
-45.919122 34.494195 4.005431 0.000000 38.000000 14.045926 0.000000
-44.898649 35.029640 2.976859 0.000000 34.000000 14.375606 25.000000
-48.341288 35.023003 4.467273 0.000000 48.000000 14.143010 0.000000
-46.161092 34.647415 3.973155 0.000000 23.000000 14.077605 0.000000
-50.217824 37.874763 3.619208 0.000000 43.000000 14.159311 0.000000
-49.085745 33.708739 5.251919 0.000000 56.000000 14.281688 9.000000
-45.530308 35.129459 2.642710 0.000000 71.000000 14.802399 30.000000
-48.376198 36.834606 3.528554 0.000000 53.000000 14.147078 0.000000
-50.276667 37.227264 4.020860 0.000000 50.000000 14.123142 0.000000
-50.030692 34.305512 5.469405 0.000000 38.000000 14.115430 0.000000
-48.555099 33.140845 5.502811 0.000000 48.000000 14.162293 0.000000
-48.131487 34.310270 4.754192 0.000000 43.000000 14.152720 0.000000
-48.259410 32.953994 5.391338 0.000000 55.000000 14.251105 10.000000
-48.791006 38.378571 2.285219 0.000000 68.000000 14.640345 27.000000
-47.907182 33.023871 5.377986 0.000000 37.000000 14.126592 0.000000
-49.055319 34.067289 5.244790 0.000000 45.000000 14.120200 0.000000
-47.700302 32.997866 5.343886 0.000000 40.000000 14.105308 0.000000
-45.857217 35.226303 3.156482 0.000000 75.000000 14.422266 30.000000
-49.059990 38.898682 2.743933 0.000000 46.000000 14.102486 0.000000
-48.893465 37.701217 2.909810 0.000000 71.000000 14.441728 21.000000
-48.438280 38.914981 2.024305 0.000000 71.000000 14.518978 22.000000
-48.357082 37.120730 2.790218 0.000000 70.000000 14.639668 20.000000
-49.244019 38.298697 2.536766 0.000000 80.000000 14.597755 21.000000
-49.405294 37.744289 3.301195 0.000000 48.000000 14.244001 15.000000
-47.424561 36.094443 3.369033 0.000000 57.000000 14.325668 0.000000
-48.060944 37.836360 2.922934 0.000000 46.000000 14.122890 0.000000
-48.605119 37.388492 3.506287 0.000000 36.000000 13.989333 0.000000
-48.777647 36.884385 3.639084 0.000000 48.000000 14.151148 0.000000
-47.272463 35.106126 3.980532 0.000000 47.000000 14.199720 0.000000
-47.556072 38.206375 2.703801 0.000000 39.000000 13.994381 0.000000
-49.108810 35.991894 4.106437 0.000000 51.000000 14.248783 0.000000
-49.347913 33.782195 5.309849 0.000000 37.000000 14.278309 9.000000
-46.045737 36.370170 2.415759 0.000000 76.000000 14.599662 30.000000
-45.086809 35.507449 3.067267 0.000000 43.000000 14.144000 0.000000
-46.738278 37.039541 2.187182 0.000000 73.000000 14.703557 24.000000
-47.588878 38.103545 2.062285 0.000000 78.000000 14.592408 23.000000
-48.679715 38.020565 2.693201 0.000000 65.000000 14.420200 21.000000
-48.462912 37.450201 3.339884 0.000000 27.000000 14.060497 0.000000
-50.047220 38.252053 3.296982 0.000000 40.000000 14.214396 0.000000
-48.756120 37.660304 3.423491 0.000000 25.000000 13.984249 0.000000
-47.461400 36.264424 3.676373 0.000000 37.000000 14.001470 0.000000
-50.274943 37.153709 4.061727 0.000000 44.000000 14.120556 0.000000
-47.975920 37.642255 2.986892 0.000000 44.000000 14.129226 0.000000
-46.469351 36.499311 2.525516 0.000000 72.000000 14.575915 28.000000
-48.482683 38.602380 2.266126 0.000000 74.000000 14.465742 27.000000
-48.285694 36.421834 3.652717 0.000000 47.000000 14.197479 0.000000
-49.526052 38.544898 3.232595 0.000000 31.000000 13.984201 0.000000
-49.912502 38.300476 3.300065 0.000000 44.000000 14.150256 0.000000
-47.214318 35.438944 3.417140 0.000000 40.000000 14.512020 2.000000
-50.365199 34.768553 4.934701 0.000000 47.000000 14.462877 6.000000
-45.817897 36.145810 2.664635 0.000000 51.000000 14.420357 30.000000
-48.162837 38.545508 2.403826 0.000000 48.000000 14.279081 27.000000
-49.450382 33.724073 5.500302 0.000000 27.000000 14.173371 0.000000
-50.533063 37.220742 4.059926 0.000000 38.000000 14.169350 0.000000
-52.120233 36.599294 4.995125 0.000000 38.000000 14.125503 0.000000
-45.988946 34.005756 3.860207 0.000000 46.000000 14.405466 3.000000
-45.196225 35.645874 3.155563 0.000000 45.000000 14.040710 0.000000
-48.271090 36.732765 3.569711 0.000000 43.000000 14.125950 0.000000
-48.542277 36.370139 3.789181 0.000000 49.000000 14.181293 0.000000
-47.557055 36.289449 2.691855 0.000000 70.000000 14.851943 19.000000
-49.745751 38.548911 3.311629 0.000000 38.000000 13.981003 0.000000
-46.920336 36.572916 3.150429 0.000000 44.000000 14.148973 0.000000
-47.935633 34.760312 4.465785 0.000000 48.000000 14.139516 0.000000
-48.344345 32.802578 5.380721 0.000000 65.000000 14.352307 10.000000
-48.707116 36.757596 3.686455 0.000000 41.000000 14.146087 0.000000
-49.432624 38.447697 3.128338 0.000000 28.000000 14.087541 0.000000
-47.017608 35.447193 3.831637 0.000000 42.000000 14.099054 0.000000
-49.561647 35.112354 4.733166 0.000000 41.000000 14.242086 0.000000
-46.271097 34.292686 4.099226 0.000000 42.000000 14.160471 0.000000
-47.633034 35.498978 3.912824 0.000000 45.000000 14.190809 0.000000
-48.932869 38.899614 2.303247 0.000000 48.000000 14.437085 27.000000
-51.734094 36.531690 4.527128 0.000000 67.000000 14.436338 7.000000
-46.202933 34.782560 3.926122 0.000000 44.000000 14.070141 0.000000
-46.911210 37.296576 2.630109 0.000000 44.000000 14.266703 24.000000
-47.790553 37.422894 3.002518 0.000000 44.000000 14.157726 0.000000
-48.642946 38.009170 2.747729 0.000000 58.000000 14.368144 21.000000
-49.932609 33.452883 5.964809 0.000000 34.000000 14.043839 0.000000
-50.811045 35.433471 4.974629 0.000000 67.000000 14.268058 6.000000
-48.032807 37.541681 3.060758 0.000000 24.000000 14.128119 0.000000
-51.557608 35.480746 5.006540 0.000000 61.000000 14.442566 12.000000
-49.861152 38.496112 3.323416 0.000000 32.000000 14.028741 0.000000
-45.464478 35.011120 2.866188 0.000000 58.000000 14.645994 30.000000
-47.307702 35.063776 4.064024 0.000000 52.000000 14.158289 0.000000
-48.511017 39.040898 2.324670 0.000000 45.000000 14.230850 27.000000
-46.083583 34.125044 4.082678 0.000000 44.000000 14.192699 0.000000
-47.934076 33.588911 4.801623 0.000000 60.000000 14.372573 5.000000
-46.701518 36.325109 2.850134 0.000000 43.000000 14.447392 30.000000
-46.635674 35.538923 3.392781 0.000000 60.000000 14.316069 18.000000
-46.746401 34.796143 3.964034 0.000000 47.000000 14.193959 0.000000
-48.711179 36.605347 3.708016 0.000000 47.000000 14.196338 0.000000
-47.222307 37.778998 2.441477 0.000000 37.000000 14.305787 24.000000
-48.784144 39.024929 2.441104 0.000000 48.000000 14.220752 27.000000
-47.492485 36.290292 3.025145 0.000000 67.000000 14.550325 19.000000
-51.096417 34.779296 5.242936 0.000000 54.000000 14.415150 14.000000
-46.735654 33.739250 4.552691 0.000000 53.000000 14.159753 0.000000
-50.043248 34.611521 5.257862 0.000000 38.000000 14.162928 0.000000
-48.736216 38.783683 2.116383 0.000000 79.000000 14.587848 27.000000
-46.826288 34.614356 4.115851 0.000000 42.000000 14.169637 0.000000
-47.472997 35.313271 3.996388 0.000000 42.000000 14.154497 0.000000
-46.943207 34.648433 4.159722 0.000000 42.000000 14.152287 0.000000
-47.476691 38.034199 2.277413 0.000000 51.000000 14.407606 23.000000
-48.900699 38.825871 2.700667 0.000000 45.000000 14.123820 0.000000
-47.742160 36.345166 3.640594 0.000000 26.000000 14.079699 0.000000
-50.605258 37.863061 3.940421 0.000000 36.000000 14.008109 0.000000
-49.604504 34.564678 5.191872 0.000000 45.000000 14.108763 0.000000
-49.751900 34.757671 5.098732 0.000000 21.000000 14.146191 0.000000
-49.075792 36.970377 3.663977 0.000000 62.000000 14.180900 0.000000
-51.037996 37.432752 4.167870 0.000000 35.000000 14.134739 0.000000
-48.477072 36.140925 3.870233 0.000000 50.000000 14.194586 0.000000
-46.505541 36.404935 2.457584 0.000000 73.000000 14.685883 28.000000
-49.544403 37.146351 3.691834 0.000000 54.000000 14.219159 0.000000
-47.431301 37.207789 2.383094 0.000000 75.000000 14.669886 28.000000
-49.102433 37.563076 3.341448 0.000000 54.000000 14.199804 0.000000
-47.815782 35.752053 3.884900 0.000000 47.000000 14.157034 0.000000
-48.185130 35.190787 4.381150 0.000000 37.000000 14.095212 0.000000
-49.946227 38.169230 3.033862 0.000000 72.000000 14.443548 15.000000
-49.771766 36.748877 4.182383 0.000000 21.000000 14.047478 0.000000
-49.259109 33.794188 5.333828 0.000000 58.000000 14.226264 0.000000
-48.329229 36.429726 3.670366 0.000000 51.000000 14.192026 0.000000
-52.008458 35.787185 5.057819 0.000000 44.000000 14.398059 12.000000
-47.611240 36.341780 3.661018 0.000000 29.000000 14.024913 0.000000
-48.586243 39.498386 2.319913 0.000000 27.000000 14.055104 0.000000
-48.080352 34.653577 4.546615 0.000000 42.000000 14.161405 0.000000
-49.069980 34.336201 5.231654 0.000000 20.000000 14.016840 0.000000
-48.980587 37.002011 3.626206 0.000000 55.000000 14.170517 0.000000
-48.160836 34.794857 4.528609 0.000000 32.000000 14.138181 0.000000
-46.854701 35.648945 3.088353 0.000000 77.000000 14.590282 18.000000
-45.341735 34.991153 3.133350 0.000000 55.000000 14.392197 25.000000
-45.475658 34.962221 3.455335 0.000000 46.000000 14.172437 0.000000
-49.094598 34.134991 5.271890 0.000000 33.000000 14.079051 0.000000
-50.155448 37.996463 3.551706 0.000000 48.000000 14.144061 0.000000
-45.828448 34.235132 4.032223 0.000000 42.000000 14.110734 0.000000
-46.175213 34.172396 4.132735 0.000000 42.000000 14.156714 0.000000
-48.871324 38.153535 2.656206 0.000000 78.000000 14.449819 21.000000
-50.046338 36.588439 4.150877 0.000000 48.000000 14.226835 0.000000
-50.708453 37.858895 3.915094 0.000000 34.000000 14.062122 0.000000
-48.327502 31.968087 5.906359 0.000000 41.000000 14.271320 0.000000
-47.456464 34.045525 4.653229 0.000000 42.000000 14.154059 0.000000
-46.901069 36.896357 2.545174 0.000000 73.000000 14.512421 28.000000
-47.828977 34.005771 4.829081 0.000000 40.000000 14.133805 0.000000
-48.790944 34.882161 4.691768 0.000000 45.000000 14.149252 0.000000
-45.560165 34.317048 3.666598 0.000000 45.000000 14.303980 4.000000
-47.822178 34.212036 4.721217 0.000000 42.000000 14.131891 0.000000
-47.494284 32.725729 5.441387 0.000000 32.000000 14.081704 0.000000
-47.618949 32.606860 5.460531 0.000000 36.000000 14.155176 0.000000
-46.334822 33.828721 4.244133 0.000000 25.000000 14.261887 17.000000
-49.429865 33.600484 5.598225 0.000000 49.000000 14.139021 0.000000
-48.091590 32.431520 5.704974 0.000000 36.000000 14.166633 0.000000
-45.613304 34.129578 4.048375 0.000000 44.000000 14.079624 0.000000
-48.045131 36.716779 3.599734 0.000000 43.000000 14.040298 0.000000
-47.265886 36.717106 3.160160 0.000000 42.000000 14.179956 0.000000
-47.546009 33.793666 4.745005 0.000000 25.000000 14.214386 0.000000
-46.773598 36.471617 2.616088 0.000000 59.000000 14.602153 28.000000
-49.237093 37.585607 3.426526 0.000000 44.000000 14.157974 0.000000
-47.000092 36.724069 2.854067 0.000000 45.000000 14.356695 28.000000
-50.694610 35.126184 5.236263 0.000000 34.000000 14.147796 0.000000
-51.886564 36.229053 5.120271 0.000000 43.000000 14.113626 0.000000
-48.444013 31.887538 6.129442 0.000000 28.000000 14.152869 0.000000
-49.708571 34.741838 5.130308 0.000000 45.000000 14.113563 0.000000
-50.979070 35.768711 4.918392 0.000000 53.000000 14.217542 0.000000
-51.271968 34.779340 5.418245 0.000000 39.000000 14.319093 14.000000
-48.469104 38.050861 2.253259 0.000000 73.000000 14.716321 27.000000
-46.755626 37.285806 2.376664 0.000000 69.000000 14.439564 24.000000
-48.829260 32.670481 5.813109 0.000000 42.000000 14.189283 0.000000
-45.783413 34.412621 3.695441 0.000000 64.000000 14.303843 4.000000
-48.956002 33.682834 5.125434 0.000000 58.000000 14.361510 9.000000
-48.727610 34.343318 4.954457 0.000000 47.000000 14.146249 0.000000
-50.037700 35.557607 4.904517 0.000000 38.000000 14.042143 0.000000
-47.719279 36.333424 3.680271 0.000000 34.000000 14.044500 0.000000
-49.499657 38.248432 2.870553 0.000000 71.000000 14.413695 21.000000
-48.246171 34.441488 4.756104 0.000000 39.000000 14.127277 0.000000
-46.611787 35.965871 2.746327 0.000000 65.000000 14.667257 30.000000
-48.289152 35.050359 4.532891 0.000000 42.000000 14.059867 0.000000
-50.990969 36.766379 4.498794 0.000000 42.000000 14.135217 0.000000
-47.517625 36.416373 3.275895 0.000000 66.000000 14.289927 19.000000
-49.649594 36.936707 3.880679 0.000000 54.000000 14.183356 0.000000
-48.739372 35.025223 4.602012 0.000000 41.000000 14.146611 0.000000
-47.728238 38.194194 2.238260 0.000000 61.000000 14.444963 23.000000
-49.876368 37.678198 3.629511 0.000000 61.000000 14.135742 0.000000
-51.183929 34.821136 5.246598 0.000000 44.000000 14.419631 14.000000
-48.243187 34.535465 4.631645 0.000000 30.000000 14.190165 0.000000
-46.962079 33.804151 4.650810 0.000000 42.000000 14.115501 0.000000
-50.253990 36.791275 4.045541 0.000000 56.000000 14.288182 0.000000
-46.037125 35.320221 3.024092 0.000000 74.000000 14.546375 30.000000
-46.340373 34.963740 3.915047 0.000000 43.000000 14.040385 0.000000
-51.122491 35.475900 5.197283 0.000000 39.000000 14.153692 0.000000
-45.354504 34.944077 3.080255 0.000000 58.000000 14.461732 25.000000
-46.908372 37.190071 2.249400 0.000000 71.000000 14.635058 24.000000
-48.996734 35.467783 4.280850 0.000000 45.000000 14.299442 1.000000
-46.945202 36.615966 2.574303 0.000000 69.000000 14.624836 28.000000
-51.341458 35.716700 5.199723 0.000000 22.000000 14.110439 0.000000
-46.721424 36.434452 2.926979 0.000000 44.000000 14.339978 28.000000
-47.774178 36.247268 3.608119 0.000000 53.000000 14.159980 0.000000
-49.079599 39.052001 2.610814 0.000000 34.000000 14.153206 0.000000
-48.288528 32.258756 5.855339 0.000000 50.000000 14.174422 0.000000
-48.974451 37.884156 2.655699 0.000000 68.000000 14.600018 21.000000
-49.203918 33.261903 5.654414 0.000000 48.000000 14.173800 0.000000
-50.863230 35.747108 4.931189 0.000000 32.000000 14.181753 0.000000
-48.743744 33.193585 5.482495 0.000000 51.000000 14.212373 0.000000
-45.472715 35.249216 2.653802 0.000000 77.000000 14.722932 30.000000
-48.412043 33.676378 5.233444 0.000000 41.000000 14.110925 0.000000
-46.549083 36.784207 2.629240 0.000000 65.000000 14.385996 28.000000
-47.980735 33.290016 5.318619 0.000000 37.000000 14.081117 0.000000
-47.707482 33.152917 5.128903 0.000000 52.000000 14.220830 0.000000
-49.971437 36.542760 4.242742 0.000000 42.000000 14.146979 0.000000
-49.479646 35.647020 4.530536 0.000000 44.000000 14.152822 0.000000
-49.487868 37.206508 3.676197 0.000000 59.000000 14.188963 0.000000
-49.597443 37.072285 3.736837 0.000000 49.000000 14.229613 0.000000
-46.611565 33.291585 4.791856 0.000000 39.000000 14.118260 0.000000
-50.437352 34.596938 5.407832 0.000000 40.000000 14.159881 0.000000
-48.311727 37.324200 2.782430 0.000000 61.000000 14.542826 20.000000
-48.716150 37.944083 2.675083 0.000000 64.000000 14.480185 21.000000
-48.820780 38.612659 2.770833 0.000000 37.000000 14.134868 0.000000
-46.537676 36.238045 2.647842 0.000000 49.000000 14.608227 30.000000
-46.287884 35.290376 3.262859 0.000000 30.000000 14.432235 18.000000
-49.201728 37.601273 3.259287 0.000000 58.000000 14.282023 16.000000
-49.486330 37.674683 3.193390 0.000000 56.000000 14.390122 15.000000
-49.554724 38.378522 3.307329 0.000000 29.000000 14.003035 0.000000
-48.832327 36.939004 3.614190 0.000000 48.000000 14.164362 0.000000
-44.711643 35.129789 3.074002 0.000000 36.000000 14.193441 0.000000
-50.549158 36.253621 4.593213 0.000000 49.000000 14.150318 0.000000
-45.302509 34.758701 3.485339 0.000000 43.000000 14.185410 0.000000
-47.200227 33.467814 4.833325 0.000000 40.000000 14.180653 0.000000
-46.131940 35.436158 3.265211 0.000000 42.000000 14.319364 18.000000
-46.394551 35.324540 3.785484 0.000000 37.000000 14.006702 0.000000
-47.795292 36.664470 3.592840 0.000000 37.000000 13.994822 0.000000
-45.851869 35.762665 2.570805 0.000000 68.000000 14.679197 30.000000
-49.583837 36.516921 4.130322 0.000000 23.000000 14.138054 0.000000
-46.791508 35.399695 3.812712 0.000000 36.000000 14.068703 0.000000
-48.018181 37.757775 2.198945 0.000000 78.000000 14.757473 27.000000
-48.619260 35.001629 4.593753 0.000000 31.000000 14.128244 0.000000
-47.076865 35.534255 3.591803 0.000000 34.000000 14.281163 0.000000
-48.678720 36.848751 3.655536 0.000000 47.000000 14.123505 0.000000
-48.726275 37.588233 3.447671 0.000000 34.000000 13.986749 0.000000
-51.009460 34.776421 5.126349 0.000000 46.000000 14.489165 14.000000
-49.113014 36.892329 3.670304 0.000000 57.000000 14.221127 0.000000
-49.513183 32.898364 5.380389 0.000000 34.000000 14.658454 13.000000
-48.637657 36.151182 3.889773 0.000000 65.000000 14.221358 0.000000
-49.600737 36.991589 3.763606 0.000000 56.000000 14.243607 0.000000
-49.607365 37.043684 3.769754 0.000000 54.000000 14.217357 0.000000
-48.273978 35.722590 4.040350 0.000000 64.000000 14.175020 0.000000
-47.857156 36.670857 3.593158 0.000000 37.000000 14.010159 0.000000
-48.531075 35.839020 4.133802 0.000000 53.000000 14.121081 0.000000
-48.934733 33.153202 5.606976 0.000000 43.000000 14.181787 0.000000
-48.120004 36.825806 3.604005 0.000000 38.000000 14.010806 0.000000
-50.467691 37.428295 4.044503 0.000000 39.000000 14.071199 0.000000
-47.372479 35.320677 3.689392 0.000000 45.000000 14.381041 2.000000
-48.488409 38.787495 2.236471 0.000000 25.000000 14.410731 27.000000
-50.979099 37.532443 4.142406 0.000000 30.000000 14.094682 0.000000
-47.279103 37.985184 2.313259 0.000000 38.000000 14.340076 24.000000
-46.999621 37.029602 2.512991 0.000000 77.000000 14.510125 28.000000
-49.015440 33.322707 5.589318 0.000000 24.000000 14.145861 0.000000
-50.160418 37.127176 4.042976 0.000000 30.000000 14.114031 0.000000
-48.972171 33.737146 5.103645 0.000000 38.000000 14.360761 9.000000
-49.524242 34.499080 5.189595 0.000000 40.000000 14.115770 0.000000
-47.517506 36.148841 3.681450 0.000000 37.000000 14.064968 0.000000
-49.389201 36.928588 3.754876 0.000000 63.000000 14.215820 0.000000
-49.634188 37.730496 3.360171 0.000000 55.000000 14.268383 15.000000
-49.611541 38.341851 3.287040 0.000000 27.000000 14.053334 0.000000
-46.806267 37.117779 2.019454 0.000000 79.000000 14.831155 24.000000
-48.837839 32.578810 5.985567 0.000000 36.000000 14.086428 0.000000
-46.369894 35.078354 3.183949 0.000000 68.000000 14.617135 18.000000
-48.737164 37.635848 3.406852 0.000000 27.000000 14.003489 0.000000
-48.590672 38.992252 1.815771 0.000000 77.000000 14.706676 22.000000
-48.272584 37.229582 3.410594 0.000000 36.000000 14.041468 0.000000
-49.151259 36.137786 4.241483 0.000000 42.000000 14.082685 0.000000
-48.043612 37.033141 3.409092 0.000000 37.000000 14.061343 0.000000
-49.435336 38.377739 3.297083 0.000000 28.000000 13.976485 0.000000
-49.481348 34.366751 5.268167 0.000000 42.000000 14.094991 0.000000
-49.165353 38.137030 3.278349 0.000000 28.000000 14.018287 0.000000
-48.616584 36.993547 3.555168 0.000000 49.000000 14.125929 0.000000
-49.544134 37.746096 3.285229 0.000000 72.000000 14.298073 15.000000
-48.642574 38.299948 2.817169 0.000000 41.000000 14.180772 0.000000
-48.628572 35.708362 4.226950 0.000000 42.000000 14.129052 0.000000
-47.645577 34.740761 4.238876 0.000000 61.000000 14.253745 0.000000
-49.983008 35.685762 4.678063 0.000000 27.000000 14.160824 0.000000
-47.494134 38.038329 2.245357 0.000000 51.000000 14.438101 23.000000
-50.958681 36.414472 4.791921 0.000000 21.000000 14.033094 0.000000
-46.807398 34.408511 4.157234 0.000000 54.000000 14.219965 0.000000
-49.898754 37.519688 3.572124 0.000000 59.000000 14.261020 0.000000
-50.480294 37.265072 4.063393 0.000000 37.000000 14.131105 0.000000
-46.782183 35.059509 3.879200 0.000000 49.000000 14.160009 0.000000
-47.717961 38.036855 2.159478 0.000000 65.000000 14.578096 23.000000
-49.142479 38.764321 2.772132 0.000000 47.000000 14.162578 0.000000
-49.968542 35.484122 4.917603 0.000000 36.000000 14.042943 0.000000
-46.265732 36.217194 2.639299 0.000000 66.000000 14.543658 30.000000
-48.529987 39.173067 1.949257 0.000000 73.000000 14.495741 22.000000
-49.363715 36.251301 4.253683 0.000000 39.000000 14.085487 0.000000
-46.572823 34.033104 4.220309 0.000000 56.000000 14.262621 0.000000
-47.826782 37.262633 2.977714 0.000000 63.000000 14.260332 20.000000
-49.842854 35.343331 4.913597 0.000000 43.000000 14.071111 0.000000
-48.456902 35.216397 4.463858 0.000000 41.000000 14.094873 0.000000
-47.021628 36.514845 2.659368 0.000000 71.000000 14.620316 28.000000
-49.078082 38.184405 2.423118 0.000000 49.000000 14.694994 21.000000
-47.365454 33.922290 4.650693 0.000000 38.000000 14.183555 0.000000
-48.639093 37.338847 3.454551 0.000000 50.000000 14.065169 0.000000
-46.773863 35.687075 3.143665 0.000000 54.000000 14.502547 18.000000
-47.757397 33.932997 4.821253 0.000000 38.000000 14.151267 0.000000
-48.714449 36.815387 3.655750 0.000000 49.000000 14.148713 0.000000
-47.952556 33.931231 4.907055 0.000000 35.000000 14.137585 0.000000
-50.225236 37.632640 3.794389 0.000000 38.000000 14.120295 0.000000
-51.279724 36.064036 4.608500 0.000000 66.000000 14.438803 8.000000
-46.942371 35.820535 3.075857 0.000000 35.000000 14.551140 18.000000
-48.094699 36.248030 3.696238 0.000000 34.000000 14.180567 0.000000
-46.911496 34.760153 4.062911 0.000000 46.000000 14.175382 0.000000
-50.027418 34.067811 5.546411 0.000000 41.000000 14.154346 0.000000
-50.571260 36.657076 4.377267 0.000000 50.000000 14.161320 0.000000
-50.710453 34.993537 5.296185 0.000000 36.000000 14.160435 0.000000
-48.837804 39.332858 2.490090 0.000000 35.000000 14.059203 0.000000
-48.572324 35.825948 4.034802 0.000000 69.000000 14.222913 0.000000
-46.848307 36.996067 2.527252 0.000000 78.000000 14.467802 28.000000
-48.458096 34.616080 4.740218 0.000000 37.000000 14.126692 0.000000
-49.955747 33.497864 5.730198 0.000000 31.000000 14.229366 0.000000
-51.362771 35.892904 5.053119 0.000000 39.000000 14.162964 0.000000
-49.079083 37.271207 3.300598 0.000000 60.000000 14.356400 16.000000
-48.595526 36.300605 3.822872 0.000000 57.000000 14.199379 0.000000
-51.793590 36.976930 4.735895 0.000000 47.000000 14.080648 0.000000
-48.857971 34.807093 4.771034 0.000000 24.000000 14.135325 0.000000
-50.061385 36.179523 4.498375 0.000000 37.000000 14.118002 0.000000
-49.767035 36.811772 4.189617 0.000000 38.000000 14.012152 0.000000
-51.207066 37.251081 4.334114 0.000000 45.000000 14.124727 0.000000
-50.954449 37.144205 4.334236 0.000000 36.000000 14.096601 0.000000
-50.658229 36.961669 4.281495 0.000000 41.000000 14.133653 0.000000
-50.353957 36.763586 4.211267 0.000000 49.000000 14.189973 0.000000
-49.376304 34.841388 4.994727 0.000000 39.000000 14.085306 0.000000
-45.746634 35.400870 2.618615 0.000000 75.000000 14.767285 30.000000
-48.327389 36.220715 3.801741 0.000000 54.000000 14.172687 0.000000
-46.318958 35.874113 2.611782 0.000000 60.000000 14.734418 30.000000
-48.128499 37.011488 3.485504 0.000000 41.000000 14.031545 0.000000
-47.149476 37.078641 2.483011 0.000000 74.000000 14.558461 28.000000
-50.466137 35.260191 4.834630 0.000000 64.000000 14.360347 6.000000
-50.294570 35.998975 4.738248 0.000000 34.000000 14.064293 0.000000
-52.469570 36.235227 4.933288 0.000000 45.000000 14.442788 12.000000
-48.580008 35.930245 3.996411 0.000000 49.000000 14.211594 0.000000
-47.477609 35.828076 3.575424 0.000000 49.000000 14.284553 2.000000
-48.201569 37.839379 2.271475 0.000000 69.000000 14.714671 27.000000
-48.643365 37.702779 2.838509 0.000000 67.000000 14.426863 21.000000
-48.135731 35.791383 3.973549 0.000000 56.000000 14.159956 0.000000
-52.148002 36.006035 5.001815 0.000000 61.000000 14.390297 12.000000
-46.879277 37.333019 2.880808 0.000000 24.000000 14.028960 0.000000
-48.056109 34.337442 4.710829 0.000000 44.000000 14.154947 0.000000
-47.181365 37.901547 2.427355 0.000000 47.000000 14.251381 24.000000
-45.995936 34.390068 4.034710 0.000000 42.000000 14.090053 0.000000
-46.952792 37.463823 2.862001 0.000000 37.000000 14.008966 0.000000
-45.826258 34.401002 4.063181 0.000000 38.000000 14.010583 0.000000
-46.839475 35.395968 3.846080 0.000000 38.000000 14.056405 0.000000
-45.779601 34.703862 3.435556 0.000000 44.000000 14.393895 4.000000
-50.390093 35.206599 4.868979 0.000000 50.000000 14.332314 6.000000
-52.210914 36.414508 5.118650 0.000000 24.000000 14.129661 0.000000
-46.158016 35.079169 3.655705 0.000000 52.000000 14.154486 0.000000
-45.530551 34.854475 3.507628 0.000000 50.000000 14.192159 0.000000
-47.096436 37.032294 2.518503 0.000000 78.000000 14.533113 28.000000
-47.901989 34.567801 4.520527 0.000000 21.000000 14.168253 0.000000
-47.972269 37.876852 2.867860 0.000000 42.000000 14.125179 0.000000
-52.099012 36.030909 4.957615 0.000000 69.000000 14.402111 12.000000
-46.987957 33.836021 4.591606 0.000000 48.000000 14.159220 0.000000
-48.411029 37.360510 3.457454 0.000000 40.000000 13.985199 0.000000
-48.795163 36.994849 3.576276 0.000000 46.000000 14.160692 0.000000
-47.808689 33.880186 4.872937 0.000000 36.000000 14.146154 0.000000
-47.588715 33.496028 4.979998 0.000000 43.000000 14.159809 0.000000
-48.035448 36.971381 3.317231 0.000000 46.000000 14.163932 0.000000
-47.904963 33.385952 5.182870 0.000000 42.000000 14.131009 0.000000
-46.328092 34.709881 3.880007 0.000000 44.000000 14.178565 0.000000
-47.956806 37.552302 2.480562 0.000000 52.000000 14.591709 27.000000
-49.160037 37.529434 3.364619 0.000000 59.000000 14.212226 0.000000
-48.593334 32.949525 5.588432 0.000000 41.000000 14.185788 0.000000
-48.756240 32.908542 5.720107 0.000000 39.000000 14.141014 0.000000
-49.214570 38.010953 3.067403 0.000000 34.000000 14.267155 0.000000
-46.891427 35.647629 3.382050 0.000000 57.000000 14.353296 18.000000
-48.123668 37.478562 3.065516 0.000000 58.000000 14.179055 0.000000
-48.604617 38.788220 2.244646 0.000000 65.000000 14.438112 27.000000
-51.667654 35.896828 5.188252 0.000000 27.000000 14.137714 0.000000
-49.135040 37.940051 3.265231 0.000000 42.000000 14.107409 0.000000
-49.167126 38.142190 2.444192 0.000000 73.000000 14.722346 21.000000
-46.229647 35.249790 3.289032 0.000000 74.000000 14.410677 18.000000
-50.515305 34.839332 5.356032 0.000000 34.000000 14.119810 0.000000
-50.254013 34.763421 5.283638 0.000000 38.000000 14.136774 0.000000
-48.592326 33.610862 5.327141 0.000000 41.000000 14.114305 0.000000
-48.677781 34.773596 4.702761 0.000000 40.000000 14.154218 0.000000
-49.782011 38.399953 3.276979 0.000000 44.000000 14.086953 0.000000
-47.058914 36.919512 2.443422 0.000000 82.000000 14.635306 28.000000
-48.751534 38.523367 2.788394 0.000000 45.000000 14.138842 0.000000
-49.314956 34.611293 5.086091 0.000000 51.000000 14.091411 0.000000
-47.904159 33.437110 5.108990 0.000000 42.000000 14.170673 0.000000
-49.892981 36.959256 4.111842 0.000000 35.000000 14.050301 0.000000
-47.229209 33.388749 4.859105 0.000000 51.000000 14.202415 0.000000
-48.694211 38.193123 2.700174 0.000000 63.000000 14.342359 21.000000
-47.385276 37.012327 2.664917 0.000000 72.000000 14.504096 28.000000
-50.910259 37.545309 4.027499 0.000000 51.000000 14.165715 0.000000
-49.592797 37.657383 3.477419 0.000000 45.000000 14.189156 0.000000
-48.377254 34.402687 4.799175 0.000000 39.000000 14.147030 0.000000
-48.526360 39.089380 1.875935 0.000000 83.000000 14.593685 22.000000
-48.160794 34.374157 4.740019 0.000000 41.000000 14.145210 0.000000
-47.946521 34.349387 4.681875 0.000000 42.000000 14.141522 0.000000
-48.529432 38.193586 2.872926 0.000000 50.000000 14.146895 0.000000
-48.835735 37.335934 3.514386 0.000000 41.000000 14.074408 0.000000
-48.260283 37.275829 3.158441 0.000000 48.000000 14.230721 20.000000
-47.910559 36.959858 2.792506 0.000000 72.000000 14.575808 20.000000
-47.120044 34.267405 4.437861 0.000000 39.000000 14.138013 0.000000
-48.267881 37.216030 3.302090 0.000000 49.000000 14.137865 0.000000
-46.688407 34.158818 4.249432 0.000000 66.000000 14.216854 0.000000
-49.371992 34.053147 5.050967 0.000000 65.000000 14.384787 9.000000
-46.112596 34.126029 4.054013 0.000000 46.000000 14.225162 0.000000
-51.509839 36.105678 4.737550 0.000000 65.000000 14.379757 8.000000
-48.537715 34.442204 4.826359 0.000000 38.000000 14.154366 0.000000
-49.309705 34.471107 5.111833 0.000000 43.000000 14.130019 0.000000
-49.206554 36.087695 4.200219 0.000000 44.000000 14.156209 0.000000
-45.798425 35.988653 2.595218 0.000000 53.000000 14.542747 30.000000
-49.303752 38.162752 2.424002 0.000000 56.000000 14.771042 21.000000
-49.647950 36.015896 4.313413 0.000000 48.000000 14.223655 0.000000
