57.670341 -25.492699 -26.001975 0.000000 73.000000 14.562417 22.000000
54.776188 -25.261449 -25.944205 0.000000 48.000000 14.325736 24.000000
52.169884 -24.926986 -28.329739 0.000000 36.000000 14.294157 17.000000
53.319370 -24.784660 -28.497981 0.000000 37.000000 14.174136 0.000000
52.135029 -25.086948 -26.648159 0.000000 44.000000 14.241216 25.000000
55.954388 -24.950314 -27.247421 0.000000 58.000000 14.181087 0.000000
53.889259 -24.807839 -28.175305 0.000000 49.000000 14.156521 0.000000
57.040939 -25.365545 -25.745896 0.000000 73.000000 14.404046 23.000000
57.730057 -24.936943 -27.835711 0.000000 59.000000 14.241860 15.000000
53.243507 -25.634680 -26.389235 0.000000 42.000000 14.752007 30.000000
57.627403 -25.493907 -26.613206 0.000000 70.000000 14.640541 27.000000
57.257629 -24.942525 -27.945708 0.000000 40.000000 14.261241 15.000000
53.032738 -24.758755 -27.356342 0.000000 37.000000 14.004759 0.000000
52.433674 -24.872996 -27.785503 0.000000 33.000000 14.172103 0.000000
56.947010 -25.293587 -26.345359 0.000000 63.000000 14.408104 27.000000
53.287022 -25.207450 -26.907737 0.000000 47.000000 14.393429 18.000000
52.257763 -24.831476 -27.557611 0.000000 28.000000 14.102232 0.000000
58.056480 -24.575947 -29.449897 0.000000 27.000000 14.086884 0.000000
57.773026 -24.420691 -30.193842 0.000000 25.000000 14.026489 0.000000
57.749405 -25.070135 -27.694168 0.000000 65.000000 14.356180 15.000000
57.184082 -24.627674 -29.619957 0.000000 45.000000 14.159602 0.000000
52.011681 -24.980542 -27.161740 0.000000 34.000000 14.200292 0.000000
55.828407 -25.285993 -26.119689 0.000000 52.000000 14.372169 27.000000
52.216614 -24.472769 -31.084906 0.000000 42.000000 14.190296 0.000000
57.779327 -24.903320 -27.207133 0.000000 57.000000 14.129396 0.000000
58.067085 -24.837012 -27.125304 0.000000 32.000000 14.053317 0.000000
57.929008 -24.976622 -27.143641 0.000000 34.000000 14.194125 0.000000
56.296032 -25.308668 -26.159650 0.000000 80.000000 14.399693 27.000000
56.178207 -24.904516 -27.145350 0.000000 26.000000 14.122807 0.000000
55.211739 -24.967288 -27.025798 0.000000 42.000000 14.170035 0.000000
54.328041 -25.511190 -26.046360 0.000000 65.000000 14.586347 28.000000
56.583092 -24.803324 -28.643609 0.000000 52.000000 14.210980 0.000000
54.879963 -25.541520 -27.098719 0.000000 41.000000 14.748878 19.000000
56.859703 -24.819250 -28.548107 0.000000 61.000000 14.214760 0.000000
58.027336 -24.435990 -30.803404 0.000000 32.000000 14.118382 0.000000
55.050510 -24.978457 -26.643309 0.000000 36.000000 14.132977 0.000000
54.933548 -24.985895 -26.599741 0.000000 37.000000 14.134873 0.000000
52.809586 -24.833990 -27.233622 0.000000 36.000000 14.063951 0.000000
54.774025 -25.000572 -27.235950 0.000000 57.000000 14.229502 19.000000
54.660202 -24.864489 -27.725688 0.000000 50.000000 14.156136 0.000000
55.894341 -24.856053 -28.144479 0.000000 51.000000 14.200473 0.000000
55.614849 -25.359696 -27.042387 0.000000 68.000000 14.561410 20.000000
57.344246 -24.506728 -30.567412 0.000000 46.000000 14.158857 0.000000
56.650963 -24.502280 -31.195572 0.000000 45.000000 14.233500 0.000000
57.862053 -24.439885 -31.257060 0.000000 41.000000 14.179339 0.000000
57.439880 -24.706455 -29.226456 0.000000 28.000000 14.188234 0.000000
57.643990 -25.148420 -26.468245 0.000000 70.000000 14.279557 27.000000
56.343124 -24.749368 -27.478560 0.000000 29.000000 14.010828 0.000000
56.445320 -25.572785 -26.332322 0.000000 54.000000 14.683441 27.000000
58.047226 -24.418418 -30.896264 0.000000 32.000000 14.112636 0.000000
55.933105 -24.761088 -27.543246 0.000000 35.000000 14.030596 0.000000
57.100044 -24.483705 -30.355913 0.000000 34.000000 14.109399 0.000000
57.858208 -25.057958 -26.121308 0.000000 40.000000 14.146151 0.000000
54.896210 -24.534722 -31.239507 0.000000 44.000000 14.271213 14.000000
56.516399 -24.988813 -26.682248 0.000000 44.000000 14.148152 0.000000
58.013123 -25.022824 -26.224431 0.000000 54.000000 14.124275 0.000000
54.085415 -25.129795 -26.700060 0.000000 45.000000 14.290254 18.000000
54.725517 -25.601828 -25.767950 0.000000 72.000000 14.641226 24.000000
57.187309 -24.632231 -28.766931 0.000000 48.000000 14.056767 0.000000
57.693237 -24.594548 -29.430512 0.000000 37.000000 14.102897 0.000000
55.703419 -24.605538 -30.497674 0.000000 60.000000 14.248105 6.000000
55.147572 -24.810132 -29.093139 0.000000 47.000000 14.274308 1.000000
54.001122 -24.729704 -28.623503 0.000000 50.000000 14.135415 0.000000
55.415329 -25.482772 -26.524199 0.000000 64.000000 14.618292 28.000000
57.250435 -25.300041 -26.078203 0.000000 59.000000 14.380885 27.000000
51.898640 -25.029625 -27.207854 0.000000 48.000000 14.254788 4.000000
54.460953 -24.439192 -30.229856 0.000000 38.000000 14.049376 0.000000
53.695820 -24.701988 -28.717807 0.000000 46.000000 14.119787 0.000000
53.744896 -24.418032 -31.481038 0.000000 23.000000 14.185848 0.000000
56.360226 -24.681378 -28.825920 0.000000 39.000000 14.112947 0.000000
55.664089 -24.623451 -29.856890 0.000000 37.000000 14.185231 0.000000
54.040047 -25.190035 -27.674636 0.000000 78.000000 14.472668 2.000000
52.626953 -24.893098 -27.763942 0.000000 55.000000 14.189332 0.000000
53.635708 -24.680556 -30.873255 0.000000 41.000000 14.369794 9.000000
57.927399 -24.972323 -26.708385 0.000000 47.000000 14.135082 0.000000
56.368671 -24.754541 -27.276913 0.000000 31.000000 13.990582 0.000000
57.368683 -25.085887 -27.603756 0.000000 64.000000 14.360428 15.000000
57.291847 -24.866451 -28.038364 0.000000 55.000000 14.197433 0.000000
55.942230 -25.335974 -26.218494 0.000000 71.000000 14.434188 27.000000
56.739670 -25.010110 -25.972845 0.000000 56.000000 14.079999 0.000000
54.247311 -24.412344 -30.233832 0.000000 27.000000 14.023242 0.000000
55.397240 -24.783830 -28.610942 0.000000 45.000000 14.187529 0.000000
56.480099 -24.747788 -27.303415 0.000000 28.000000 13.987218 0.000000
54.061447 -25.596739 -26.269839 0.000000 70.000000 14.699341 30.000000
56.038403 -24.296442 -31.444673 0.000000 28.000000 14.060649 0.000000
55.559437 -24.441199 -30.043033 0.000000 31.000000 14.027855 0.000000
57.424797 -25.286748 -26.079712 0.000000 62.000000 14.367887 27.000000
55.616409 -24.656985 -31.308193 0.000000 53.000000 14.401148 14.000000
57.421288 -25.588775 -26.330392 0.000000 69.000000 14.699061 27.000000
55.652695 -24.591802 -29.813295 0.000000 39.000000 14.148347 0.000000
56.603893 -24.966560 -26.694217 0.000000 40.000000 14.127582 0.000000
55.764225 -24.748082 -30.581096 0.000000 44.000000 14.400014 6.000000
54.609970 -24.621096 -29.564580 0.000000 32.000000 14.146107 0.000000
56.262897 -24.948712 -28.497044 0.000000 70.000000 14.336766 0.000000
56.119202 -25.079697 -26.037246 0.000000 56.000000 14.157138 0.000000
56.325962 -24.887600 -28.347027 0.000000 63.000000 14.257260 0.000000
57.676674 -24.809583 -28.300648 0.000000 46.000000 14.174026 0.000000
57.971825 -25.047595 -26.209566 0.000000 42.000000 14.146978 0.000000
54.916439 -25.347362 -26.910243 0.000000 80.000000 14.532544 19.000000
56.743828 -24.526083 -30.015159 0.000000 29.000000 14.108556 0.000000
57.923744 -24.766810 -30.617098 0.000000 63.000000 14.423124 7.000000
53.383595 -25.059788 -31.569172 0.000000 3.000000 14.833594 13.000000
56.159206 -24.682310 -29.099267 0.000000 39.000000 14.148273 0.000000
56.228733 -24.727727 -28.999986 0.000000 36.000000 14.180835 0.000000
56.751541 -24.425753 -30.253033 0.000000 39.000000 14.038961 0.000000
55.992069 -24.423743 -30.962115 0.000000 31.000000 14.126206 0.000000
54.110088 -24.890709 -27.497492 0.000000 39.000000 14.153428 0.000000
55.200382 -25.307194 -25.882278 0.000000 53.000000 14.363323 24.000000
54.901413 -25.547586 -26.332766 0.000000 71.000000 14.658499 28.000000
57.405731 -24.711954 -28.789239 0.000000 37.000000 14.138664 0.000000
58.068161 -24.438511 -30.488873 0.000000 29.000000 14.081298 0.000000
55.533855 -25.541726 -26.983431 0.000000 76.000000 14.734573 20.000000
52.697834 -25.473654 -26.186610 0.000000 40.000000 14.566761 30.000000
57.690727 -24.390972 -30.259959 0.000000 39.000000 14.005328 0.000000
53.737167 -24.420637 -31.038752 0.000000 39.000000 14.132770 0.000000
53.733765 -25.319343 -26.544270 0.000000 55.000000 14.458689 30.000000
54.822105 -24.805578 -28.467164 0.000000 59.000000 14.191010 0.000000
53.736073 -25.091455 -27.378899 0.000000 66.000000 14.337653 18.000000
56.818848 -24.679799 -28.953659 0.000000 48.000000 14.127457 0.000000
55.904747 -24.797985 -28.112700 0.000000 32.000000 14.138867 0.000000
53.733074 -24.869639 -28.425021 0.000000 71.000000 14.249257 0.000000
54.321266 -24.612858 -29.345209 0.000000 48.000000 14.110326 0.000000
54.177746 -25.396561 -27.104156 0.000000 76.000000 14.605756 18.000000
56.106686 -24.828858 -27.940316 0.000000 40.000000 14.147799 0.000000
57.874939 -25.019895 -27.790046 0.000000 60.000000 14.318406 15.000000
55.158436 -24.585058 -30.807861 0.000000 45.000000 14.266825 6.000000
52.226658 -24.434956 -31.066643 0.000000 44.000000 14.150485 0.000000
56.064030 -25.165093 -27.112719 0.000000 81.000000 14.377206 20.000000
57.770653 -25.085705 -28.014416 0.000000 71.000000 14.411930 15.000000
54.322418 -25.267554 -27.148899 0.000000 71.000000 14.483406 18.000000
57.878281 -24.913595 -26.003807 0.000000 40.000000 13.988148 0.000000
53.608467 -25.696208 -26.398291 0.000000 76.000000 14.814186 30.000000
52.602772 -24.936180 -28.389491 0.000000 47.000000 14.310798 0.000000
56.914631 -24.757950 -27.378952 0.000000 22.000000 14.006806 0.000000
57.528076 -25.092695 -28.035913 0.000000 61.000000 14.421570 15.000000
52.217598 -25.635963 -25.863153 0.000000 73.000000 14.687071 26.000000
57.145782 -24.781987 -27.229172 0.000000 37.000000 14.011802 0.000000
53.428768 -25.318000 -25.947540 0.000000 64.000000 14.382257 30.000000
57.078629 -25.004186 -26.768604 0.000000 45.000000 14.174271 0.000000
57.178146 -25.329739 -26.144348 0.000000 60.000000 14.418671 27.000000
57.287872 -24.949674 -27.858430 0.000000 50.000000 14.257349 15.000000
55.331337 -24.831663 -27.212707 0.000000 30.000000 14.059011 0.000000
55.646587 -24.447861 -30.379868 0.000000 33.000000 14.076855 0.000000
56.587288 -25.300743 -26.570532 0.000000 62.000000 14.443542 27.000000
52.661301 -25.544779 -26.442337 0.000000 80.000000 14.669504 30.000000
57.261200 -24.638990 -28.706663 0.000000 35.000000 14.055888 0.000000
55.680973 -24.772706 -27.591927 0.000000 41.000000 14.048248 0.000000
52.113941 -24.622643 -31.419886 0.000000 42.000000 14.381136 11.000000
53.185177 -24.505074 -30.882027 0.000000 38.000000 14.196811 0.000000
53.672661 -25.557185 -26.360084 0.000000 48.000000 14.671459 30.000000
57.731171 -24.954531 -26.663638 0.000000 48.000000 14.111800 0.000000
57.805809 -25.302429 -27.083801 0.000000 84.000000 14.509811 21.000000
54.435070 -24.992277 -26.752377 0.000000 47.000000 14.160414 0.000000
56.555576 -24.740025 -28.725581 0.000000 43.000000 14.158500 0.000000
53.110909 -24.466563 -30.318650 0.000000 28.000000 14.087704 0.000000
55.981026 -24.985002 -25.850645 0.000000 45.000000 14.039712 0.000000
53.489964 -24.745585 -30.564567 0.000000 60.000000 14.395457 9.000000
58.005867 -24.987608 -26.576763 0.000000 53.000000 14.133681 0.000000
53.241253 -24.592759 -31.235942 0.000000 51.000000 14.328340 13.000000
52.436665 -25.315001 -25.942578 0.000000 36.000000 14.378657 26.000000
56.542980 -24.446699 -31.031950 0.000000 38.000000 14.157769 0.000000
52.649559 -25.145210 -26.707285 0.000000 54.000000 14.306456 30.000000
52.897255 -24.835497 -27.445579 0.000000 42.000000 14.092122 0.000000
53.470634 -24.693458 -29.032968 0.000000 58.000000 14.150989 0.000000
56.578102 -24.795521 -28.111335 0.000000 49.000000 14.136251 0.000000
56.735012 -25.367261 -26.206584 0.000000 68.000000 14.463727 27.000000
53.137318 -25.019765 -26.644169 0.000000 47.000000 14.174065 0.000000
53.204182 -24.651259 -29.409375 0.000000 34.000000 14.156497 0.000000
56.657410 -24.822686 -30.766136 0.000000 64.000000 14.497313 8.000000
56.317726 -25.279310 -27.127376 0.000000 52.000000 14.492359 21.000000
57.161163 -25.035049 -25.993822 0.000000 47.000000 14.107380 0.000000
55.795837 -24.581282 -29.786502 0.000000 38.000000 14.134539 0.000000
57.749969 -24.984291 -28.101062 0.000000 63.000000 14.322227 15.000000
54.814152 -25.504404 -26.218610 0.000000 77.000000 14.601293 28.000000
52.147339 -24.708203 -28.923818 0.000000 22.000000 14.151880 0.000000
55.746670 -24.991079 -26.664811 0.000000 49.000000 14.148205 0.000000
52.194988 -24.685814 -28.825566 0.000000 22.000000 14.117304 0.000000
57.244766 -24.988759 -26.607996 0.000000 41.000000 14.138753 0.000000
57.572060 -24.949746 -25.951565 0.000000 37.000000 14.017437 0.000000
56.639496 -24.750233 -27.472303 0.000000 30.000000 14.010899 0.000000
56.823154 -24.959805 -27.830999 0.000000 61.000000 14.263947 16.000000
53.509800 -24.735790 -28.626335 0.000000 31.000000 14.141809 0.000000
56.715233 -24.803046 -31.376634 0.000000 65.000000 14.554662 12.000000
54.307983 -25.359352 -27.788088 0.000000 54.000000 14.654917 2.000000
56.248093 -24.841423 -27.663898 0.000000 44.000000 14.125477 0.000000
56.565098 -25.378450 -26.597055 0.000000 66.000000 14.523969 27.000000
57.690010 -24.586515 -30.534266 0.000000 55.000000 14.233838 0.000000
57.724731 -25.217473 -26.990620 0.000000 76.000000 14.413803 21.000000
56.767151 -24.836427 -28.515110 0.000000 64.000000 14.227647 0.000000
57.081505 -25.332328 -26.109853 0.000000 66.000000 14.416898 27.000000
57.321770 -25.274574 -26.977664 0.000000 80.000000 14.468819 21.000000
53.498569 -24.837572 -28.145337 0.000000 46.000000 14.182246 0.000000
55.206524 -24.505666 -30.246232 0.000000 45.000000 14.117382 0.000000
55.846901 -25.231875 -26.693497 0.000000 75.000000 14.390697 20.000000
58.076927 -24.846936 -28.577415 0.000000 50.000000 14.245914 0.000000
56.637058 -24.847329 -28.552882 0.000000 60.000000 14.243216 0.000000
53.037186 -24.834882 -27.585815 0.000000 26.000000 14.109161 0.000000
56.211369 -24.707655 -28.980012 0.000000 50.000000 14.158408 0.000000
52.173336 -24.857254 -27.592650 0.000000 26.000000 14.132215 0.000000
57.522217 -24.683747 -29.316870 0.000000 30.000000 14.177085 0.000000
54.030994 -24.569735 -30.128456 0.000000 43.000000 14.166119 0.000000
56.018745 -24.826715 -28.688368 0.000000 50.000000 14.239818 0.000000
57.053383 -24.768123 -29.151903 0.000000 43.000000 14.240028 0.000000
56.720818 -25.242721 -27.214274 0.000000 71.000000 14.466998 21.000000
56.985981 -24.617500 -28.837543 0.000000 29.000000 14.051040 0.000000
56.770447 -24.414865 -31.122097 0.000000 45.000000 14.137533 0.000000
51.904682 -25.296964 -27.153484 0.000000 73.000000 14.513159 4.000000
53.343590 -25.342718 -26.915497 0.000000 77.000000 14.528598 18.000000
57.485474 -24.783121 -27.568252 0.000000 40.000000 14.055601 0.000000
55.480171 -24.481586 -30.409697 0.000000 36.000000 14.114066 0.000000
57.798042 -25.174325 -26.460615 0.000000 69.000000 14.304296 27.000000
56.785263 -25.106066 -27.747789 0.000000 67.000000 14.398573 16.000000
52.182888 -24.542166 -30.600167 0.000000 41.000000 14.198136 0.000000
56.410591 -24.958985 -26.046478 0.000000 42.000000 14.038548 0.000000
53.365086 -25.621912 -26.434459 0.000000 60.000000 14.745032 30.000000
55.009567 -24.883013 -29.052818 0.000000 51.000000 14.341535 1.000000
57.186272 -25.461040 -26.227246 0.000000 65.000000 14.559361 27.000000
53.112091 -24.516383 -31.159709 0.000000 42.000000 14.242977 0.000000
54.864376 -24.633065 -29.561974 0.000000 46.000000 14.157653 0.000000
56.219357 -24.515972 -30.824784 0.000000 43.000000 14.200418 0.000000
53.788189 -25.341019 -27.203963 0.000000 47.000000 14.563216 18.000000
57.701035 -24.927648 -26.041688 0.000000 49.000000 14.006857 0.000000
53.810440 -25.493637 -26.270874 0.000000 76.000000 14.597189 30.000000
53.168457 -25.075238 -26.571856 0.000000 47.000000 14.219996 0.000000
52.389923 -24.911812 -28.193788 0.000000 64.000000 14.261994 0.000000
51.899754 -24.692091 -29.033086 0.000000 38.000000 14.149648 0.000000
55.068268 -24.439232 -31.145018 0.000000 39.000000 14.164591 0.000000
52.341000 -24.892516 -28.309418 0.000000 49.000000 14.257404 17.000000
56.861759 -24.435305 -30.210185 0.000000 29.000000 14.043044 0.000000
57.787697 -24.810040 -27.277055 0.000000 32.000000 14.045658 0.000000
57.732849 -25.470248 -26.369786 0.000000 57.000000 14.586435 27.000000
54.714092 -24.865293 -27.500829 0.000000 40.000000 14.128634 0.000000
57.734924 -25.291667 -26.056317 0.000000 69.000000 14.369823 27.000000
57.913277 -24.362844 -31.527553 0.000000 56.000000 14.136953 0.000000
56.469349 -24.359984 -30.294623 0.000000 27.000000 13.978949 0.000000
56.778973 -24.603005 -29.590103 0.000000 42.000000 14.131372 0.000000
57.707886 -25.211748 -27.912640 0.000000 78.000000 14.524162 15.000000
51.815414 -25.596349 -26.128493 0.000000 67.000000 14.681166 25.000000
53.875469 -24.666339 -28.561898 0.000000 45.000000 14.064800 0.000000
53.472328 -25.303967 -26.936324 0.000000 78.000000 14.492776 18.000000
56.155174 -24.511627 -30.658507 0.000000 28.000000 14.175182 0.000000
55.067513 -24.998760 -26.694593 0.000000 41.000000 14.159573 0.000000
55.960243 -24.859399 -27.677269 0.000000 37.000000 14.144992 0.000000
56.034187 -25.341868 -27.054214 0.000000 69.000000 14.545212 20.000000
56.348804 -25.213970 -26.922863 0.000000 62.000000 14.401801 21.000000
53.788982 -25.638297 -25.920244 0.000000 74.000000 14.696572 30.000000
56.834026 -24.725536 -27.566244 0.000000 37.000000 13.998221 0.000000
54.461975 -24.989511 -26.879378 0.000000 35.000000 14.173653 0.000000
56.638828 -24.967590 -26.717859 0.000000 40.000000 14.131579 0.000000
56.721870 -25.019399 -28.018639 0.000000 56.000000 14.346683 16.000000
55.333572 -24.518771 -30.368042 0.000000 29.000000 14.145713 0.000000
54.015778 -24.637734 -29.508097 0.000000 42.000000 14.155504 0.000000
57.657059 -24.559074 -29.714492 0.000000 49.000000 14.103445 0.000000
56.161461 -24.440403 -30.371609 0.000000 34.000000 14.068417 0.000000
53.671406 -24.800484 -27.426222 0.000000 40.000000 14.054951 0.000000
54.055038 -25.270944 -26.812456 0.000000 84.000000 14.444426 18.000000
57.194481 -24.729039 -28.908707 0.000000 60.000000 14.170648 0.000000
55.901863 -24.435986 -30.359547 0.000000 36.000000 14.062517 0.000000
56.515152 -25.663653 -25.780100 0.000000 69.000000 14.704089 23.000000
53.057842 -25.595402 -26.121054 0.000000 69.000000 14.679290 30.000000
53.094437 -24.965053 -26.712490 0.000000 26.000000 14.128387 0.000000
54.746674 -25.491070 -26.293102 0.000000 43.000000 14.597440 28.000000
57.515968 -24.815244 -28.103207 0.000000 46.000000 14.154794 0.000000
55.516220 -24.450521 -30.321533 0.000000 35.000000 14.072153 0.000000
55.097359 -24.803624 -27.397248 0.000000 50.000000 14.054420 0.000000
56.666084 -24.403947 -30.459423 0.000000 35.000000 14.043303 0.000000
54.290142 -24.446801 -30.327886 0.000000 27.000000 14.069262 0.000000
56.447937 -25.219807 -27.270496 0.000000 64.000000 14.451342 21.000000
53.398403 -24.680601 -29.067470 0.000000 39.000000 14.142576 0.000000
52.083321 -25.160770 -26.657836 0.000000 36.000000 14.315669 25.000000
54.655960 -24.577051 -30.730715 0.000000 40.000000 14.249173 6.000000
53.817913 -25.574690 -26.487254 0.000000 72.000000 14.704830 30.000000
57.255211 -24.797526 -28.278243 0.000000 49.000000 14.159245 0.000000
55.313023 -24.734980 -30.633867 0.000000 56.000000 14.393658 6.000000
57.295319 -24.674843 -29.079375 0.000000 43.000000 14.138362 0.000000
56.996029 -24.844522 -29.182668 0.000000 58.000000 14.319692 0.000000
55.492916 -25.296692 -26.373699 0.000000 62.000000 14.414751 28.000000
56.144245 -24.758910 -27.340306 0.000000 36.000000 14.002895 0.000000
53.548538 -24.440222 -30.191082 0.000000 24.000000 14.045518 0.000000
57.758171 -25.436168 -26.156020 0.000000 79.000000 14.525723 27.000000
54.159813 -24.605703 -29.797415 0.000000 54.000000 14.160139 0.000000
54.456238 -24.415330 -30.093370 0.000000 27.000000 14.008526 0.000000
55.484745 -25.383034 -27.132655 0.000000 72.000000 14.595923 20.000000
54.335506 -24.469791 -30.048854 0.000000 26.000000 14.056952 0.000000
52.660473 -25.561465 -26.381069 0.000000 61.000000 14.678346 30.000000
54.219646 -24.518068 -30.002577 0.000000 29.000000 14.099021 0.000000
54.103073 -24.582654 -29.953352 0.000000 31.000000 14.156898 0.000000
54.001869 -24.564320 -29.911731 0.000000 32.000000 14.133472 0.000000
57.045097 -25.266447 -26.573482 0.000000 51.000000 14.409890 27.000000
52.591423 -24.842186 -28.450492 0.000000 53.000000 14.225228 0.000000
52.709995 -25.752182 -26.252177 0.000000 77.000000 14.851326 30.000000
56.809402 -25.004138 -27.795715 0.000000 72.000000 14.303487 16.000000
53.279018 -24.640994 -29.502691 0.000000 41.000000 14.158058 0.000000
55.580246 -25.347617 -27.039986 0.000000 71.000000 14.549125 20.000000
52.426426 -24.635777 -29.747087 0.000000 33.000000 14.183640 0.000000
56.090195 -25.556032 -26.380756 0.000000 62.000000 14.672917 27.000000
55.265427 -24.651834 -31.522459 0.000000 46.000000 14.423004 14.000000
57.422554 -24.431446 -30.272471 0.000000 26.000000 14.047055 0.000000
52.448410 -24.517912 -30.317880 0.000000 43.000000 14.138548 0.000000
57.319130 -24.462384 -31.260664 0.000000 30.000000 14.202113 0.000000
53.382210 -24.869765 -28.494556 0.000000 52.000000 14.258134 0.000000
54.721489 -25.314542 -25.946399 0.000000 45.000000 14.378682 24.000000
56.033188 -24.553494 -29.979254 0.000000 40.000000 14.131230 0.000000
53.164661 -24.647573 -29.421608 0.000000 34.000000 14.154380 0.000000
57.826645 -25.117368 -25.881166 0.000000 67.000000 14.174866 0.000000
52.267166 -25.662271 -25.892083 0.000000 36.000000 14.716811 26.000000
53.201294 -25.703789 -26.260121 0.000000 75.000000 14.804317 30.000000
57.687553 -25.134350 -27.895764 0.000000 55.000000 14.445255 15.000000
54.179527 -25.462326 -26.131052 0.000000 62.000000 14.548530 30.000000
53.908794 -24.829661 -28.199517 0.000000 45.000000 14.181217 0.000000
57.925781 -24.944506 -27.057712 0.000000 59.000000 14.151450 0.000000
53.754124 -25.334152 -27.120021 0.000000 52.000000 14.545840 18.000000
52.730675 -24.663747 -29.012291 0.000000 31.000000 14.118912 0.000000
53.670525 -25.541469 -26.042526 0.000000 70.000000 14.615903 30.000000
56.703876 -24.997571 -27.907230 0.000000 61.000000 14.311007 16.000000
54.820732 -24.967394 -26.680890 0.000000 38.000000 14.126732 0.000000
52.736019 -24.954933 -27.084044 0.000000 53.000000 14.165108 0.000000
55.434643 -24.444952 -31.198509 0.000000 34.000000 14.176997 0.000000
57.002739 -24.804355 -30.760934 0.000000 35.000000 14.478473 8.000000
53.341545 -25.691931 -26.300398 0.000000 54.000000 14.797622 30.000000
57.564476 -24.657733 -29.345313 0.000000 56.000000 14.154857 0.000000
57.030952 -24.789977 -29.123589 0.000000 41.000000 14.258145 0.000000
57.898132 -24.964935 -27.998512 0.000000 63.000000 14.290119 15.000000
56.581760 -24.434388 -30.212785 0.000000 36.000000 14.042462 0.000000
52.162289 -24.856684 -27.870739 0.000000 30.000000 14.166648 0.000000
55.737705 -24.449241 -30.351849 0.000000 39.000000 14.074698 0.000000
53.059193 -24.482902 -30.302606 0.000000 38.000000 14.101894 0.000000
52.136417 -24.736310 -27.424179 0.000000 30.000000 13.991030 0.000000
55.009991 -24.787298 -31.461936 0.000000 69.000000 14.549774 14.000000
52.213634 -24.927957 -28.308511 0.000000 51.000000 14.292449 17.000000
57.720001 -25.068891 -27.824144 0.000000 75.000000 14.371303 15.000000
54.521595 -25.179698 -26.088825 0.000000 46.000000 14.262835 28.000000
53.031361 -24.506089 -30.829193 0.000000 48.000000 14.191169 0.000000
55.059464 -24.786544 -27.434243 0.000000 41.000000 14.042131 0.000000
57.198441 -24.766348 -28.452202 0.000000 31.000000 14.150209 0.000000
57.415466 -24.583876 -31.472423 0.000000 53.000000 14.349290 12.000000
58.028679 -24.776254 -28.004801 0.000000 39.000000 14.103729 0.000000
55.029957 -24.993917 -26.542167 0.000000 40.000000 14.135586 0.000000
57.884583 -24.781071 -28.012073 0.000000 40.000000 14.109423 0.000000
56.820618 -24.788404 -28.035934 0.000000 33.000000 14.119701 0.000000
54.105484 -24.546753 -30.141737 0.000000 36.000000 14.144992 0.000000
56.677574 -24.790260 -28.042833 0.000000 37.000000 14.122410 0.000000
52.956989 -25.168097 -27.047749 0.000000 54.000000 14.372009 18.000000
54.496323 -24.770777 -28.380180 0.000000 29.000000 14.145538 0.000000
56.898254 -24.792514 -28.252474 0.000000 45.000000 14.151030 0.000000
57.831520 -24.381074 -31.475874 0.000000 58.000000 14.148534 0.000000
57.553627 -25.561951 -25.787796 0.000000 70.000000 14.604164 22.000000
51.930786 -24.798557 -27.473955 0.000000 37.000000 14.059047 0.000000
52.099522 -24.499748 -30.934869 0.000000 27.000000 14.198178 0.000000
52.490681 -25.060709 -26.981585 0.000000 69.000000 14.257148 4.000000
52.419769 -24.747665 -28.806453 0.000000 49.000000 14.176257 0.000000
57.809837 -24.921419 -27.173710 0.000000 58.000000 14.143145 0.000000
56.775757 -24.782792 -28.004396 0.000000 39.000000 14.110164 0.000000
57.753685 -24.643141 -29.077346 0.000000 43.000000 14.106657 0.000000
52.372635 -25.040049 -27.282053 0.000000 44.000000 14.274467 4.000000
53.097187 -24.493475 -30.216119 0.000000 43.000000 14.101498 0.000000
54.336708 -25.054578 -26.480858 0.000000 45.000000 14.188048 0.000000
55.246487 -24.926152 -27.755289 0.000000 44.000000 14.221034 0.000000
56.203499 -24.872901 -27.717686 0.000000 58.000000 14.163474 0.000000
57.654053 -24.578655 -29.719390 0.000000 52.000000 14.123487 0.000000
56.111229 -25.009218 -26.043539 0.000000 34.000000 14.088011 0.000000
56.335751 -24.434412 -30.488041 0.000000 50.000000 14.077127 0.000000
52.920963 -24.650081 -29.491769 0.000000 40.000000 14.165698 0.000000
55.977222 -24.821450 -27.916835 0.000000 39.000000 14.137495 0.000000
52.876049 -24.921209 -27.694612 0.000000 46.000000 14.208494 0.000000
52.239189 -25.394028 -26.095541 0.000000 41.000000 14.476306 25.000000
54.164268 -25.012619 -26.659226 0.000000 41.000000 14.168871 0.000000
54.264587 -25.449932 -26.363812 0.000000 71.000000 14.565528 30.000000
57.914322 -24.678435 -29.095657 0.000000 49.000000 14.143975 0.000000
55.975613 -24.419959 -31.132507 0.000000 35.000000 14.143897 0.000000
52.428730 -24.713633 -30.603770 0.000000 61.000000 14.368693 10.000000
55.475342 -24.828355 -27.821016 0.000000 37.000000 14.132286 0.000000
52.450611 -24.462096 -30.401441 0.000000 38.000000 14.093692 0.000000
55.818821 -25.512840 -26.333721 0.000000 74.000000 14.624149 27.000000
57.236832 -24.619932 -29.539669 0.000000 41.000000 14.141817 0.000000
55.808262 -24.858314 -27.220041 0.000000 37.000000 14.086373 0.000000
57.682800 -24.800560 -28.223098 0.000000 52.000000 14.155315 0.000000
52.668327 -24.983256 -27.007416 0.000000 55.000000 14.183562 0.000000
55.297077 -24.723284 -30.570043 0.000000 63.000000 14.374022 6.000000
57.006294 -25.459244 -26.401723 0.000000 74.000000 14.579538 27.000000
52.273369 -24.513701 -30.951446 0.000000 38.000000 14.214106 0.000000
52.690441 -25.323815 -26.595880 0.000000 60.000000 14.469620 30.000000
53.410709 -24.849875 -27.586765 0.000000 27.000000 14.124154 0.000000
55.949753 -24.742783 -29.211708 0.000000 43.000000 14.222417 0.000000
53.154640 -25.124308 -26.811022 0.000000 65.000000 14.298776 18.000000
54.307644 -24.863605 -27.448008 0.000000 36.000000 14.120312 0.000000
57.479828 -24.618655 -29.136531 0.000000 42.000000 14.089814 0.000000
56.814350 -25.570716 -26.506903 0.000000 62.000000 14.703360 27.000000
52.488823 -25.179784 -26.633019 0.000000 46.000000 14.331409 0.000000
55.969566 -24.835613 -28.458121 0.000000 45.000000 14.219668 0.000000
52.003620 -25.570916 -26.538458 0.000000 66.000000 14.707530 25.000000
54.900322 -24.884911 -27.553674 0.000000 31.000000 14.154747 0.000000
52.860710 -24.739660 -27.347196 0.000000 27.000000 13.984665 0.000000
55.655499 -25.680394 -25.799948 0.000000 66.000000 14.723194 24.000000
52.672081 -24.712053 -28.851879 0.000000 50.000000 14.146646 0.000000
53.932796 -25.007456 -28.516374 0.000000 61.000000 14.397476 0.000000
57.235275 -25.036738 -26.739876 0.000000 46.000000 14.202948 0.000000
56.065086 -24.853671 -27.674051 0.000000 57.000000 14.138905 0.000000
51.958080 -24.974302 -26.805014 0.000000 26.000000 14.149206 0.000000
54.196846 -25.357819 -27.129400 0.000000 74.000000 14.570499 18.000000
51.870823 -24.981522 -26.735505 0.000000 25.000000 14.147621 0.000000
57.677307 -24.967555 -25.908858 0.000000 43.000000 14.029730 0.000000
56.870102 -25.228123 -26.674826 0.000000 57.000000 14.384625 27.000000
56.590488 -24.798541 -28.722681 0.000000 60.000000 14.216186 0.000000
56.667583 -24.848791 -28.115896 0.000000 49.000000 14.189671 0.000000
57.850708 -24.977215 -26.558538 0.000000 51.000000 14.121077 0.000000
57.881065 -24.939030 -26.085088 0.000000 35.000000 14.023611 0.000000
52.244461 -24.464820 -30.903930 0.000000 40.000000 14.159634 0.000000
54.815220 -24.821477 -28.122521 0.000000 49.000000 14.163408 0.000000
53.066158 -24.838100 -28.254413 0.000000 64.000000 14.196498 0.000000
54.126934 -25.252405 -27.855938 0.000000 53.000000 14.557360 2.000000
57.076721 -24.927702 -25.911291 0.000000 38.000000 13.990500 0.000000
53.572521 -25.695231 -26.276423 0.000000 69.000000 14.797879 30.000000
56.072670 -25.281746 -26.946862 0.000000 56.000000 14.472058 20.000000
55.697433 -25.005425 -25.899735 0.000000 37.000000 14.066150 0.000000
56.535229 -24.819733 -28.687315 0.000000 49.000000 14.232759 0.000000
54.598473 -24.836339 -28.635685 0.000000 53.000000 14.242735 0.000000
56.358162 -24.266919 -31.730842 0.000000 31.000000 14.067375 0.000000
56.400162 -24.261769 -31.612553 0.000000 34.000000 14.047379 0.000000
55.855259 -24.465190 -30.211304 0.000000 45.000000 14.072832 0.000000
54.212044 -24.625405 -29.409575 0.000000 38.000000 14.130874 0.000000
54.006279 -25.301618 -26.937415 0.000000 78.000000 14.490583 18.000000
57.942314 -24.941590 -26.828835 0.000000 57.000000 14.119753 0.000000
52.339939 -25.453733 -26.404813 0.000000 72.000000 14.574459 25.000000
56.538532 -25.235190 -26.025595 0.000000 60.000000 14.309928 27.000000
56.793991 -24.828376 -30.741556 0.000000 40.000000 14.499864 8.000000
57.668335 -24.691234 -31.409377 0.000000 65.000000 14.447859 12.000000
52.435661 -24.998151 -27.178528 0.000000 55.000000 14.219873 0.000000
55.594894 -25.523107 -27.097818 0.000000 47.000000 14.730498 20.000000
51.879253 -24.608356 -30.524256 0.000000 43.000000 14.254246 10.000000
57.475258 -25.069927 -26.877305 0.000000 46.000000 14.253169 21.000000
57.114975 -24.555729 -30.440148 0.000000 50.000000 14.191452 0.000000
53.362129 -24.694686 -28.996839 0.000000 49.000000 14.147660 0.000000
56.996624 -24.513718 -30.191606 0.000000 33.000000 14.118495 0.000000
56.510822 -24.854566 -28.335863 0.000000 45.000000 14.223084 0.000000
56.229549 -24.897800 -28.515515 0.000000 65.000000 14.288583 0.000000
54.320797 -25.198605 -26.915642 0.000000 67.000000 14.385649 18.000000
53.883694 -25.620314 -25.837232 0.000000 66.000000 14.668284 30.000000
56.187740 -24.834284 -28.298999 0.000000 61.000000 14.198323 0.000000
51.963936 -24.648432 -29.733434 0.000000 45.000000 14.194476 0.000000
53.249897 -24.543108 -30.089023 0.000000 55.000000 14.134741 0.000000
55.957695 -24.816615 -28.663531 0.000000 39.000000 14.226672 0.000000
55.014660 -24.442998 -31.197490 0.000000 32.000000 14.174931 0.000000
55.359386 -25.463436 -26.306042 0.000000 73.000000 14.571655 28.000000
57.139847 -25.483470 -27.076868 0.000000 62.000000 14.688540 21.000000
57.430130 -24.588970 -29.539889 0.000000 40.000000 14.111129 0.000000
52.771843 -24.934595 -27.665336 0.000000 52.000000 14.218089 0.000000
53.570267 -25.599192 -26.369499 0.000000 55.000000 14.714317 30.000000
56.046120 -24.613053 -29.803329 0.000000 43.000000 14.168175 0.000000
52.411327 -24.891192 -28.416163 0.000000 55.000000 14.269524 0.000000
56.489895 -24.683959 -29.166759 0.000000 34.000000 14.158403 0.000000
57.856796 -24.997547 -26.609458 0.000000 45.000000 14.147656 0.000000
56.583130 -24.676842 -29.065865 0.000000 36.000000 14.138645 0.000000
53.239849 -24.715867 -29.018961 0.000000 28.000000 14.171457 0.000000
58.027153 -24.970204 -26.092434 0.000000 36.000000 14.055461 0.000000
57.452698 -24.785150 -27.394304 0.000000 32.000000 14.035722 0.000000
57.551842 -24.368427 -30.317579 0.000000 29.000000 13.990214 0.000000
54.218369 -25.491326 -25.998987 0.000000 67.000000 14.560679 30.000000
56.583763 -24.996102 -27.630117 0.000000 61.000000 14.274674 16.000000
55.822971 -25.234513 -26.812222 0.000000 41.000000 14.408256 20.000000
56.949707 -24.701858 -28.672231 0.000000 37.000000 14.113922 0.000000
53.097893 -25.384214 -25.814845 0.000000 57.000000 14.431244 29.000000
57.212128 -24.823193 -28.379948 0.000000 45.000000 14.197508 0.000000
55.448715 -24.845335 -28.565598 0.000000 60.000000 14.242839 0.000000
55.105633 -24.672816 -31.388473 0.000000 69.000000 14.426957 14.000000
55.686378 -25.128654 -26.505556 0.000000 43.000000 14.264644 28.000000
57.254288 -24.666245 -30.651290 0.000000 36.000000 14.327662 8.000000
52.799118 -24.260450 -31.750670 0.000000 23.000000 14.063453 0.000000
53.688007 -25.667740 -26.189313 0.000000 58.000000 14.759643 30.000000
56.673203 -25.114564 -27.753914 0.000000 46.000000 14.407775 16.000000
53.680305 -24.709400 -28.705969 0.000000 46.000000 14.125650 0.000000
56.414410 -24.960101 -25.889936 0.000000 36.000000 14.019954 0.000000
57.673645 -24.664531 -29.262960 0.000000 26.000000 14.151237 0.000000
53.237335 -25.727175 -26.137082 0.000000 68.000000 14.812032 30.000000
53.373055 -24.985252 -26.612767 0.000000 32.000000 14.135875 0.000000
52.094612 -25.210846 -27.760174 0.000000 77.000000 14.504079 3.000000
52.763355 -24.432700 -31.186618 0.000000 26.000000 14.163346 0.000000
56.571976 -24.538341 -31.417471 0.000000 56.000000 14.297201 12.000000
55.397449 -24.754706 -27.474929 0.000000 37.000000 14.015667 0.000000
56.353333 -24.674559 -29.153566 0.000000 51.000000 14.147418 0.000000
57.548500 -25.361195 -26.476727 0.000000 69.000000 14.491708 27.000000
55.282703 -25.154620 -26.823154 0.000000 53.000000 14.330374 20.000000
53.131290 -25.330495 -26.911643 0.000000 50.000000 14.515987 18.000000
53.512882 -25.374767 -26.860149 0.000000 71.000000 14.553426 18.000000
55.571621 -25.057967 -29.170209 0.000000 66.000000 14.529872 1.000000
55.508965 -24.448644 -30.378144 0.000000 26.000000 14.077415 0.000000
55.002335 -24.468267 -31.741809 0.000000 54.000000 14.268503 0.000000
53.863091 -25.564810 -25.815561 0.000000 70.000000 14.610494 30.000000
53.560825 -25.013211 -26.754427 0.000000 35.000000 14.181440 0.000000
55.936954 -24.615452 -29.641295 0.000000 41.000000 14.150163 0.000000
56.034016 -25.041367 -26.959768 0.000000 62.000000 14.235214 20.000000
56.461472 -24.993313 -27.739796 0.000000 60.000000 14.285711 16.000000
56.740475 -25.243568 -27.136108 0.000000 67.000000 14.458001 21.000000
52.412560 -24.682732 -30.767594 0.000000 55.000000 14.358655 10.000000
53.910576 -25.337964 -26.876977 0.000000 75.000000 14.519034 18.000000
53.520184 -24.710093 -28.850709 0.000000 24.000000 14.144554 0.000000
54.741837 -24.756681 -28.613874 0.000000 61.000000 14.160965 0.000000
57.726570 -25.204657 -27.934660 0.000000 71.000000 14.519899 15.000000
56.200188 -24.758423 -28.802489 0.000000 43.000000 14.186431 0.000000
56.447300 -24.813607 -28.682634 0.000000 60.000000 14.226092 0.000000
55.184223 -24.638214 -30.682422 0.000000 49.000000 14.303772 6.000000
56.454704 -24.553453 -30.548241 0.000000 47.000000 14.202798 0.000000
57.145103 -24.988385 -26.586782 0.000000 58.000000 14.135712 0.000000
53.151623 -25.297819 -27.096768 0.000000 47.000000 14.506869 18.000000
57.014709 -25.439834 -25.887113 0.000000 78.000000 14.495517 23.000000
54.507652 -24.637911 -29.358516 0.000000 33.000000 14.136855 0.000000
58.015236 -24.614966 -28.797355 0.000000 32.000000 14.043469 0.000000
55.614899 -25.000489 -26.095882 0.000000 31.000000 14.085939 0.000000
55.662437 -25.038217 -26.517028 0.000000 50.000000 14.176370 0.000000
54.748005 -25.231948 -27.235103 0.000000 64.000000 14.458932 19.000000
53.492485 -24.660223 -29.039262 0.000000 24.000000 14.118810 0.000000
54.686001 -24.653020 -29.062613 0.000000 31.000000 14.114603 0.000000
55.304825 -24.437524 -31.017361 0.000000 36.000000 14.146831 0.000000
53.346935 -24.978222 -26.670080 0.000000 43.000000 14.136114 0.000000
53.632290 -24.648974 -28.840421 0.000000 29.000000 14.082626 0.000000
56.893772 -24.695073 -30.526926 0.000000 51.000000 14.340609 8.000000
56.539017 -25.655782 -26.372062 0.000000 77.000000 14.770780 27.000000
54.886635 -24.674390 -28.772799 0.000000 34.000000 14.099330 0.000000
55.390675 -25.239816 -26.944049 0.000000 58.000000 14.430107 20.000000
55.932133 -25.060389 -26.884842 0.000000 71.000000 14.244656 20.000000
55.373837 -25.353485 -26.521365 0.000000 68.000000 14.489677 28.000000
53.702454 -25.406892 -26.922040 0.000000 45.000000 14.593085 18.000000
55.084671 -24.793365 -28.487681 0.000000 36.000000 14.181476 0.000000
55.000896 -24.737165 -30.727793 0.000000 55.000000 14.407646 6.000000
54.069332 -24.857737 -28.258715 0.000000 35.000000 14.216520 0.000000
56.351345 -25.467134 -26.361939 0.000000 74.000000 14.582358 27.000000
54.162777 -24.803644 -28.169825 0.000000 31.000000 14.151670 0.000000
54.221416 -25.300582 -27.029780 0.000000 71.000000 14.501180 18.000000
53.711926 -25.506639 -27.108880 0.000000 72.000000 14.715553 18.000000
57.642532 -24.814978 -28.202906 0.000000 47.000000 14.167077 0.000000
51.826889 -25.086023 -28.501477 0.000000 35.000000 14.473543 17.000000
51.861626 -25.545617 -26.082865 0.000000 47.000000 14.625095 25.000000
54.227619 -24.861846 -27.224530 0.000000 53.000000 14.090442 0.000000
54.115822 -25.216949 -27.582365 0.000000 64.000000 14.487756 2.000000
54.519573 -24.848732 -27.819104 0.000000 35.000000 14.152261 0.000000
55.675083 -24.822209 -27.874824 0.000000 36.000000 14.132961 0.000000
56.162033 -24.472962 -30.767539 0.000000 50.000000 14.150546 0.000000
55.760601 -24.857818 -27.790551 0.000000 38.000000 14.157681 0.000000
55.452518 -24.849765 -27.631528 0.000000 42.000000 14.129678 0.000000
56.689415 -24.993641 -26.787341 0.000000 47.000000 14.166168 0.000000
55.849003 -24.727854 -29.049566 0.000000 45.000000 14.187200 0.000000
55.253696 -24.888585 -27.798317 0.000000 54.000000 14.189181 0.000000
57.820984 -25.044617 -28.008631 0.000000 51.000000 14.370441 15.000000
54.323959 -24.782886 -30.610776 0.000000 48.000000 14.438277 9.000000
55.315838 -24.835656 -28.558401 0.000000 51.000000 14.232331 0.000000
55.351147 -25.314768 -27.083902 0.000000 66.000000 14.522064 20.000000
55.322792 -25.378126 -26.244111 0.000000 75.000000 14.479229 28.000000
52.582825 -24.948427 -26.938695 0.000000 24.000000 14.140361 0.000000
56.182682 -24.923314 -27.243497 0.000000 43.000000 14.153808 0.000000
53.997913 -24.606429 -31.400420 0.000000 58.000000 14.362601 13.000000
56.480682 -24.812998 -27.237942 0.000000 38.000000 14.043670 0.000000
55.604271 -25.022170 -26.611601 0.000000 51.000000 14.172352 0.000000
56.293304 -24.843933 -28.469850 0.000000 66.000000 14.229398 0.000000
57.358116 -24.700627 -28.605529 0.000000 39.000000 14.104307 0.000000
57.810188 -24.612562 -29.611063 0.000000 47.000000 14.143491 0.000000
55.168758 -24.754023 -31.443580 0.000000 48.000000 14.514454 14.000000
54.440929 -24.998112 -27.669184 0.000000 40.000000 14.281585 2.000000
56.318039 -25.076675 -26.559332 0.000000 39.000000 14.219846 0.000000
56.689487 -25.019498 -27.254519 0.000000 50.000000 14.250614 21.000000
55.553783 -25.378688 -26.364787 0.000000 66.000000 14.494974 28.000000
57.136879 -25.415898 -26.462578 0.000000 68.000000 14.544195 27.000000
55.616413 -24.799296 -28.564887 0.000000 52.000000 14.197076 0.000000
56.184196 -24.879692 -28.416858 0.000000 54.000000 14.258203 0.000000
55.096527 -25.438547 -26.174886 0.000000 73.000000 14.530457 28.000000
54.518917 -24.637508 -29.560222 0.000000 47.000000 14.161840 0.000000
57.660378 -24.410429 -31.146204 0.000000 41.000000 14.136166 0.000000
56.570778 -25.322555 -26.112656 0.000000 69.000000 14.407556 27.000000
54.262863 -24.990098 -26.822349 0.000000 44.000000 14.167059 0.000000
58.033203 -24.717624 -27.415776 0.000000 27.000000 13.971435 0.000000
57.584061 -25.183530 -26.134031 0.000000 34.000000 14.272326 27.000000
57.428848 -25.286257 -26.118702 0.000000 61.000000 14.372307 27.000000
53.427872 -25.206611 -25.855257 0.000000 46.000000 14.260139 29.000000
51.936646 -25.132256 -26.868443 0.000000 49.000000 14.313887 4.000000
56.050365 -24.295781 -31.512519 0.000000 28.000000 14.068531 0.000000
56.274216 -24.882985 -28.101996 0.000000 39.000000 14.221844 0.000000
52.486282 -24.624830 -29.491805 0.000000 39.000000 14.140652 0.000000
54.052246 -24.568499 -30.120524 0.000000 51.000000 14.163895 0.000000
57.317520 -25.361655 -26.872813 0.000000 70.000000 14.542012 21.000000
53.159184 -25.185098 -26.844381 0.000000 53.000000 14.363281 18.000000
55.455597 -25.399360 -25.885054 0.000000 67.000000 14.455106 24.000000
51.993187 -25.237594 -26.907223 0.000000 72.000000 14.423268 4.000000
56.193920 -24.945282 -28.519306 0.000000 66.000000 14.336165 0.000000
57.497925 -25.101405 -27.937734 0.000000 58.000000 14.417854 15.000000
53.059250 -24.727931 -29.267816 0.000000 53.000000 14.214744 0.000000
55.452328 -24.790803 -27.446709 0.000000 27.000000 14.047925 0.000000
53.610428 -24.439591 -31.280657 0.000000 29.000000 14.182017 0.000000
57.464180 -25.376200 -27.051738 0.000000 83.000000 14.578960 21.000000
53.124035 -24.689175 -29.341818 0.000000 48.000000 14.185609 0.000000
54.548988 -24.409313 -31.188559 0.000000 35.000000 14.140389 0.000000
55.711708 -24.849911 -27.965009 0.000000 52.000000 14.171793 0.000000
54.445042 -24.418518 -31.144282 0.000000 31.000000 14.143949 0.000000
53.281895 -24.421714 -31.165871 0.000000 29.000000 14.149837 0.000000
52.855816 -24.891350 -27.815456 0.000000 57.000000 14.194081 0.000000
54.991470 -25.187068 -27.118630 0.000000 50.000000 14.399750 19.000000
57.888672 -24.967386 -26.704728 0.000000 45.000000 14.129724 0.000000
57.420723 -25.619093 -26.412460 0.000000 81.000000 14.739467 27.000000
54.147823 -24.433569 -30.998850 0.000000 32.000000 14.140577 0.000000
52.967178 -24.449877 -31.020975 0.000000 29.000000 14.159540 0.000000
53.347973 -24.575713 -30.883331 0.000000 51.000000 14.267053 0.000000
52.865326 -24.464627 -30.965343 0.000000 27.000000 14.167171 0.000000
56.449768 -25.457759 -26.460266 0.000000 51.000000 14.585432 27.000000
53.296345 -24.856710 -30.011627 0.000000 37.000000 14.436109 5.000000
53.310860 -24.688201 -28.729787 0.000000 25.000000 14.107618 0.000000
54.541821 -24.817626 -28.058074 0.000000 39.000000 14.151477 0.000000
54.953060 -24.654641 -29.776779 0.000000 58.000000 14.206091 0.000000
53.785923 -24.870505 -27.488093 0.000000 41.000000 14.132202 0.000000
57.480629 -25.604202 -26.333113 0.000000 76.000000 14.714708 27.000000
53.335457 -24.446719 -30.381616 0.000000 28.000000 14.075942 0.000000
53.595394 -24.458371 -31.652067 0.000000 49.000000 14.247391 13.000000
53.354900 -25.413596 -26.999623 0.000000 80.000000 14.609500 18.000000
53.222305 -24.925146 -27.738793 0.000000 51.000000 14.217960 0.000000
53.210899 -24.419333 -30.238472 0.000000 28.000000 14.030759 0.000000
51.970825 -24.450512 -30.252846 0.000000 19.000000 14.063499 0.000000
53.045753 -24.937915 -27.739222 0.000000 58.000000 14.230681 0.000000
55.436733 -24.958570 -29.297430 0.000000 54.000000 14.447276 1.000000
51.848537 -24.472685 -30.092043 0.000000 20.000000 14.065258 0.000000
54.338287 -24.925128 -28.000648 0.000000 68.000000 14.250897 2.000000
52.062954 -24.654628 -29.707617 0.000000 56.000000 14.197374 0.000000
52.855522 -24.619070 -29.651643 0.000000 31.000000 14.155054 0.000000
54.035877 -24.835426 -30.660313 0.000000 63.000000 14.496633 9.000000
54.036728 -24.889863 -28.319386 0.000000 61.000000 14.256026 0.000000
56.223267 -24.994202 -26.805545 0.000000 43.000000 14.169015 0.000000
51.901295 -25.440191 -26.548270 0.000000 76.000000 14.579079 25.000000
53.094887 -24.917715 -27.672578 0.000000 47.000000 14.202254 0.000000
53.334583 -24.416638 -31.084890 0.000000 25.000000 14.134609 0.000000
52.364258 -24.693852 -29.271522 0.000000 46.000000 14.181402 0.000000
52.680424 -24.622028 -28.947952 0.000000 32.000000 14.069427 0.000000
52.160358 -25.782683 -26.397185 0.000000 75.000000 14.899834 25.000000
53.644218 -24.595367 -29.701490 0.000000 41.000000 14.137813 0.000000
56.017288 -25.010897 -26.882240 0.000000 56.000000 14.195230 0.000000
52.667004 -24.764563 -28.572084 0.000000 32.000000 14.163525 0.000000
56.331417 -25.246812 -26.122192 0.000000 52.000000 14.333615 27.000000
57.952698 -24.970844 -26.068378 0.000000 21.000000 14.053069 0.000000
52.713779 -24.845182 -28.199783 0.000000 40.000000 14.196648 0.000000
52.793724 -25.394420 -26.687677 0.000000 78.000000 14.551217 30.000000
56.966778 -24.838181 -27.948690 0.000000 42.000000 14.158102 0.000000
57.943695 -24.643392 -29.135464 0.000000 51.000000 14.114220 0.000000
52.817516 -24.866585 -27.830365 0.000000 35.000000 14.171389 0.000000
55.516571 -25.097790 -27.141311 0.000000 62.000000 14.314036 20.000000
54.743721 -24.980955 -26.586504 0.000000 40.000000 14.128307 0.000000
53.104141 -25.324943 -27.017702 0.000000 62.000000 14.523827 18.000000
55.391624 -25.427686 -26.356475 0.000000 63.000000 14.542536 28.000000
57.939110 -24.978478 -26.756763 0.000000 31.000000 14.147277 0.000000
53.226418 -25.374371 -27.175054 0.000000 71.000000 14.592665 18.000000
51.838524 -24.931971 -27.283932 0.000000 27.000000 14.167485 0.000000
54.364452 -25.423354 -26.132098 0.000000 82.000000 14.510000 28.000000
55.691315 -24.706899 -28.985188 0.000000 24.000000 14.158310 0.000000
53.583302 -25.419228 -27.255286 0.000000 80.000000 14.647263 18.000000
54.102264 -24.673235 -28.843260 0.000000 31.000000 14.107051 0.000000
53.914417 -25.430775 -25.779907 0.000000 72.000000 14.473038 30.000000
56.781090 -25.037840 -27.222817 0.000000 58.000000 14.264821 21.000000
54.283840 -25.134664 -25.936642 0.000000 36.000000 14.199007 0.000000
52.614254 -24.865828 -27.536764 0.000000 41.000000 14.133687 0.000000
56.236374 -24.821217 -28.273027 0.000000 62.000000 14.182092 0.000000
53.706284 -24.547317 -31.583244 0.000000 52.000000 14.326968 13.000000
56.904686 -25.204487 -26.976846 0.000000 62.000000 14.399187 21.000000
57.760216 -24.835440 -27.779535 0.000000 40.000000 14.134094 0.000000
57.469498 -24.587497 -28.859327 0.000000 31.000000 14.024017 0.000000
57.692116 -25.409802 -26.245359 0.000000 79.000000 14.510810 27.000000
56.518669 -25.587759 -25.877417 0.000000 72.000000 14.641046 23.000000
56.344578 -24.588848 -30.705177 0.000000 42.000000 14.257662 0.000000
55.911289 -24.716336 -28.931503 0.000000 52.000000 14.160915 0.000000
53.104504 -24.817661 -28.681705 0.000000 47.000000 14.229997 0.000000
57.671486 -24.788518 -28.211132 0.000000 42.000000 14.141863 0.000000
56.764191 -24.585012 -28.961447 0.000000 28.000000 14.034404 0.000000
57.686043 -24.583254 -28.963894 0.000000 39.000000 14.032968 0.000000
56.615303 -24.617566 -28.973255 0.000000 27.000000 14.068185 0.000000
57.556267 -24.551876 -28.976512 0.000000 33.000000 14.003427 0.000000
52.044987 -24.721271 -29.617624 0.000000 72.000000 14.252161 0.000000
55.118935 -24.936896 -29.008272 0.000000 60.000000 14.389383 1.000000
54.897911 -24.721947 -31.310957 0.000000 55.000000 14.465942 14.000000
56.811012 -25.260652 -27.156433 0.000000 74.000000 14.477507 21.000000
54.550938 -24.456961 -30.176752 0.000000 43.000000 14.060320 0.000000
55.626865 -24.797276 -30.627722 0.000000 52.000000 14.454685 6.000000
56.042854 -24.688204 -29.000737 0.000000 36.000000 14.141720 0.000000
54.561104 -24.673303 -28.708951 0.000000 29.000000 14.090216 0.000000
58.016617 -24.921598 -25.891738 0.000000 35.000000 13.981984 0.000000
54.865589 -24.452448 -30.872426 0.000000 24.000000 14.143395 0.000000
58.019447 -25.016593 -26.538586 0.000000 55.000000 14.157631 0.000000
54.508835 -24.493889 -30.571003 0.000000 24.000000 14.146572 0.000000
56.790192 -24.767851 -28.609161 0.000000 58.000000 14.171453 0.000000
54.057640 -24.813334 -28.272083 0.000000 55.000000 14.174153 0.000000
