15.916713 3.048454 -15.656873 0.000000 57.000000 14.811795 1.000000
16.501920 5.021397 -15.889797 0.000000 51.000000 14.414115 0.000000
18.485904 3.698887 -17.575787 0.000000 16.000000 14.985658 2.000000
18.829963 0.088777 -18.949498 0.000000 67.000000 15.414463 27.000000
15.806731 4.342357 -15.334254 0.000000 69.000000 14.550890 0.000000
16.875646 3.353949 -16.635700 0.000000 53.000000 14.677405 15.000000
18.654672 4.340778 -17.183441 0.000000 64.000000 15.161945 12.000000
13.622137 -0.160969 -15.584267 0.000000 39.000000 14.365826 0.000000
15.472236 -0.876238 -17.215746 0.000000 47.000000 14.694568 13.000000
15.310617 2.639719 -15.696593 0.000000 58.000000 14.514978 0.000000
14.706655 2.125383 -15.447858 0.000000 55.000000 14.450066 0.000000
18.226025 2.230424 -18.335861 0.000000 56.000000 14.759393 23.000000
15.637842 0.334972 -16.338686 0.000000 78.000000 15.020053 18.000000
16.022788 -1.038044 -18.153508 0.000000 41.000000 14.467196 0.000000
17.642899 4.828605 -16.057720 0.000000 67.000000 15.111179 12.000000
15.573522 3.973639 -15.374378 0.000000 55.000000 14.486545 0.000000
17.614947 -1.119523 -19.711631 0.000000 49.000000 14.475979 0.000000
18.727272 1.921940 -18.737004 0.000000 61.000000 14.912645 23.000000
18.215662 -0.153602 -19.385286 0.000000 71.000000 14.789003 27.000000
14.887457 0.505995 -15.323944 0.000000 65.000000 15.165607 30.000000
15.603224 2.288237 -16.216410 0.000000 28.000000 14.463418 0.000000
16.069545 4.856387 -15.505841 0.000000 53.000000 14.444110 0.000000
16.078792 -0.172240 -16.958238 0.000000 71.000000 15.047186 22.000000
16.057241 0.587298 -16.753344 0.000000 57.000000 14.932937 25.000000
17.199191 4.594918 -16.720661 0.000000 63.000000 14.440010 0.000000
17.925545 1.725323 -18.361700 0.000000 56.000000 14.703648 4.000000
17.203686 -0.524526 -18.550219 0.000000 47.000000 14.810926 20.000000
17.222596 1.769041 -17.234041 0.000000 46.000000 14.997824 9.000000
16.754299 3.539910 -16.281954 0.000000 89.000000 14.780504 15.000000
18.765515 2.338821 -18.472472 0.000000 70.000000 14.986812 24.000000
16.264898 1.056174 -16.814418 0.000000 58.000000 14.879652 28.000000
14.559272 1.073533 -15.535567 0.000000 57.000000 14.625618 18.000000
17.166958 4.611593 -16.519582 0.000000 40.000000 14.550937 0.000000
16.928897 1.512824 -17.352629 0.000000 64.000000 14.804490 9.000000
17.095490 -1.055827 -19.157578 0.000000 43.000000 14.492613 0.000000
18.742110 4.347370 -17.332836 0.000000 57.000000 15.115312 12.000000
20.136085 3.500775 -19.514760 0.000000 51.000000 14.809233 16.000000
15.614699 2.265127 -15.940688 0.000000 28.000000 14.666694 29.000000
14.752232 2.083727 -15.518276 0.000000 55.000000 14.445106 0.000000
19.156567 3.778458 -18.152187 0.000000 54.000000 15.007977 17.000000
16.280654 0.504156 -17.219721 0.000000 45.000000 14.787539 25.000000
16.503517 -1.305166 -18.258205 0.000000 66.000000 14.796452 14.000000
15.229700 2.560234 -15.657219 0.000000 61.000000 14.513759 0.000000
15.181595 2.702113 -15.549610 0.000000 64.000000 14.510790 0.000000
15.138498 2.843543 -15.422518 0.000000 84.000000 14.524574 0.000000
16.937787 4.569019 -16.279860 0.000000 69.000000 14.577396 6.000000
17.661393 -0.111504 -18.732042 0.000000 55.000000 14.857338 21.000000
16.688821 4.922437 -16.150712 0.000000 34.000000 14.390094 0.000000
17.189973 4.649478 -16.589296 0.000000 66.000000 14.506468 0.000000
19.774723 3.515795 -19.772756 0.000000 29.000000 14.390368 0.000000
18.286550 2.057364 -18.404489 0.000000 83.000000 14.807029 23.000000
16.583069 0.877624 -17.586393 0.000000 38.000000 14.617936 28.000000
16.172049 4.139524 -15.802302 0.000000 56.000000 14.535571 0.000000
15.821559 1.479978 -15.710869 0.000000 73.000000 15.208059 29.000000
16.395699 1.912705 -16.906061 0.000000 53.000000 14.632363 9.000000
15.888312 4.420852 -15.303825 0.000000 51.000000 14.600561 6.000000
16.742480 -1.312504 -18.069635 0.000000 70.000000 15.084895 14.000000
16.241491 4.280998 -15.558757 0.000000 72.000000 14.702983 6.000000
17.820817 1.746278 -18.236156 0.000000 60.000000 14.713896 4.000000
16.229294 2.580204 -16.605287 0.000000 42.000000 14.517400 0.000000
14.912496 2.344785 -15.701537 0.000000 42.000000 14.342823 0.000000
14.936146 2.180932 -15.601770 0.000000 57.000000 14.478357 0.000000
14.350499 1.440053 -15.311836 0.000000 37.000000 14.525261 0.000000
16.210631 0.478898 -16.872061 0.000000 63.000000 14.987020 25.000000
13.814561 0.192447 -15.414431 0.000000 54.000000 14.496809 0.000000
15.746894 0.671141 -16.366399 0.000000 57.000000 14.966621 18.000000
16.288385 3.374666 -16.556678 0.000000 36.000000 14.338382 0.000000
18.961283 1.226649 -19.524923 0.000000 53.000000 14.747986 27.000000
18.630715 1.677371 -18.556733 0.000000 64.000000 15.049598 23.000000
15.872196 -0.459608 -17.038128 0.000000 67.000000 14.947466 22.000000
15.678811 1.254965 -15.628777 0.000000 72.000000 15.241340 29.000000
16.086427 3.761270 -15.929722 0.000000 68.000000 14.511712 0.000000
16.242734 3.760976 -16.001769 0.000000 70.000000 14.565436 0.000000
18.519502 -0.540711 -19.389106 0.000000 72.000000 15.108712 27.000000
16.542584 3.770118 -16.334241 0.000000 64.000000 14.532677 0.000000
17.090415 2.719932 -17.236837 0.000000 60.000000 14.608356 5.000000
18.238690 0.156350 -19.450616 0.000000 53.000000 14.661540 27.000000
15.876489 4.126768 -15.554955 0.000000 58.000000 14.514124 0.000000
15.268418 -0.516823 -17.197508 0.000000 48.000000 14.459291 0.000000
16.326559 -1.179832 -18.037286 0.000000 78.000000 14.791348 14.000000
17.248712 2.039377 -17.337570 0.000000 71.000000 14.858812 9.000000
16.171460 4.112473 -15.782917 0.000000 56.000000 14.556981 0.000000
15.602555 0.470569 -15.837778 0.000000 54.000000 15.296273 18.000000
16.318686 4.107826 -15.951607 0.000000 68.000000 14.540063 0.000000
15.854822 1.089874 -16.963854 0.000000 33.000000 14.497009 0.000000
17.491892 3.740592 -17.282230 0.000000 49.000000 14.518925 0.000000
14.408950 0.561439 -15.335932 0.000000 72.000000 14.824984 30.000000
17.785611 2.230941 -17.662907 0.000000 74.000000 14.929268 5.000000
17.431068 3.127443 -17.325753 0.000000 59.000000 14.642966 15.000000
19.805364 2.893369 -19.343587 0.000000 67.000000 14.900556 3.000000
15.483159 2.372278 -15.557558 0.000000 68.000000 14.808076 8.000000
14.349502 0.043256 -16.013376 0.000000 57.000000 14.486712 0.000000
15.240244 -0.079245 -15.942970 0.000000 74.000000 15.159744 30.000000
15.916922 1.901176 -15.625842 0.000000 30.000000 15.195784 29.000000
14.158433 1.001508 -15.606316 0.000000 37.000000 14.336245 0.000000
14.140224 1.159093 -15.512105 0.000000 35.000000 14.338831 0.000000
18.283581 3.792564 -17.533172 0.000000 50.000000 14.852021 2.000000
14.872005 2.054277 -15.564197 0.000000 58.000000 14.501857 0.000000
17.168818 1.607401 -17.145624 0.000000 74.000000 15.073947 9.000000
16.780124 0.504454 -18.031574 0.000000 52.000000 14.561352 25.000000
15.421536 0.151823 -16.483935 0.000000 61.000000 14.836336 18.000000
17.625573 4.564190 -17.169802 0.000000 37.000000 14.423396 0.000000
16.827242 3.971456 -16.553362 0.000000 46.000000 14.506628 0.000000
17.156744 1.887612 -17.546283 0.000000 58.000000 14.703631 9.000000
17.303537 4.478712 -16.966051 0.000000 37.000000 14.377720 0.000000
15.528939 0.577717 -15.806196 0.000000 63.000000 15.235540 18.000000
17.943749 2.273119 -17.690878 0.000000 52.000000 15.000892 5.000000
15.563391 1.381579 -15.599066 0.000000 72.000000 15.145664 29.000000
17.260406 3.801833 -17.034229 0.000000 61.000000 14.516701 0.000000
14.745477 0.809274 -15.418973 0.000000 43.000000 14.911366 30.000000
15.823782 -0.888104 -17.859159 0.000000 47.000000 14.489984 0.000000
16.305486 -0.001800 -17.540063 0.000000 47.000000 14.744899 22.000000
15.929781 1.178069 -16.550862 0.000000 85.000000 14.800687 29.000000
16.211768 -0.007297 -17.134126 0.000000 51.000000 14.962364 22.000000
16.330069 0.132665 -17.621872 0.000000 52.000000 14.662668 25.000000
16.626852 3.714555 -16.448494 0.000000 60.000000 14.527620 0.000000
15.253317 1.224213 -15.420294 0.000000 62.000000 15.113514 18.000000
17.136614 0.932702 -17.707900 0.000000 77.000000 14.881780 28.000000
15.819016 3.225756 -15.379943 0.000000 61.000000 14.880702 1.000000
16.011355 3.667303 -15.937363 0.000000 59.000000 14.486788 0.000000
13.743961 -0.160368 -15.697686 0.000000 38.000000 14.368302 0.000000
16.224252 3.521554 -16.359788 0.000000 37.000000 14.384294 0.000000
15.554591 3.661907 -15.671905 0.000000 41.000000 14.369302 0.000000
15.439776 3.640632 -15.314542 0.000000 46.000000 14.544678 0.000000
16.690653 0.847184 -17.887373 0.000000 46.000000 14.492679 0.000000
17.694964 2.442321 -17.477136 0.000000 58.000000 14.929748 5.000000
15.942365 0.012898 -17.018277 0.000000 77.000000 14.857854 22.000000
15.341684 3.520680 -15.495411 0.000000 43.000000 14.394440 0.000000
16.862204 3.322897 -16.515953 0.000000 67.000000 14.760206 15.000000
17.667095 -0.196533 -18.717869 0.000000 70.000000 14.897652 21.000000
16.071286 -0.977239 -18.041964 0.000000 48.000000 14.556118 14.000000
17.118346 -1.348920 -19.348065 0.000000 42.000000 14.470127 0.000000
16.959948 3.570342 -16.585038 0.000000 57.000000 14.699105 15.000000
16.295061 3.207523 -16.628780 0.000000 44.000000 14.346336 0.000000
16.025082 2.116362 -16.244836 0.000000 62.000000 14.775945 10.000000
16.392974 -0.577162 -18.034594 0.000000 58.000000 14.646396 22.000000
14.161642 0.480545 -15.192835 0.000000 72.000000 14.785589 30.000000
16.116766 4.159533 -15.774704 0.000000 53.000000 14.511724 0.000000
18.386337 -0.437008 -19.210896 0.000000 62.000000 15.110079 27.000000
16.871731 2.966126 -17.208475 0.000000 49.000000 14.406001 0.000000
18.691831 2.621694 -18.140838 0.000000 72.000000 15.075534 24.000000
17.252017 -1.622671 -19.596211 0.000000 55.000000 14.475052 0.000000
17.015136 3.152240 -16.747618 0.000000 54.000000 14.756481 15.000000
16.484667 4.117541 -15.571962 0.000000 82.000000 14.905660 6.000000
16.389747 3.129754 -16.722470 0.000000 43.000000 14.369206 0.000000
16.003305 1.558689 -16.014050 0.000000 66.000000 15.095602 29.000000
16.541851 3.043982 -16.631808 0.000000 60.000000 14.558373 0.000000
17.141520 1.223858 -18.143457 0.000000 41.000000 14.495331 0.000000
16.793324 2.905405 -17.128954 0.000000 50.000000 14.427938 0.000000
16.933198 2.822204 -17.213181 0.000000 56.000000 14.488730 0.000000
18.686017 0.508459 -19.221828 0.000000 44.000000 15.000973 27.000000
18.323069 3.674092 -17.653867 0.000000 67.000000 14.832978 2.000000
18.206923 2.270169 -18.651520 0.000000 49.000000 14.518548 0.000000
14.842735 0.198268 -15.650022 0.000000 70.000000 15.010615 30.000000
15.585954 -1.123155 -17.215918 0.000000 60.000000 14.847337 13.000000
19.755322 3.712862 -18.804812 0.000000 62.000000 14.976770 16.000000
17.734749 0.302236 -18.544619 0.000000 66.000000 14.902912 26.000000
14.065373 0.227053 -15.670447 0.000000 63.000000 14.475977 0.000000
16.556826 -0.342160 -17.476945 0.000000 60.000000 15.061023 22.000000
15.430447 0.787091 -15.706285 0.000000 67.000000 15.172817 18.000000
15.601908 0.375432 -15.829771 0.000000 76.000000 15.331391 18.000000
18.331745 1.856912 -18.355395 0.000000 45.000000 14.933683 23.000000
15.674646 4.026493 -15.453906 0.000000 41.000000 14.482041 0.000000
18.844215 1.095055 -19.457156 0.000000 54.000000 14.758849 27.000000
18.828488 3.151977 -18.906740 0.000000 45.000000 14.474458 0.000000
15.709094 2.339942 -15.858966 0.000000 56.000000 14.761013 8.000000
17.803416 3.398547 -17.777873 0.000000 45.000000 14.493350 0.000000
16.780228 -0.383528 -17.785893 0.000000 76.000000 15.009995 22.000000
18.520269 2.518824 -18.298796 0.000000 67.000000 14.887203 24.000000
17.874836 0.929077 -18.200440 0.000000 75.000000 15.032164 26.000000
19.576531 3.535017 -18.485043 0.000000 45.000000 15.133842 16.000000
17.952958 3.159940 -18.037978 0.000000 44.000000 14.489439 0.000000
19.509146 3.587335 -19.267275 0.000000 39.000000 14.538407 0.000000
15.701526 1.792739 -15.474579 0.000000 75.000000 15.191677 29.000000
17.413171 -0.240366 -18.700212 0.000000 66.000000 14.756467 21.000000
16.418527 0.887852 -17.118641 0.000000 66.000000 14.826064 28.000000
17.896870 2.758562 -18.328034 0.000000 57.000000 14.381184 0.000000
18.998700 -0.094459 -19.228514 0.000000 67.000000 15.392758 27.000000
17.729358 2.786381 -18.164096 0.000000 44.000000 14.374181 0.000000
15.714308 0.793716 -15.927431 0.000000 52.000000 15.206408 18.000000
15.933910 -1.232337 -18.338898 0.000000 39.000000 14.343430 0.000000
17.025213 0.888441 -17.467367 0.000000 64.000000 14.986830 28.000000
16.027954 2.343871 -16.150060 0.000000 68.000000 14.770688 10.000000
15.800214 1.177991 -16.211488 0.000000 47.000000 14.947361 29.000000
18.812231 1.018328 -19.713252 0.000000 64.000000 14.587045 27.000000
18.306766 3.521704 -18.192104 0.000000 33.000000 14.502604 0.000000
18.417661 0.317569 -18.839443 0.000000 51.000000 15.146016 26.000000
16.636739 3.015008 -16.785436 0.000000 54.000000 14.524993 0.000000
19.564751 3.469762 -18.687867 0.000000 67.000000 15.008113 16.000000
16.484805 3.058383 -16.689845 0.000000 60.000000 14.476618 0.000000
15.599359 2.240759 -15.951024 0.000000 42.000000 14.657238 29.000000
17.675442 0.240164 -18.645656 0.000000 66.000000 14.814457 26.000000
15.383741 3.559732 -15.550860 0.000000 39.000000 14.371881 0.000000
16.185805 3.149059 -16.468578 0.000000 42.000000 14.402392 0.000000
16.951035 3.097483 -16.958283 0.000000 52.000000 14.587644 15.000000
17.067547 4.948674 -15.494583 0.000000 52.000000 15.079417 7.000000
16.751357 0.205147 -17.787927 0.000000 59.000000 14.803530 25.000000
15.290000 3.363624 -15.427033 0.000000 58.000000 14.456798 0.000000
15.404681 3.275074 -15.538829 0.000000 62.000000 14.483862 0.000000
15.527364 3.180696 -15.583279 0.000000 67.000000 14.564056 0.000000
16.663764 -1.238003 -18.221071 0.000000 70.000000 14.906057 14.000000
17.597614 -0.665878 -19.072198 0.000000 51.000000 14.758146 20.000000
16.063505 2.711609 -16.414373 0.000000 57.000000 14.497223 0.000000
17.517484 1.382300 -18.219976 0.000000 48.000000 14.640380 4.000000
19.015101 3.616280 -18.216461 0.000000 58.000000 14.922219 17.000000
16.560045 -0.320475 -18.139140 0.000000 35.000000 14.603765 22.000000
14.524188 0.621921 -14.998451 0.000000 70.000000 15.112328 30.000000
15.649928 0.494266 -15.784874 0.000000 71.000000 15.356112 18.000000
16.903478 4.809632 -15.433068 0.000000 64.000000 15.057431 7.000000
17.704219 0.534481 -18.239687 0.000000 49.000000 15.017789 26.000000
16.771329 0.069614 -17.792067 0.000000 59.000000 14.856685 25.000000
18.793248 1.763496 -18.668231 0.000000 44.000000 15.053144 23.000000
16.376468 1.706750 -17.401899 0.000000 42.000000 14.345969 0.000000
16.687243 -0.023751 -17.530192 0.000000 59.000000 15.009817 25.000000
16.483734 1.575834 -17.393218 0.000000 38.000000 14.463875 0.000000
17.127820 0.582817 -18.441523 0.000000 37.000000 14.485255 0.000000
17.042785 4.256916 -16.172923 0.000000 58.000000 14.818225 6.000000
18.934623 2.369059 -18.575214 0.000000 77.000000 15.018334 24.000000
16.543318 -0.452124 -17.627834 0.000000 33.000000 14.983780 22.000000
17.277579 -1.391103 -19.402803 0.000000 52.000000 14.550845 0.000000
18.129475 0.718450 -18.497947 0.000000 48.000000 15.063013 26.000000
16.257879 5.052980 -15.723931 0.000000 41.000000 14.356875 0.000000
19.186115 3.144042 -18.816520 0.000000 71.000000 14.773973 3.000000
16.510240 5.247041 -15.608286 0.000000 59.000000 14.540641 0.000000
17.002091 3.577408 -16.596744 0.000000 63.000000 14.716606 15.000000
16.324871 -1.363735 -18.723007 0.000000 42.000000 14.379768 0.000000
17.118972 4.909843 -15.478478 0.000000 65.000000 15.136539 7.000000
15.758837 0.911142 -16.135313 0.000000 68.000000 15.056535 18.000000
18.674077 0.982887 -19.642309 0.000000 53.000000 14.555809 0.000000
18.761893 0.620745 -19.203758 0.000000 79.000000 15.027762 27.000000
18.338166 1.144906 -19.414163 0.000000 39.000000 14.439441 0.000000
18.836509 1.662759 -19.422029 0.000000 44.000000 14.598335 19.000000
15.894266 2.554867 -16.314796 0.000000 46.000000 14.503439 0.000000
15.687341 2.082591 -15.919808 0.000000 65.000000 14.786466 29.000000
15.522872 0.936712 -15.579208 0.000000 73.000000 15.273188 18.000000
15.082123 1.324680 -15.591785 0.000000 47.000000 14.851903 18.000000
18.125364 4.242675 -17.840270 0.000000 42.000000 14.395761 0.000000
18.527588 2.751718 -18.027756 0.000000 56.000000 15.003623 24.000000
16.393710 -0.408142 -16.992145 0.000000 70.000000 15.305830 22.000000
18.083445 3.895141 -17.568218 0.000000 45.000000 14.663939 2.000000
17.980227 1.267153 -18.099003 0.000000 55.000000 15.063977 4.000000
16.612368 1.317366 -16.772155 0.000000 73.000000 15.054642 28.000000
16.606246 -1.373052 -18.895940 0.000000 60.000000 14.449709 0.000000
18.116152 -0.163376 -19.372968 0.000000 60.000000 14.735023 27.000000
15.272953 2.567399 -15.602624 0.000000 65.000000 14.577267 8.000000
17.039345 1.675726 -17.144614 0.000000 75.000000 14.967834 9.000000
15.352513 3.240372 -15.495760 0.000000 61.000000 14.489931 0.000000
15.248221 3.340645 -15.388898 0.000000 61.000000 14.462627 0.000000
16.786198 0.688271 -17.557606 0.000000 59.000000 14.831140 25.000000
16.509583 5.187757 -15.604655 0.000000 57.000000 14.561429 0.000000
18.269408 2.659332 -18.157207 0.000000 67.000000 14.774456 24.000000
14.033401 0.569216 -15.295138 0.000000 65.000000 14.603255 30.000000
19.046356 0.462084 -19.242135 0.000000 58.000000 15.238894 27.000000
15.680376 4.207969 -15.313842 0.000000 54.000000 14.524164 0.000000
15.259672 3.235386 -15.413631 0.000000 54.000000 14.486533 0.000000
14.930013 2.711402 -15.413009 0.000000 32.000000 14.435637 0.000000
16.412127 0.153516 -17.265696 0.000000 61.000000 14.953478 25.000000
16.686363 0.331263 -17.413736 0.000000 53.000000 14.976602 25.000000
15.748904 2.325036 -16.312051 0.000000 46.000000 14.482300 0.000000
16.420906 -0.171329 -16.966393 0.000000 70.000000 15.266470 22.000000
14.963745 2.553129 -15.525089 0.000000 46.000000 14.431273 0.000000
16.735879 -0.809988 -17.664880 0.000000 74.000000 15.198306 22.000000
16.522371 -1.179673 -18.447414 0.000000 54.000000 14.639893 14.000000
14.941332 0.494507 -15.360700 0.000000 52.000000 15.179576 30.000000
17.159410 0.945042 -17.472704 0.000000 75.000000 15.053607 28.000000
17.123755 1.019652 -17.729343 0.000000 58.000000 14.831180 28.000000
15.004644 0.845213 -15.193389 0.000000 45.000000 15.224720 18.000000
16.945653 -1.332780 -19.183671 0.000000 51.000000 14.463717 0.000000
14.869548 -0.660722 -16.974496 0.000000 40.000000 14.394679 0.000000
18.636630 2.374123 -18.713179 0.000000 56.000000 14.726343 24.000000
17.128279 0.871270 -17.547392 0.000000 67.000000 15.005398 28.000000
15.474879 3.841640 -15.491053 0.000000 45.000000 14.383620 0.000000
16.693679 0.046094 -17.620832 0.000000 73.000000 14.930034 25.000000
18.087256 1.951624 -18.264368 0.000000 70.000000 14.805052 23.000000
16.047015 1.824120 -16.002536 0.000000 81.000000 15.048334 29.000000
17.460277 -0.594809 -19.183006 0.000000 27.000000 14.569578 20.000000
16.157885 4.235074 -15.750035 0.000000 59.000000 14.531765 0.000000
16.840545 4.641706 -16.420839 0.000000 70.000000 14.394084 0.000000
17.344341 1.859641 -17.273714 0.000000 11.000000 15.022195 9.000000
15.585636 2.303566 -15.748033 0.000000 62.000000 14.767071 8.000000
16.171458 5.094861 -15.623363 0.000000 40.000000 14.355489 0.000000
17.148448 4.761417 -16.424709 0.000000 56.000000 14.556231 0.000000
14.871176 0.611771 -15.207171 0.000000 69.000000 15.201256 30.000000
16.478915 5.194213 -15.582231 0.000000 56.000000 14.554529 0.000000
16.327250 -0.756269 -18.026570 0.000000 64.000000 14.665241 22.000000
20.301870 3.437550 -19.148575 0.000000 55.000000 15.188560 16.000000
17.025229 4.074376 -15.990077 0.000000 73.000000 14.989322 6.000000
17.936906 -0.678212 -19.861659 0.000000 39.000000 14.445841 0.000000
19.206429 2.944239 -19.376942 0.000000 37.000000 14.467524 0.000000
14.874925 -0.591129 -16.101447 0.000000 52.000000 14.972832 11.000000
16.952780 0.436772 -18.341588 0.000000 43.000000 14.484517 0.000000
15.579304 0.692881 -15.729335 0.000000 77.000000 15.284807 18.000000
16.496641 -0.514324 -17.205046 0.000000 78.000000 15.261642 22.000000
14.729758 1.006066 -15.420416 0.000000 79.000000 14.837831 18.000000
16.052377 3.189256 -15.482614 0.000000 50.000000 14.975652 1.000000
16.588412 -0.235926 -18.228586 0.000000 44.000000 14.534583 0.000000
18.601576 2.819529 -18.000775 0.000000 39.000000 15.049318 24.000000
15.477247 2.718887 -15.812758 0.000000 59.000000 14.520230 0.000000
16.740334 1.830933 -16.760093 0.000000 73.000000 14.984764 9.000000
16.492171 0.765662 -17.630170 0.000000 46.000000 14.563591 25.000000
16.859359 -1.294565 -17.824246 0.000000 3.000000 15.323834 14.000000
15.905044 -1.151440 -17.372476 0.000000 44.000000 14.959284 13.000000
15.625258 2.348194 -15.573748 0.000000 69.000000 14.898140 8.000000
16.210613 0.668633 -16.827688 0.000000 71.000000 14.957357 25.000000
16.077310 2.976855 -15.820811 0.000000 62.000000 14.828086 1.000000
15.116167 -0.310824 -16.185573 0.000000 70.000000 14.985502 11.000000
17.047887 2.031680 -17.660974 0.000000 52.000000 14.508078 0.000000
18.144072 1.307659 -19.177707 0.000000 43.000000 14.421849 0.000000
18.215912 -0.098093 -19.474006 0.000000 58.000000 14.710993 27.000000
16.015023 4.028643 -15.719102 0.000000 64.000000 14.524137 0.000000
17.086456 1.044965 -17.552235 0.000000 66.000000 14.919662 28.000000
15.742119 3.875716 -15.568688 0.000000 57.000000 14.495666 0.000000
15.728546 1.175221 -15.941333 0.000000 74.000000 15.085687 29.000000
16.268722 1.016088 -16.916458 0.000000 61.000000 14.825109 28.000000
14.820319 0.407575 -15.263523 0.000000 81.000000 15.193823 30.000000
17.833057 3.395025 -17.777619 0.000000 51.000000 14.514144 0.000000
15.733040 3.987547 -15.511194 0.000000 41.000000 14.493632 0.000000
18.312085 3.558574 -17.391467 0.000000 52.000000 15.041578 2.000000
17.662102 4.553689 -16.467332 0.000000 53.000000 14.930800 12.000000
16.870524 4.212115 -15.997011 0.000000 43.000000 14.839234 6.000000
15.181179 0.504074 -15.311555 0.000000 22.000000 15.367979 30.000000
16.779974 1.216519 -16.754690 0.000000 71.000000 15.208756 28.000000
14.588982 1.515084 -15.567880 0.000000 48.000000 14.483518 0.000000
19.291399 2.854014 -19.490033 0.000000 34.000000 14.474680 0.000000
13.972579 0.255665 -15.578537 0.000000 44.000000 14.468673 0.000000
15.657609 -0.890451 -17.387619 0.000000 54.000000 14.703602 13.000000
16.228906 1.612374 -16.419231 0.000000 63.000000 14.950213 29.000000
15.847822 -1.051353 -17.381416 0.000000 75.000000 14.883880 13.000000
15.552920 3.667942 -15.645176 0.000000 42.000000 14.384561 0.000000
15.697872 3.704617 -15.756055 0.000000 42.000000 14.392590 0.000000
16.850996 2.515299 -17.168110 0.000000 39.000000 14.562443 0.000000
16.004499 3.761538 -15.853870 0.000000 64.000000 14.509546 0.000000
16.154898 3.792129 -15.957045 0.000000 63.000000 14.528347 0.000000
19.233651 2.997187 -18.973428 0.000000 41.000000 14.744451 3.000000
17.995274 1.269255 -18.089376 0.000000 47.000000 15.079794 4.000000
16.281018 1.406229 -16.383298 0.000000 69.000000 15.074224 29.000000
15.681122 2.980321 -15.858696 0.000000 53.000000 14.540370 0.000000
17.238885 1.971644 -17.283834 0.000000 66.000000 14.910475 9.000000
16.732568 0.042187 -17.933639 0.000000 50.000000 14.743100 25.000000
17.520340 4.711123 -16.131716 0.000000 56.000000 15.017092 12.000000
18.054127 4.069337 -17.737839 0.000000 55.000000 14.473669 0.000000
18.224417 4.086172 -17.952376 0.000000 47.000000 14.433808 0.000000
18.040170 1.672914 -18.805729 0.000000 49.000000 14.492214 0.000000
18.798687 4.297524 -17.612040 0.000000 64.000000 14.977502 12.000000
17.636869 4.452695 -17.267004 0.000000 42.000000 14.399649 0.000000
15.450289 -0.738760 -17.416892 0.000000 55.000000 14.499212 0.000000
15.024567 0.819588 -15.444061 0.000000 77.000000 15.074631 18.000000
17.667205 1.816485 -18.150006 0.000000 58.000000 14.649484 4.000000
15.641461 3.308720 -15.608135 0.000000 72.000000 14.581690 1.000000
17.167681 2.012815 -17.197659 0.000000 74.000000 14.909492 9.000000
14.617292 1.885981 -15.404482 0.000000 62.000000 14.496571 0.000000
18.605577 2.024225 -18.472205 0.000000 70.000000 14.981181 23.000000
15.271756 2.133010 -16.085058 0.000000 60.000000 14.384107 0.000000
15.249351 2.286944 -15.969452 0.000000 47.000000 14.399706 0.000000
19.444228 3.545360 -19.495784 0.000000 31.000000 14.352797 0.000000
17.337555 -0.158061 -18.191357 0.000000 55.000000 15.028423 21.000000
15.963390 -1.110566 -17.645261 0.000000 38.000000 14.798349 13.000000
16.291241 0.360587 -16.901506 0.000000 72.000000 15.057345 25.000000
16.562533 1.625592 -17.559648 0.000000 40.000000 14.386271 0.000000
17.123658 4.899156 -15.375155 0.000000 58.000000 15.213609 7.000000
17.000259 -0.682472 -18.387598 0.000000 72.000000 14.838106 20.000000
18.075514 0.603286 -18.339042 0.000000 71.000000 15.172494 26.000000
16.620795 5.157528 -15.400191 0.000000 51.000000 14.783897 7.000000
18.418076 3.659944 -17.558915 0.000000 63.000000 14.964861 2.000000
16.852113 3.868212 -16.574794 0.000000 51.000000 14.540985 0.000000
15.888975 0.926504 -16.088744 0.000000 74.000000 15.169147 18.000000
17.103135 4.163685 -16.049396 0.000000 60.000000 14.971825 6.000000
15.494616 3.003834 -15.757009 0.000000 38.000000 14.479688 0.000000
15.249050 -0.311565 -17.062940 0.000000 46.000000 14.473623 0.000000
16.398100 3.749725 -16.158331 0.000000 57.000000 14.564249 0.000000
17.011384 4.207937 -15.958895 0.000000 43.000000 14.959302 6.000000
16.274775 -0.367791 -17.000587 0.000000 67.000000 15.209035 22.000000
15.784957 3.645758 -15.866052 0.000000 41.000000 14.393337 0.000000
15.638320 3.621082 -15.758846 0.000000 40.000000 14.377896 0.000000
17.680578 -1.132071 -19.795530 0.000000 39.000000 14.465804 0.000000
17.286453 4.368478 -17.052428 0.000000 20.000000 14.342294 0.000000
15.061781 2.940111 -15.320969 0.000000 70.000000 14.512957 0.000000
15.041084 2.787444 -15.374640 0.000000 72.000000 14.510916 0.000000
19.027988 3.772046 -18.858327 0.000000 40.000000 14.442833 0.000000
17.545269 0.308914 -18.263088 0.000000 34.000000 14.968493 21.000000
17.065622 0.587762 -18.380886 0.000000 31.000000 14.484197 0.000000
17.175142 -0.895887 -18.813792 0.000000 66.000000 14.729408 20.000000
17.049708 3.208703 -16.777314 0.000000 67.000000 14.741092 15.000000
14.306704 -0.204240 -16.059785 0.000000 51.000000 14.505064 0.000000
16.590827 -1.365851 -18.962871 0.000000 47.000000 14.391547 0.000000
15.300346 3.523847 -15.350324 0.000000 53.000000 14.465382 0.000000
16.105527 -0.045644 -16.742328 0.000000 49.000000 15.172310 22.000000
17.655992 2.928374 -18.016954 0.000000 37.000000 14.381568 0.000000
18.652832 4.162137 -17.435918 0.000000 72.000000 15.044666 12.000000
16.000835 3.451383 -16.068956 0.000000 53.000000 14.458189 0.000000
16.143430 3.432176 -16.232891 0.000000 49.000000 14.446074 0.000000
17.354974 -0.592866 -18.630448 0.000000 63.000000 14.877264 20.000000
18.347058 0.204754 -19.067856 0.000000 71.000000 14.979123 27.000000
16.428505 3.390307 -16.628251 0.000000 41.000000 14.376740 0.000000
15.621196 3.747209 -15.673881 0.000000 40.000000 14.384822 0.000000
15.760996 3.717881 -15.811839 0.000000 38.000000 14.391818 0.000000
15.605522 0.547989 -16.332990 0.000000 68.000000 14.935343 18.000000
16.054454 3.642745 -15.947043 0.000000 62.000000 14.516299 0.000000
16.197789 3.604511 -16.047765 0.000000 57.000000 14.553883 0.000000
16.993564 -0.528013 -18.172786 0.000000 78.000000 14.931672 20.000000
15.684339 0.382841 -16.158037 0.000000 70.000000 15.158971 18.000000
16.951703 3.393548 -16.497626 0.000000 64.000000 14.809297 15.000000
18.424857 1.906612 -18.301202 0.000000 66.000000 15.016284 23.000000
17.971867 2.999971 -18.108357 0.000000 58.000000 14.504352 0.000000
17.186686 2.252688 -17.705827 0.000000 46.000000 14.498911 0.000000
18.581131 2.849816 -18.131978 0.000000 71.000000 14.936630 24.000000
18.100125 0.119019 -18.454619 0.000000 7.000000 15.262782 26.000000
17.615248 2.942952 -17.996095 0.000000 32.000000 14.364401 0.000000
17.193853 4.700050 -16.472294 0.000000 38.000000 14.572991 12.000000
19.432566 3.169821 -18.924536 0.000000 79.000000 14.854199 3.000000
17.230974 -0.061058 -18.348114 0.000000 42.000000 14.820497 21.000000
18.527708 2.368731 -19.169143 0.000000 34.000000 14.344775 0.000000
16.188174 0.773624 -17.045392 0.000000 45.000000 14.760632 25.000000
16.488826 0.094830 -17.633560 0.000000 39.000000 14.771118 25.000000
15.112891 0.779286 -15.313616 0.000000 73.000000 15.234638 18.000000
17.090318 1.756113 -17.151170 0.000000 37.000000 14.971489 9.000000
18.305545 2.510548 -18.298035 0.000000 81.000000 14.749029 24.000000
17.052157 0.773826 -17.366112 0.000000 72.000000 15.109985 28.000000
13.906795 0.591369 -15.308588 0.000000 56.000000 14.503741 0.000000
14.827185 1.980057 -15.570595 0.000000 62.000000 14.491449 0.000000
14.120627 0.249962 -15.650522 0.000000 55.000000 14.518714 0.000000
17.527903 4.094728 -17.206128 0.000000 37.000000 14.482689 0.000000
16.242435 0.738587 -17.132241 0.000000 61.000000 14.748066 25.000000
17.147869 0.892526 -17.596785 0.000000 72.000000 14.977819 28.000000
16.178816 1.263248 -15.983623 0.000000 71.000000 15.325285 29.000000
19.927059 3.662704 -19.019632 0.000000 42.000000 14.958843 16.000000
16.806472 0.823058 -17.298818 0.000000 67.000000 14.978724 28.000000
18.992542 0.477301 -19.173878 0.000000 70.000000 15.245313 27.000000
18.773919 3.228775 -18.780674 0.000000 49.000000 14.500420 0.000000
17.631344 3.705568 -17.427349 0.000000 48.000000 14.522600 0.000000
17.776194 -0.199726 -18.813511 0.000000 60.000000 14.905101 21.000000
17.661960 -0.656201 -19.465383 0.000000 32.000000 14.528744 0.000000
16.503752 -0.186405 -17.463380 0.000000 59.000000 14.986132 22.000000
17.540739 4.739551 -16.058377 0.000000 72.000000 15.071648 12.000000
15.187342 0.824323 -15.326179 0.000000 64.000000 15.260813 18.000000
17.155688 3.673704 -16.975314 0.000000 51.000000 14.528548 0.000000
18.072702 3.204343 -18.092772 0.000000 47.000000 14.516761 0.000000
17.344417 3.868488 -17.115286 0.000000 48.000000 14.495528 0.000000
18.208690 0.582986 -18.683129 0.000000 45.000000 15.031416 26.000000
16.848625 3.660752 -16.661603 0.000000 47.000000 14.544944 0.000000
16.121547 4.358832 -15.542141 0.000000 61.000000 14.610800 6.000000
16.375725 -0.692982 -17.592304 0.000000 63.000000 14.973901 22.000000
16.335523 0.226418 -17.234941 0.000000 74.000000 14.901038 25.000000
16.399786 3.658245 -16.219380 0.000000 51.000000 14.552556 0.000000
15.257399 3.500507 -15.444041 0.000000 32.000000 14.380453 0.000000
15.950974 3.685513 -15.918920 0.000000 53.000000 14.453898 0.000000
16.195090 1.897909 -17.084577 0.000000 41.000000 14.383028 0.000000
15.800247 3.702365 -15.857551 0.000000 35.000000 14.391316 0.000000
16.613312 3.283980 -16.845901 0.000000 40.000000 14.383236 0.000000
16.660024 4.936487 -15.597979 0.000000 41.000000 14.744421 7.000000
18.576461 1.663475 -19.355695 0.000000 34.000000 14.472302 0.000000
15.246241 0.580405 -15.617880 0.000000 43.000000 15.177336 18.000000
18.881010 2.043697 -18.801420 0.000000 57.000000 14.931313 23.000000
15.487703 0.612258 -15.742004 0.000000 70.000000 15.241351 18.000000
15.347864 2.965374 -15.597800 0.000000 48.000000 14.504065 0.000000
15.768409 0.627427 -16.049143 0.000000 75.000000 15.211400 18.000000
15.963847 1.125121 -16.356217 0.000000 51.000000 14.972857 29.000000
15.022513 -0.433244 -15.735940 0.000000 40.000000 15.269829 11.000000
15.377455 3.420256 -15.451142 0.000000 61.000000 14.479976 0.000000
15.506390 3.353153 -15.542495 0.000000 65.000000 14.523611 0.000000
15.310104 3.355857 -15.413697 0.000000 57.000000 14.481597 0.000000
15.647520 0.737179 -15.886967 0.000000 40.000000 15.207977 18.000000
16.618693 2.677788 -16.879974 0.000000 55.000000 14.555106 0.000000
15.875021 0.698468 -16.663576 0.000000 57.000000 14.839223 25.000000
16.865816 2.501694 -17.265612 0.000000 49.000000 14.509867 0.000000
15.356817 1.661302 -15.517721 0.000000 65.000000 14.976888 29.000000
15.913114 3.428737 -15.650532 0.000000 64.000000 14.693555 1.000000
16.333301 1.034301 -16.638397 0.000000 66.000000 15.051869 28.000000
15.299302 1.847582 -15.320901 0.000000 75.000000 15.014656 29.000000
16.345850 2.241554 -16.426678 0.000000 45.000000 14.823206 10.000000
18.125121 2.168498 -18.182076 0.000000 46.000000 14.817654 23.000000
17.963984 4.627476 -16.651332 0.000000 51.000000 14.980405 12.000000
16.691523 0.973855 -17.071211 0.000000 56.000000 15.010950 28.000000
16.873580 -1.481504 -19.084007 0.000000 42.000000 14.531404 0.000000
15.769414 2.906091 -16.054126 0.000000 35.000000 14.488388 0.000000
18.397952 1.181985 -19.366730 0.000000 47.000000 14.499479 0.000000
17.344445 1.612847 -18.173103 0.000000 42.000000 14.485660 0.000000
15.210254 2.797691 -15.507838 0.000000 60.000000 14.527984 0.000000
17.460770 1.490328 -18.240206 0.000000 42.000000 14.555085 0.000000
19.203934 1.826708 -19.521606 0.000000 58.000000 14.720267 19.000000
15.741791 2.906612 -15.728108 0.000000 67.000000 14.692835 1.000000
16.995396 1.729123 -17.535016 0.000000 59.000000 14.655245 9.000000
17.908650 0.966812 -18.914350 0.000000 46.000000 14.554627 0.000000
15.317073 1.891902 -15.376822 0.000000 75.000000 14.974127 29.000000
17.960910 1.939134 -18.478332 0.000000 61.000000 14.579635 23.000000
17.637737 -0.406412 -18.833495 0.000000 59.000000 14.865658 21.000000
17.309828 1.755661 -17.395268 0.000000 61.000000 14.949283 9.000000
17.387124 -0.178722 -18.591569 0.000000 33.000000 14.794083 21.000000
16.009073 2.110383 -16.273282 0.000000 45.000000 14.747861 10.000000
16.318744 5.344954 -15.445845 0.000000 64.000000 14.494675 0.000000
16.452087 1.228742 -16.450361 0.000000 49.000000 15.197078 28.000000
16.948052 0.152071 -17.808705 0.000000 29.000000 14.935552 25.000000
15.214012 0.119194 -15.571897 0.000000 86.000000 15.333335 30.000000
16.686393 -0.273317 -16.934621 0.000000 5.000000 15.495136 22.000000
18.851483 1.843850 -18.220197 0.000000 4.000000 15.372241 23.000000
17.448740 2.283281 -17.050029 0.000000 66.000000 15.109850 5.000000
17.726568 1.818045 -18.280612 0.000000 55.000000 14.598806 4.000000
17.654690 -0.423882 -19.159054 0.000000 38.000000 14.659860 21.000000
16.678831 2.594295 -17.020228 0.000000 46.000000 14.525229 0.000000
18.273342 4.455109 -16.863562 0.000000 61.000000 15.093447 12.000000
16.602213 3.970223 -16.058328 0.000000 54.000000 14.697217 6.000000
16.350032 0.743474 -17.200189 0.000000 43.000000 14.770897 25.000000
13.982942 -0.333288 -16.030162 0.000000 36.000000 14.353031 0.000000
15.247069 3.338369 -15.366408 0.000000 61.000000 14.477957 0.000000
17.531424 -0.062176 -18.558592 0.000000 76.000000 14.874743 21.000000
15.430503 3.327189 -15.530140 0.000000 60.000000 14.490320 0.000000
16.267484 0.674808 -16.736444 0.000000 76.000000 15.055185 25.000000
18.714590 2.086093 -18.614061 0.000000 70.000000 14.936427 23.000000
17.507978 0.112075 -18.471566 0.000000 59.000000 14.863704 21.000000
17.606199 2.138680 -18.148385 0.000000 49.000000 14.508601 0.000000
18.145642 0.666864 -18.381939 0.000000 75.000000 15.169234 26.000000
16.569677 -0.717463 -18.556246 0.000000 48.000000 14.450552 0.000000
17.586172 4.619413 -16.723274 0.000000 55.000000 14.685153 12.000000
17.822314 1.322902 -18.162555 0.000000 66.000000 14.899003 4.000000
18.175503 0.737945 -18.675228 0.000000 55.000000 14.965994 26.000000
18.587120 0.583580 -19.230856 0.000000 64.000000 14.905974 27.000000
17.272406 -0.824155 -18.646095 0.000000 75.000000 14.885342 20.000000
17.369727 0.725560 -18.005194 0.000000 72.000000 14.897507 26.000000
14.628188 0.774298 -15.088276 0.000000 39.000000 15.071221 30.000000
15.688292 2.882538 -15.982288 0.000000 71.000000 14.491538 0.000000
15.776502 2.767042 -16.131861 0.000000 57.000000 14.483884 0.000000
16.041701 2.661830 -16.404919 0.000000 44.000000 14.505068 0.000000
16.307433 1.412733 -16.254755 0.000000 77.000000 15.177394 29.000000
15.139419 2.877207 -15.404971 0.000000 81.000000 14.526530 0.000000
16.104700 2.094909 -16.281735 0.000000 48.000000 14.809908 10.000000
18.101987 1.715485 -18.849281 0.000000 45.000000 14.489678 0.000000
19.167431 1.602668 -19.438666 0.000000 46.000000 14.823740 19.000000
16.448344 1.753142 -17.429333 0.000000 46.000000 14.359859 0.000000
16.996068 1.580074 -17.239471 0.000000 70.000000 14.904767 9.000000
18.948289 2.608167 -19.146114 0.000000 39.000000 14.561612 0.000000
15.757169 0.374929 -15.815528 0.000000 57.000000 15.443460 18.000000
17.185524 0.400897 -18.566206 0.000000 51.000000 14.495529 0.000000
17.550316 -0.457514 -19.402014 0.000000 50.000000 14.435772 0.000000
18.976462 0.478404 -19.245826 0.000000 61.000000 15.185216 27.000000
18.625052 2.911673 -18.244123 0.000000 55.000000 14.869346 24.000000
14.385399 -0.239509 -15.791813 0.000000 59.000000 14.751125 11.000000
15.155463 0.881978 -15.662499 0.000000 68.000000 14.991779 18.000000
16.542720 1.038724 -16.920134 0.000000 74.000000 14.995760 28.000000
18.290459 0.266599 -18.689163 0.000000 45.000000 15.181112 26.000000
15.671908 4.031008 -15.425589 0.000000 58.000000 14.498163 0.000000
13.951695 0.121598 -15.585340 0.000000 54.000000 14.492658 0.000000
16.055738 1.469907 -16.067712 0.000000 69.000000 15.121500 29.000000
15.975241 0.333122 -17.214307 0.000000 64.000000 14.644309 25.000000
16.654190 -0.362198 -17.873326 0.000000 56.000000 14.860558 22.000000
18.963402 1.700038 -19.140653 0.000000 49.000000 14.862343 23.000000
16.264414 1.623311 -17.311114 0.000000 54.000000 14.360640 0.000000
19.689937 3.516812 -18.454975 0.000000 46.000000 15.234777 16.000000
17.112401 1.660877 -17.968481 0.000000 42.000000 14.457602 0.000000
16.843662 -0.758888 -18.371792 0.000000 65.000000 14.770005 20.000000
16.637485 -0.615532 -18.217828 0.000000 56.000000 14.694220 22.000000
16.909126 4.156267 -15.935159 0.000000 65.000000 14.924559 6.000000
17.968036 1.738121 -18.234673 0.000000 37.000000 14.814372 4.000000
15.324237 1.274732 -15.647923 0.000000 60.000000 14.988663 29.000000
16.820956 0.224786 -17.848961 0.000000 79.000000 14.801416 25.000000
16.922835 1.266694 -17.368044 0.000000 44.000000 14.867766 28.000000
17.597250 0.565822 -18.443062 0.000000 41.000000 14.798507 26.000000
17.766915 1.564304 -18.140637 0.000000 77.000000 14.801218 4.000000
16.374085 -0.086071 -17.045150 0.000000 65.000000 15.154888 22.000000
18.315362 2.518928 -18.320294 0.000000 76.000000 14.737630 24.000000
15.166185 -0.786554 -16.275457 0.000000 33.000000 15.107370 11.000000
15.866752 2.516528 -16.283521 0.000000 54.000000 14.518823 0.000000
16.925999 1.636938 -17.157160 0.000000 71.000000 14.896928 9.000000
15.682994 2.753195 -16.042842 0.000000 63.000000 14.487556 0.000000
18.109371 3.365855 -17.667794 0.000000 52.000000 14.780257 2.000000
15.514524 2.985289 -15.773611 0.000000 59.000000 14.487306 0.000000
17.928443 4.644713 -16.222693 0.000000 55.000000 15.244485 12.000000
15.354537 3.218972 -15.515848 0.000000 56.000000 14.484300 0.000000
15.274640 3.336787 -15.417455 0.000000 57.000000 14.461717 0.000000
19.746615 3.843632 -18.697472 0.000000 51.000000 15.003057 16.000000
15.812048 0.923223 -15.984798 0.000000 62.000000 15.190591 18.000000
16.068345 3.028208 -15.736354 0.000000 66.000000 14.863669 1.000000
15.801667 4.013150 -15.563992 0.000000 56.000000 14.494622 0.000000
17.269196 0.913307 -18.281086 0.000000 64.000000 14.583466 26.000000
16.052763 -0.398982 -16.862597 0.000000 73.000000 15.167086 22.000000
15.988167 3.324774 -15.729556 0.000000 42.000000 14.721807 1.000000
14.261771 0.442624 -15.262626 0.000000 51.000000 14.815777 30.000000
15.274480 3.241971 -15.450354 0.000000 56.000000 14.469101 0.000000
17.232355 4.534922 -16.846512 0.000000 41.000000 14.394797 0.000000
15.374785 2.965433 -15.654313 0.000000 57.000000 14.483144 0.000000
14.590547 1.075251 -15.323029 0.000000 43.000000 14.790899 18.000000
15.939650 -0.985095 -17.692138 0.000000 41.000000 14.711031 13.000000
17.392814 2.892791 -17.264531 0.000000 53.000000 14.733799 15.000000
18.218858 -0.558325 -19.464166 0.000000 65.000000 14.865132 27.000000
14.852443 2.170857 -15.648170 0.000000 45.000000 14.394749 0.000000
16.216472 3.556118 -16.287708 0.000000 38.000000 14.417505 0.000000
15.767418 1.381692 -15.712220 0.000000 63.000000 15.202573 29.000000
16.115607 -1.114950 -18.179536 0.000000 59.000000 14.534803 0.000000
16.117674 -1.304326 -18.310483 0.000000 44.000000 14.506538 0.000000
14.905143 -0.028112 -16.076183 0.000000 58.000000 14.832018 30.000000
16.536270 3.459381 -16.600199 0.000000 34.000000 14.444997 0.000000
15.540203 3.716605 -15.658988 0.000000 45.000000 14.351371 0.000000
15.679916 3.776550 -15.751007 0.000000 43.000000 14.361485 0.000000
15.767412 0.924629 -15.833767 0.000000 73.000000 15.263981 18.000000
15.975121 3.875533 -15.804238 0.000000 61.000000 14.488096 0.000000
16.122712 3.927848 -15.868777 0.000000 60.000000 14.524585 0.000000
15.733756 0.992760 -15.800873 0.000000 53.000000 15.242776 18.000000
17.297009 2.334885 -16.935587 0.000000 70.000000 15.071890 5.000000
17.468126 4.374247 -16.919417 0.000000 41.000000 14.550925 0.000000
17.615228 4.450971 -17.319696 0.000000 51.000000 14.349944 0.000000
17.215804 1.946094 -17.125771 0.000000 66.000000 15.011377 9.000000
15.723366 3.885850 -15.553070 0.000000 38.000000 14.490794 0.000000
15.105758 -0.657208 -16.091122 0.000000 53.000000 15.152687 11.000000
17.086359 -1.687679 -19.372029 0.000000 45.000000 14.539779 0.000000
16.259706 -0.637443 -17.051922 0.000000 65.000000 15.249273 22.000000
18.991706 1.276254 -19.463729 0.000000 73.000000 14.794146 27.000000
16.637147 -1.098142 -18.710514 0.000000 43.000000 14.509862 0.000000
16.450516 1.032700 -16.581934 0.000000 55.000000 15.168099 28.000000
17.834031 0.632992 -18.176871 0.000000 75.000000 15.115007 26.000000
17.223889 -1.263996 -19.448570 0.000000 39.000000 14.444059 0.000000
17.121794 -1.101008 -19.265806 0.000000 42.000000 14.450246 0.000000
19.218330 3.552240 -18.996288 0.000000 38.000000 14.543298 0.000000
14.779213 1.341463 -15.478251 0.000000 69.000000 14.724838 18.000000
18.198200 0.416136 -18.783773 0.000000 68.000000 15.008476 26.000000
16.875760 4.844958 -15.441417 0.000000 52.000000 15.022318 7.000000
18.802251 -0.044692 -19.212031 0.000000 72.000000 15.259008 27.000000
14.778358 2.480762 -15.497187 0.000000 38.000000 14.351212 0.000000
17.354764 0.101279 -18.200076 0.000000 49.000000 14.951814 21.000000
16.560551 1.198134 -16.463650 0.000000 81.000000 15.269052 28.000000
17.975376 1.369388 -18.938953 0.000000 36.000000 14.454475 0.000000
17.505252 0.866010 -18.210581 0.000000 81.000000 14.801946 26.000000
13.945850 0.358843 -15.511468 0.000000 41.000000 14.464302 0.000000
17.549100 4.466034 -17.256873 0.000000 44.000000 14.344594 0.000000
16.749139 0.624436 -17.772946 0.000000 59.000000 14.679774 25.000000
15.737074 4.359775 -15.253716 0.000000 61.000000 14.554581 0.000000
17.566728 -0.868973 -19.255995 0.000000 61.000000 14.676417 20.000000
16.379395 3.903034 -16.161244 0.000000 54.000000 14.501489 0.000000
16.235356 3.844802 -16.041043 0.000000 63.000000 14.507245 0.000000
15.459837 0.250389 -16.333184 0.000000 78.000000 14.933404 18.000000
16.922942 0.348975 -18.378767 0.000000 28.000000 14.467226 0.000000
17.629636 0.578368 -18.174900 0.000000 77.000000 14.999108 26.000000
15.641267 3.661106 -15.797923 0.000000 41.000000 14.340480 0.000000
15.501309 3.615503 -15.687363 0.000000 41.000000 14.338342 0.000000
16.677736 0.928042 -17.150123 0.000000 70.000000 14.962432 28.000000
15.418816 2.313688 -16.093697 0.000000 35.000000 14.417872 0.000000
14.778319 -0.173677 -16.139234 0.000000 67.000000 14.751481 11.000000
15.442053 0.989284 -15.548611 0.000000 50.000000 15.224292 18.000000
15.262980 2.977423 -15.561659 0.000000 65.000000 14.469092 0.000000
15.267911 2.820889 -15.606260 0.000000 68.000000 14.491338 0.000000
17.306469 4.804189 -15.972972 0.000000 56.000000 14.955407 12.000000
16.817625 -0.014178 -17.575347 0.000000 69.000000 15.061737 25.000000
15.271578 2.353470 -15.744098 0.000000 57.000000 14.547304 0.000000
18.130579 2.312684 -18.345874 0.000000 44.000000 14.663735 23.000000
14.330456 1.488274 -15.354384 0.000000 59.000000 14.467752 0.000000
14.881380 -0.794874 -16.407544 0.000000 65.000000 14.832306 11.000000
15.783421 3.148002 -15.607143 0.000000 60.000000 14.726593 1.000000
14.217903 1.016490 -15.697386 0.000000 37.000000 14.308412 0.000000
14.205942 0.860317 -15.662767 0.000000 48.000000 14.373563 0.000000
14.101128 0.232022 -15.713757 0.000000 63.000000 14.468340 0.000000
18.724874 1.815563 -18.645765 0.000000 66.000000 15.007041 23.000000
14.020577 -0.087766 -15.813032 0.000000 54.000000 14.448571 0.000000
18.744736 1.838820 -18.901615 0.000000 72.000000 14.837921 23.000000
15.248612 3.488006 -15.378386 0.000000 55.000000 14.423488 0.000000
15.382820 3.506257 -15.545522 0.000000 44.000000 14.391826 0.000000
15.542300 2.061088 -15.869832 0.000000 72.000000 14.731964 29.000000
15.330342 1.968711 -15.267886 0.000000 35.000000 15.033024 29.000000
15.808390 3.542927 -15.966952 0.000000 52.000000 14.372311 0.000000
14.730497 0.592958 -15.121038 0.000000 73.000000 15.173483 30.000000
16.264719 -1.376992 -18.176293 0.000000 53.000000 14.717979 14.000000
16.260678 3.551209 -16.267252 0.000000 45.000000 14.462128 0.000000
18.456668 0.291208 -18.683625 0.000000 71.000000 15.286500 26.000000
16.414731 3.546884 -16.326834 0.000000 65.000000 14.524162 0.000000
17.024136 -0.219708 -18.909529 0.000000 36.000000 14.350873 0.000000
16.083297 -1.210298 -18.152953 0.000000 44.000000 14.561844 14.000000
17.183548 -0.939584 -19.202314 0.000000 49.000000 14.483249 0.000000
16.058572 3.902231 -15.846482 0.000000 57.000000 14.505707 0.000000
17.021379 3.539134 -16.940415 0.000000 61.000000 14.506545 0.000000
16.352307 -0.446531 -17.176638 0.000000 62.000000 15.164640 22.000000
19.528640 3.885331 -18.696916 0.000000 77.000000 14.846806 16.000000
17.181673 4.249549 -16.249692 0.000000 70.000000 14.859495 6.000000
17.332500 3.524405 -17.260238 0.000000 60.000000 14.497393 0.000000
15.475808 0.256586 -16.356253 0.000000 73.000000 14.926191 18.000000
17.305199 1.815915 -17.183992 0.000000 47.000000 15.071570 9.000000
15.455070 0.650784 -16.626918 0.000000 60.000000 14.602976 18.000000
17.654999 3.498543 -17.580986 0.000000 62.000000 14.498615 0.000000
16.315301 -0.311531 -17.040928 0.000000 62.000000 15.190354 22.000000
17.814606 3.483109 -17.743367 0.000000 58.000000 14.497565 0.000000
15.889336 4.421064 -15.326185 0.000000 54.000000 14.585888 6.000000
16.352241 4.602981 -15.271972 0.000000 64.000000 14.870070 6.000000
17.238912 3.795088 -17.019023 0.000000 63.000000 14.515079 0.000000
19.632771 3.798072 -19.229949 0.000000 51.000000 14.578660 16.000000
19.194575 3.753390 -18.239099 0.000000 71.000000 14.981521 17.000000
15.696106 0.549906 -16.305784 0.000000 80.000000 15.012941 18.000000
16.605777 -0.164403 -18.450263 0.000000 23.000000 14.371917 0.000000
17.282466 2.033550 -17.507579 0.000000 35.000000 14.766688 9.000000
17.677564 -0.385032 -18.761499 0.000000 70.000000 14.934310 21.000000
19.162603 3.369354 -19.160260 0.000000 45.000000 14.452380 0.000000
19.674183 3.194567 -19.652022 0.000000 56.000000 14.508246 0.000000
17.713252 1.364533 -18.324787 0.000000 66.000000 14.703207 4.000000
14.778860 0.552873 -15.098711 0.000000 68.000000 15.233238 30.000000
16.190865 1.324137 -15.988959 0.000000 64.000000 15.310321 29.000000
15.197980 -0.493479 -16.490819 0.000000 54.000000 14.888484 11.000000
18.427095 1.821147 -18.697711 0.000000 54.000000 14.773810 23.000000
18.151386 4.527807 -16.781282 0.000000 70.000000 15.046436 12.000000
14.431292 1.602051 -15.385509 0.000000 56.000000 14.476879 0.000000
15.179958 2.192444 -16.022450 0.000000 45.000000 14.347692 0.000000
15.192104 2.348179 -15.896399 0.000000 49.000000 14.392598 0.000000
15.215749 2.499576 -15.711581 0.000000 58.000000 14.486602 0.000000
15.915866 3.150195 -15.619509 0.000000 42.000000 14.804611 1.000000
15.230731 2.807496 -15.580468 0.000000 70.000000 14.488728 0.000000
