-5.712077 46.249768 65.398770 0.000000 55.000000 14.288507 0.000000
-5.824979 46.375057 65.408150 0.000000 47.000000 14.238255 0.000000
-4.830261 44.399376 66.755021 0.000000 77.000000 14.493880 23.000000
-5.073288 45.068374 63.737655 0.000000 30.000000 14.192401 0.000000
-4.849438 45.641348 62.638256 0.000000 48.000000 14.499476 4.000000
-4.147646 43.894405 66.023314 0.000000 66.000000 14.821359 17.000000
-5.143452 44.863530 65.501157 0.000000 31.000000 14.252027 0.000000
-6.718980 48.097578 65.759978 0.000000 34.000000 14.169851 0.000000
-6.282185 47.421123 65.541964 0.000000 38.000000 14.265023 0.000000
-6.431735 47.751859 65.567880 0.000000 55.000000 14.267041 0.000000
-5.613616 46.988955 61.327729 0.000000 30.000000 14.201600 0.000000
-6.236801 46.162539 67.618817 0.000000 31.000000 14.037557 0.000000
-6.305165 46.963977 66.709841 0.000000 35.000000 14.195065 0.000000
-6.328217 47.004025 66.529145 0.000000 37.000000 14.169305 0.000000
-4.652289 44.706216 62.231379 0.000000 58.000000 14.250215 0.000000
-5.335596 45.797883 62.874874 0.000000 35.000000 14.150345 0.000000
-4.645432 44.643172 62.393140 0.000000 53.000000 14.249734 0.000000
-3.651600 42.589140 63.897471 0.000000 25.000000 14.491134 25.000000
-5.195746 44.746875 65.361213 0.000000 29.000000 14.140825 0.000000
-5.200094 45.956979 60.985436 0.000000 38.000000 14.116570 0.000000
-3.596617 42.887581 64.679006 0.000000 37.000000 14.753817 21.000000
-4.671853 44.230758 63.331338 0.000000 50.000000 14.167954 0.000000
-5.249547 45.561571 64.016482 0.000000 54.000000 14.265894 0.000000
-4.263636 44.371617 65.681374 0.000000 68.000000 14.870272 16.000000
-4.669027 44.159306 63.674369 0.000000 54.000000 14.181627 0.000000
-5.253255 45.477647 64.334013 0.000000 59.000000 14.265590 0.000000
-5.228691 46.023274 61.680429 0.000000 49.000000 14.198995 0.000000
-5.073481 44.641244 65.071965 0.000000 30.000000 14.174783 0.000000
-4.653813 44.134801 64.031789 0.000000 44.000000 14.227298 0.000000
-5.284093 45.359203 64.637116 0.000000 42.000000 14.224977 0.000000
-3.544643 43.250256 63.846592 0.000000 55.000000 14.850912 30.000000
-5.315711 45.274394 64.779090 0.000000 46.000000 14.178469 0.000000
-5.739879 47.117776 63.610989 0.000000 58.000000 14.406933 5.000000
-4.441533 44.140507 64.946991 0.000000 59.000000 14.529121 28.000000
-5.043059 44.270663 67.706801 0.000000 58.000000 14.360180 26.000000
-5.354748 45.164886 65.083760 0.000000 37.000000 14.134245 0.000000
-4.436046 44.067183 64.745939 0.000000 39.000000 14.480735 28.000000
-4.641262 45.159719 61.827655 0.000000 45.000000 14.397338 4.000000
-4.618124 44.652766 65.385586 0.000000 39.000000 14.628772 27.000000
-5.735342 46.028734 65.514632 0.000000 30.000000 14.191117 0.000000
-5.345720 45.177611 65.928972 0.000000 58.000000 14.246567 0.000000
-4.602393 43.419529 66.680785 0.000000 56.000000 14.293220 22.000000
-5.377723 45.141859 66.250755 0.000000 40.000000 14.240711 0.000000
-4.296235 43.361254 65.171781 0.000000 71.000000 14.370228 21.000000
-5.380627 45.053332 66.126685 0.000000 39.000000 14.187555 0.000000
-4.598342 45.472804 62.141511 0.000000 74.000000 14.600285 4.000000
-5.460463 45.087707 66.892086 0.000000 50.000000 14.218820 0.000000
-5.488255 45.071120 67.051412 0.000000 49.000000 14.205550 0.000000
-3.958253 43.659284 64.738207 0.000000 52.000000 14.746878 28.000000
-5.721465 46.594186 62.521815 0.000000 25.000000 14.083179 0.000000
-4.931586 43.878172 67.080834 0.000000 62.000000 14.228289 0.000000
-3.761612 43.294647 65.521675 0.000000 65.000000 14.868515 17.000000
-5.955189 46.916093 65.713583 0.000000 44.000000 14.376039 12.000000
-5.480904 46.337421 62.362293 0.000000 43.000000 14.178056 0.000000
-3.725128 43.308328 66.147479 0.000000 39.000000 14.980413 17.000000
-5.885789 47.012809 62.849215 0.000000 47.000000 14.142850 0.000000
-3.560927 43.528076 65.144696 0.000000 84.000000 15.101125 21.000000
-5.404324 47.000645 62.200831 0.000000 36.000000 14.498219 10.000000
-6.605665 48.045969 65.894074 0.000000 56.000000 14.267238 0.000000
-5.723751 46.462834 63.952201 0.000000 38.000000 14.195185 0.000000
-6.408140 47.870591 65.040288 0.000000 48.000000 14.274922 6.000000
-5.739882 46.624044 62.588935 0.000000 21.000000 14.086493 0.000000
-4.032595 44.157320 64.836586 0.000000 45.000000 14.893553 28.000000
-3.454163 43.600617 65.535234 0.000000 4.000000 15.273085 17.000000
-4.776897 44.584997 65.026539 0.000000 31.000000 14.415316 27.000000
-3.979298 44.001519 64.837535 0.000000 40.000000 14.878602 28.000000
-6.424567 47.580961 64.557433 0.000000 38.000000 14.085728 0.000000
-6.518100 47.695347 66.092180 0.000000 45.000000 14.227202 0.000000
-6.230616 46.999036 65.570704 0.000000 42.000000 14.143482 0.000000
-6.301214 46.770552 66.970468 0.000000 43.000000 14.150511 0.000000
-5.495874 45.700195 65.100949 0.000000 58.000000 14.226058 0.000000
-4.915814 44.712514 63.547208 0.000000 33.000000 14.168080 0.000000
-5.332637 45.308245 65.002621 0.000000 58.000000 14.203071 0.000000
-5.850308 46.410178 65.445393 0.000000 44.000000 14.233948 0.000000
-5.286727 45.039466 64.929533 0.000000 45.000000 14.126818 0.000000
-4.944112 45.591299 61.943000 0.000000 63.000000 14.311935 4.000000
-5.476601 47.711035 62.419541 0.000000 78.000000 14.747203 10.000000
-5.546809 47.089357 63.714170 0.000000 64.000000 14.582392 5.000000
-5.426083 44.833031 67.002364 0.000000 35.000000 14.159326 0.000000
-5.517789 45.685046 65.307455 0.000000 54.000000 14.224222 0.000000
-6.162449 47.113630 65.041162 0.000000 37.000000 14.189837 0.000000
-5.422652 45.165673 65.197672 0.000000 40.000000 14.086378 0.000000
-5.429934 46.084804 62.878127 0.000000 38.000000 14.181918 0.000000
-5.510121 46.455966 62.496011 0.000000 46.000000 14.215445 0.000000
-6.052833 45.821325 67.148682 0.000000 27.000000 14.010448 0.000000
-4.466158 43.367876 65.662409 0.000000 42.000000 14.276409 17.000000
-5.638391 44.899993 68.076782 0.000000 49.000000 14.119996 0.000000
-5.647276 44.902683 67.911343 0.000000 40.000000 14.093668 0.000000
-7.082655 48.676021 65.896297 0.000000 44.000000 14.091510 0.000000
-5.656162 44.913754 67.575701 0.000000 33.000000 14.050817 0.000000
-4.620040 43.757801 67.013949 0.000000 34.000000 14.453792 23.000000
-4.636357 44.000451 67.893327 0.000000 60.000000 14.640643 26.000000
-4.231019 43.349144 62.610195 0.000000 34.000000 14.124450 0.000000
-6.372167 47.474829 65.398353 0.000000 44.000000 14.188516 0.000000
-5.086957 44.344770 66.666946 0.000000 25.000000 14.228780 0.000000
-5.498565 45.219592 66.816444 0.000000 59.000000 14.229067 0.000000
-6.570917 47.958355 65.608630 0.000000 31.000000 14.229672 0.000000
-5.460830 45.262037 66.495266 0.000000 57.000000 14.242909 0.000000
-5.450991 45.258531 66.326490 0.000000 44.000000 14.230636 0.000000
-4.932399 43.843082 66.002128 0.000000 22.000000 14.086976 0.000000
-5.430968 45.272198 66.164643 0.000000 60.000000 14.235384 0.000000
-3.677784 42.831844 64.705253 0.000000 48.000000 14.660685 21.000000
-5.406560 45.253841 65.823656 0.000000 53.000000 14.210108 0.000000
-3.974396 43.709477 63.877940 0.000000 48.000000 14.651930 20.000000
-5.412100 45.161074 65.460883 0.000000 41.000000 14.124888 0.000000
-6.221804 46.660505 67.002262 0.000000 35.000000 14.181437 0.000000
-6.239117 48.226762 65.327008 0.000000 62.000000 14.606468 6.000000
-4.667885 44.033003 64.583789 0.000000 74.000000 14.237790 0.000000
-5.162970 46.768013 61.375662 0.000000 46.000000 14.525685 29.000000
-5.312436 45.642076 63.528841 0.000000 32.000000 14.184549 0.000000
-4.375780 45.543983 61.320920 0.000000 66.000000 14.734797 13.000000
-4.612081 44.009264 64.230503 0.000000 55.000000 14.237332 0.000000
-5.154442 45.976138 61.248595 0.000000 63.000000 14.196538 0.000000
-4.588332 43.980984 64.048494 0.000000 57.000000 14.226038 0.000000
-4.435544 44.544746 65.483546 0.000000 60.000000 14.761748 16.000000
-4.664088 44.391871 67.812470 0.000000 85.000000 14.765210 26.000000
-6.518239 48.763712 64.896575 0.000000 40.000000 14.521502 2.000000
-4.932147 43.856993 65.818410 0.000000 36.000000 14.071348 0.000000
-5.128556 45.213390 64.151759 0.000000 59.000000 14.249780 0.000000
-5.635692 46.963179 61.388181 0.000000 40.000000 14.178195 0.000000
-5.095348 45.194098 63.977939 0.000000 63.000000 14.251671 0.000000
-5.331929 46.182226 61.811451 0.000000 41.000000 14.185431 0.000000
-4.415216 43.880837 63.150818 0.000000 53.000000 14.237059 0.000000
-3.901324 43.714973 64.726749 0.000000 61.000000 14.819762 28.000000
-4.407837 43.778897 62.936890 0.000000 49.000000 14.177244 0.000000
-5.149150 45.262411 64.347258 0.000000 33.000000 14.273946 0.000000
-4.953016 45.093918 63.276759 0.000000 47.000000 14.257794 0.000000
-3.725866 43.046978 64.876320 0.000000 42.000000 14.724629 21.000000
-4.887410 45.000197 62.906432 0.000000 49.000000 14.235765 0.000000
-4.839691 44.978736 62.733133 0.000000 44.000000 14.249983 0.000000
-4.792422 44.948229 62.553276 0.000000 65.000000 14.259347 0.000000
-5.300260 45.947136 62.532370 0.000000 40.000000 14.202946 0.000000
-5.250635 44.956969 65.097692 0.000000 39.000000 14.145665 0.000000
-5.366237 45.088855 65.082846 0.000000 37.000000 14.092812 0.000000
-5.010647 44.678619 65.651457 0.000000 53.000000 14.314766 27.000000
-5.347446 46.561703 65.827960 0.000000 4.000000 14.795980 12.000000
-5.645774 46.349814 63.170410 0.000000 58.000000 14.128337 0.000000
-5.480372 45.565323 65.123387 0.000000 42.000000 14.187889 0.000000
-4.891521 44.483858 64.635723 0.000000 55.000000 14.224572 0.000000
-5.525205 45.822782 65.148617 0.000000 61.000000 14.254911 0.000000
-4.999945 44.633296 64.617451 0.000000 51.000000 14.184959 0.000000
-5.419943 46.244564 63.314539 0.000000 49.000000 14.307034 18.000000
-3.571889 42.395026 64.176595 0.000000 51.000000 14.517109 25.000000
-5.686507 46.178062 65.138779 0.000000 60.000000 14.252075 0.000000
-5.037613 44.806077 66.826880 0.000000 55.000000 14.479794 7.000000
-5.274323 45.157062 64.583909 0.000000 45.000000 14.145404 0.000000
-5.300621 45.446046 64.613530 0.000000 49.000000 14.242553 0.000000
-3.893959 43.785179 63.921633 0.000000 80.000000 14.760710 20.000000
-5.453289 45.820637 64.593381 0.000000 60.000000 14.254185 0.000000
-5.530087 45.999594 64.578055 0.000000 68.000000 14.255575 0.000000
-4.078794 43.538304 63.900461 0.000000 56.000000 14.490373 20.000000
-6.411026 48.972924 65.157006 0.000000 41.000000 14.734209 2.000000
-5.904348 46.562444 64.444851 0.000000 39.000000 14.129742 0.000000
-5.944865 46.785829 64.443156 0.000000 51.000000 14.183667 0.000000
-5.180126 44.703045 66.487820 0.000000 41.000000 14.269072 0.000000
-3.145392 42.145294 64.040622 0.000000 58.000000 14.786073 24.000000
-5.184099 45.274032 63.546608 0.000000 33.000000 14.153255 0.000000
-6.787237 48.348131 64.818193 0.000000 34.000000 14.099610 0.000000
-5.900667 47.214919 62.616340 0.000000 26.000000 14.184285 0.000000
-5.625976 46.452003 62.140839 0.000000 31.000000 14.067273 0.000000
-5.598025 47.415044 62.831342 0.000000 48.000000 14.565047 9.000000
-4.857758 44.919295 61.960876 0.000000 38.000000 14.119017 0.000000
-5.696504 46.051554 65.079906 0.000000 34.000000 14.184682 0.000000
-4.887419 45.045336 62.735342 0.000000 43.000000 14.234078 0.000000
-6.763510 49.066716 65.218845 0.000000 45.000000 14.460216 2.000000
-5.696386 47.063781 63.365027 0.000000 65.000000 14.395585 5.000000
-5.535645 46.970556 62.178815 0.000000 51.000000 14.364421 10.000000
-4.957055 45.081188 63.264036 0.000000 44.000000 14.247468 0.000000
-4.557400 45.215846 61.750216 0.000000 33.000000 14.487078 13.000000
-4.529420 44.181130 65.415709 0.000000 35.000000 14.520892 16.000000
-5.320227 45.656772 63.500530 0.000000 28.000000 14.180151 0.000000
-5.046349 45.118733 63.783780 0.000000 41.000000 14.242688 0.000000
-4.848438 44.830388 66.550102 0.000000 52.000000 14.628675 7.000000
-5.112438 45.152001 64.125219 0.000000 52.000000 14.236315 0.000000
-6.097762 47.860516 63.128641 0.000000 61.000000 14.328206 9.000000
-5.167657 45.129116 64.277945 0.000000 39.000000 14.194860 0.000000
-5.255683 44.742446 65.232408 0.000000 24.000000 14.069634 0.000000
-3.750843 43.251871 65.486409 0.000000 60.000000 14.856750 17.000000
-4.564712 43.945634 64.009635 0.000000 60.000000 14.228515 0.000000
-5.743586 46.151839 65.058307 0.000000 35.000000 14.180273 0.000000
-5.285502 46.126575 61.501402 0.000000 30.000000 14.168563 0.000000
-4.766941 44.156937 67.068776 0.000000 77.000000 14.489408 23.000000
-4.787621 44.494153 63.319623 0.000000 35.000000 14.168792 0.000000
-5.554669 45.179809 65.552933 0.000000 17.000000 14.014109 0.000000
-4.714511 44.151624 67.176909 0.000000 53.000000 14.547414 15.000000
-5.394946 45.172609 65.083708 0.000000 35.000000 14.100957 0.000000
-5.226239 45.876769 61.914796 0.000000 54.000000 14.169087 0.000000
-6.231872 47.951628 64.726666 0.000000 51.000000 14.430860 6.000000
-5.962801 47.350088 64.854847 0.000000 50.000000 14.445063 6.000000
-5.284195 47.057777 62.221895 0.000000 70.000000 14.632761 10.000000
-4.732686 44.019537 64.378823 0.000000 32.000000 14.149601 0.000000
-4.327636 43.714325 65.046122 0.000000 26.000000 14.470631 28.000000
-4.967281 44.431376 65.758600 0.000000 61.000000 14.266069 0.000000
-5.628483 45.554286 66.257603 0.000000 51.000000 14.182012 0.000000
-3.704473 43.556754 64.397316 0.000000 37.000000 14.895211 20.000000
-5.657901 45.628206 66.423092 0.000000 42.000000 14.204793 0.000000
-6.102965 47.828057 65.162595 0.000000 53.000000 14.548455 6.000000
-5.697205 45.687620 66.583670 0.000000 55.000000 14.212142 0.000000
-5.082562 45.221461 63.049498 0.000000 40.000000 14.165668 0.000000
-5.893968 47.574923 64.820036 0.000000 57.000000 14.594777 6.000000
-5.786473 45.794900 66.895707 0.000000 51.000000 14.211420 0.000000
-4.688540 45.673643 62.224987 0.000000 47.000000 14.610000 4.000000
-4.865639 45.190217 65.324765 0.000000 81.000000 14.615927 27.000000
-5.789874 47.128273 63.654670 0.000000 54.000000 14.371018 5.000000
-5.262619 45.305230 64.322527 0.000000 37.000000 14.185652 0.000000
-6.046671 45.892098 67.463880 0.000000 34.000000 14.081717 0.000000
-4.124872 43.447370 63.712281 0.000000 55.000000 14.389613 20.000000
-4.067488 43.353676 66.605749 0.000000 60.000000 14.742313 22.000000
-5.569150 44.845527 67.300424 0.000000 41.000000 14.069680 0.000000
-5.636514 44.890212 67.447380 0.000000 36.000000 14.044022 0.000000
-4.455347 43.656898 62.792694 0.000000 29.000000 14.067705 0.000000
-4.474963 44.894910 65.419719 0.000000 77.000000 14.860943 27.000000
-5.743128 47.441538 61.914897 0.000000 49.000000 14.337039 10.000000
-5.827333 45.250198 68.051341 0.000000 43.000000 14.088227 0.000000
-5.461450 46.220941 64.014966 0.000000 53.000000 14.341835 1.000000
-6.727674 48.350182 64.544079 0.000000 32.000000 14.122316 0.000000
-5.040943 46.043090 62.943311 0.000000 65.000000 14.525039 4.000000
-4.619220 44.514308 66.899824 0.000000 84.000000 14.748785 23.000000
-6.778724 48.279427 64.831640 0.000000 33.000000 14.080961 0.000000
-5.286021 45.202777 64.783593 0.000000 34.000000 14.176776 0.000000
-6.049255 47.141255 64.438190 0.000000 65.000000 14.233026 0.000000
-4.414311 43.528804 64.246493 0.000000 38.000000 14.223029 0.000000
-5.007647 45.690099 62.210546 0.000000 44.000000 14.325871 4.000000
-5.878341 46.510300 64.364112 0.000000 41.000000 14.122650 0.000000
-5.686648 47.466805 61.981270 0.000000 62.000000 14.406259 10.000000
-5.684711 47.516878 62.240327 0.000000 63.000000 14.458709 10.000000
-4.713222 44.914167 65.392661 0.000000 45.000000 14.649728 27.000000
-5.323672 45.967420 61.076225 0.000000 26.000000 14.019477 0.000000
-6.051465 46.876733 64.853186 0.000000 51.000000 14.172056 0.000000
-5.392625 45.768568 64.420669 0.000000 66.000000 14.267754 0.000000
-3.593708 43.406881 65.236556 0.000000 64.000000 15.032898 21.000000
-5.920562 46.499438 64.858338 0.000000 41.000000 14.137848 0.000000
-6.163345 47.798866 65.001964 0.000000 68.000000 14.463069 6.000000
-6.441162 47.988066 65.324128 0.000000 35.000000 14.326006 6.000000
-5.496509 46.357373 62.650576 0.000000 51.000000 14.205786 0.000000
-4.524749 43.999887 66.202737 0.000000 91.000000 14.543581 17.000000
-5.079896 44.644872 64.392525 0.000000 41.000000 14.090888 0.000000
-5.792260 46.516014 65.588353 0.000000 50.000000 14.346318 12.000000
-6.705437 49.134899 65.198996 0.000000 62.000000 14.538234 2.000000
-5.833036 45.518215 67.401699 0.000000 34.000000 14.115973 0.000000
-5.273183 44.850214 66.323168 0.000000 32.000000 14.225320 0.000000
-5.444886 45.480654 64.975336 0.000000 37.000000 14.168277 0.000000
-4.762418 44.218711 64.499567 0.000000 54.000000 14.217789 0.000000
-5.351074 45.333387 65.011892 0.000000 56.000000 14.197674 0.000000
-5.880494 46.303107 65.271080 0.000000 40.000000 14.142649 0.000000
-3.713978 43.010315 65.759485 0.000000 45.000000 14.823904 17.000000
-5.207202 44.944126 65.059848 0.000000 44.000000 14.175364 0.000000
-6.009185 47.890772 64.886733 0.000000 67.000000 14.626625 6.000000
-5.071146 45.910279 62.330818 0.000000 65.000000 14.371950 4.000000
-5.950878 47.361466 62.484160 0.000000 47.000000 14.182903 0.000000
-5.634374 44.881366 67.934246 0.000000 44.000000 14.099372 0.000000
-6.288193 46.739371 66.923792 0.000000 46.000000 14.144165 0.000000
-5.591246 44.805085 67.604455 0.000000 39.000000 14.068815 0.000000
-4.638710 43.841109 64.378138 0.000000 30.000000 14.162116 0.000000
-5.925178 46.724796 64.248191 0.000000 40.000000 14.153859 0.000000
-6.103173 46.062951 67.658083 0.000000 34.000000 14.122735 0.000000
-5.503021 44.705368 67.114561 0.000000 39.000000 14.050842 0.000000
-4.870090 44.558819 66.478859 0.000000 55.000000 14.490289 7.000000
-5.462212 44.685262 66.953840 0.000000 39.000000 14.060822 0.000000
-4.753034 44.208380 65.257064 0.000000 55.000000 14.310789 16.000000
-4.814688 44.959119 65.657391 0.000000 55.000000 14.607070 27.000000
-5.712372 47.734981 62.795631 0.000000 57.000000 14.587355 9.000000
-4.368627 44.148875 62.686259 0.000000 56.000000 14.333866 14.000000
-5.233967 44.690051 66.335692 0.000000 45.000000 14.197193 0.000000
-5.540770 46.732810 63.342197 0.000000 32.000000 14.399328 5.000000
-5.367720 46.115040 63.447977 0.000000 51.000000 14.317308 18.000000
-5.799749 45.772528 66.523711 0.000000 49.000000 14.146736 0.000000
-5.655960 45.554872 66.142723 0.000000 31.000000 14.143903 0.000000
-5.774631 45.700208 66.357751 0.000000 45.000000 14.120655 0.000000
-4.783934 44.151479 64.239655 0.000000 31.000000 14.140522 0.000000
-4.764743 44.178773 65.636071 0.000000 31.000000 14.332519 16.000000
-5.032681 44.566701 65.693299 0.000000 72.000000 14.254193 0.000000
-5.134513 44.022797 67.794100 0.000000 37.000000 14.186752 0.000000
-3.658506 43.005856 63.370469 0.000000 49.000000 14.592615 8.000000
-5.865727 46.183926 64.963945 0.000000 29.000000 14.071604 0.000000
-4.765857 44.006570 66.559869 0.000000 56.000000 14.369658 23.000000
-3.703972 43.113896 65.455402 0.000000 24.000000 14.839483 17.000000
-6.153633 47.844381 64.568068 0.000000 59.000000 14.439569 6.000000
-5.345220 46.307018 61.159308 0.000000 23.000000 14.147770 0.000000
-5.186914 46.793255 61.443736 0.000000 38.000000 14.522226 29.000000
-4.692934 44.867217 65.406151 0.000000 54.000000 14.650598 27.000000
-6.386379 47.135098 66.878356 0.000000 32.000000 14.210794 0.000000
-5.352375 45.200125 64.890036 0.000000 50.000000 14.128040 0.000000
-5.087471 45.245023 63.218602 0.000000 41.000000 14.190603 0.000000
-5.287658 45.153635 64.730568 0.000000 50.000000 14.149101 0.000000
-4.965203 44.780584 63.631000 0.000000 39.000000 14.160822 0.000000
-5.249148 45.051836 64.552404 0.000000 40.000000 14.121737 0.000000
-4.527594 43.892692 63.979113 0.000000 62.000000 14.237046 0.000000
-6.874057 48.235850 65.750685 0.000000 40.000000 14.084478 0.000000
-4.802035 44.784627 62.485374 0.000000 25.000000 14.176162 0.000000
-3.835888 43.500098 63.650716 0.000000 69.000000 14.665682 20.000000
-5.318464 46.948505 61.591358 0.000000 74.000000 14.483447 11.000000
-3.856849 43.299933 64.342614 0.000000 72.000000 14.646314 20.000000
-3.667047 42.696317 64.052087 0.000000 39.000000 14.538823 25.000000
-4.943482 44.691847 63.720810 0.000000 47.000000 14.154936 0.000000
-4.871347 44.628661 63.559812 0.000000 52.000000 14.175750 0.000000
-5.684820 47.113517 63.432255 0.000000 73.000000 14.434160 5.000000
-4.804379 44.547125 63.392019 0.000000 51.000000 14.183625 0.000000
-6.504737 47.695674 65.647145 0.000000 42.000000 14.187332 0.000000
-6.858876 48.966515 65.350699 0.000000 42.000000 14.348503 2.000000
-4.696203 44.312305 63.028099 0.000000 36.000000 14.143543 0.000000
-3.924815 43.443774 65.546555 0.000000 39.000000 14.784195 17.000000
-5.327078 46.486513 63.535815 0.000000 64.000000 14.515467 18.000000
-6.430346 48.158509 63.428634 0.000000 47.000000 14.183163 0.000000
-3.888096 43.303767 64.783179 0.000000 58.000000 14.671149 21.000000
-5.561815 46.323670 61.783262 0.000000 33.000000 14.031354 0.000000
-5.356935 45.213958 64.898119 0.000000 50.000000 14.130480 0.000000
-4.722313 44.162895 64.389941 0.000000 45.000000 14.218595 0.000000
-5.374222 45.489212 64.885674 0.000000 53.000000 14.225284 0.000000
-5.652034 46.545356 63.039456 0.000000 31.000000 14.186845 0.000000
-5.530841 46.059592 63.991152 0.000000 44.000000 14.210567 1.000000
-6.580439 48.434138 64.023712 0.000000 45.000000 14.228927 0.000000
-6.024349 47.597536 62.804915 0.000000 41.000000 14.249883 9.000000
-4.997903 44.575915 64.179791 0.000000 41.000000 14.112230 0.000000
-5.558198 46.027513 64.738131 0.000000 64.000000 14.260200 0.000000
-4.707704 45.806489 61.944637 0.000000 63.000000 14.613828 4.000000
-6.125747 46.612538 66.565215 0.000000 42.000000 14.197790 0.000000
-4.950377 44.403785 64.664235 0.000000 40.000000 14.142024 0.000000
-5.199574 45.397494 63.998220 0.000000 61.000000 14.242317 0.000000
-6.493718 48.212078 63.710910 0.000000 39.000000 14.180579 0.000000
-5.251087 45.588426 63.945391 0.000000 56.000000 14.267095 0.000000
-4.710716 44.633362 62.288692 0.000000 32.000000 14.174364 0.000000
-5.940216 46.957609 64.372988 0.000000 51.000000 14.249513 0.000000
-5.998632 47.108535 64.308256 0.000000 57.000000 14.250375 0.000000
-3.812826 43.262650 65.034823 0.000000 44.000000 14.752094 21.000000
-5.291982 45.407361 64.224061 0.000000 37.000000 14.189045 0.000000
-4.597993 45.199782 61.938903 0.000000 57.000000 14.465860 4.000000
-5.601631 46.533354 63.547530 0.000000 57.000000 14.287124 0.000000
-5.424855 44.461330 67.192326 0.000000 34.000000 14.031539 0.000000
-6.360430 47.698393 63.901106 0.000000 36.000000 14.114740 0.000000
-6.420284 47.831291 63.820860 0.000000 33.000000 14.105152 0.000000
-5.987184 47.862926 63.148330 0.000000 65.000000 14.431682 9.000000
-6.018526 47.228727 63.008287 0.000000 41.000000 14.129005 0.000000
-4.358610 44.119085 62.079209 0.000000 66.000000 14.259747 0.000000
-4.414830 44.179557 62.261094 0.000000 64.000000 14.254695 0.000000
-4.045687 43.706091 66.486156 0.000000 81.000000 14.891363 22.000000
-4.715318 44.483264 63.143225 0.000000 45.000000 14.209220 0.000000
-4.692124 44.899447 65.161772 0.000000 67.000000 14.635823 27.000000
-6.555269 47.685230 64.812567 0.000000 31.000000 14.039577 0.000000
-5.347939 44.943107 66.337578 0.000000 28.000000 14.197047 0.000000
-4.846437 44.599254 63.473982 0.000000 49.000000 14.176312 0.000000
-6.955473 48.432757 66.038958 0.000000 39.000000 14.124532 0.000000
-5.023246 44.401753 64.515807 0.000000 26.000000 14.057794 0.000000
-3.514815 42.051316 64.073518 0.000000 48.000000 14.416991 24.000000
-6.853946 48.210644 64.844941 0.000000 30.000000 13.986394 0.000000
-5.949872 46.445892 64.816605 0.000000 34.000000 14.084632 0.000000
-5.165977 44.956790 64.292489 0.000000 38.000000 14.128014 0.000000
-4.501735 43.837753 63.861256 0.000000 50.000000 14.224335 0.000000
-4.666365 44.534749 62.308285 0.000000 38.000000 14.176744 0.000000
-6.022258 46.958264 64.269082 0.000000 36.000000 14.163278 0.000000
-5.276990 45.145289 64.618235 0.000000 41.000000 14.142220 0.000000
-3.822766 42.571046 64.735219 0.000000 27.000000 14.426784 21.000000
-3.768423 43.296453 64.297350 0.000000 57.000000 14.719719 20.000000
-4.701650 44.138491 64.363279 0.000000 48.000000 14.224271 0.000000
-4.352856 43.626718 64.152033 0.000000 57.000000 14.307465 20.000000
-4.426140 44.428846 62.738165 0.000000 66.000000 14.401675 14.000000
-4.785597 44.591545 63.061513 0.000000 25.000000 14.180005 0.000000
-4.837786 44.337624 64.685047 0.000000 52.000000 14.219572 0.000000
-3.672824 43.249216 65.146359 0.000000 64.000000 14.886543 21.000000
-5.011090 44.289673 66.006845 0.000000 34.000000 14.197824 0.000000
-5.599827 45.783809 65.563319 0.000000 56.000000 14.220010 0.000000
-5.362512 44.750784 66.953949 0.000000 30.000000 14.177812 0.000000
-5.006574 45.850915 62.568009 0.000000 61.000000 14.434091 4.000000
-5.815706 46.232094 66.151086 0.000000 49.000000 14.275518 0.000000
-3.867434 43.136159 63.229062 0.000000 56.000000 14.439741 8.000000
-6.329761 47.938847 62.972562 0.000000 36.000000 14.131577 0.000000
-5.383869 45.195274 65.885606 0.000000 62.000000 14.214106 0.000000
-6.160328 46.566600 66.887327 0.000000 45.000000 14.185495 0.000000
-5.452487 45.308654 66.026715 0.000000 57.000000 14.214560 0.000000
-6.020926 46.509785 66.550981 0.000000 47.000000 14.249316 0.000000
-6.646094 47.486225 66.604421 0.000000 37.000000 14.086177 0.000000
-5.522042 45.048904 67.111387 0.000000 35.000000 14.172926 0.000000
-4.201465 44.265948 65.208046 0.000000 49.000000 14.828213 28.000000
-6.157546 46.696783 66.804665 0.000000 42.000000 14.231273 0.000000
-4.009662 43.160211 63.538769 0.000000 47.000000 14.356917 30.000000
-6.225167 46.795611 66.930352 0.000000 48.000000 14.224907 0.000000
-5.742168 45.733226 66.556014 0.000000 59.000000 14.186710 0.000000
-4.875527 44.032271 65.674556 0.000000 32.000000 14.177077 0.000000
-5.839864 45.796558 66.670697 0.000000 37.000000 14.137372 0.000000
-6.348951 47.014604 67.181850 0.000000 44.000000 14.231248 0.000000
-4.780142 44.070825 67.304938 0.000000 43.000000 14.470085 15.000000
-6.004567 45.979474 66.907316 0.000000 40.000000 14.090225 0.000000
-4.104090 43.600884 66.021841 0.000000 50.000000 14.741299 17.000000
-6.166696 46.174288 67.139868 0.000000 41.000000 14.049773 0.000000
-6.243643 46.278417 67.253153 0.000000 39.000000 14.035661 0.000000
-6.249926 46.502994 67.395359 0.000000 47.000000 14.137938 0.000000
-6.114920 47.371330 63.165931 0.000000 40.000000 14.118111 0.000000
-6.405729 48.113578 63.805061 0.000000 34.000000 14.231275 0.000000
-5.832527 46.660272 63.954933 0.000000 34.000000 14.177230 0.000000
-4.607590 45.382769 61.729494 0.000000 50.000000 14.507051 4.000000
-5.664639 46.972097 61.747582 0.000000 34.000000 14.197678 0.000000
-3.145475 41.993205 63.920116 0.000000 39.000000 14.710044 24.000000
-4.188351 44.181299 65.208847 0.000000 39.000000 14.805767 28.000000
-3.595383 43.329638 65.893387 0.000000 47.000000 15.076882 17.000000
-6.130969 47.985955 65.290090 0.000000 38.000000 14.602215 6.000000
-6.190092 46.408843 67.107378 0.000000 27.000000 14.120146 0.000000
-3.381472 42.917675 63.378426 0.000000 36.000000 14.808700 8.000000
-5.017689 45.035726 63.922815 0.000000 54.000000 14.251183 0.000000
-4.983906 44.804748 63.960574 0.000000 45.000000 14.192293 0.000000
-5.325157 45.377244 64.682723 0.000000 38.000000 14.200447 0.000000
-3.960255 43.340178 65.542952 0.000000 49.000000 14.709538 17.000000
-4.877233 44.413893 64.077912 0.000000 41.000000 14.143753 0.000000
-4.620672 45.356760 61.317437 0.000000 52.000000 14.436373 13.000000
-5.586703 45.390529 66.504987 0.000000 27.000000 14.182247 0.000000
-5.341755 45.504977 64.759457 0.000000 48.000000 14.246333 0.000000
-4.525912 44.003260 65.677248 0.000000 43.000000 14.482368 16.000000
-3.651584 43.322967 64.106695 0.000000 56.000000 14.814039 20.000000
-4.632273 44.020102 64.343564 0.000000 47.000000 14.236683 0.000000
-5.285410 45.075461 64.867860 0.000000 40.000000 14.135426 0.000000
-3.739373 42.457323 64.932486 0.000000 43.000000 14.479199 21.000000
-5.396686 45.050207 66.263092 0.000000 33.000000 14.187706 0.000000
-5.263539 44.955754 64.907520 0.000000 31.000000 14.111211 0.000000
-6.074419 46.215780 67.494287 0.000000 57.000000 14.191753 0.000000
-4.690373 43.684867 66.249644 0.000000 41.000000 14.270914 17.000000
-6.032248 45.970389 67.176803 0.000000 39.000000 14.093006 0.000000
-5.791779 47.707991 63.326294 0.000000 70.000000 14.566569 9.000000
-5.883876 45.895968 66.905596 0.000000 50.000000 14.165422 0.000000
-6.113402 47.545931 65.060423 0.000000 32.000000 14.412315 6.000000
-6.324856 46.988774 67.121502 0.000000 46.000000 14.235510 0.000000
-5.774863 45.731546 66.609636 0.000000 57.000000 14.162681 0.000000
-6.259301 46.928313 66.984207 0.000000 53.000000 14.254245 0.000000
-5.693788 45.692901 66.475719 0.000000 61.000000 14.204745 0.000000
-6.205265 46.847208 66.844787 0.000000 61.000000 14.253901 0.000000
-5.162528 44.740980 65.775891 0.000000 40.000000 14.217081 0.000000
-5.580905 47.420315 62.292226 0.000000 57.000000 14.519576 10.000000
-5.506240 46.258835 61.378178 0.000000 30.000000 14.007912 0.000000
-4.712807 44.230824 67.504798 0.000000 59.000000 14.619556 26.000000
-5.964989 46.516409 66.284126 0.000000 53.000000 14.271445 0.000000
-4.919365 44.121873 65.791557 0.000000 43.000000 14.187492 0.000000
-5.920405 46.395701 66.134894 0.000000 53.000000 14.245284 0.000000
-5.332769 45.123212 65.586390 0.000000 56.000000 14.196067 0.000000
-4.435670 44.383164 65.236166 0.000000 41.000000 14.666964 16.000000
-5.243381 45.070570 65.454965 0.000000 59.000000 14.240265 0.000000
-5.472008 47.140764 62.271766 0.000000 66.000000 14.502175 10.000000
-3.762078 43.127922 65.154913 0.000000 84.000000 14.757353 21.000000
-5.679852 45.978028 65.561081 0.000000 41.000000 14.226214 0.000000
-5.780698 45.552661 66.761297 0.000000 32.000000 14.102414 0.000000
-5.525853 45.805446 65.291318 0.000000 57.000000 14.263984 0.000000
-4.911437 44.484041 64.694545 0.000000 48.000000 14.213489 0.000000
-5.481483 45.647052 65.131375 0.000000 56.000000 14.221051 0.000000
-4.186655 43.206888 66.005561 0.000000 35.000000 14.504375 17.000000
-5.953647 47.899361 63.390731 0.000000 69.000000 14.505268 9.000000
-4.750428 44.266776 64.398922 0.000000 61.000000 14.236412 0.000000
-6.720343 48.489018 64.452486 0.000000 29.000000 14.174687 0.000000
-4.678827 44.129477 64.242399 0.000000 62.000000 14.227131 0.000000
-5.715041 46.077451 64.433276 0.000000 32.000000 14.102701 0.000000
-4.300821 43.990455 62.597895 0.000000 54.000000 14.320538 14.000000
-5.243244 45.077088 64.520604 0.000000 36.000000 14.133632 0.000000
-4.411373 45.570063 61.974722 0.000000 46.000000 14.789708 4.000000
-5.256769 46.411476 63.332144 0.000000 66.000000 14.524811 18.000000
-6.079949 46.665345 66.112557 0.000000 42.000000 14.207756 0.000000
-5.954784 45.621373 67.268063 0.000000 25.000000 14.031960 0.000000
-3.412355 41.932359 63.908246 0.000000 44.000000 14.442104 24.000000
-5.748528 47.986896 63.173970 0.000000 61.000000 14.701331 9.000000
-5.909512 47.995144 63.326722 0.000000 64.000000 14.576709 9.000000
-4.572807 45.504327 62.362309 0.000000 25.000000 14.662093 4.000000
-4.513790 43.767479 63.790384 0.000000 32.000000 14.176539 0.000000
-4.670453 44.170541 63.515400 0.000000 44.000000 14.166289 0.000000
-3.497620 43.093369 64.794840 0.000000 50.000000 14.940756 21.000000
-4.274976 43.668181 62.969923 0.000000 63.000000 14.256473 0.000000
-3.560398 42.441338 64.428204 0.000000 48.000000 14.575814 25.000000
-6.894926 48.376415 65.792664 0.000000 37.000000 14.127642 0.000000
-5.293061 46.056062 62.120998 0.000000 38.000000 14.205592 0.000000
-4.673114 44.476575 66.779008 0.000000 70.000000 14.670464 23.000000
-4.761860 44.985416 64.993015 0.000000 68.000000 14.587835 27.000000
-4.962858 44.856965 65.301298 0.000000 51.000000 14.389585 27.000000
-5.807715 45.592965 66.897240 0.000000 30.000000 14.110241 0.000000
-5.282558 45.165798 64.795302 0.000000 54.000000 14.166248 0.000000
-4.539722 44.571132 65.488687 0.000000 52.000000 14.678687 16.000000
-3.478197 42.901885 62.947364 0.000000 58.000000 14.664167 8.000000
-4.588583 44.376105 62.275904 0.000000 29.000000 14.178920 0.000000
-5.314847 45.571135 64.644495 0.000000 58.000000 14.284153 0.000000
-5.687181 47.054435 61.789097 0.000000 51.000000 14.215594 0.000000
-5.357556 45.712422 64.548302 0.000000 62.000000 14.291644 0.000000
-4.857548 44.367529 63.881501 0.000000 38.000000 14.119738 0.000000
-6.364882 47.032064 66.011068 0.000000 28.000000 14.086823 0.000000
-4.915577 44.482762 63.765015 0.000000 40.000000 14.100376 0.000000
-5.382231 45.711081 64.096247 0.000000 45.000000 14.215809 0.000000
-5.420666 45.552482 64.704965 0.000000 37.000000 14.187771 0.000000
-3.789813 43.132500 63.216483 0.000000 71.000000 14.507109 8.000000
-5.918364 47.782138 62.695952 0.000000 65.000000 14.408217 10.000000
-5.886665 45.682760 66.971010 0.000000 27.000000 14.083859 0.000000
-5.699809 46.706708 63.696142 0.000000 51.000000 14.286060 0.000000
-5.304993 46.160736 62.485589 0.000000 54.000000 14.280035 0.000000
-5.338914 46.268606 62.362444 0.000000 58.000000 14.278744 0.000000
-5.531168 46.553764 61.793119 0.000000 40.000000 14.153838 0.000000
-4.489980 43.989392 67.112062 0.000000 49.000000 14.677293 23.000000
-4.199631 43.583663 62.669873 0.000000 67.000000 14.255239 0.000000
-4.791087 45.113340 61.514877 0.000000 30.000000 14.206106 0.000000
-6.086950 47.612754 64.526303 0.000000 68.000000 14.400913 6.000000
-4.493037 43.867585 63.104757 0.000000 41.000000 14.155766 0.000000
-4.585781 43.979208 63.251961 0.000000 42.000000 14.134360 0.000000
-5.471351 45.523400 65.225471 0.000000 43.000000 14.190969 0.000000
-4.726662 44.295705 63.574771 0.000000 50.000000 14.173207 0.000000
-4.559793 45.307153 62.102536 0.000000 45.000000 14.563291 4.000000
-4.111688 43.449389 63.722683 0.000000 61.000000 14.403597 20.000000
-4.979039 44.688812 64.009173 0.000000 40.000000 14.155250 0.000000
-3.832318 42.944044 64.807943 0.000000 43.000000 14.578314 21.000000
-5.753690 46.673362 64.258437 0.000000 51.000000 14.289522 1.000000
-4.399804 43.724419 63.694321 0.000000 55.000000 14.251060 0.000000
-3.894537 43.018363 65.449694 0.000000 39.000000 14.627305 17.000000
-4.497146 43.856198 63.830560 0.000000 50.000000 14.232399 0.000000
-5.210463 45.117802 64.427620 0.000000 36.000000 14.169000 0.000000
-4.816742 45.650182 61.868531 0.000000 59.000000 14.442564 4.000000
-5.196249 46.293197 63.761107 0.000000 60.000000 14.581779 1.000000
-5.296843 45.231889 64.884306 0.000000 39.000000 14.190600 0.000000
-4.826214 45.956036 62.770215 0.000000 65.000000 14.663930 4.000000
-4.882585 44.824040 62.832105 0.000000 31.000000 14.159804 0.000000
-5.909572 46.181326 66.420623 0.000000 28.000000 14.201386 0.000000
-4.858860 44.433826 64.365053 0.000000 46.000000 14.202127 0.000000
-5.387328 45.571505 64.415448 0.000000 37.000000 14.191812 0.000000
-4.957398 44.555488 64.483244 0.000000 41.000000 14.176156 0.000000
-5.008589 44.492509 64.222301 0.000000 29.000000 14.073611 0.000000
-5.043696 44.701183 64.606056 0.000000 45.000000 14.171588 0.000000
-5.627038 46.049119 65.220048 0.000000 64.000000 14.263042 0.000000
-5.145365 44.820384 64.719143 0.000000 42.000000 14.141181 0.000000
-5.696471 46.202630 65.341725 0.000000 53.000000 14.276801 0.000000
-5.246561 44.937428 64.828073 0.000000 40.000000 14.109840 0.000000
-5.107207 45.140549 63.521152 0.000000 44.000000 14.165666 0.000000
-6.564373 47.855420 65.580693 0.000000 40.000000 14.190474 0.000000
-5.394581 45.278294 65.075992 0.000000 37.000000 14.143359 0.000000
-5.498314 45.388673 65.174845 0.000000 33.000000 14.105827 0.000000
-5.234327 46.506944 61.315572 0.000000 54.000000 14.347838 29.000000
-4.427623 44.042672 65.086179 0.000000 33.000000 14.518240 28.000000
-5.827510 45.658650 66.699274 0.000000 27.000000 14.095835 0.000000
-4.596744 44.602110 65.486474 0.000000 69.000000 14.639359 27.000000
-4.665160 43.702628 65.852094 0.000000 35.000000 14.254431 0.000000
-5.509342 45.215671 65.920975 0.000000 27.000000 14.112856 0.000000
-5.304801 46.124131 60.873183 0.000000 49.000000 14.076523 0.000000
-6.632734 47.681238 66.585591 0.000000 66.000000 14.175374 0.000000
-6.729026 47.789299 66.647443 0.000000 48.000000 14.139310 0.000000
-6.688587 48.280546 64.624884 0.000000 46.000000 14.138876 0.000000
-4.588406 44.907950 61.646515 0.000000 35.000000 14.321644 13.000000
-5.143634 45.814055 62.193711 0.000000 35.000000 14.251091 0.000000
-5.292471 44.905570 66.525365 0.000000 30.000000 14.254029 0.000000
-4.977842 45.169654 63.205709 0.000000 51.000000 14.257777 0.000000
-4.947846 45.010201 63.301731 0.000000 55.000000 14.231361 0.000000
-4.905706 44.880390 63.412322 0.000000 52.000000 14.229707 0.000000
-4.874801 44.730265 63.516440 0.000000 59.000000 14.208857 0.000000
-3.879031 43.799258 64.890715 0.000000 38.000000 14.893432 28.000000
-5.257660 46.244807 60.910063 0.000000 28.000000 14.172624 0.000000
-5.128666 44.428532 67.252867 0.000000 71.000000 14.293656 26.000000
-6.425991 47.971079 65.326134 0.000000 45.000000 14.333079 6.000000
-4.388960 44.681784 65.454022 0.000000 84.000000 14.856221 16.000000
-4.256814 43.661975 65.853571 0.000000 37.000000 14.608059 17.000000
-4.715625 44.226814 63.992900 0.000000 45.000000 14.204154 0.000000
-5.520485 45.520427 65.521830 0.000000 34.000000 14.179943 0.000000
-4.847401 45.781765 62.377170 0.000000 52.000000 14.527847 4.000000
-6.203595 46.750340 66.846469 0.000000 42.000000 14.216222 0.000000
-5.306279 44.914363 65.262497 0.000000 29.000000 14.097220 0.000000
-5.289672 45.097369 64.814316 0.000000 42.000000 14.134203 0.000000
-4.585936 43.911468 64.386086 0.000000 62.000000 14.239473 0.000000
-5.579570 46.428924 61.758711 0.000000 40.000000 14.055191 0.000000
-4.543131 43.808673 64.522823 0.000000 66.000000 14.252469 0.000000
-5.857674 47.789724 62.673849 0.000000 61.000000 14.463702 10.000000
-4.735112 44.705816 65.359483 0.000000 49.000000 14.541289 27.000000
-5.038106 44.807964 66.966021 0.000000 43.000000 14.496407 7.000000
-4.398029 43.641579 65.919858 0.000000 60.000000 14.479578 17.000000
-4.835729 43.662963 67.038681 0.000000 55.000000 14.222697 0.000000
-6.757019 47.830438 66.602745 0.000000 40.000000 14.125442 0.000000
-4.192490 43.387243 64.711481 0.000000 39.000000 14.420897 21.000000
-5.178931 45.372774 62.710627 0.000000 39.000000 14.100201 0.000000
-6.618512 47.610032 66.375314 0.000000 50.000000 14.134684 0.000000
-4.071638 44.199218 64.971957 0.000000 48.000000 14.891065 28.000000
-6.527860 47.648517 64.134972 0.000000 31.000000 13.970142 0.000000
-5.671391 46.059758 65.451133 0.000000 59.000000 14.254240 0.000000
-4.561932 43.845412 64.415426 0.000000 27.000000 14.237797 0.000000
-5.985760 45.622426 67.546321 0.000000 25.000000 14.036904 0.000000
-5.465764 45.591720 65.074483 0.000000 53.000000 14.206132 0.000000
-5.615691 46.866604 63.302897 0.000000 41.000000 14.381248 5.000000
-6.344920 47.333623 65.458659 0.000000 41.000000 14.162847 0.000000
-5.836263 46.411431 65.279697 0.000000 53.000000 14.227781 0.000000
-5.246905 45.099022 64.700808 0.000000 60.000000 14.160334 0.000000
-6.374995 47.344829 65.516208 0.000000 39.000000 14.146892 0.000000
-5.194776 44.880239 64.558053 0.000000 47.000000 14.101888 0.000000
-5.664759 46.149494 65.069635 0.000000 64.000000 14.252067 0.000000
-5.110734 44.716948 64.436002 0.000000 43.000000 14.097346 0.000000
-3.551726 42.567928 64.090868 0.000000 59.000000 14.595646 25.000000
-5.924990 47.018560 63.703052 0.000000 41.000000 14.209649 0.000000
-5.176498 44.679016 66.065414 0.000000 39.000000 14.213129 0.000000
-4.413150 44.467014 65.655339 0.000000 49.000000 14.770546 16.000000
-5.424684 45.686195 64.736947 0.000000 59.000000 14.242246 0.000000
-4.805960 44.308485 64.110560 0.000000 46.000000 14.169292 0.000000
-5.459630 47.027693 61.846030 0.000000 55.000000 14.417562 11.000000
-4.694559 44.184812 64.010531 0.000000 51.000000 14.208227 0.000000
-5.256832 45.370628 64.522301 0.000000 54.000000 14.240880 0.000000
-5.332134 45.659239 63.957455 0.000000 43.000000 14.223867 0.000000
-5.201271 45.147958 64.391792 0.000000 39.000000 14.185396 0.000000
-5.376669 46.972364 61.808963 0.000000 61.000000 14.465892 11.000000
-3.839371 43.157216 63.637553 0.000000 30.000000 14.521560 30.000000
-5.844859 46.990266 65.831413 0.000000 59.000000 14.519962 12.000000
-4.861086 44.788098 65.060951 0.000000 60.000000 14.425650 27.000000
-7.044269 48.597192 66.054136 0.000000 34.000000 14.112718 0.000000
-3.929525 43.734684 63.165667 0.000000 59.000000 14.619434 3.000000
-4.204378 43.317213 63.438091 0.000000 63.000000 14.232545 0.000000
-3.721832 43.387428 63.945844 0.000000 54.000000 14.757767 20.000000
-4.770346 44.250906 63.842731 0.000000 54.000000 14.146787 0.000000
-4.632529 44.159592 63.772629 0.000000 61.000000 14.226318 0.000000
-4.530992 43.989272 63.672434 0.000000 63.000000 14.237328 0.000000
-4.117673 43.256579 63.272648 0.000000 62.000000 14.267078 0.000000
-5.637712 45.321274 67.155430 0.000000 30.000000 14.184031 0.000000
-5.858463 47.645676 64.619960 0.000000 45.000000 14.632289 6.000000
-3.609959 43.341543 63.020688 0.000000 72.000000 14.732143 8.000000
-6.164310 46.469661 66.949266 0.000000 32.000000 14.149723 0.000000
-5.166409 45.026801 65.196924 0.000000 59.000000 14.261993 0.000000
-6.047938 47.950680 63.316108 0.000000 53.000000 14.431963 9.000000
-4.598732 43.895128 64.443579 0.000000 67.000000 14.227966 0.000000
-4.299790 44.071838 65.485993 0.000000 33.000000 14.692739 16.000000
-4.626212 43.995410 64.300230 0.000000 48.000000 14.227059 0.000000
-3.893861 43.762912 63.314394 0.000000 60.000000 14.680641 3.000000
-5.607999 46.977821 62.095371 0.000000 44.000000 14.292048 10.000000
-6.138021 46.534032 66.831174 0.000000 45.000000 14.185889 0.000000
-4.685419 44.162799 64.010871 0.000000 51.000000 14.207597 0.000000
-5.301008 46.786862 61.727778 0.000000 55.000000 14.449509 11.000000
-4.715744 44.238934 63.860910 0.000000 53.000000 14.193520 0.000000
-5.508607 47.726111 62.605822 0.000000 55.000000 14.746146 10.000000
-6.256537 46.754886 66.875980 0.000000 35.000000 14.173558 0.000000
-3.432868 42.059982 64.044952 0.000000 39.000000 14.491419 24.000000
-4.892980 44.770998 65.104337 0.000000 59.000000 14.394879 27.000000
-3.787778 43.133854 64.848871 0.000000 52.000000 14.700644 21.000000
-4.486843 45.429832 62.079343 0.000000 49.000000 14.676557 4.000000
-4.799320 44.699128 63.141735 0.000000 55.000000 14.220711 0.000000
-4.716185 45.122368 61.720580 0.000000 39.000000 14.301728 13.000000
-5.503563 45.901186 63.447010 0.000000 38.000000 14.107155 0.000000
-4.829665 44.853851 62.841847 0.000000 47.000000 14.221015 0.000000
-4.910706 45.830809 61.705157 0.000000 34.000000 14.411744 19.000000
-4.236446 43.982730 65.670175 0.000000 37.000000 14.735466 16.000000
-4.886317 45.030797 62.363918 0.000000 46.000000 14.185674 0.000000
-5.469492 46.339094 62.924562 0.000000 55.000000 14.254914 0.000000
-6.781360 48.580423 64.522818 0.000000 38.000000 14.164804 0.000000
-5.531389 45.466480 65.567268 0.000000 39.000000 14.153448 0.000000
-5.389137 46.218364 62.253847 0.000000 50.000000 14.200093 0.000000
-4.278088 43.861704 64.284792 0.000000 74.000000 14.486306 20.000000
-4.543387 43.997942 63.606274 0.000000 53.000000 14.221876 0.000000
-4.041616 43.899135 63.539449 0.000000 51.000000 14.628510 3.000000
-4.749893 44.316581 63.812557 0.000000 64.000000 14.188490 0.000000
-5.426533 47.325326 62.272369 0.000000 63.000000 14.618496 10.000000
-4.966687 44.599493 63.993780 0.000000 40.000000 14.128320 0.000000
-5.473902 46.665266 61.040488 0.000000 34.000000 14.162936 0.000000
-6.181536 47.221564 65.014327 0.000000 35.000000 14.213289 0.000000
-4.491973 44.844296 65.382910 0.000000 74.000000 14.820640 27.000000
-3.782915 43.079642 62.983993 0.000000 47.000000 14.464643 8.000000
-4.599046 44.082079 63.814003 0.000000 53.000000 14.229982 0.000000
-6.082870 47.767624 65.343656 0.000000 53.000000 14.563290 6.000000
-5.084177 45.633053 61.942602 0.000000 46.000000 14.201960 0.000000
-5.331559 45.635137 64.531805 0.000000 58.000000 14.281840 0.000000
-3.953955 43.588226 65.916456 0.000000 74.000000 14.859843 17.000000
-5.096574 46.816754 61.317901 0.000000 52.000000 14.598900 29.000000
-4.987598 44.228917 65.907625 0.000000 36.000000 14.182786 0.000000
-5.515458 45.960420 64.697020 0.000000 59.000000 14.266831 0.000000
-4.340466 44.157953 62.739111 0.000000 57.000000 14.369261 14.000000
-5.087793 45.878145 61.679966 0.000000 53.000000 14.267591 0.000000
-4.786824 44.570341 67.501163 0.000000 78.000000 14.690123 26.000000
-5.018683 44.342803 65.812864 0.000000 42.000000 14.189834 0.000000
-4.836953 44.289156 64.379758 0.000000 46.000000 14.164871 0.000000
-5.317607 45.592231 64.514463 0.000000 59.000000 14.275005 0.000000
-5.413062 45.754896 64.581590 0.000000 69.000000 14.262520 0.000000
-6.279133 47.666821 63.481028 0.000000 41.000000 14.126374 0.000000
-4.657793 45.197884 61.668657 0.000000 39.000000 14.379262 13.000000
-4.854986 44.792949 62.801251 0.000000 46.000000 14.168555 0.000000
-6.615286 47.989350 64.350031 0.000000 22.000000 14.054701 0.000000
-4.700814 44.317327 65.612081 0.000000 35.000000 14.443973 16.000000
-4.089113 43.543672 64.113557 0.000000 36.000000 14.508158 20.000000
-6.679054 47.896010 64.783452 0.000000 38.000000 14.009720 0.000000
-6.048346 46.873102 64.989633 0.000000 51.000000 14.189383 0.000000
-7.016664 48.748918 65.753874 0.000000 60.000000 14.164267 0.000000
-7.071351 48.926693 65.802812 0.000000 59.000000 14.192735 0.000000
-6.904512 48.631927 65.440380 0.000000 50.000000 14.181604 0.000000
-6.970949 48.796968 65.472856 0.000000 56.000000 14.192321 0.000000
-7.038782 48.954859 65.501352 0.000000 49.000000 14.198399 0.000000
-4.199350 43.341301 62.569729 0.000000 28.000000 14.145217 0.000000
-4.917958 44.797283 66.636029 0.000000 52.000000 14.562286 7.000000
-5.451174 46.370309 62.738425 0.000000 47.000000 14.262409 0.000000
-6.815118 48.302280 65.852437 0.000000 31.000000 14.176807 0.000000
-5.566494 46.907541 63.527068 0.000000 58.000000 14.468718 5.000000
-4.852147 44.977822 62.267739 0.000000 46.000000 14.183831 0.000000
-5.420121 46.199913 63.007561 0.000000 56.000000 14.252771 0.000000
-6.172020 47.803231 62.791944 0.000000 38.000000 14.198206 0.000000
-3.481312 42.272515 64.478061 0.000000 70.000000 14.584661 25.000000
-6.807631 48.186051 65.831510 0.000000 23.000000 14.133879 0.000000
-5.429992 45.860245 63.381981 0.000000 39.000000 14.149552 0.000000
-5.789464 47.243128 62.035767 0.000000 46.000000 14.228530 0.000000
-5.010665 45.789189 61.673429 0.000000 54.000000 14.300535 0.000000
-4.737937 44.545590 63.186258 0.000000 62.000000 14.219108 0.000000
-4.757326 44.408268 63.310002 0.000000 48.000000 14.160192 0.000000
-5.393111 47.069282 61.938951 0.000000 59.000000 14.505624 11.000000
-4.720572 44.308506 63.636796 0.000000 64.000000 14.191193 0.000000
-5.300886 45.569764 64.311562 0.000000 59.000000 14.257261 0.000000
-5.823811 45.244345 67.778423 0.000000 28.000000 14.057081 0.000000
-4.229906 43.933327 66.213077 0.000000 78.000000 14.784873 17.000000
-4.695888 44.201187 63.961285 0.000000 60.000000 14.207915 0.000000
-5.005201 45.588165 61.785859 0.000000 54.000000 14.236910 0.000000
-4.685502 44.149612 64.123456 0.000000 49.000000 14.215343 0.000000
-3.936373 43.437410 63.701328 0.000000 58.000000 14.555073 20.000000
-6.681819 48.486108 64.096356 0.000000 28.000000 14.166708 0.000000
-4.755300 45.713693 62.047689 0.000000 64.000000 14.545037 4.000000
-5.008324 44.593483 66.750211 0.000000 49.000000 14.410909 7.000000
-5.079974 44.276972 67.106748 0.000000 58.000000 14.259037 0.000000
-4.666642 43.999716 64.615112 0.000000 72.000000 14.229048 0.000000
-6.278170 47.395699 65.466361 0.000000 44.000000 14.249470 0.000000
-5.615696 47.569182 63.173394 0.000000 64.000000 14.651764 9.000000
-4.918102 43.920940 65.833500 0.000000 32.000000 14.111843 0.000000
-5.996883 46.473610 65.418515 0.000000 36.000000 14.123788 0.000000
