21.071386 -1.318963 -12.926592 0.000000 45.000000 14.484936 0.000000
16.948483 0.076851 -13.285644 0.000000 71.000000 14.931103 20.000000
19.889208 -0.980032 -12.950161 0.000000 41.000000 14.519585 0.000000
16.147266 0.892433 -12.807402 0.000000 52.000000 14.647788 21.000000
20.740781 -1.058985 -12.826613 0.000000 38.000000 14.439473 0.000000
16.636194 0.358125 -12.727047 0.000000 38.000000 14.454325 0.000000
20.503508 -0.889480 -12.792092 0.000000 43.000000 14.437619 0.000000
18.147170 2.321242 -12.283414 0.000000 58.000000 14.693069 27.000000
20.347618 -0.790462 -12.862450 0.000000 54.000000 14.521892 0.000000
19.730070 1.366650 -12.010070 0.000000 26.000000 14.273624 0.000000
16.566598 3.083297 -11.947359 0.000000 34.000000 14.475304 0.000000
19.083098 3.536972 -12.062524 0.000000 73.000000 14.892435 5.000000
19.865980 -0.483058 -12.793695 0.000000 43.000000 14.509007 0.000000
18.889201 0.691904 -12.474196 0.000000 45.000000 14.466827 0.000000
16.940873 -0.243182 -13.617164 0.000000 41.000000 15.157025 20.000000
17.891469 -0.606441 -13.549297 0.000000 65.000000 15.056691 28.000000
18.031060 4.651192 -11.235099 0.000000 31.000000 14.341913 0.000000
18.234184 0.293180 -12.696969 0.000000 55.000000 14.520529 0.000000
17.258406 0.541578 -12.534350 0.000000 30.000000 14.366106 0.000000
18.147172 0.322169 -12.552684 0.000000 36.000000 14.384564 0.000000
20.956665 -0.617251 -13.105041 0.000000 76.000000 14.846169 8.000000
16.979716 0.643433 -12.619530 0.000000 32.000000 14.456647 0.000000
17.882337 3.864438 -11.616026 0.000000 46.000000 14.472925 0.000000
19.520892 2.907483 -11.605426 0.000000 21.000000 14.308059 0.000000
20.316759 0.861008 -12.346940 0.000000 49.000000 14.494267 0.000000
20.802646 3.709084 -11.635373 0.000000 68.000000 14.654608 1.000000
17.502653 0.513747 -12.564963 0.000000 39.000000 14.404832 0.000000
17.991254 0.778723 -12.819380 0.000000 65.000000 14.757860 30.000000
19.843683 0.132379 -12.578553 0.000000 50.000000 14.475917 0.000000
17.249454 0.572274 -12.568817 0.000000 36.000000 14.407129 0.000000
20.142784 -1.453951 -12.983437 0.000000 35.000000 14.435208 0.000000
16.987528 0.627291 -12.615345 0.000000 35.000000 14.448627 0.000000
17.548575 2.416007 -12.338375 0.000000 57.000000 14.730006 23.000000
17.516775 -0.708455 -13.520836 0.000000 72.000000 14.974003 28.000000
15.867348 0.740601 -12.752820 0.000000 39.000000 14.532733 0.000000
19.357689 -0.158134 -13.032701 0.000000 57.000000 14.793549 18.000000
19.145009 -1.103649 -13.224891 0.000000 47.000000 14.694553 7.000000
22.136405 3.098612 -11.555467 0.000000 44.000000 14.499941 0.000000
19.837280 0.174500 -12.601726 0.000000 60.000000 14.509554 0.000000
18.101247 -0.625612 -13.560816 0.000000 51.000000 15.077162 28.000000
18.679047 -0.494913 -13.321526 0.000000 74.000000 14.926291 28.000000
16.368201 4.737142 -11.460003 0.000000 48.000000 14.463395 0.000000
20.812255 -1.402154 -13.107176 0.000000 55.000000 14.615717 6.000000
15.571618 0.003725 -13.750252 0.000000 42.000000 15.257095 20.000000
15.749313 0.911042 -12.793975 0.000000 54.000000 14.611984 21.000000
19.581967 4.445389 -11.127118 0.000000 24.000000 14.290382 0.000000
20.766012 4.184534 -11.147588 0.000000 28.000000 14.320094 0.000000
17.102181 1.034966 -12.815480 0.000000 65.000000 14.763615 21.000000
17.497274 1.410522 -12.368601 0.000000 44.000000 14.470567 0.000000
20.524098 3.629392 -11.503117 0.000000 50.000000 14.485786 0.000000
18.249423 0.719509 -12.913727 0.000000 77.000000 14.849645 30.000000
20.509846 3.496624 -11.492067 0.000000 32.000000 14.436613 0.000000
20.082923 2.291055 -12.038364 0.000000 65.000000 14.587467 25.000000
19.996774 1.161330 -12.583548 0.000000 51.000000 14.782908 9.000000
21.896068 1.734107 -11.915067 0.000000 36.000000 14.440463 0.000000
19.211865 3.071209 -11.679389 0.000000 26.000000 14.403238 0.000000
16.123332 0.373362 -12.802272 0.000000 64.000000 14.494206 0.000000
21.002621 -0.073228 -12.746758 0.000000 35.000000 14.660793 12.000000
20.397405 2.676583 -11.637480 0.000000 40.000000 14.335517 0.000000
20.307646 2.538195 -11.876139 0.000000 41.000000 14.518229 0.000000
18.900002 1.349025 -12.528028 0.000000 38.000000 14.705148 15.000000
19.239409 -0.572701 -12.816902 0.000000 37.000000 14.461371 0.000000
19.126000 2.387186 -11.959525 0.000000 38.000000 14.471398 0.000000
20.301889 2.130548 -11.923078 0.000000 41.000000 14.447287 0.000000
18.794215 4.557357 -11.214776 0.000000 30.000000 14.350043 0.000000
20.301104 1.993943 -11.954140 0.000000 37.000000 14.438261 0.000000
20.294358 1.857480 -12.004521 0.000000 38.000000 14.447329 0.000000
20.880773 0.011775 -12.548849 0.000000 34.000000 14.486929 0.000000
15.798792 0.552339 -12.788248 0.000000 58.000000 14.508448 0.000000
19.166496 1.705244 -12.051832 0.000000 30.000000 14.369462 0.000000
20.281966 1.455511 -12.178124 0.000000 43.000000 14.498672 0.000000
17.409214 -0.544415 -13.307046 0.000000 59.000000 14.808342 28.000000
20.574447 0.483424 -12.451399 0.000000 58.000000 14.505542 0.000000
19.171436 1.435050 -12.175343 0.000000 36.000000 14.411437 0.000000
21.698975 1.787274 -11.917245 0.000000 36.000000 14.443619 0.000000
19.212623 0.905111 -12.401886 0.000000 39.000000 14.480980 0.000000
20.360531 0.656846 -12.410156 0.000000 54.000000 14.500025 0.000000
16.765369 -0.302430 -13.652653 0.000000 79.000000 15.161742 20.000000
16.882439 -0.514259 -13.493286 0.000000 69.000000 14.957640 20.000000
19.857289 -1.068565 -13.066170 0.000000 56.000000 14.603209 7.000000
19.195499 3.524536 -11.961962 0.000000 53.000000 14.800705 5.000000
21.869918 2.923411 -11.910508 0.000000 47.000000 14.771005 4.000000
18.447867 -0.546917 -13.512138 0.000000 76.000000 15.077476 28.000000
16.858408 -0.566478 -13.195579 0.000000 54.000000 14.656409 20.000000
19.202371 0.147789 -12.485606 0.000000 37.000000 14.345887 0.000000
19.829880 -0.857035 -13.090020 0.000000 47.000000 14.683971 7.000000
16.752707 4.460728 -11.513232 0.000000 50.000000 14.463314 0.000000
15.461994 1.313047 -12.583468 0.000000 47.000000 14.504092 0.000000
20.558115 -0.253478 -12.662226 0.000000 53.000000 14.497370 0.000000
16.336213 3.642644 -11.618708 0.000000 22.000000 14.303006 0.000000
20.651391 -0.517347 -12.692491 0.000000 46.000000 14.458218 0.000000
20.691074 -0.645078 -12.732092 0.000000 47.000000 14.462742 0.000000
15.895045 1.551900 -12.633418 0.000000 41.000000 14.650220 21.000000
21.232111 2.720346 -11.792101 0.000000 44.000000 14.555009 10.000000
16.291134 1.547204 -12.410048 0.000000 41.000000 14.463348 0.000000
16.704490 -0.025108 -13.725852 0.000000 59.000000 15.305959 20.000000
16.952454 -0.257676 -13.602200 0.000000 55.000000 15.139431 20.000000
20.882854 -1.158905 -12.863412 0.000000 43.000000 14.456455 0.000000
19.489980 -0.922187 -13.378172 0.000000 39.000000 14.917013 7.000000
21.341733 2.976864 -11.588889 0.000000 42.000000 14.441059 0.000000
20.091454 -1.670756 -13.015799 0.000000 42.000000 14.401130 0.000000
20.477864 3.128733 -11.904417 0.000000 56.000000 14.724564 10.000000
16.380255 0.755701 -12.794282 0.000000 59.000000 14.613051 21.000000
20.953150 -1.727992 -12.976959 0.000000 34.000000 14.408904 0.000000
17.429903 1.203856 -12.428832 0.000000 34.000000 14.464877 0.000000
17.598037 1.412110 -12.370791 0.000000 46.000000 14.480260 0.000000
17.006542 -0.189380 -13.414993 0.000000 74.000000 14.983553 20.000000
19.467711 3.319386 -11.990133 0.000000 51.000000 14.788871 5.000000
16.039269 1.723561 -12.402092 0.000000 46.000000 14.487807 0.000000
17.838878 0.248217 -12.635487 0.000000 45.000000 14.420950 0.000000
18.062274 4.260142 -11.466583 0.000000 27.000000 14.454801 0.000000
19.516777 2.750556 -11.778395 0.000000 44.000000 14.428768 0.000000
17.438800 2.785280 -11.957768 0.000000 50.000000 14.462749 0.000000
16.800695 4.363372 -11.546384 0.000000 26.000000 14.470860 0.000000
17.971892 4.046184 -11.510325 0.000000 28.000000 14.429643 0.000000
16.749376 4.250216 -11.611392 0.000000 27.000000 14.497355 0.000000
16.813153 -0.412916 -13.329222 0.000000 66.000000 14.824503 20.000000
16.673597 4.027722 -11.660033 0.000000 27.000000 14.475502 0.000000
17.840875 1.356477 -12.392703 0.000000 52.000000 14.502692 0.000000
16.645265 3.915789 -11.652741 0.000000 26.000000 14.434823 0.000000
18.092302 0.149892 -13.411065 0.000000 56.000000 15.152886 29.000000
22.082209 3.020281 -11.534148 0.000000 39.000000 14.453526 0.000000
19.976083 -1.505444 -12.918596 0.000000 21.000000 14.346785 0.000000
16.605129 3.689053 -11.605145 0.000000 25.000000 14.322251 0.000000
18.396126 3.048709 -11.655015 0.000000 36.000000 14.315686 0.000000
16.577784 3.568942 -11.640264 0.000000 29.000000 14.319891 0.000000
17.546550 2.351249 -12.312831 0.000000 44.000000 14.687094 23.000000
18.292518 -0.287546 -13.301487 0.000000 64.000000 14.938421 28.000000
15.315985 0.791688 -12.897722 0.000000 57.000000 14.646676 21.000000
19.068331 1.764105 -12.114222 0.000000 35.000000 14.438838 0.000000
18.062772 1.633792 -12.164610 0.000000 42.000000 14.378798 0.000000
19.102162 1.323019 -12.440849 0.000000 71.000000 14.628743 15.000000
17.614480 2.652210 -12.029307 0.000000 33.000000 14.505956 0.000000
16.453760 2.466390 -12.101061 0.000000 28.000000 14.439627 0.000000
18.683188 0.657380 -12.488356 0.000000 51.000000 14.455980 0.000000
16.469422 2.340675 -12.071578 0.000000 26.000000 14.376942 0.000000
20.889365 3.846609 -11.628228 0.000000 62.000000 14.692867 1.000000
19.787850 2.969528 -11.607908 0.000000 36.000000 14.346940 0.000000
17.038009 2.669299 -12.164064 0.000000 48.000000 14.598787 23.000000
17.653534 1.802574 -12.110630 0.000000 44.000000 14.345928 0.000000
16.949651 1.816820 -12.484779 0.000000 55.000000 14.657882 22.000000
18.297986 -0.986089 -13.473178 0.000000 32.000000 14.905226 28.000000
16.503438 1.724664 -12.381386 0.000000 32.000000 14.501243 0.000000
20.175769 -1.208926 -12.943526 0.000000 39.000000 14.468755 0.000000
18.546999 -0.430702 -13.055882 0.000000 41.000000 14.681030 28.000000
17.674081 1.325811 -12.403124 0.000000 41.000000 14.492143 0.000000
16.544031 1.479349 -12.455807 0.000000 32.000000 14.505841 0.000000
19.904800 -0.934257 -13.293421 0.000000 70.000000 14.861963 7.000000
17.109325 -0.479936 -13.414162 0.000000 57.000000 14.907777 20.000000
20.747969 -1.451001 -13.117944 0.000000 57.000000 14.607624 6.000000
18.908488 -0.251378 -12.928903 0.000000 60.000000 14.636003 29.000000
19.773494 -0.881092 -13.126721 0.000000 65.000000 14.708262 7.000000
19.635212 1.867680 -12.073783 0.000000 45.000000 14.469702 0.000000
18.574688 3.395001 -11.638583 0.000000 38.000000 14.410692 0.000000
15.683550 -0.369962 -13.409494 0.000000 78.000000 14.833307 20.000000
18.433170 3.174426 -11.615940 0.000000 28.000000 14.316539 0.000000
16.059390 0.456831 -12.770845 0.000000 68.000000 14.483246 0.000000
17.959954 0.216620 -13.317401 0.000000 72.000000 15.072807 29.000000
17.474311 -0.877359 -13.066315 0.000000 36.000000 14.488439 0.000000
17.583726 -1.020325 -12.931465 0.000000 33.000000 14.326743 0.000000
16.458406 3.490052 -11.724028 0.000000 38.000000 14.369200 0.000000
18.789933 -1.368924 -12.931796 0.000000 38.000000 14.313920 0.000000
19.899145 -0.145400 -12.504237 0.000000 41.000000 14.330118 0.000000
21.631364 2.052706 -11.847532 0.000000 29.000000 14.447304 0.000000
16.419200 0.721463 -12.847416 0.000000 57.000000 14.656939 21.000000
21.419177 2.266046 -11.836469 0.000000 27.000000 14.482078 0.000000
20.539160 1.682006 -12.186627 0.000000 41.000000 14.589183 14.000000
20.179046 -0.440348 -12.628782 0.000000 36.000000 14.385579 0.000000
20.463067 3.677623 -11.532708 0.000000 58.000000 14.523416 1.000000
19.350285 2.678952 -12.087640 0.000000 61.000000 14.692459 26.000000
22.015428 2.615280 -11.726582 0.000000 42.000000 14.518163 0.000000
17.636676 0.266795 -13.230956 0.000000 70.000000 14.981401 29.000000
20.707571 2.952209 -11.626896 0.000000 28.000000 14.425442 0.000000
15.832172 1.142141 -12.791082 0.000000 57.000000 14.680532 21.000000
21.602881 2.970384 -11.571634 0.000000 40.000000 14.441247 0.000000
21.281255 0.796381 -12.210388 0.000000 50.000000 14.413784 0.000000
21.261758 3.209978 -11.502123 0.000000 30.000000 14.418406 0.000000
21.408605 0.532167 -12.336875 0.000000 37.000000 14.468983 0.000000
20.145202 0.172044 -12.595594 0.000000 40.000000 14.524837 0.000000
17.828284 0.344317 -13.243045 0.000000 60.000000 15.028507 29.000000
18.122613 -0.514425 -13.576077 0.000000 68.000000 15.124757 28.000000
17.292133 4.579244 -11.429238 0.000000 43.000000 14.454804 0.000000
19.300329 0.079981 -12.740298 0.000000 46.000000 14.577235 18.000000
21.303967 -0.434589 -12.482273 0.000000 37.000000 14.326884 0.000000
20.542121 -1.314855 -13.060604 0.000000 36.000000 14.576729 6.000000
16.435459 0.879029 -12.776480 0.000000 49.000000 14.634861 21.000000
17.915168 1.054385 -12.457345 0.000000 46.000000 14.484250 0.000000
17.037576 -0.034412 -13.011138 0.000000 55.000000 14.643368 20.000000
15.826087 -0.060312 -13.502529 0.000000 74.000000 15.020080 20.000000
20.559819 -1.248114 -13.178809 0.000000 50.000000 14.709939 6.000000
19.269790 3.850196 -11.537271 0.000000 27.000000 14.491994 0.000000
19.866294 -0.370080 -12.880687 0.000000 50.000000 14.624223 17.000000
20.155602 3.771066 -11.437316 0.000000 33.000000 14.436826 0.000000
19.028571 1.463524 -12.111917 0.000000 39.000000 14.348701 0.000000
17.326454 1.628149 -12.516464 0.000000 79.000000 14.661495 22.000000
18.908162 4.015284 -11.478647 0.000000 32.000000 14.457014 0.000000
19.903616 3.861109 -11.434986 0.000000 31.000000 14.442217 0.000000
17.329282 4.230663 -11.539536 0.000000 38.000000 14.464231 0.000000
17.856481 3.776374 -11.689049 0.000000 47.000000 14.515998 0.000000
18.119648 0.609338 -12.622302 0.000000 45.000000 14.530511 0.000000
16.469488 4.883139 -11.377936 0.000000 26.000000 14.433427 0.000000
18.405072 4.186914 -11.461775 0.000000 28.000000 14.453786 0.000000
18.689593 1.366129 -12.429322 0.000000 60.000000 14.600657 15.000000
19.205928 4.155703 -11.719254 0.000000 66.000000 14.748026 3.000000
21.731570 2.111426 -12.232623 0.000000 73.000000 14.839358 13.000000
19.700357 4.041292 -11.607198 0.000000 49.000000 14.643530 3.000000
17.901946 4.309275 -11.472927 0.000000 32.000000 14.463408 0.000000
18.892016 4.090990 -11.490941 0.000000 42.000000 14.489064 0.000000
17.764842 4.326476 -11.517607 0.000000 36.000000 14.501286 0.000000
17.639928 4.342894 -11.535748 0.000000 38.000000 14.514424 0.000000
18.868991 -0.016196 -13.278603 0.000000 76.000000 15.034263 29.000000
20.925064 2.891363 -11.864784 0.000000 50.000000 14.651169 10.000000
17.405794 4.374832 -11.484048 0.000000 29.000000 14.457410 0.000000
18.416468 4.128180 -11.486916 0.000000 35.000000 14.462009 0.000000
21.231179 2.997339 -11.852274 0.000000 63.000000 14.690928 10.000000
21.282959 -0.031167 -12.790702 0.000000 72.000000 14.734620 12.000000
17.873409 -0.592687 -13.611259 0.000000 67.000000 15.118568 28.000000
17.331805 2.019526 -12.031761 0.000000 51.000000 14.309102 0.000000
20.747995 1.744029 -12.010452 0.000000 32.000000 14.453058 0.000000
21.070295 2.339873 -12.015692 0.000000 34.000000 14.649650 25.000000
16.916511 4.382118 -11.537488 0.000000 28.000000 14.475875 0.000000
17.952409 4.110559 -11.499276 0.000000 29.000000 14.435921 0.000000
16.785262 -0.012862 -13.296065 0.000000 69.000000 14.904088 20.000000
15.457641 0.471969 -12.793556 0.000000 59.000000 14.466566 0.000000
19.063823 2.780986 -12.032914 0.000000 38.000000 14.648686 26.000000
16.229109 -0.226598 -13.548233 0.000000 55.000000 15.045300 20.000000
15.839300 1.750814 -12.388352 0.000000 55.000000 14.468197 0.000000
20.870763 3.670122 -11.585805 0.000000 66.000000 14.600998 1.000000
16.559624 0.217767 -13.106796 0.000000 58.000000 14.772360 20.000000
17.198638 2.458375 -12.362062 0.000000 53.000000 14.739833 23.000000
16.227795 4.289944 -11.614055 0.000000 26.000000 14.474150 0.000000
21.593078 1.506240 -12.207160 0.000000 54.000000 14.633818 11.000000
17.080471 3.905668 -11.654247 0.000000 30.000000 14.464271 0.000000
16.988422 3.867394 -11.641932 0.000000 29.000000 14.435125 0.000000
16.898006 3.827418 -11.628946 0.000000 29.000000 14.404971 0.000000
16.877656 5.167685 -11.200085 0.000000 37.000000 14.372848 0.000000
16.460800 0.476471 -12.742201 0.000000 55.000000 14.489887 0.000000
15.350270 0.077558 -13.442101 0.000000 88.000000 14.967568 20.000000
16.551271 3.629181 -11.613729 0.000000 24.000000 14.309688 0.000000
18.271307 0.821531 -12.867417 0.000000 63.000000 14.835793 30.000000
20.086297 0.310919 -12.505270 0.000000 37.000000 14.473592 0.000000
18.903045 -0.045009 -13.316312 0.000000 71.000000 15.064587 29.000000
18.534108 2.696827 -11.933686 0.000000 57.000000 14.492372 0.000000
16.349645 0.400037 -12.758658 0.000000 60.000000 14.476099 0.000000
16.058204 3.228863 -11.917616 0.000000 34.000000 14.452009 0.000000
18.490224 3.600237 -12.035308 0.000000 76.000000 14.842260 5.000000
15.926915 3.080459 -11.975648 0.000000 38.000000 14.456178 0.000000
19.699997 -0.703290 -12.823932 0.000000 45.000000 14.463792 0.000000
15.811676 2.923289 -12.018863 0.000000 30.000000 14.444833 0.000000
17.148531 1.560146 -12.513016 0.000000 60.000000 14.626319 22.000000
15.321070 0.904346 -12.687789 0.000000 42.000000 14.478147 0.000000
21.145457 4.069760 -11.228926 0.000000 40.000000 14.392309 0.000000
19.708172 -0.378964 -12.995486 0.000000 62.000000 14.720289 18.000000
21.645622 3.861951 -11.145599 0.000000 29.000000 14.289251 0.000000
15.401330 0.377388 -12.847495 0.000000 38.000000 14.487380 0.000000
21.292902 3.607274 -11.435297 0.000000 51.000000 14.469196 0.000000
17.217172 1.183108 -12.915851 0.000000 63.000000 14.909719 21.000000
21.328021 0.232901 -12.405900 0.000000 45.000000 14.444547 0.000000
15.592762 -0.258248 -13.003991 0.000000 37.000000 14.470657 0.000000
18.753443 -0.676224 -12.944336 0.000000 49.000000 14.519467 0.000000
20.622616 3.610186 -11.511670 0.000000 40.000000 14.495517 0.000000
21.058492 -0.586936 -12.558600 0.000000 34.000000 14.339334 0.000000
18.843648 0.086115 -13.240188 0.000000 73.000000 15.024693 29.000000
17.769341 4.913046 -11.140005 0.000000 30.000000 14.306539 0.000000
20.670151 -0.255282 -12.681218 0.000000 45.000000 14.522973 0.000000
19.717765 1.923751 -12.023343 0.000000 26.000000 14.443192 0.000000
20.495770 -0.075380 -12.544866 0.000000 36.000000 14.431129 0.000000
16.624683 -0.338457 -13.603157 0.000000 66.000000 15.094220 20.000000
19.510971 3.506800 -12.024557 0.000000 48.000000 14.877932 5.000000
20.133423 0.214722 -12.568543 0.000000 41.000000 14.510214 0.000000
16.248245 -0.442434 -13.507211 0.000000 73.000000 14.946307 20.000000
20.018594 0.305036 -12.562310 0.000000 44.000000 14.521679 0.000000
18.684475 -0.507432 -13.244539 0.000000 68.000000 14.849497 28.000000
15.729304 -0.333911 -13.578185 0.000000 69.000000 15.008104 20.000000
20.868340 0.250166 -12.448523 0.000000 43.000000 14.457592 0.000000
18.323448 0.094990 -13.423465 0.000000 42.000000 15.165598 29.000000
20.868002 -1.561946 -13.140388 0.000000 49.000000 14.606191 6.000000
20.925501 2.254429 -11.980206 0.000000 29.000000 14.581244 25.000000
17.112907 3.179347 -12.013499 0.000000 67.000000 14.604516 24.000000
20.508260 0.493647 -12.419667 0.000000 45.000000 14.473391 0.000000
20.697029 0.828676 -12.271663 0.000000 34.000000 14.440090 0.000000
17.673296 -0.160261 -13.467096 0.000000 67.000000 15.088931 28.000000
19.166823 0.158989 -12.497637 0.000000 43.000000 14.358043 0.000000
20.538108 -0.072305 -12.527787 0.000000 36.000000 14.418668 0.000000
18.134945 0.914718 -12.466628 0.000000 54.000000 14.469172 0.000000
20.151762 0.714712 -12.374238 0.000000 50.000000 14.467247 0.000000
19.105473 0.942282 -12.402766 0.000000 38.000000 14.484746 0.000000
18.933997 -0.464492 -12.784015 0.000000 41.000000 14.438890 0.000000
15.644737 2.188448 -12.184506 0.000000 36.000000 14.383345 0.000000
19.898053 0.854060 -12.382657 0.000000 41.000000 14.496758 0.000000
18.303465 1.264569 -12.499936 0.000000 64.000000 14.612046 15.000000
19.769825 0.919499 -12.386053 0.000000 44.000000 14.509439 0.000000
19.652248 0.980309 -12.359818 0.000000 38.000000 14.493224 0.000000
20.193232 -1.125288 -12.917629 0.000000 44.000000 14.468908 0.000000
17.174972 1.818895 -12.293504 0.000000 46.000000 14.491510 0.000000
19.403845 1.099266 -12.349234 0.000000 45.000000 14.499163 0.000000
20.906225 0.263277 -12.424525 0.000000 51.000000 14.441039 0.000000
16.342703 4.451594 -11.574835 0.000000 53.000000 14.490562 0.000000
16.126944 2.496936 -12.035050 0.000000 39.000000 14.361956 0.000000
17.737311 1.610168 -12.341754 0.000000 40.000000 14.518449 0.000000
19.655989 2.398589 -11.933092 0.000000 49.000000 14.486942 0.000000
20.117189 0.988681 -12.585097 0.000000 71.000000 14.744045 9.000000
21.028829 -0.608781 -13.105116 0.000000 46.000000 14.853758 8.000000
18.047505 -0.691868 -13.622092 0.000000 55.000000 15.113196 28.000000
17.775015 1.635729 -12.308689 0.000000 40.000000 14.496736 0.000000
16.413450 1.762103 -12.550844 0.000000 58.000000 14.667538 22.000000
17.191126 1.745140 -12.537360 0.000000 58.000000 14.705007 22.000000
18.142418 0.926952 -12.800774 0.000000 55.000000 14.792759 30.000000
15.840807 0.132086 -13.539262 0.000000 72.000000 15.110737 20.000000
15.862115 0.929820 -12.772832 0.000000 63.000000 14.605081 21.000000
16.798205 2.890815 -11.994781 0.000000 59.000000 14.482589 0.000000
20.088059 1.117712 -12.466768 0.000000 65.000000 14.665339 9.000000
19.783740 2.716788 -11.620964 0.000000 24.000000 14.287571 0.000000
16.562813 1.750735 -12.361401 0.000000 36.000000 14.493723 0.000000
20.840461 -1.545040 -13.347330 0.000000 74.000000 14.806953 6.000000
16.332587 1.740956 -12.374137 0.000000 33.000000 14.486803 0.000000
20.836994 -1.465677 -13.245204 0.000000 62.000000 14.731501 6.000000
20.772315 2.464424 -11.755243 0.000000 46.000000 14.414673 0.000000
15.996295 1.705379 -12.405728 0.000000 38.000000 14.483088 0.000000
18.926742 -0.249498 -12.949613 0.000000 38.000000 14.657638 29.000000
17.649454 -0.325721 -13.606577 0.000000 60.000000 15.173795 28.000000
15.972222 0.157163 -13.637558 0.000000 44.000000 15.221175 20.000000
19.778610 -1.036642 -13.065401 0.000000 56.000000 14.605931 7.000000
15.861925 -0.434657 -13.393984 0.000000 68.000000 14.812808 20.000000
16.221486 1.870031 -12.467793 0.000000 56.000000 14.605047 22.000000
21.660548 1.468259 -12.351555 0.000000 58.000000 14.765956 11.000000
20.175084 -1.271700 -13.147397 0.000000 52.000000 14.645924 7.000000
20.057788 -1.639586 -13.004009 0.000000 42.000000 14.396291 0.000000
19.711329 0.969102 -12.465892 0.000000 55.000000 14.595696 9.000000
16.662234 1.340555 -12.996218 0.000000 77.000000 14.991800 21.000000
18.921359 -1.320152 -12.920995 0.000000 32.000000 14.326723 0.000000
18.022303 -0.981696 -13.341007 0.000000 67.000000 14.760499 28.000000
18.298139 -0.951647 -13.552563 0.000000 72.000000 14.990917 28.000000
21.201700 -0.034774 -12.896690 0.000000 69.000000 14.829206 12.000000
18.655443 -1.194086 -12.928641 0.000000 39.000000 14.350868 0.000000
18.474274 -1.102245 -13.097005 0.000000 33.000000 14.525053 0.000000
17.539656 2.507266 -12.277420 0.000000 51.000000 14.696913 23.000000
19.456979 -0.838788 -13.375613 0.000000 51.000000 14.935839 7.000000
21.333135 2.928338 -11.859403 0.000000 52.000000 14.685441 10.000000
19.847203 -1.190819 -13.279649 0.000000 64.000000 14.772058 7.000000
18.700557 3.954671 -11.500307 0.000000 41.000000 14.445841 0.000000
18.217614 0.058688 -13.283922 0.000000 71.000000 15.014346 29.000000
16.489775 -0.383964 -13.543285 0.000000 75.000000 15.014500 20.000000
21.012835 2.097235 -12.034785 0.000000 28.000000 14.595131 25.000000
16.554743 -0.691596 -12.950682 0.000000 33.000000 14.365208 0.000000
16.658900 3.475512 -11.703781 0.000000 34.000000 14.359941 0.000000
17.141529 0.974178 -12.846437 0.000000 69.000000 14.778802 21.000000
19.422645 -0.660745 -12.824724 0.000000 38.000000 14.456921 0.000000
16.309051 -0.686968 -12.945606 0.000000 31.000000 14.344234 0.000000
19.435748 -1.554966 -12.943998 0.000000 27.000000 14.318726 0.000000
16.188874 -0.687935 -12.939968 0.000000 27.000000 14.330042 0.000000
17.157753 -0.039023 -12.851175 0.000000 50.000000 14.497592 0.000000
17.977086 -0.606727 -13.517076 0.000000 39.000000 15.031866 28.000000
16.233697 1.463845 -12.446001 0.000000 47.000000 14.470057 0.000000
20.919710 -1.329395 -12.901267 0.000000 41.000000 14.447001 0.000000
20.052577 1.162722 -12.853267 0.000000 45.000000 15.045232 9.000000
21.013118 1.619939 -12.203055 0.000000 37.000000 14.620944 14.000000
19.577322 -1.217710 -13.417686 0.000000 57.000000 14.877323 7.000000
17.478138 3.138610 -12.167478 0.000000 68.000000 14.766164 24.000000
19.621102 -0.772580 -12.838913 0.000000 40.000000 14.452904 0.000000
21.052980 3.330090 -11.485465 0.000000 31.000000 14.421673 0.000000
21.030137 0.550874 -12.368963 0.000000 48.000000 14.478122 0.000000
20.926709 2.757382 -11.651003 0.000000 30.000000 14.408878 0.000000
20.893166 2.615386 -11.717222 0.000000 42.000000 14.429627 0.000000
20.883662 2.474883 -11.725985 0.000000 33.000000 14.397550 0.000000
19.915118 0.969541 -12.533838 0.000000 49.000000 14.675264 9.000000
18.300437 0.219242 -13.014047 0.000000 56.000000 14.807562 29.000000
16.854476 -0.030102 -13.368054 0.000000 71.000000 14.972971 20.000000
20.750219 1.632103 -12.110122 0.000000 45.000000 14.516853 0.000000
16.978688 0.089132 -13.155996 0.000000 60.000000 14.812722 20.000000
20.810506 1.204278 -12.064229 0.000000 53.000000 14.356094 0.000000
17.852400 -0.835505 -13.564426 0.000000 66.000000 15.003529 28.000000
20.817572 0.926701 -12.146110 0.000000 34.000000 14.356313 0.000000
20.775455 0.797469 -12.305948 0.000000 43.000000 14.469609 0.000000
16.870660 3.428983 -12.001266 0.000000 52.000000 14.646317 24.000000
20.801661 0.519989 -12.376016 0.000000 40.000000 14.459915 0.000000
20.863952 1.840986 -11.942656 0.000000 41.000000 14.423895 0.000000
17.165837 4.546133 -11.461846 0.000000 43.000000 14.467657 0.000000
18.536297 -0.169280 -13.304100 0.000000 52.000000 14.991702 29.000000
17.892232 -0.418238 -13.706170 0.000000 54.000000 15.260077 28.000000
20.909480 -0.168947 -12.528060 0.000000 36.000000 14.417909 0.000000
18.736967 -1.303625 -12.937865 0.000000 36.000000 14.334457 0.000000
17.083169 3.626840 -11.590455 0.000000 41.000000 14.324497 0.000000
21.011253 -0.585357 -12.600080 0.000000 41.000000 14.376104 0.000000
21.023538 -0.711663 -12.683280 0.000000 38.000000 14.420787 0.000000
17.281157 -0.253646 -13.544133 0.000000 52.000000 15.108352 28.000000
15.704662 -0.011469 -13.678909 0.000000 69.000000 15.193995 20.000000
17.090306 1.081959 -12.921317 0.000000 40.000000 14.877306 21.000000
16.612303 -0.626481 -12.932384 0.000000 46.000000 14.370228 0.000000
16.822501 -0.746022 -13.366717 0.000000 64.000000 14.766707 20.000000
18.703133 -1.294789 -12.906913 0.000000 40.000000 14.304955 0.000000
17.014580 0.860435 -12.596563 0.000000 46.000000 14.498598 0.000000
18.406717 4.344992 -11.416501 0.000000 27.000000 14.455361 0.000000
19.285993 3.671316 -11.531959 0.000000 36.000000 14.437412 0.000000
17.574154 2.037776 -12.081136 0.000000 47.000000 14.378686 0.000000
20.098326 1.001945 -12.618806 0.000000 64.000000 14.778704 9.000000
16.990728 2.517956 -12.225607 0.000000 40.000000 14.611442 23.000000
18.282741 3.966831 -11.578297 0.000000 33.000000 14.494237 0.000000
15.932965 0.813025 -12.800433 0.000000 47.000000 14.603435 21.000000
18.258556 3.843662 -11.589431 0.000000 30.000000 14.468295 0.000000
16.333909 1.109596 -12.949821 0.000000 55.000000 14.858735 21.000000
16.214833 2.598595 -12.072420 0.000000 34.000000 14.432718 0.000000
19.373557 3.302564 -11.668988 0.000000 31.000000 14.470270 0.000000
20.904183 1.099059 -12.066147 0.000000 54.000000 14.334781 0.000000
20.779884 2.936809 -11.821235 0.000000 47.000000 14.612086 10.000000
17.676911 -0.751653 -13.551623 0.000000 69.000000 15.002577 28.000000
19.338815 3.049231 -11.716983 0.000000 30.000000 14.441978 0.000000
19.831852 4.377494 -11.226243 0.000000 34.000000 14.383692 0.000000
21.601805 0.955643 -12.061171 0.000000 24.000000 14.338902 0.000000
16.572808 2.041476 -12.197102 0.000000 30.000000 14.419614 0.000000
18.746379 4.420832 -11.757462 0.000000 34.000000 14.827042 3.000000
19.514401 -0.468331 -12.885750 0.000000 58.000000 14.576281 18.000000
21.206377 2.124280 -11.923753 0.000000 48.000000 14.510323 0.000000
15.498269 0.217398 -12.979002 0.000000 76.000000 14.574734 20.000000
20.979431 3.657125 -11.435580 0.000000 37.000000 14.461345 0.000000
19.615015 0.288515 -12.692058 0.000000 69.000000 14.612468 16.000000
15.484448 0.773109 -12.901123 0.000000 52.000000 14.656619 21.000000
20.457583 2.558183 -11.686308 0.000000 47.000000 14.352962 0.000000
19.268039 1.892749 -12.107484 0.000000 35.000000 14.482986 0.000000
18.744794 4.600667 -11.234355 0.000000 35.000000 14.377527 0.000000
19.290910 1.763652 -12.096122 0.000000 32.000000 14.437187 0.000000
19.352044 -1.052325 -13.187112 0.000000 52.000000 14.687640 7.000000
19.553806 3.493491 -11.826388 0.000000 45.000000 14.687664 5.000000
18.375964 -0.539721 -13.516923 0.000000 58.000000 15.078989 28.000000
19.360039 1.500303 -12.014842 0.000000 29.000000 14.289782 0.000000
20.029021 -0.714687 -13.058002 0.000000 68.000000 14.707782 17.000000
18.487943 -0.602768 -13.559036 0.000000 43.000000 15.109360 28.000000
19.348536 1.253660 -12.222778 0.000000 39.000000 14.418008 0.000000
16.332937 0.274965 -12.792052 0.000000 59.000000 14.471439 0.000000
18.231759 -1.160053 -12.940653 0.000000 48.000000 14.341937 0.000000
19.292010 -1.148416 -13.352084 0.000000 71.000000 14.813959 7.000000
15.507137 0.836847 -13.029881 0.000000 64.000000 14.799427 21.000000
21.050770 0.098784 -12.519316 0.000000 39.000000 14.495379 0.000000
19.748150 0.915275 -12.475512 0.000000 36.000000 14.592268 9.000000
16.406770 -0.653718 -13.051813 0.000000 35.000000 14.462162 0.000000
20.003020 1.025231 -12.496000 0.000000 55.000000 14.661079 9.000000
16.422628 0.405548 -13.533452 0.000000 1.000000 15.223886 20.000000
20.633307 0.918583 -12.182367 0.000000 51.000000 14.375620 0.000000
20.207673 3.150500 -11.882155 0.000000 56.000000 14.690268 10.000000
15.942997 0.012862 -13.961947 0.000000 3.000000 15.488503 20.000000
15.850800 0.124380 -13.688480 0.000000 74.000000 15.251982 20.000000
19.005482 -0.956598 -12.966558 0.000000 40.000000 14.479212 0.000000
19.393685 -0.427596 -12.979749 0.000000 67.000000 14.669157 18.000000
15.344779 0.404970 -12.825383 0.000000 46.000000 14.470029 0.000000
20.285166 -1.438607 -12.984385 0.000000 41.000000 14.450560 0.000000
19.240593 -1.334215 -12.936588 0.000000 33.000000 14.360302 0.000000
20.378136 -1.569607 -12.947263 0.000000 38.000000 14.384557 0.000000
19.276925 -1.429324 -13.065161 0.000000 35.000000 14.458922 0.000000
20.461051 -1.693653 -12.944247 0.000000 39.000000 14.352430 0.000000
20.149645 3.763492 -11.676826 0.000000 53.000000 14.663337 1.000000
22.333948 3.707793 -11.158519 0.000000 21.000000 14.306787 0.000000
17.284400 3.045878 -12.078841 0.000000 65.000000 14.641386 24.000000
17.262443 5.049367 -11.179971 0.000000 23.000000 14.347405 0.000000
18.354633 -1.011770 -13.399695 0.000000 76.000000 14.831691 28.000000
17.161499 5.001772 -11.195873 0.000000 24.000000 14.341977 0.000000
19.151177 -0.279567 -13.068038 0.000000 57.000000 14.778312 18.000000
21.478622 2.102830 -11.976478 0.000000 31.000000 14.573991 13.000000
16.521375 -0.433630 -13.666185 0.000000 56.000000 15.120226 20.000000
20.840074 3.022910 -11.972652 0.000000 42.000000 14.785558 10.000000
19.607187 0.836509 -12.390632 0.000000 38.000000 14.478782 0.000000
19.121448 -1.468510 -12.961350 0.000000 35.000000 14.337506 0.000000
21.240086 0.931167 -12.068562 0.000000 47.000000 14.313380 0.000000
16.727344 1.115410 -12.875944 0.000000 52.000000 14.817632 21.000000
16.666463 4.688696 -11.465996 0.000000 27.000000 14.476568 0.000000
17.778072 4.350049 -11.516873 0.000000 43.000000 14.508197 0.000000
18.777859 4.583355 -11.227556 0.000000 37.000000 14.368468 0.000000
18.303922 1.997656 -12.100100 0.000000 34.000000 14.437234 0.000000
16.499599 4.549151 -11.521102 0.000000 24.000000 14.477924 0.000000
17.625687 4.207108 -11.545654 0.000000 34.000000 14.484440 0.000000
16.421221 4.474462 -11.547320 0.000000 28.000000 14.476291 0.000000
18.691284 1.170585 -12.398075 0.000000 29.000000 14.515522 0.000000
16.345304 4.398055 -11.573442 0.000000 29.000000 14.474254 0.000000
16.142219 1.108760 -12.958006 0.000000 80.000000 14.852729 21.000000
16.198404 4.231969 -11.665506 0.000000 29.000000 14.504860 0.000000
17.340744 3.883687 -11.666331 0.000000 32.000000 14.488069 0.000000
17.361838 -0.392679 -13.661901 0.000000 73.000000 15.187346 28.000000
18.660322 -0.499016 -13.332748 0.000000 62.000000 14.934534 28.000000
15.663586 -0.106967 -13.525117 0.000000 68.000000 15.016946 20.000000
17.288202 2.850579 -11.936943 0.000000 28.000000 14.450638 0.000000
17.896671 0.268903 -13.357879 0.000000 78.000000 15.121837 29.000000
16.884237 3.038125 -11.947435 0.000000 39.000000 14.485120 0.000000
16.851904 2.937267 -11.974683 0.000000 40.000000 14.480329 0.000000
16.820518 2.833588 -12.003968 0.000000 31.000000 14.476755 0.000000
20.529793 -0.668798 -12.765189 0.000000 53.000000 14.476240 0.000000
16.959158 0.296845 -12.745382 0.000000 40.000000 14.477421 0.000000
21.083275 0.985734 -12.068583 0.000000 61.000000 14.317727 0.000000
17.092591 3.284653 -12.086435 0.000000 52.000000 14.702652 24.000000
18.799366 0.355948 -12.568483 0.000000 47.000000 14.455506 0.000000
16.720007 2.192250 -12.066139 0.000000 27.000000 14.347489 0.000000
21.070278 2.046689 -12.013821 0.000000 64.000000 14.564843 25.000000
16.594179 1.174692 -12.935977 0.000000 79.000000 14.882390 21.000000
16.610172 0.131148 -13.723020 0.000000 72.000000 15.340805 20.000000
15.509679 1.840745 -12.424613 0.000000 30.000000 14.504959 0.000000
16.676960 1.530918 -12.406607 0.000000 32.000000 14.482815 0.000000
18.158050 0.511235 -12.706301 0.000000 47.000000 14.585797 30.000000
20.492613 0.490934 -12.410467 0.000000 54.000000 14.462714 0.000000
20.744011 -0.240365 -12.625881 0.000000 53.000000 14.479509 0.000000
15.559063 1.377568 -12.552545 0.000000 37.000000 14.499672 0.000000
19.729211 -1.216175 -13.152346 0.000000 61.000000 14.634749 7.000000
16.787340 0.741564 -12.624331 0.000000 42.000000 14.475378 0.000000
20.552980 -0.810120 -12.772749 0.000000 52.000000 14.445099 0.000000
15.501988 0.338884 -13.212597 0.000000 35.000000 14.832819 20.000000
20.545388 2.402859 -12.088562 0.000000 35.000000 14.699944 25.000000
16.870937 0.406417 -12.733862 0.000000 37.000000 14.491170 0.000000
15.757668 0.566859 -12.765017 0.000000 42.000000 14.487423 0.000000
18.325112 2.431938 -12.000481 0.000000 44.000000 14.466426 0.000000
15.983339 0.744096 -12.908494 0.000000 74.000000 14.690845 21.000000
17.037557 -0.079183 -13.182670 0.000000 81.000000 14.794751 20.000000
17.340865 3.355875 -11.723486 0.000000 45.000000 14.393290 0.000000
15.723494 0.735185 -12.664601 0.000000 56.000000 14.436618 0.000000
17.469109 -0.931217 -12.910325 0.000000 34.000000 14.323624 0.000000
17.526958 -1.035346 -12.960022 0.000000 34.000000 14.345776 0.000000
21.504858 0.521058 -12.363314 0.000000 46.000000 14.497953 0.000000
18.456880 -0.426450 -13.350629 0.000000 67.000000 14.957751 28.000000
21.343345 0.723891 -12.224868 0.000000 36.000000 14.411512 0.000000
18.639572 -0.408201 -13.119342 0.000000 42.000000 14.754665 28.000000
21.180290 0.919001 -12.081329 0.000000 39.000000 14.317904 0.000000
21.074647 1.017170 -12.056775 0.000000 38.000000 14.314722 0.000000
20.952748 1.116948 -12.075154 0.000000 55.000000 14.351906 0.000000
20.824567 1.215270 -12.104320 0.000000 45.000000 14.398549 0.000000
18.373767 -0.899903 -13.516950 0.000000 59.000000 14.976872 28.000000
17.077368 3.616921 -11.610692 0.000000 49.000000 14.340633 0.000000
19.533559 3.820458 -11.482917 0.000000 40.000000 14.450298 0.000000
16.944826 -0.178602 -13.507202 0.000000 79.000000 15.070419 20.000000
17.702893 -0.222338 -13.385236 0.000000 66.000000 14.995159 28.000000
20.116686 1.746274 -12.105889 0.000000 39.000000 14.500189 0.000000
19.989153 1.829258 -12.124745 0.000000 43.000000 14.532674 0.000000
18.866198 3.490051 -11.730038 0.000000 49.000000 14.545757 5.000000
20.845700 1.781358 -12.004483 0.000000 43.000000 14.464850 0.000000
18.482669 -0.621472 -13.623158 0.000000 87.000000 15.165019 28.000000
20.145751 -0.914133 -12.860420 0.000000 48.000000 14.470611 0.000000
19.665579 2.056506 -11.984291 0.000000 28.000000 14.439729 0.000000
17.865332 -0.237909 -13.660226 0.000000 75.000000 15.265286 28.000000
20.549285 -0.459364 -12.772555 0.000000 68.000000 14.543970 0.000000
18.564476 -0.585937 -13.337259 0.000000 61.000000 14.907437 28.000000
19.419761 2.199494 -11.974334 0.000000 34.000000 14.453255 0.000000
20.869090 -0.527920 -12.726554 0.000000 38.000000 14.503248 0.000000
19.314830 0.008400 -13.088411 0.000000 71.000000 14.890947 18.000000
20.246978 2.115188 -11.919751 0.000000 42.000000 14.435861 0.000000
16.771244 -0.396424 -13.501949 0.000000 53.000000 14.991404 20.000000
20.125268 2.175108 -11.908206 0.000000 39.000000 14.433151 0.000000
19.945507 -0.089606 -12.539728 0.000000 50.000000 14.383150 0.000000
20.930938 1.404171 -12.099753 0.000000 56.000000 14.455215 0.000000
20.937152 -1.768090 -12.967259 0.000000 39.000000 14.387137 0.000000
19.867539 2.287356 -11.914318 0.000000 43.000000 14.452497 0.000000
20.991170 2.312321 -12.123052 0.000000 36.000000 14.738920 25.000000
19.742868 2.338537 -11.910247 0.000000 41.000000 14.454252 0.000000
18.296097 -0.321557 -13.276745 0.000000 62.000000 14.905380 28.000000
20.884238 1.240460 -12.122928 0.000000 49.000000 14.427712 0.000000
17.231739 -0.179206 -13.614850 0.000000 68.000000 15.193561 28.000000
19.480264 2.433221 -11.938581 0.000000 41.000000 14.489533 0.000000
18.415608 2.666089 -11.943154 0.000000 33.000000 14.484317 0.000000
21.191808 -0.096065 -12.946228 0.000000 79.000000 14.858530 12.000000
17.402559 2.498305 -12.368438 0.000000 68.000000 14.771704 23.000000
19.178122 2.736264 -12.052049 0.000000 44.000000 14.662433 26.000000
16.778680 -0.205735 -13.718336 0.000000 66.000000 15.252888 20.000000
19.328100 4.137664 -11.738668 0.000000 52.000000 14.770154 3.000000
17.945158 -0.468919 -13.674761 0.000000 75.000000 15.219439 28.000000
19.811070 3.848969 -11.459984 0.000000 45.000000 14.456124 0.000000
17.984639 -0.234999 -13.255382 0.000000 41.000000 14.887362 29.000000
20.127603 -1.265039 -13.171681 0.000000 64.000000 14.667668 7.000000
17.647140 2.904495 -11.958008 0.000000 34.000000 14.511515 0.000000
18.610957 2.675536 -11.907820 0.000000 38.000000 14.467055 0.000000
19.920820 -1.114344 -13.365480 0.000000 67.000000 14.881027 7.000000
16.502107 3.026272 -11.948236 0.000000 56.000000 14.455421 0.000000
20.033832 -0.391563 -12.574347 0.000000 29.000000 14.337027 0.000000
21.361404 0.071883 -12.824069 0.000000 47.000000 14.801278 12.000000
17.270212 2.984286 -11.952502 0.000000 42.000000 14.502103 0.000000
18.238553 2.734997 -11.923146 0.000000 40.000000 14.472132 0.000000
18.569200 1.494356 -12.651519 0.000000 42.000000 14.840944 15.000000
18.119864 2.749816 -11.921357 0.000000 35.000000 14.466197 0.000000
17.025191 3.024022 -11.937501 0.000000 31.000000 14.481624 0.000000
17.996747 2.760751 -11.927587 0.000000 34.000000 14.466518 0.000000
20.640865 0.297299 -12.463320 0.000000 56.000000 14.468953 0.000000
18.197723 4.601650 -11.284024 0.000000 33.000000 14.386502 0.000000
16.777412 3.049665 -11.947073 0.000000 40.000000 14.480463 0.000000
17.759280 2.774175 -11.930569 0.000000 36.000000 14.456325 0.000000
16.653388 3.058545 -11.956299 0.000000 41.000000 14.483003 0.000000
20.216399 1.509657 -12.149978 0.000000 42.000000 14.482432 0.000000
16.533519 3.064756 -11.943580 0.000000 40.000000 14.464093 0.000000
16.085779 1.195897 -12.984272 0.000000 65.000000 14.898520 21.000000
18.929059 0.125055 -12.616902 0.000000 38.000000 14.445639 0.000000
16.214474 -0.165086 -13.667294 0.000000 79.000000 15.175554 20.000000
16.291284 3.066987 -11.961836 0.000000 34.000000 14.465002 0.000000
17.687549 0.327302 -13.327140 0.000000 47.000000 15.094138 29.000000
16.169421 3.062297 -11.967427 0.000000 32.000000 14.460376 0.000000
20.126846 -1.061667 -13.149531 0.000000 67.000000 14.704015 7.000000
16.051421 3.053929 -11.981356 0.000000 33.000000 14.462958 0.000000
17.060519 2.739701 -11.999643 0.000000 40.000000 14.463059 0.000000
18.773008 -0.568814 -13.246718 0.000000 72.000000 14.840481 28.000000
16.337606 2.685205 -12.383059 0.000000 68.000000 14.763062 19.000000
17.764102 3.566709 -11.644737 0.000000 46.000000 14.407694 0.000000
16.839067 2.703533 -12.028607 0.000000 34.000000 14.464811 0.000000
15.533460 1.241109 -12.806715 0.000000 67.000000 14.702317 21.000000
21.933796 2.878052 -11.845889 0.000000 60.000000 14.700888 4.000000
16.143169 2.488287 -12.074512 0.000000 27.000000 14.398401 0.000000
21.309724 3.758344 -11.221970 0.000000 29.000000 14.309130 0.000000
16.597020 -0.231074 -13.430057 0.000000 71.000000 14.957103 20.000000
16.005260 0.095279 -13.497128 0.000000 75.000000 15.071682 20.000000
16.010710 -0.153647 -13.531426 0.000000 57.000000 15.034388 20.000000
16.231071 3.692288 -11.636426 0.000000 38.000000 14.326550 0.000000
15.626009 2.192557 -12.185909 0.000000 24.000000 14.384521 0.000000
19.469745 2.731550 -11.794395 0.000000 39.000000 14.435353 0.000000
17.966124 0.882171 -12.821271 0.000000 69.000000 14.787177 30.000000
19.673737 3.477928 -11.701191 0.000000 34.000000 14.572021 5.000000
20.315984 -1.032639 -12.909797 0.000000 35.000000 14.496359 0.000000
20.204681 -0.953077 -12.873374 0.000000 40.000000 14.476155 0.000000
16.986216 -0.011256 -13.261379 0.000000 58.000000 14.885624 20.000000
16.426570 -0.222279 -13.628844 0.000000 70.000000 15.137631 20.000000
19.592669 -1.104357 -13.252296 0.000000 47.000000 14.752321 7.000000
19.956274 -0.788008 -12.876612 0.000000 42.000000 14.508370 0.000000
20.894096 -0.967131 -12.793363 0.000000 42.000000 14.444556 0.000000
19.846291 -0.714469 -12.825770 0.000000 40.000000 14.472763 0.000000
20.168762 -0.993448 -12.877540 0.000000 39.000000 14.466160 0.000000
18.338333 -0.215305 -13.309489 0.000000 68.000000 14.969780 28.000000
20.648455 -0.819231 -12.758605 0.000000 43.000000 14.435765 0.000000
20.812326 2.868990 -11.940296 0.000000 62.000000 14.709060 10.000000
18.786460 -0.652631 -13.042113 0.000000 63.000000 14.622008 28.000000
19.229467 -0.353481 -12.778467 0.000000 41.000000 14.485978 0.000000
19.088189 -0.279120 -12.827250 0.000000 35.000000 14.543670 0.000000
21.265561 0.021292 -12.940061 0.000000 70.000000 14.891094 12.000000
18.308896 -0.867633 -13.443592 0.000000 71.000000 14.911244 28.000000
18.735233 4.524931 -11.240766 0.000000 47.000000 14.361535 0.000000
16.487168 -0.504024 -13.303763 0.000000 35.000000 14.751229 20.000000
20.886321 -1.275813 -13.178433 0.000000 64.000000 14.724899 6.000000
21.572521 3.041492 -11.528714 0.000000 34.000000 14.418177 0.000000
16.806111 0.546831 -12.677425 0.000000 30.000000 14.472351 0.000000
20.831700 -1.256895 -13.189906 0.000000 72.000000 14.737354 6.000000
16.590114 1.285954 -12.950111 0.000000 66.000000 14.927125 21.000000
18.207224 2.973087 -11.985581 0.000000 52.000000 14.597041 26.000000
15.414296 0.874862 -12.941227 0.000000 58.000000 14.718812 21.000000
16.379019 1.339258 -12.579151 0.000000 41.000000 14.572439 21.000000
22.053306 2.688970 -11.795995 0.000000 36.000000 14.608105 4.000000
16.418857 -0.751293 -12.976876 0.000000 22.000000 14.363718 0.000000
15.647775 1.102324 -12.878723 0.000000 64.000000 14.740000 21.000000
18.330214 0.643410 -12.858655 0.000000 51.000000 14.781155 30.000000
16.524090 1.947402 -12.587945 0.000000 70.000000 14.763341 22.000000
16.842950 0.373859 -12.731615 0.000000 35.000000 14.477817 0.000000
15.780695 0.689439 -12.757269 0.000000 46.000000 14.516355 0.000000
16.721705 0.377998 -12.738329 0.000000 43.000000 14.476809 0.000000
16.603130 0.378038 -12.741037 0.000000 37.000000 14.470999 0.000000
21.194655 -0.151496 -12.815703 0.000000 52.000000 14.718196 12.000000
16.365327 0.400646 -12.740377 0.000000 59.000000 14.459899 0.000000
19.543499 -0.300844 -13.167995 0.000000 64.000000 14.895723 18.000000
18.552082 0.273142 -12.610428 0.000000 49.000000 14.454635 0.000000
17.331279 -0.217772 -13.434600 0.000000 73.000000 15.017303 28.000000
16.015591 0.352666 -12.837221 0.000000 46.000000 14.514129 0.000000
19.923213 1.389779 -12.122149 0.000000 52.000000 14.401072 0.000000
15.795385 0.320008 -12.831018 0.000000 42.000000 14.483327 0.000000
19.139531 -0.340210 -13.035236 0.000000 47.000000 14.728941 18.000000
17.180045 -0.400831 -13.589695 0.000000 73.000000 15.103080 28.000000
18.988470 0.804190 -12.425172 0.000000 41.000000 14.458774 0.000000
21.847857 2.592190 -11.796058 0.000000 36.000000 14.566187 4.000000
20.359157 2.078079 -11.923473 0.000000 38.000000 14.436871 0.000000
19.515403 0.353621 -12.879632 0.000000 58.000000 14.803241 16.000000
20.164281 4.301198 -11.202528 0.000000 25.000000 14.362989 0.000000
17.108082 1.236052 -12.702518 0.000000 37.000000 14.712930 21.000000
18.774312 2.264246 -12.006588 0.000000 56.000000 14.456651 0.000000
19.575464 4.073658 -11.858344 0.000000 71.000000 14.884042 3.000000
20.062601 4.029645 -11.333551 0.000000 25.000000 14.404200 0.000000
21.294167 3.775897 -11.221893 0.000000 25.000000 14.312923 0.000000
20.007512 3.889777 -11.426890 0.000000 30.000000 14.449962 0.000000
20.248270 -0.816437 -12.878483 0.000000 68.000000 14.522824 0.000000
20.622088 2.304845 -12.130826 0.000000 52.000000 14.718056 25.000000
20.217432 -0.896390 -12.827859 0.000000 52.000000 14.449578 0.000000
16.278307 2.263682 -12.159729 0.000000 47.000000 14.425895 0.000000
19.063729 0.492068 -12.512675 0.000000 28.000000 14.459426 0.000000
16.456191 2.077762 -12.560341 0.000000 67.000000 14.769034 22.000000
19.599642 2.718006 -11.717375 0.000000 22.000000 14.367068 0.000000
19.877166 3.346701 -11.617339 0.000000 28.000000 14.469095 0.000000
19.854771 3.211198 -11.655134 0.000000 27.000000 14.465286 0.000000
17.571150 0.042052 -13.217036 0.000000 58.000000 14.899802 29.000000
19.860296 2.942345 -11.600787 0.000000 30.000000 14.337571 0.000000
16.585372 4.522697 -11.498050 0.000000 39.000000 14.454470 0.000000
18.577944 -1.163245 -12.898855 0.000000 30.000000 14.325615 0.000000
19.887511 -0.027719 -12.484322 0.000000 36.000000 14.343567 0.000000
19.818717 2.666367 -11.724103 0.000000 28.000000 14.374422 0.000000
16.005840 1.101958 -12.905491 0.000000 61.000000 14.790900 21.000000
18.170268 -0.456367 -13.587081 0.000000 76.000000 15.155102 28.000000
16.864885 1.027510 -12.743611 0.000000 74.000000 14.675931 21.000000
20.078375 3.247017 -11.842691 0.000000 48.000000 14.670680 10.000000
18.824975 4.569631 -11.262971 0.000000 38.000000 14.401797 0.000000
20.939063 1.867815 -11.964421 0.000000 46.000000 14.457637 0.000000
16.815855 0.991402 -12.728536 0.000000 77.000000 14.647810 21.000000
18.389632 -0.211640 -13.424768 0.000000 56.000000 15.084715 28.000000
16.720430 -0.012271 -13.673836 0.000000 70.000000 15.260974 20.000000
19.761675 1.721264 -12.130896 0.000000 36.000000 14.491840 0.000000
18.887321 4.003289 -11.472564 0.000000 37.000000 14.446321 0.000000
17.117636 4.021338 -11.625413 0.000000 40.000000 14.472082 0.000000
20.013619 -0.544204 -13.146874 0.000000 61.000000 14.839964 17.000000
19.530042 -0.744045 -12.840190 0.000000 39.000000 14.455745 0.000000
21.021460 1.056472 -12.070759 0.000000 45.000000 14.335453 0.000000
19.455439 2.668995 -12.090540 0.000000 45.000000 14.699873 26.000000
17.841647 1.639993 -12.308000 0.000000 25.000000 14.502011 0.000000
17.134819 -0.453720 -13.496375 0.000000 74.000000 14.995641 28.000000
21.011875 0.668738 -12.338417 0.000000 49.000000 14.480985 0.000000
19.869705 0.785766 -12.388497 0.000000 40.000000 14.480995 0.000000
21.031660 0.537064 -12.377042 0.000000 50.000000 14.482047 0.000000
19.902117 0.652071 -12.400173 0.000000 48.000000 14.456605 0.000000
