3.491451 -22.898056 10.973060 0.000000 36.000000 14.673613 22.000000
4.472722 -22.846624 11.524385 0.000000 56.000000 14.519950 0.000000
4.274804 -22.753404 13.178773 0.000000 58.000000 15.183505 25.000000
3.333465 -20.556161 16.333820 0.000000 56.000000 14.931481 16.000000
3.440668 -22.592495 11.695625 0.000000 37.000000 14.726989 22.000000
-0.950787 -20.396864 13.226167 0.000000 72.000000 14.991555 3.000000
1.202152 -19.383052 16.461704 0.000000 67.000000 14.717991 2.000000
1.266984 -19.583257 15.693288 0.000000 54.000000 14.551902 0.000000
4.108164 -21.557992 13.768534 0.000000 50.000000 14.468770 0.000000
5.090965 -22.016712 14.963666 0.000000 51.000000 15.009203 26.000000
3.990638 -21.915215 13.126158 0.000000 44.000000 14.549316 0.000000
4.066693 -21.345218 14.181380 0.000000 38.000000 14.471182 0.000000
4.057110 -21.209177 14.407676 0.000000 39.000000 14.451579 0.000000
4.086643 -20.594127 15.376329 0.000000 33.000000 14.315863 0.000000
4.923016 -21.325548 15.653143 0.000000 58.000000 14.762571 21.000000
3.305220 -21.197793 14.580332 0.000000 63.000000 14.769088 17.000000
1.547972 -21.121430 13.573179 0.000000 54.000000 14.893519 14.000000
-0.078349 -19.992918 13.584026 0.000000 36.000000 14.497630 0.000000
0.386517 -19.425759 15.178343 0.000000 50.000000 14.509076 0.000000
0.073932 -20.077336 13.545937 0.000000 41.000000 14.501581 0.000000
0.555606 -19.483671 15.146596 0.000000 40.000000 14.487431 0.000000
0.709997 -19.593372 15.089370 0.000000 47.000000 14.504263 0.000000
0.638213 -20.492271 13.740284 0.000000 44.000000 14.739557 1.000000
3.369188 -21.124290 14.785851 0.000000 58.000000 14.768851 17.000000
0.528169 -20.330606 13.412754 0.000000 42.000000 14.506619 0.000000
1.086020 -19.580989 15.067886 0.000000 33.000000 14.356631 0.000000
0.679364 -20.411856 13.364145 0.000000 46.000000 14.503967 0.000000
-1.468465 -20.427482 12.102340 0.000000 46.000000 14.735757 4.000000
0.828513 -20.493706 13.308153 0.000000 43.000000 14.499509 0.000000
4.391887 -21.823313 13.313648 0.000000 24.000000 14.410990 0.000000
1.482863 -20.073931 14.788560 0.000000 52.000000 14.524590 0.000000
4.923153 -21.431463 15.678939 0.000000 49.000000 14.862733 21.000000
4.937387 -22.183494 14.436829 0.000000 78.000000 14.987938 27.000000
1.296249 -20.654383 13.171052 0.000000 32.000000 14.419936 0.000000
0.730055 -21.144685 12.860691 0.000000 36.000000 14.901803 9.000000
1.955079 -20.291444 14.607651 0.000000 38.000000 14.473743 0.000000
3.875938 -22.556879 12.803209 0.000000 48.000000 15.000065 25.000000
1.794468 -20.037832 15.931595 0.000000 53.000000 14.853940 11.000000
2.676018 -20.763561 14.209568 0.000000 38.000000 14.464967 0.000000
3.133922 -21.372242 14.441580 0.000000 73.000000 14.918685 17.000000
2.105034 -21.168032 12.949144 0.000000 35.000000 14.488208 0.000000
2.400366 -21.350717 12.599819 0.000000 39.000000 14.399556 0.000000
3.449443 -23.046289 11.491018 0.000000 64.000000 15.024777 22.000000
3.782933 -22.390967 12.797539 0.000000 56.000000 14.889017 25.000000
3.127623 -20.948848 13.981493 0.000000 37.000000 14.374627 0.000000
2.646836 -21.554782 12.425930 0.000000 33.000000 14.417260 0.000000
3.278687 -21.002428 13.903976 0.000000 33.000000 14.336797 0.000000
2.749423 -21.702854 12.319372 0.000000 39.000000 14.464146 0.000000
2.965700 -20.461039 15.991008 0.000000 31.000000 14.836646 30.000000
2.865869 -21.813622 12.223564 0.000000 46.000000 14.479096 0.000000
1.339011 -21.070446 13.468522 0.000000 46.000000 14.878997 14.000000
2.989764 -21.898748 12.133377 0.000000 53.000000 14.472084 0.000000
3.589524 -21.466951 13.535493 0.000000 55.000000 14.473685 0.000000
5.006461 -21.789065 15.124546 0.000000 60.000000 14.910925 26.000000
3.713569 -21.567365 13.431188 0.000000 52.000000 14.473807 0.000000
2.474879 -20.952454 13.643725 0.000000 33.000000 14.462749 0.000000
5.257384 -22.686553 13.753881 0.000000 70.000000 15.026041 24.000000
4.587984 -22.790592 12.427839 0.000000 58.000000 14.801720 23.000000
3.962184 -21.744865 13.226495 0.000000 44.000000 14.455719 0.000000
3.509849 -22.146166 11.792704 0.000000 33.000000 14.365040 0.000000
5.125996 -21.140232 15.845718 0.000000 50.000000 14.614913 21.000000
4.084191 -22.839184 11.125241 0.000000 48.000000 14.483470 0.000000
6.233274 -21.643992 15.324542 0.000000 39.000000 14.450810 0.000000
1.861150 -18.980347 17.157751 0.000000 29.000000 14.435955 0.000000
-1.050617 -20.881877 12.186673 0.000000 54.000000 15.012262 4.000000
4.331227 -22.647538 13.192205 0.000000 58.000000 15.080077 25.000000
2.662439 -21.249176 13.471070 0.000000 55.000000 14.579528 8.000000
2.801303 -19.791714 16.296182 0.000000 42.000000 14.450516 0.000000
4.683885 -21.016406 15.571191 0.000000 33.000000 14.549015 0.000000
-0.924509 -20.677523 13.689507 0.000000 13.000000 15.409256 3.000000
3.632250 -20.551958 15.346119 0.000000 38.000000 14.422972 0.000000
2.075369 -22.212203 11.651802 0.000000 55.000000 14.853241 6.000000
4.010036 -20.876996 15.320314 0.000000 26.000000 14.558689 0.000000
2.602888 -21.224617 13.517638 0.000000 48.000000 14.598063 8.000000
4.220644 -21.241999 14.440623 0.000000 39.000000 14.436977 0.000000
4.274800 -21.423490 14.258080 0.000000 44.000000 14.497697 0.000000
3.382997 -22.903402 11.473236 0.000000 70.000000 14.919218 22.000000
4.930609 -22.207577 13.033877 0.000000 35.000000 14.438303 0.000000
4.814026 -21.372432 15.664538 0.000000 58.000000 14.844131 21.000000
-0.369507 -20.800597 11.695280 0.000000 47.000000 14.510424 0.000000
1.316002 -20.664129 13.935533 0.000000 28.000000 14.733320 14.000000
0.391437 -21.425958 12.630642 0.000000 63.000000 15.161736 9.000000
2.874717 -22.693679 10.412167 0.000000 37.000000 14.482303 0.000000
3.944587 -22.540319 11.916577 0.000000 77.000000 14.600897 25.000000
2.835458 -22.451298 10.553959 0.000000 34.000000 14.348313 0.000000
3.242925 -21.121900 14.346403 0.000000 37.000000 14.630661 17.000000
2.709586 -22.405302 10.644447 0.000000 44.000000 14.389256 0.000000
4.663471 -21.016870 16.054162 0.000000 43.000000 14.753408 19.000000
5.752375 -21.790582 14.819271 0.000000 48.000000 14.532999 26.000000
1.999576 -22.153623 11.575531 0.000000 38.000000 14.798400 6.000000
1.548920 -21.121225 13.570761 0.000000 54.000000 14.892035 14.000000
2.366820 -22.206973 10.951636 0.000000 40.000000 14.463667 0.000000
2.842798 -21.768742 12.239810 0.000000 47.000000 14.455598 0.000000
2.244384 -22.166216 11.049313 0.000000 49.000000 14.510807 0.000000
2.741324 -21.661493 12.366118 0.000000 44.000000 14.450957 0.000000
2.423415 -21.560469 13.133918 0.000000 69.000000 14.787185 8.000000
4.611036 -21.135023 15.901281 0.000000 67.000000 14.808989 19.000000
1.976785 -21.796295 11.431200 0.000000 42.000000 14.444729 0.000000
2.418081 -21.399651 12.739953 0.000000 52.000000 14.492111 0.000000
2.827147 -20.600753 14.638309 0.000000 23.000000 14.450415 0.000000
1.788428 -21.582905 11.688280 0.000000 41.000000 14.433226 0.000000
1.678465 -21.521382 11.808361 0.000000 39.000000 14.467663 0.000000
3.756900 -22.679846 11.652147 0.000000 55.000000 14.675248 22.000000
4.866225 -22.363520 12.961266 0.000000 43.000000 14.562710 0.000000
2.037158 -20.944273 13.312598 0.000000 55.000000 14.470185 0.000000
1.939534 -20.845304 13.457865 0.000000 39.000000 14.478975 0.000000
3.349179 -20.583631 16.300741 0.000000 65.000000 14.935881 16.000000
1.255010 -20.888254 12.545475 0.000000 32.000000 14.376842 0.000000
1.164931 -20.775999 12.696281 0.000000 34.000000 14.374066 0.000000
1.385595 -20.163711 14.425225 0.000000 54.000000 14.485597 0.000000
4.603209 -21.097415 16.066970 0.000000 40.000000 14.847410 19.000000
1.077709 -19.566350 15.194958 0.000000 42.000000 14.398911 0.000000
0.964509 -19.540169 15.343916 0.000000 49.000000 14.476160 0.000000
4.727372 -21.942591 14.669186 0.000000 61.000000 14.950446 27.000000
0.387547 -19.865968 14.153700 0.000000 46.000000 14.463467 0.000000
4.180594 -21.544121 13.777024 0.000000 29.000000 14.435758 0.000000
0.299804 -19.785687 14.323864 0.000000 46.000000 14.494865 0.000000
6.009108 -21.976040 15.503647 0.000000 54.000000 14.881577 26.000000
0.148770 -19.563649 14.693612 0.000000 53.000000 14.509259 0.000000
1.244306 -20.942179 13.118752 0.000000 38.000000 14.660029 14.000000
0.364530 -21.700792 12.838259 0.000000 1.000000 15.488340 9.000000
1.761590 -21.808179 10.959986 0.000000 39.000000 14.336030 0.000000
1.866579 -21.993709 10.931180 0.000000 50.000000 14.445532 0.000000
0.532415 -19.962468 13.851596 0.000000 31.000000 14.372473 0.000000
2.159462 -22.134994 10.930139 0.000000 50.000000 14.464746 0.000000
2.310403 -22.187466 10.931003 0.000000 44.000000 14.457994 0.000000
4.607230 -22.840219 12.597602 0.000000 44.000000 14.906426 23.000000
3.073517 -20.732934 15.572917 0.000000 48.000000 14.859503 30.000000
2.380480 -21.046938 14.373383 0.000000 50.000000 14.872651 18.000000
2.959024 -22.299726 10.939723 0.000000 35.000000 14.335155 0.000000
4.500680 -21.867561 14.146547 0.000000 52.000000 14.751098 27.000000
3.612721 -22.806913 10.799130 0.000000 57.000000 14.484077 0.000000
4.171483 -22.722001 12.313545 0.000000 69.000000 14.839216 25.000000
4.959763 -22.043357 14.599477 0.000000 68.000000 14.927988 27.000000
2.991350 -22.478861 11.595905 0.000000 60.000000 14.743495 7.000000
4.240903 -22.737698 11.375862 0.000000 45.000000 14.446274 0.000000
5.428922 -22.240696 14.385318 0.000000 72.000000 14.847538 27.000000
3.014236 -22.400237 11.399508 0.000000 55.000000 14.588984 7.000000
4.037942 -22.459161 11.820208 0.000000 59.000000 14.460989 0.000000
4.406146 -21.645989 13.721204 0.000000 57.000000 14.422235 0.000000
4.646315 -22.365774 14.123790 0.000000 41.000000 15.113958 27.000000
4.783475 -21.652557 14.388525 0.000000 43.000000 14.571205 27.000000
0.476522 -21.400895 12.430465 0.000000 48.000000 15.029801 9.000000
4.324646 -22.603419 13.123925 0.000000 56.000000 15.017111 25.000000
0.928476 -21.627594 11.429818 0.000000 37.000000 14.659233 5.000000
3.084138 -21.181028 14.664852 0.000000 67.000000 14.864856 17.000000
3.639090 -21.727501 12.974497 0.000000 51.000000 14.448524 0.000000
-0.098676 -20.431814 12.965117 0.000000 34.000000 14.623722 0.000000
1.240128 -19.531501 16.579155 0.000000 52.000000 14.878640 2.000000
3.542139 -21.500769 13.336367 0.000000 43.000000 14.437265 0.000000
3.478557 -21.422388 13.508006 0.000000 59.000000 14.462624 0.000000
3.432226 -21.313279 13.692944 0.000000 51.000000 14.461499 0.000000
0.248470 -20.655306 13.096267 0.000000 43.000000 14.747946 12.000000
3.339440 -21.165440 14.406477 0.000000 62.000000 14.659084 17.000000
3.986649 -20.488075 15.526108 0.000000 40.000000 14.321306 0.000000
4.615539 -21.610978 14.229695 0.000000 57.000000 14.528539 27.000000
3.898829 -20.460083 15.699147 0.000000 74.000000 14.398179 0.000000
-0.992032 -20.733988 13.540529 0.000000 45.000000 15.419345 3.000000
4.452860 -22.218994 13.814856 0.000000 57.000000 14.929689 27.000000
3.708017 -20.248822 16.289622 0.000000 43.000000 14.525327 0.000000
3.203093 -23.057118 10.799137 0.000000 43.000000 14.835801 28.000000
2.989636 -19.773137 16.464399 0.000000 61.000000 14.439109 0.000000
2.979142 -19.625223 16.716067 0.000000 42.000000 14.420114 0.000000
-0.354955 -19.742864 13.851206 0.000000 40.000000 14.489331 0.000000
-0.610792 -20.282037 12.427889 0.000000 36.000000 14.452580 0.000000
-0.812394 -20.724113 12.242194 0.000000 39.000000 14.819989 4.000000
-0.439769 -20.281602 12.444128 0.000000 42.000000 14.400446 0.000000
-0.030818 -19.874493 13.843549 0.000000 42.000000 14.486998 0.000000
4.308706 -21.188978 15.624874 0.000000 72.000000 14.845137 19.000000
2.625304 -19.743042 16.607074 0.000000 42.000000 14.596222 0.000000
-0.127325 -20.396051 12.434023 0.000000 46.000000 14.386557 0.000000
0.018004 -20.492297 12.411522 0.000000 35.000000 14.409257 0.000000
-0.791201 -20.688285 12.262016 0.000000 49.000000 14.790502 4.000000
0.297751 -20.722430 12.348492 0.000000 40.000000 14.482899 0.000000
4.446760 -22.594293 12.919403 0.000000 49.000000 14.884255 25.000000
0.589954 -20.897791 12.294275 0.000000 48.000000 14.509504 0.000000
-0.812295 -20.467766 13.511428 0.000000 44.000000 15.120682 3.000000
1.192050 -19.279664 16.531601 0.000000 54.000000 14.662409 2.000000
3.060091 -22.874300 10.781498 0.000000 47.000000 14.722625 28.000000
4.015518 -22.665266 12.087454 0.000000 59.000000 14.752190 25.000000
4.999022 -22.367177 14.040369 0.000000 57.000000 14.960691 27.000000
4.961443 -21.413191 15.659260 0.000000 58.000000 14.826159 21.000000
1.344824 -20.370199 14.216122 0.000000 44.000000 14.589058 0.000000
1.054294 -21.151507 13.814685 0.000000 28.000000 15.186064 14.000000
3.019004 -22.557633 11.313428 0.000000 49.000000 14.685516 7.000000
1.749649 -19.961510 15.334463 0.000000 47.000000 14.561013 11.000000
1.936922 -21.468217 11.994849 0.000000 37.000000 14.410480 0.000000
5.526702 -22.130461 15.435455 0.000000 68.000000 15.149220 26.000000
2.756358 -21.210826 13.244493 0.000000 45.000000 14.422556 0.000000
2.880888 -21.335929 13.169038 0.000000 41.000000 14.455188 0.000000
4.011141 -20.609058 16.209126 0.000000 45.000000 14.694028 15.000000
4.827164 -20.938194 16.021065 0.000000 56.000000 14.617398 19.000000
3.160357 -21.509708 13.040062 0.000000 53.000000 14.454303 0.000000
4.151447 -23.050998 11.952609 0.000000 47.000000 14.977393 23.000000
3.424550 -21.706678 12.891526 0.000000 58.000000 14.470292 0.000000
-0.059213 -20.619993 12.468633 0.000000 35.000000 14.567048 0.000000
3.224430 -21.153902 14.538510 0.000000 66.000000 14.742446 17.000000
3.843343 -22.784609 10.990860 0.000000 51.000000 14.464668 0.000000
0.681686 -21.217477 12.299460 0.000000 67.000000 14.750997 9.000000
4.070148 -22.964161 10.824190 0.000000 49.000000 14.471275 0.000000
5.404308 -22.341094 13.184050 0.000000 46.000000 14.450891 0.000000
-0.519270 -20.102192 13.573737 0.000000 59.000000 14.736501 3.000000
-1.023797 -20.609313 13.558225 0.000000 35.000000 15.331841 3.000000
0.836209 -19.210982 15.952791 0.000000 44.000000 14.489616 0.000000
3.581938 -20.260375 16.445656 0.000000 42.000000 14.641811 16.000000
1.007132 -21.001342 14.097835 0.000000 4.000000 15.190525 14.000000
0.825686 -21.180006 11.988721 0.000000 44.000000 14.543336 5.000000
2.835406 -20.758782 15.786474 0.000000 48.000000 15.049809 30.000000
3.816936 -20.378224 15.991794 0.000000 46.000000 14.476212 0.000000
3.943804 -20.476098 15.866389 0.000000 76.000000 14.464611 0.000000
1.337910 -20.976931 13.636430 0.000000 44.000000 14.868687 14.000000
4.109979 -20.488685 15.778348 0.000000 68.000000 14.382617 0.000000
2.735671 -22.534297 11.365211 0.000000 35.000000 14.783618 7.000000
1.180324 -19.525209 16.619185 0.000000 48.000000 14.910062 2.000000
3.634459 -21.318723 13.887188 0.000000 42.000000 14.476305 0.000000
1.403181 -21.370814 12.066675 0.000000 64.000000 14.539537 13.000000
-0.013755 -20.780892 12.973333 0.000000 44.000000 14.893665 12.000000
0.494751 -21.324300 12.534776 0.000000 59.000000 15.001273 9.000000
2.742945 -20.985999 14.694910 0.000000 55.000000 14.828465 18.000000
-0.196817 -20.074140 14.635128 0.000000 39.000000 15.035656 29.000000
4.709657 -21.301033 14.872533 0.000000 58.000000 14.496205 0.000000
-0.643831 -20.521163 13.877108 0.000000 61.000000 15.257559 3.000000
4.005604 -23.006526 10.625180 0.000000 57.000000 14.447998 0.000000
3.880606 -22.926910 10.686563 0.000000 57.000000 14.448301 0.000000
3.753135 -22.847651 10.751519 0.000000 50.000000 14.451208 0.000000
3.620101 -22.789477 10.812137 0.000000 56.000000 14.472099 0.000000
1.098085 -19.191232 16.766963 0.000000 52.000000 14.715628 2.000000
3.112548 -23.077642 10.881043 0.000000 73.000000 14.917507 28.000000
-0.039569 -19.793080 14.273249 0.000000 53.000000 14.596346 29.000000
5.818688 -22.446492 14.530687 0.000000 48.000000 14.948027 24.000000
1.282577 -21.812787 10.953543 0.000000 56.000000 14.500850 0.000000
4.774586 -22.331498 14.035693 0.000000 54.000000 15.005200 27.000000
3.925838 -21.341102 15.091620 0.000000 74.000000 14.887125 20.000000
4.046400 -22.653332 13.394136 0.000000 11.000000 15.264609 25.000000
5.220082 -22.647192 13.694346 0.000000 67.000000 14.981160 24.000000
5.857956 -22.062887 15.577026 0.000000 60.000000 15.036658 26.000000
5.782956 -21.806024 15.070939 0.000000 40.000000 14.638303 26.000000
1.217776 -20.713806 12.867691 0.000000 34.000000 14.373289 0.000000
1.266374 -21.495467 12.453246 0.000000 29.000000 14.849500 13.000000
0.432616 -21.011927 11.867497 0.000000 50.000000 14.485763 0.000000
3.814185 -22.420171 12.882443 0.000000 48.000000 14.937714 25.000000
2.853267 -21.053359 14.664583 0.000000 41.000000 14.835465 17.000000
1.938877 -22.272694 11.450362 0.000000 42.000000 14.868884 6.000000
3.122136 -20.009365 16.498953 0.000000 35.000000 14.607996 0.000000
-0.900304 -20.651045 13.679798 0.000000 8.000000 15.374611 3.000000
-0.749020 -20.161766 13.231559 0.000000 53.000000 14.725795 3.000000
1.028863 -20.201247 14.325848 0.000000 38.000000 14.598637 0.000000
0.322825 -20.014356 13.927381 0.000000 42.000000 14.518885 0.000000
4.304978 -22.127172 13.495063 0.000000 39.000000 14.771967 25.000000
0.234555 -19.845902 14.104143 0.000000 47.000000 14.478494 0.000000
5.380495 -22.050307 15.165789 0.000000 57.000000 15.021257 26.000000
0.132523 -19.737384 14.261025 0.000000 39.000000 14.485442 0.000000
-0.375450 -20.200057 12.957587 0.000000 65.000000 14.518904 0.000000
3.282767 -22.723251 10.782422 0.000000 36.000000 14.519073 0.000000
2.200381 -19.806858 16.902239 0.000000 44.000000 14.915752 10.000000
2.856140 -22.637095 10.337670 0.000000 38.000000 14.410341 0.000000
3.726596 -22.996944 10.381043 0.000000 45.000000 14.435547 0.000000
3.983238 -21.293596 14.553249 0.000000 75.000000 14.607670 0.000000
2.402408 -19.869869 17.018636 0.000000 61.000000 14.947615 10.000000
3.822376 -22.706346 11.139385 0.000000 39.000000 14.466149 0.000000
3.745143 -22.645096 12.234374 0.000000 68.000000 14.887361 25.000000
3.532593 -22.226421 11.722828 0.000000 35.000000 14.396724 0.000000
4.041252 -21.774553 13.058501 0.000000 51.000000 14.385328 0.000000
3.479477 -22.061517 11.879277 0.000000 44.000000 14.339049 0.000000
-0.761788 -20.482726 12.250087 0.000000 38.000000 14.601534 4.000000
5.121941 -21.412598 15.581001 0.000000 57.000000 14.738934 21.000000
3.838122 -21.641304 13.329455 0.000000 52.000000 14.452388 0.000000
0.022879 -20.529266 12.641811 0.000000 46.000000 14.532845 12.000000
4.672906 -21.123637 15.788894 0.000000 59.000000 14.732376 19.000000
4.921601 -22.177562 13.848241 0.000000 57.000000 14.748187 27.000000
4.653484 -22.095094 14.215603 0.000000 63.000000 14.919765 27.000000
3.100455 -21.786259 12.414982 0.000000 54.000000 14.453923 0.000000
4.607814 -22.405871 13.847760 0.000000 43.000000 15.048447 27.000000
3.022553 -21.688683 12.562608 0.000000 48.000000 14.458122 0.000000
3.519767 -21.201693 13.965848 0.000000 50.000000 14.448457 0.000000
2.680019 -21.128134 13.630794 0.000000 47.000000 14.536193 0.000000
-0.644965 -20.321310 13.263767 0.000000 51.000000 14.838503 3.000000
2.931376 -21.336562 12.920651 0.000000 36.000000 14.337156 0.000000
1.661698 -21.123024 13.058234 0.000000 43.000000 14.645966 14.000000
4.330392 -22.594288 12.662891 0.000000 53.000000 14.819337 25.000000
2.532075 -20.922225 13.706454 0.000000 42.000000 14.443214 0.000000
2.465271 -20.810629 13.882962 0.000000 43.000000 14.443535 0.000000
2.382700 -20.746138 14.043296 0.000000 50.000000 14.482528 0.000000
0.854296 -21.759780 11.738470 0.000000 45.000000 14.922406 5.000000
-0.223434 -20.134912 13.325025 0.000000 42.000000 14.561739 0.000000
2.373389 -21.396433 13.233935 0.000000 47.000000 14.706168 8.000000
2.262233 -20.224188 14.672752 0.000000 37.000000 14.338482 0.000000
2.691238 -19.773504 16.224347 0.000000 43.000000 14.443370 0.000000
5.599125 -22.033741 15.792236 0.000000 33.000000 15.188144 26.000000
2.034490 -20.031605 15.199387 0.000000 52.000000 14.468010 0.000000
1.766313 -19.214193 16.525480 0.000000 39.000000 14.408408 0.000000
1.696037 -19.184008 16.712234 0.000000 43.000000 14.483029 0.000000
1.675499 -18.992668 16.976812 0.000000 38.000000 14.435958 0.000000
3.693674 -22.796815 11.729909 0.000000 59.000000 14.827604 22.000000
-0.678695 -20.331074 12.428692 0.000000 46.000000 14.517614 0.000000
0.498723 -21.437656 12.648746 0.000000 42.000000 15.142398 9.000000
-0.338435 -20.282671 12.525564 0.000000 49.000000 14.399974 0.000000
4.699439 -21.073612 16.023232 0.000000 62.000000 14.776557 19.000000
0.804848 -21.207437 11.985484 0.000000 54.000000 14.572357 5.000000
5.475522 -22.524723 14.058257 0.000000 47.000000 14.938705 24.000000
4.813888 -22.208467 13.260868 0.000000 32.000000 14.571509 25.000000
4.538635 -22.050778 14.054248 0.000000 69.000000 14.855626 27.000000
0.453020 -21.156054 11.332850 0.000000 39.000000 14.382725 0.000000
4.072839 -23.078846 10.951582 0.000000 52.000000 14.619438 0.000000
5.069782 -21.976937 14.645157 0.000000 44.000000 14.852819 26.000000
4.311285 -22.501098 12.241821 0.000000 57.000000 14.575172 25.000000
1.167570 -21.555328 11.282446 0.000000 39.000000 14.456288 0.000000
2.656492 -19.764060 16.491196 0.000000 56.000000 14.556099 0.000000
1.439103 -20.893862 13.846203 0.000000 51.000000 14.849375 14.000000
4.820510 -22.165933 13.553506 0.000000 27.000000 14.652616 27.000000
2.112836 -21.332910 12.510640 0.000000 54.000000 14.446266 0.000000
1.801517 -21.681382 11.253419 0.000000 33.000000 14.334740 0.000000
2.261685 -21.405397 12.486611 0.000000 52.000000 14.447021 0.000000
3.131107 -20.116260 16.386309 0.000000 45.000000 14.649493 16.000000
2.562765 -20.878005 14.176054 0.000000 51.000000 14.586868 18.000000
5.435090 -22.699319 14.402626 0.000000 55.000000 15.240837 24.000000
2.294416 -22.170236 11.089201 0.000000 56.000000 14.513400 0.000000
2.858730 -21.685710 12.370995 0.000000 52.000000 14.433368 0.000000
4.591238 -21.223943 16.038004 0.000000 70.000000 14.946819 19.000000
2.587653 -21.259044 13.535138 0.000000 39.000000 14.639555 8.000000
4.751902 -23.029487 12.519495 0.000000 57.000000 14.985433 23.000000
4.133941 -21.104657 15.916777 0.000000 22.000000 14.952489 19.000000
0.468437 -20.579533 13.980318 0.000000 12.000000 14.969336 1.000000
4.612206 -22.268301 14.011572 0.000000 45.000000 14.997286 27.000000
2.909639 -22.304791 10.988282 0.000000 34.000000 14.376114 0.000000
3.433675 -21.991408 12.212528 0.000000 43.000000 14.431274 0.000000
4.988371 -21.445133 15.358186 0.000000 80.000000 14.721189 21.000000
3.419735 -21.398440 13.475940 0.000000 32.000000 14.449347 0.000000
3.922437 -22.748987 12.645661 0.000000 50.000000 15.082585 25.000000
4.132224 -22.635225 12.179211 0.000000 62.000000 14.724339 25.000000
4.538181 -21.358758 16.047907 0.000000 70.000000 15.083130 19.000000
2.572706 -19.755488 16.455372 0.000000 40.000000 14.562832 0.000000
1.408988 -21.341859 12.520649 0.000000 50.000000 14.698236 13.000000
3.745170 -21.168643 14.477075 0.000000 42.000000 14.552071 0.000000
4.983274 -21.971938 14.538721 0.000000 51.000000 14.834701 27.000000
4.757810 -21.361225 14.633610 0.000000 51.000000 14.433262 0.000000
3.367023 -22.832079 10.803446 0.000000 40.000000 14.591035 22.000000
4.695712 -21.211393 15.031983 0.000000 47.000000 14.490111 0.000000
3.872346 -22.337277 12.591657 0.000000 49.000000 14.729036 25.000000
1.469466 -21.768118 10.948398 0.000000 32.000000 14.397119 0.000000
3.411374 -23.255505 10.287794 0.000000 49.000000 14.724070 28.000000
4.740465 -21.291818 15.104007 0.000000 43.000000 14.572315 0.000000
3.639319 -22.695281 11.760601 0.000000 43.000000 14.772708 22.000000
0.967403 -19.087743 16.332382 0.000000 50.000000 14.495326 0.000000
4.857039 -22.409388 14.168983 0.000000 58.000000 15.097379 27.000000
-0.021339 -20.775928 12.775754 0.000000 46.000000 14.811447 12.000000
5.119434 -22.114726 14.768139 0.000000 47.000000 15.002712 26.000000
1.021072 -19.716046 14.626989 0.000000 34.000000 14.313299 0.000000
5.555949 -21.891762 15.284062 0.000000 56.000000 14.875352 26.000000
3.789523 -20.434347 16.232477 0.000000 44.000000 14.631281 0.000000
1.502892 -21.167152 13.298943 0.000000 52.000000 14.835750 14.000000
1.486630 -21.223950 13.183615 0.000000 50.000000 14.842348 14.000000
2.402970 -19.877120 15.794869 0.000000 43.000000 14.454322 0.000000
2.039398 -20.395928 14.180174 0.000000 35.000000 14.359035 0.000000
2.149245 -20.574562 14.076038 0.000000 42.000000 14.430309 0.000000
2.290970 -20.663910 14.003072 0.000000 39.000000 14.427810 0.000000
1.364614 -20.200852 15.678145 0.000000 33.000000 15.035344 11.000000
4.950705 -22.410386 14.175249 0.000000 58.000000 15.068800 27.000000
2.807931 -20.882895 15.029833 0.000000 50.000000 14.855607 18.000000
4.137414 -21.259355 14.869069 0.000000 51.000000 14.654877 20.000000
4.808516 -22.450657 14.023028 0.000000 72.000000 15.089347 27.000000
3.556175 -20.636981 15.107057 0.000000 45.000000 14.423413 0.000000
3.093306 -21.211466 13.513584 0.000000 35.000000 14.417833 0.000000
4.380406 -21.034563 15.418720 0.000000 30.000000 14.605803 19.000000
3.205742 -21.339193 13.411366 0.000000 39.000000 14.445898 0.000000
1.060126 -21.314530 12.277633 0.000000 36.000000 14.695066 13.000000
0.421938 -20.553575 13.639205 0.000000 35.000000 14.824072 1.000000
-0.689344 -20.328994 12.161162 0.000000 26.000000 14.410348 0.000000
4.155088 -21.267934 14.569013 0.000000 43.000000 14.533698 0.000000
-1.329347 -20.528664 12.256217 0.000000 44.000000 14.836711 4.000000
3.682364 -21.732655 13.028628 0.000000 47.000000 14.460196 0.000000
2.155511 -22.166887 11.817296 0.000000 55.000000 14.855021 6.000000
3.801201 -21.821337 12.930862 0.000000 51.000000 14.454831 0.000000
4.432101 -21.372487 14.357880 0.000000 52.000000 14.441518 0.000000
4.517016 -21.543632 14.216693 0.000000 51.000000 14.499847 0.000000
5.217710 -22.072507 13.528830 0.000000 40.000000 14.427827 0.000000
2.547224 -19.773928 16.612879 0.000000 68.000000 14.651402 10.000000
5.406809 -22.297637 13.269554 0.000000 59.000000 14.448122 0.000000
-0.641310 -20.225025 13.763488 0.000000 51.000000 14.959589 3.000000
3.846753 -22.931771 10.690140 0.000000 55.000000 14.465434 0.000000
5.432550 -21.795434 14.799920 0.000000 46.000000 14.638408 26.000000
3.964890 -22.357765 12.708827 0.000000 45.000000 14.762588 25.000000
-1.002031 -20.464971 12.482761 0.000000 46.000000 14.763445 4.000000
1.584121 -21.108501 13.578957 0.000000 68.000000 14.872586 14.000000
5.033674 -22.348783 14.218212 0.000000 60.000000 15.005837 27.000000
-0.510526 -20.321439 13.467372 0.000000 64.000000 14.875773 3.000000
4.783105 -22.217860 14.191446 0.000000 58.000000 14.969607 27.000000
5.400315 -22.756023 13.855630 0.000000 61.000000 15.077574 24.000000
1.870142 -20.998803 13.072051 0.000000 30.000000 14.475249 0.000000
5.419602 -22.031333 14.443381 0.000000 62.000000 14.697127 27.000000
4.011764 -21.566776 15.273816 0.000000 63.000000 15.123208 20.000000
3.898379 -22.300756 13.067341 0.000000 40.000000 14.883282 25.000000
1.243059 -21.342102 11.916395 0.000000 46.000000 14.508586 0.000000
0.920488 -20.908538 12.237951 0.000000 38.000000 14.382775 0.000000
3.630627 -20.394550 16.509463 0.000000 65.000000 14.764832 16.000000
-0.081040 -20.276921 13.057482 0.000000 63.000000 14.524224 0.000000
-1.234718 -20.549953 12.563238 0.000000 30.000000 14.947680 4.000000
3.680798 -23.081718 10.233323 0.000000 46.000000 14.462704 0.000000
3.993706 -23.018375 10.716187 0.000000 54.000000 14.499220 0.000000
1.576919 -20.184476 15.587684 0.000000 44.000000 14.912089 11.000000
3.786000 -22.831242 10.904527 0.000000 51.000000 14.488514 0.000000
0.647091 -21.561834 11.450104 0.000000 63.000000 14.707897 5.000000
2.338286 -19.863587 16.630082 0.000000 53.000000 14.805676 10.000000
2.113913 -22.290662 11.522285 0.000000 50.000000 14.853679 6.000000
-1.039502 -20.555236 12.394225 0.000000 49.000000 14.816553 4.000000
5.226715 -22.735347 13.494798 0.000000 57.000000 14.972135 24.000000
2.775629 -21.890796 11.986258 0.000000 44.000000 14.478443 0.000000
3.523649 -22.910430 11.715515 0.000000 58.000000 14.975987 22.000000
3.184091 -21.259811 13.471044 0.000000 41.000000 14.410419 0.000000
-0.088348 -20.666941 12.986751 0.000000 45.000000 14.828118 12.000000
3.055377 -21.229010 13.580715 0.000000 38.000000 14.473025 0.000000
0.938102 -20.959003 13.508100 0.000000 23.000000 14.937657 14.000000
1.568962 -21.643887 12.580790 0.000000 53.000000 14.923898 13.000000
2.431557 -21.386409 12.527083 0.000000 39.000000 14.389456 0.000000
2.854410 -21.034164 13.855861 0.000000 53.000000 14.488899 0.000000
2.283412 -21.432986 12.613081 0.000000 60.000000 14.514559 0.000000
5.208431 -22.639490 13.527761 0.000000 79.000000 14.910657 24.000000
2.655879 -20.835445 14.143857 0.000000 46.000000 14.505904 0.000000
1.833628 -20.514454 13.698456 0.000000 23.000000 14.333134 0.000000
5.614177 -22.510927 14.383799 0.000000 61.000000 15.012489 24.000000
2.030131 -20.010999 15.299278 0.000000 52.000000 14.492801 0.000000
1.335296 -20.229253 14.299761 0.000000 56.000000 14.507085 0.000000
1.160454 -19.676296 14.911222 0.000000 33.000000 14.348008 0.000000
4.455619 -22.532065 12.926344 0.000000 41.000000 14.831370 25.000000
1.202315 -19.612235 16.776904 0.000000 9.000000 15.040585 2.000000
0.967362 -19.592898 15.220928 0.000000 44.000000 14.469661 0.000000
2.946849 -21.194106 14.582607 0.000000 59.000000 14.889251 17.000000
0.823398 -19.357062 15.604438 0.000000 39.000000 14.475573 0.000000
0.751686 -19.241640 15.800631 0.000000 44.000000 14.482359 0.000000
0.100889 -21.056029 11.498948 0.000000 44.000000 14.486015 0.000000
0.250274 -21.094823 11.538022 0.000000 38.000000 14.483801 0.000000
0.593956 -21.553360 11.774641 0.000000 52.000000 14.851260 5.000000
0.558095 -21.160175 11.611457 0.000000 50.000000 14.463998 0.000000
1.299333 -21.448392 11.721801 0.000000 50.000000 14.499989 0.000000
3.067354 -21.274311 14.420395 0.000000 75.000000 14.849846 17.000000
1.602847 -21.533385 11.760801 0.000000 43.000000 14.484241 0.000000
1.762415 -21.565210 11.777922 0.000000 39.000000 14.463694 0.000000
1.946619 -21.528152 11.813520 0.000000 42.000000 14.383945 0.000000
2.108628 -21.555255 11.829761 0.000000 42.000000 14.358207 0.000000
2.148475 -22.309074 10.599309 0.000000 38.000000 14.480937 0.000000
4.501694 -21.341796 16.269783 0.000000 59.000000 15.171741 19.000000
-0.160251 -20.193700 13.208741 0.000000 51.000000 14.542507 0.000000
2.609054 -22.417133 10.595391 0.000000 39.000000 14.413586 0.000000
4.745775 -22.284571 14.147280 0.000000 66.000000 15.020824 27.000000
3.276480 -22.130920 11.766953 0.000000 49.000000 14.421302 0.000000
2.946107 -21.187627 14.440932 0.000000 58.000000 14.826221 17.000000
3.457131 -22.120404 11.774118 0.000000 39.000000 14.353642 0.000000
-1.034760 -20.939420 13.951680 0.000000 3.000000 15.775616 3.000000
3.140858 -20.993865 14.739199 0.000000 36.000000 14.717337 17.000000
4.571542 -22.336336 13.854320 0.000000 54.000000 15.004628 27.000000
5.000578 -21.910619 14.937591 0.000000 57.000000 14.939591 26.000000
5.535588 -22.224658 14.631800 0.000000 58.000000 14.898093 24.000000
0.996780 -19.267553 16.105543 0.000000 31.000000 14.545012 2.000000
4.017704 -22.720476 12.838551 0.000000 61.000000 15.104608 25.000000
1.755378 -20.109562 14.820844 0.000000 25.000000 14.474888 0.000000
5.369770 -22.623910 14.306652 0.000000 61.000000 15.160132 24.000000
0.724030 -20.895958 12.781075 0.000000 50.000000 14.660769 9.000000
4.830941 -21.375647 14.736384 0.000000 44.000000 14.462434 0.000000
1.032612 -21.063526 11.956267 0.000000 24.000000 14.360816 0.000000
4.757083 -21.305602 14.907766 0.000000 57.000000 14.498255 0.000000
4.376699 -21.279497 15.747354 0.000000 69.000000 14.948537 19.000000
4.131860 -21.568571 13.806170 0.000000 51.000000 14.484991 0.000000
5.187886 -22.412803 13.875412 0.000000 60.000000 14.867548 24.000000
4.083520 -21.464052 13.987623 0.000000 52.000000 14.487017 0.000000
1.525920 -21.348190 12.213815 0.000000 43.000000 14.538499 13.000000
3.117248 -20.296308 15.740840 0.000000 58.000000 14.543360 30.000000
5.574021 -21.980905 14.550056 0.000000 52.000000 14.645223 24.000000
3.906440 -20.617919 15.231432 0.000000 36.000000 14.338423 0.000000
3.845729 -20.561941 15.413691 0.000000 44.000000 14.386105 0.000000
3.782911 -20.516316 15.593652 0.000000 42.000000 14.442335 0.000000
3.039887 -19.839879 16.630317 0.000000 43.000000 14.546154 0.000000
4.185403 -22.726740 12.586921 0.000000 55.000000 14.950001 25.000000
-0.708518 -20.507636 13.481312 0.000000 50.000000 15.106724 3.000000
1.384311 -20.195754 15.777858 0.000000 29.000000 15.064982 11.000000
0.089874 -20.163433 13.328119 0.000000 46.000000 14.480180 0.000000
0.532683 -19.624989 14.802732 0.000000 39.000000 14.474639 0.000000
0.700041 -19.677953 14.793497 0.000000 38.000000 14.458579 0.000000
3.378875 -23.014711 11.216862 0.000000 43.000000 14.910289 22.000000
5.283907 -22.469320 13.712133 0.000000 58.000000 14.816010 24.000000
1.152466 -21.643157 11.165293 0.000000 31.000000 14.488022 0.000000
2.588877 -21.048140 14.732237 0.000000 59.000000 14.948915 18.000000
4.354923 -21.522850 16.283047 0.000000 5.000000 15.380572 19.000000
2.232685 -22.122440 11.872265 0.000000 35.000000 14.813460 6.000000
0.998553 -19.513855 16.692347 0.000000 17.000000 14.992355 2.000000
1.484354 -20.098841 14.651664 0.000000 51.000000 14.489326 0.000000
1.168695 -20.633920 13.186801 0.000000 38.000000 14.452584 0.000000
1.646710 -20.163234 14.621929 0.000000 43.000000 14.476289 0.000000
5.859127 -22.043140 15.332055 0.000000 78.000000 14.919600 26.000000
3.800349 -22.341255 12.405678 0.000000 60.000000 14.681116 25.000000
2.139832 -20.327803 14.530122 0.000000 42.000000 14.409823 0.000000
2.116634 -21.375196 12.405513 0.000000 30.000000 14.437888 0.000000
3.981580 -20.622972 16.113205 0.000000 55.000000 14.676772 15.000000
1.662959 -20.209593 15.018866 0.000000 39.000000 14.671929 11.000000
2.889164 -22.482911 11.708545 0.000000 60.000000 14.827766 7.000000
3.264847 -23.103649 10.444781 0.000000 46.000000 14.709555 28.000000
2.646255 -21.323596 12.770704 0.000000 31.000000 14.362352 0.000000
2.808959 -22.495953 11.039684 0.000000 24.000000 14.593327 0.000000
2.961568 -20.918827 15.794606 0.000000 52.000000 15.145571 30.000000
3.324745 -21.011065 14.077041 0.000000 39.000000 14.398988 0.000000
1.153628 -20.921184 13.514973 0.000000 48.000000 14.834852 14.000000
-0.234291 -20.178675 13.243991 0.000000 48.000000 14.569444 0.000000
1.686155 -21.419732 12.205324 0.000000 60.000000 14.540907 13.000000
3.570106 -21.271624 13.907501 0.000000 55.000000 14.466682 0.000000
3.135712 -21.787400 12.479564 0.000000 47.000000 14.469198 0.000000
5.121221 -21.575408 15.548473 0.000000 56.000000 14.863770 21.000000
3.258888 -21.891044 12.405968 0.000000 52.000000 14.484881 0.000000
2.863504 -22.183946 11.737427 0.000000 50.000000 14.595157 7.000000
3.391236 -21.970081 12.337480 0.000000 48.000000 14.478680 0.000000
3.977103 -21.547040 13.678831 0.000000 50.000000 14.467647 0.000000
2.217093 -22.195817 11.607493 0.000000 47.000000 14.772901 6.000000
3.259765 -23.170582 10.524636 0.000000 57.000000 14.800544 28.000000
2.629060 -21.080655 14.965649 0.000000 62.000000 15.057950 18.000000
5.052875 -22.686876 12.790442 0.000000 55.000000 14.703098 23.000000
0.875404 -21.681377 11.733926 0.000000 60.000000 14.846957 5.000000
4.866937 -22.176402 13.080258 0.000000 45.000000 14.452565 0.000000
2.854548 -22.568547 11.416941 0.000000 71.000000 14.793136 7.000000
1.042359 -21.225247 13.936955 0.000000 1.000000 15.302459 14.000000
3.273152 -21.837787 12.489095 0.000000 47.000000 14.468827 0.000000
3.164305 -20.607744 15.124955 0.000000 43.000000 14.539752 18.000000
1.799114 -20.919023 13.318041 0.000000 52.000000 14.532299 14.000000
2.762161 -20.924087 15.187758 0.000000 50.000000 14.970541 18.000000
1.520540 -20.372877 15.307719 0.000000 52.000000 14.976655 11.000000
2.474859 -22.221459 11.308211 0.000000 30.000000 14.584513 0.000000
2.826880 -19.827857 16.217958 0.000000 42.000000 14.440476 0.000000
2.267268 -19.911128 16.826566 0.000000 42.000000 14.950336 10.000000
3.263671 -21.730833 12.677700 0.000000 35.000000 14.458442 0.000000
-0.927220 -20.367682 12.270227 0.000000 49.000000 14.568817 4.000000
4.038989 -20.581698 15.267130 0.000000 31.000000 14.277060 0.000000
2.478563 -21.058538 14.378677 0.000000 54.000000 14.851147 18.000000
4.394401 -21.193302 14.676043 0.000000 34.000000 14.432459 0.000000
4.504750 -21.284918 14.548702 0.000000 39.000000 14.420411 0.000000
2.649512 -21.218719 13.538913 0.000000 56.000000 14.585829 0.000000
2.347380 -20.842878 14.617537 0.000000 50.000000 14.810767 18.000000
0.685974 -21.049803 12.838476 0.000000 55.000000 14.827448 9.000000
2.301113 -22.213758 11.079512 0.000000 59.000000 14.544014 6.000000
5.785291 -21.859410 15.678720 0.000000 52.000000 14.930658 26.000000
3.901104 -23.033239 10.418459 0.000000 51.000000 14.421964 0.000000
4.636034 -21.122578 15.997962 0.000000 52.000000 14.829358 19.000000
1.972860 -22.281777 11.212200 0.000000 54.000000 14.767814 6.000000
2.621719 -22.204662 11.486033 0.000000 51.000000 14.592692 0.000000
-0.681532 -20.341781 13.787815 0.000000 37.000000 15.082111 3.000000
2.365874 -22.317358 10.679607 0.000000 44.000000 14.446484 0.000000
4.502256 -22.719988 12.689597 0.000000 43.000000 14.877990 23.000000
2.096245 -22.173378 10.756638 0.000000 41.000000 14.448051 0.000000
1.955389 -22.115826 10.795203 0.000000 49.000000 14.463142 0.000000
1.835685 -22.003561 10.849180 0.000000 49.000000 14.430971 0.000000
2.138918 -19.833799 15.909719 0.000000 50.000000 14.554646 0.000000
1.591334 -21.786929 10.962645 0.000000 48.000000 14.377251 0.000000
1.439764 -21.764088 11.001074 0.000000 46.000000 14.425337 0.000000
3.451647 -22.974792 10.880597 0.000000 56.000000 14.714460 22.000000
4.632435 -23.001802 12.535892 0.000000 70.000000 15.009468 23.000000
3.894609 -21.308754 14.533500 0.000000 75.000000 14.642709 0.000000
0.891061 -21.517526 11.218186 0.000000 54.000000 14.492469 0.000000
0.399124 -21.083196 11.519533 0.000000 40.000000 14.415592 0.000000
0.253726 -21.063498 11.578394 0.000000 37.000000 14.472567 0.000000
0.122856 -20.978128 11.656795 0.000000 45.000000 14.476946 0.000000
2.559565 -21.343330 13.560703 0.000000 42.000000 14.730944 8.000000
2.287113 -22.212741 11.273501 0.000000 46.000000 14.627072 6.000000
-0.241112 -20.646087 11.925837 0.000000 36.000000 14.429811 0.000000
4.919628 -21.470260 15.696566 0.000000 79.000000 14.903979 21.000000
4.330408 -21.352978 15.498413 0.000000 60.000000 14.925006 19.000000
3.670277 -22.714451 11.992672 0.000000 50.000000 14.873044 25.000000
4.337253 -21.331855 15.834162 0.000000 52.000000 15.041753 19.000000
-0.009414 -19.905895 13.819932 0.000000 28.000000 14.496645 0.000000
3.736327 -22.818532 10.841844 0.000000 51.000000 14.469139 0.000000
3.809790 -21.906471 12.435015 0.000000 36.000000 14.321702 0.000000
1.351428 -20.150603 14.526199 0.000000 45.000000 14.527356 0.000000
3.783659 -22.692517 12.078574 0.000000 60.000000 14.850805 25.000000
2.238235 -22.305354 11.313280 0.000000 58.000000 14.738409 6.000000
3.270259 -21.688690 12.753294 0.000000 43.000000 14.451347 0.000000
3.150878 -21.599876 12.849582 0.000000 50.000000 14.456183 0.000000
2.547039 -21.999834 11.652355 0.000000 43.000000 14.512601 0.000000
0.581270 -21.198525 11.816544 0.000000 52.000000 14.572226 0.000000
2.241138 -22.126019 11.645886 0.000000 51.000000 14.721252 6.000000
2.834927 -21.228928 13.188820 0.000000 46.000000 14.388346 0.000000
3.018923 -19.975988 16.347458 0.000000 45.000000 14.553169 0.000000
3.925096 -22.705095 12.146202 0.000000 50.000000 14.840754 25.000000
2.024356 -21.430958 12.188426 0.000000 43.000000 14.428049 0.000000
1.893812 -21.391845 12.280964 0.000000 43.000000 14.477252 0.000000
1.448588 -19.781842 15.924077 0.000000 44.000000 14.752203 11.000000
3.541337 -22.467068 11.751025 0.000000 35.000000 14.609012 22.000000
2.083647 -19.916070 16.395098 0.000000 30.000000 14.841193 10.000000
0.989900 -21.533015 11.784052 0.000000 48.000000 14.702688 5.000000
0.141201 -20.562731 13.468330 0.000000 36.000000 14.857966 1.000000
1.367232 -20.864113 12.881257 0.000000 41.000000 14.455069 0.000000
1.811077 -20.350607 14.274422 0.000000 49.000000 14.437062 0.000000
5.311148 -22.053618 15.370346 0.000000 21.000000 15.131186 26.000000
1.693082 -20.275513 14.401030 0.000000 36.000000 14.465412 0.000000
1.160853 -20.644737 13.143449 0.000000 39.000000 14.446735 0.000000
3.850225 -22.056158 12.781514 0.000000 43.000000 14.576002 25.000000
1.046983 -20.573575 13.264623 0.000000 35.000000 14.474790 0.000000
1.468981 -20.087283 14.677312 0.000000 58.000000 14.495252 0.000000
0.937505 -20.500601 13.391128 0.000000 63.000000 14.501985 0.000000
1.304053 -19.213090 16.538441 0.000000 59.000000 14.570587 2.000000
3.095340 -22.922592 11.043513 0.000000 70.000000 14.858373 22.000000
2.143904 -22.145729 11.080333 0.000000 35.000000 14.540420 6.000000
6.074434 -21.896608 15.051621 0.000000 34.000000 14.607607 0.000000
4.575603 -21.100628 15.540844 0.000000 53.000000 14.644921 19.000000
5.176747 -22.337972 13.322384 0.000000 35.000000 14.582377 0.000000
5.426487 -22.674257 13.847367 0.000000 57.000000 14.996031 24.000000
0.861539 -19.359604 15.644922 0.000000 44.000000 14.481218 0.000000
3.331662 -23.027271 11.568468 0.000000 21.000000 15.080483 22.000000
0.256546 -19.715399 14.444019 0.000000 54.000000 14.499135 0.000000
0.632287 -20.477121 13.730248 0.000000 44.000000 14.724657 1.000000
3.002720 -22.732032 10.592942 0.000000 29.000000 14.544823 28.000000
1.214092 -21.674325 11.127394 0.000000 45.000000 14.477911 0.000000
1.361167 -21.707078 11.173421 0.000000 38.000000 14.474208 0.000000
3.382675 -22.876229 11.537999 0.000000 56.000000 14.922739 22.000000
1.148878 -20.860233 13.378420 0.000000 44.000000 14.729154 14.000000
1.737055 -20.991985 13.286193 0.000000 38.000000 14.602276 14.000000
4.546875 -22.438461 13.369480 0.000000 54.000000 14.901732 25.000000
2.274236 -21.443039 13.223460 0.000000 44.000000 14.775211 8.000000
2.088300 -22.415620 11.659463 0.000000 11.000000 15.024196 6.000000
3.091217 -22.980057 10.485532 0.000000 42.000000 14.680808 28.000000
2.078225 -20.295354 14.860036 0.000000 46.000000 14.537970 0.000000
3.232695 -22.086473 11.795159 0.000000 31.000000 14.410122 0.000000
4.068954 -22.560017 11.593754 0.000000 45.000000 14.443418 0.000000
3.630825 -23.015240 10.425830 0.000000 45.000000 14.502010 0.000000
1.801074 -20.241619 15.245846 0.000000 54.000000 14.744489 11.000000
4.361906 -23.059768 11.923676 0.000000 68.000000 14.901160 23.000000
4.974087 -22.195009 13.742958 0.000000 56.000000 14.702089 27.000000
5.373498 -22.294628 13.247575 0.000000 58.000000 14.447980 0.000000
2.905044 -21.203342 14.314190 0.000000 49.000000 14.801842 17.000000
2.726210 -21.039532 14.329378 0.000000 47.000000 14.730388 17.000000
4.614838 -21.335822 14.559818 0.000000 53.000000 14.430463 0.000000
4.017724 -21.699539 13.302767 0.000000 50.000000 14.429491 0.000000
4.527809 -21.240294 14.715879 0.000000 49.000000 14.442954 0.000000
3.927890 -21.621200 13.446307 0.000000 57.000000 14.452386 0.000000
4.439875 -21.146146 14.874826 0.000000 54.000000 14.458098 0.000000
4.339750 -23.051898 12.025810 0.000000 51.000000 14.943727 23.000000
2.790881 -22.653316 11.576056 0.000000 63.000000 14.951564 7.000000
3.710772 -21.284961 13.926885 0.000000 42.000000 14.437856 0.000000
3.620909 -21.216837 14.076321 0.000000 51.000000 14.471817 0.000000
2.712368 -20.751934 14.471508 0.000000 43.000000 14.549570 18.000000
3.615345 -20.950935 14.302450 0.000000 36.000000 14.340811 0.000000
1.236799 -20.898087 13.643173 0.000000 46.000000 14.839197 14.000000
2.529423 -19.697162 16.603795 0.000000 44.000000 14.588772 10.000000
3.960627 -20.533351 15.907691 0.000000 78.000000 14.524197 0.000000
-0.617677 -20.112486 13.897964 0.000000 57.000000 14.911086 29.000000
2.856536 -20.897021 14.368824 0.000000 43.000000 14.581312 17.000000
0.136547 -20.756188 12.871710 0.000000 47.000000 14.779973 12.000000
2.805427 -19.734774 16.520197 0.000000 52.000000 14.492281 0.000000
0.457334 -21.734890 12.771005 0.000000 1.000000 15.458090 9.000000
-0.367116 -19.775682 13.800348 0.000000 42.000000 14.500525 0.000000
-0.612932 -20.299329 12.479837 0.000000 37.000000 14.489146 0.000000
4.712078 -21.417208 15.571670 0.000000 51.000000 14.878967 21.000000
4.270572 -22.855367 11.843509 0.000000 52.000000 14.726560 23.000000
-0.049142 -19.864586 13.860085 0.000000 44.000000 14.491611 0.000000
1.376814 -21.336968 12.554862 0.000000 55.000000 14.719037 13.000000
4.369260 -22.628840 12.182207 0.000000 46.000000 14.639226 23.000000
5.504275 -22.471537 14.502032 0.000000 45.000000 15.064892 24.000000
0.013563 -20.445366 12.583719 0.000000 48.000000 14.441282 0.000000
0.798852 -20.884579 13.303700 0.000000 33.000000 14.838794 14.000000
1.112561 -20.769483 12.650593 0.000000 31.000000 14.367790 0.000000
2.966771 -20.886907 15.088278 0.000000 50.000000 14.828615 18.000000
1.636236 -21.454903 12.229964 0.000000 53.000000 14.597784 13.000000
2.033709 -20.564897 13.960030 0.000000 43.000000 14.414246 0.000000
2.180320 -20.660973 13.934556 0.000000 42.000000 14.435150 0.000000
2.329928 -20.743844 13.912488 0.000000 54.000000 14.445239 0.000000
3.230268 -22.736712 11.262531 0.000000 50.000000 14.744258 22.000000
2.463722 -22.210479 10.999074 0.000000 24.000000 14.452905 0.000000
1.377631 -21.427151 12.732485 0.000000 42.000000 14.867585 13.000000
2.086572 -19.952295 16.359481 0.000000 46.000000 14.856339 10.000000
3.258451 -21.171389 14.156570 0.000000 37.000000 14.589823 17.000000
2.470497 -21.329609 12.520419 0.000000 33.000000 14.325346 0.000000
0.221868 -20.451156 13.062117 0.000000 53.000000 14.570230 12.000000
2.599538 -21.443058 12.479436 0.000000 33.000000 14.360633 0.000000
3.154103 -20.960772 13.830476 0.000000 36.000000 14.314075 0.000000
2.701415 -21.629410 12.413289 0.000000 46.000000 14.456660 0.000000
0.514720 -21.061033 12.676467 0.000000 43.000000 14.829335 9.000000
4.085658 -22.824607 13.355929 0.000000 63.000000 15.380647 25.000000
3.385643 -21.291924 13.694042 0.000000 50.000000 14.459769 0.000000
2.931095 -22.021952 11.838644 0.000000 36.000000 14.476201 0.000000
5.642163 -22.558879 14.459205 0.000000 42.000000 15.074300 24.000000
3.121475 -21.868050 12.299466 0.000000 58.000000 14.468878 0.000000
4.704099 -22.380260 13.524993 0.000000 53.000000 14.862212 27.000000
3.256242 -21.958022 12.253418 0.000000 62.000000 14.480265 0.000000
3.948259 -22.817199 12.501250 0.000000 66.000000 15.072615 25.000000
3.413835 -21.987344 12.224302 0.000000 38.000000 14.439410 0.000000
3.961796 -21.623083 13.511182 0.000000 54.000000 14.468871 0.000000
3.117858 -21.222428 13.467893 0.000000 26.000000 14.400093 0.000000
4.137524 -21.632283 13.485531 0.000000 41.000000 14.406199 0.000000
1.683504 -20.005813 15.966862 0.000000 57.000000 14.879101 11.000000
4.555970 -22.366811 12.833866 0.000000 53.000000 14.619450 25.000000
-0.210127 -19.687979 14.287898 0.000000 58.000000 14.571560 29.000000
3.180970 -21.367118 14.513163 0.000000 61.000000 14.927485 17.000000
0.666471 -20.891559 12.885273 0.000000 56.000000 14.719204 9.000000
1.474793 -21.075308 13.515083 0.000000 54.000000 14.855749 14.000000
1.472078 -21.101008 13.285493 0.000000 48.000000 14.784775 14.000000
0.898973 -20.128728 14.244198 0.000000 28.000000 14.548268 0.000000
4.258294 -20.481791 16.223871 0.000000 51.000000 14.507895 0.000000
3.887086 -21.183835 14.471192 0.000000 62.000000 14.514082 0.000000
4.287408 -22.552626 13.219017 0.000000 62.000000 15.025609 25.000000
4.373591 -21.206574 15.138419 0.000000 53.000000 14.639431 20.000000
4.796669 -20.829978 15.804887 0.000000 44.000000 14.447985 0.000000
4.244255 -21.472954 14.163818 0.000000 53.000000 14.511556 0.000000
5.019174 -22.124463 13.392053 0.000000 36.000000 14.483806 0.000000
5.132531 -22.194594 13.283511 0.000000 39.000000 14.460208 0.000000
5.320557 -22.465010 13.987553 0.000000 52.000000 14.912206 24.000000
3.793254 -23.134186 10.205811 0.000000 51.000000 14.457513 0.000000
-0.515976 -20.283188 14.110653 0.000000 46.000000 15.107675 29.000000
