-20.173607 -3.670079 -29.170934 0.000000 38.000000 14.523577 0.000000
-22.454201 -5.907196 -29.875238 0.000000 75.000000 15.286659 28.000000
-22.266249 -3.921997 -25.398630 0.000000 66.000000 15.075947 12.000000
-22.510634 -6.159024 -29.363056 0.000000 62.000000 15.061076 28.000000
-19.995607 -4.166011 -31.930519 0.000000 55.000000 14.820255 20.000000
-21.756152 -5.189225 -28.972233 0.000000 54.000000 14.894295 18.000000
-19.662794 -3.736335 -30.970735 0.000000 36.000000 14.544903 0.000000
-19.348055 -2.910656 -30.076465 0.000000 43.000000 14.518560 0.000000
-21.502287 -4.498148 -26.909186 0.000000 36.000000 14.541235 0.000000
-22.780837 -6.112828 -29.407589 0.000000 48.000000 15.312627 28.000000
-21.593949 -4.717561 -27.063522 0.000000 36.000000 14.533152 0.000000
-21.637424 -4.822483 -27.146375 0.000000 32.000000 14.531335 0.000000
-21.684623 -4.921324 -27.239380 0.000000 31.000000 14.538435 0.000000
-21.636023 -4.514667 -26.613796 0.000000 47.000000 14.562316 0.000000
-21.655365 -4.608765 -26.705224 0.000000 42.000000 14.549486 0.000000
-21.674734 -4.697960 -26.803361 0.000000 40.000000 14.541102 0.000000
-21.308758 -4.664975 -29.212899 0.000000 51.000000 14.889136 10.000000
-21.718556 -4.854716 -27.033158 0.000000 48.000000 14.548905 0.000000
-22.205855 -6.328114 -31.475417 0.000000 69.000000 15.270055 29.000000
-22.019195 -5.978494 -28.619370 0.000000 29.000000 14.578346 0.000000
-20.536513 -4.559521 -31.865580 0.000000 59.000000 15.016873 20.000000
-21.985132 -6.139454 -28.782871 0.000000 26.000000 14.504882 0.000000
-21.623073 -5.658023 -28.923898 0.000000 32.000000 14.518307 0.000000
-19.836062 -3.415284 -30.775311 0.000000 68.000000 14.808781 9.000000
-21.066859 -5.735385 -30.212577 0.000000 24.000000 14.365798 0.000000
-21.007206 -5.720155 -30.314871 0.000000 24.000000 14.353128 0.000000
-20.680931 -3.910009 -30.714277 0.000000 46.000000 15.192241 8.000000
-21.000907 -5.571691 -30.670329 0.000000 33.000000 14.521329 0.000000
-20.941873 -5.542609 -30.770987 0.000000 38.000000 14.516348 0.000000
-21.218622 -6.355050 -31.700271 0.000000 25.000000 14.528807 0.000000
-21.293053 -3.890081 -27.002202 0.000000 50.000000 14.733354 11.000000
-21.927743 -6.178090 -31.393306 0.000000 57.000000 15.110448 19.000000
-21.019794 -6.257443 -31.980282 0.000000 25.000000 14.496643 0.000000
-22.990442 -6.155921 -28.894407 0.000000 65.000000 15.323271 16.000000
-21.831224 -5.408960 -30.353551 0.000000 44.000000 15.188907 22.000000
-20.837548 -4.194903 -30.490025 0.000000 39.000000 15.102236 8.000000
-22.614764 -6.181111 -28.701412 0.000000 42.000000 14.961231 16.000000
-20.375915 -5.254280 -31.463852 0.000000 30.000000 14.403730 0.000000
-22.262400 -6.031537 -31.117937 0.000000 46.000000 15.385995 22.000000
-21.684351 -4.918534 -28.271577 0.000000 45.000000 14.805632 18.000000
-18.780966 -1.661974 -28.989807 0.000000 41.000000 14.474791 0.000000
-21.928394 -6.131645 -31.451947 0.000000 58.000000 15.151613 19.000000
-18.972021 -1.900908 -29.072209 0.000000 49.000000 14.516412 0.000000
-19.044361 -2.030560 -29.089753 0.000000 44.000000 14.507105 0.000000
-19.114752 -2.161473 -29.108075 0.000000 38.000000 14.495757 0.000000
-19.208592 -2.280000 -29.158738 0.000000 35.000000 14.518181 0.000000
-19.132558 -2.100370 -28.209791 0.000000 37.000000 14.312122 0.000000
-22.571287 -6.479632 -30.487849 0.000000 61.000000 15.222683 24.000000
-20.770445 -4.433249 -31.715115 0.000000 57.000000 15.233414 20.000000
-19.693481 -3.162382 -29.411912 0.000000 33.000000 14.483389 0.000000
-22.236528 -5.858700 -30.469643 0.000000 74.000000 15.293498 22.000000
-21.335005 -5.616106 -30.258611 0.000000 37.000000 14.656292 22.000000
-21.296126 -3.940304 -27.061422 0.000000 56.000000 14.723430 11.000000
-19.671967 -2.769397 -28.699468 0.000000 38.000000 14.498895 0.000000
-22.253739 -6.440938 -30.572796 0.000000 48.000000 15.013551 24.000000
-19.981279 -3.625869 -29.663142 0.000000 38.000000 14.521871 0.000000
-20.757005 -4.723437 -31.106008 0.000000 52.000000 14.906256 26.000000
-21.491734 -4.037133 -27.209562 0.000000 45.000000 14.863750 11.000000
-20.164225 -3.972144 -29.853366 0.000000 32.000000 14.525791 0.000000
-20.093098 -3.554465 -29.201904 0.000000 39.000000 14.531170 0.000000
-20.137683 -3.669679 -29.268339 0.000000 44.000000 14.520345 0.000000
-20.652281 -5.308945 -32.457051 0.000000 52.000000 14.849072 30.000000
-22.888277 -6.328344 -27.988348 0.000000 62.000000 14.913893 13.000000
-20.275485 -3.981563 -29.507968 0.000000 35.000000 14.520038 0.000000
-21.813975 -4.632069 -26.811919 0.000000 40.000000 14.690168 15.000000
-20.356203 -4.181732 -29.672567 0.000000 34.000000 14.516488 0.000000
-20.994511 -6.200483 -31.937617 0.000000 24.000000 14.496890 0.000000
-21.001417 -6.263671 -32.041727 0.000000 24.000000 14.494445 0.000000
-20.627368 -5.825009 -31.885063 0.000000 27.000000 14.398144 0.000000
-20.596238 -5.875411 -31.970226 0.000000 27.000000 14.367630 0.000000
-21.026654 -4.382328 -30.603946 0.000000 61.000000 15.178754 8.000000
-21.338586 -4.335037 -27.098064 0.000000 46.000000 14.549527 0.000000
-21.206544 -4.345912 -27.142640 0.000000 29.000000 14.450121 0.000000
-21.095731 -4.335155 -27.225964 0.000000 27.000000 14.389459 0.000000
-21.096467 -4.231651 -27.488952 0.000000 24.000000 14.514707 0.000000
-20.954407 -4.131932 -27.776517 0.000000 30.000000 14.530751 0.000000
-20.440228 -3.133284 -27.240517 0.000000 36.000000 14.533360 0.000000
-20.344004 -3.087690 -27.347340 0.000000 34.000000 14.509499 0.000000
-20.869972 -5.679524 -33.122441 0.000000 50.000000 14.989628 21.000000
-20.438522 -3.829199 -28.484680 0.000000 33.000000 14.469777 0.000000
-22.991543 -6.777438 -28.040600 0.000000 54.000000 14.762426 13.000000
-21.872921 -5.164557 -28.952269 0.000000 54.000000 14.995491 18.000000
-23.109509 -6.114943 -27.977360 0.000000 47.000000 15.204187 13.000000
-22.406667 -6.053422 -30.355017 0.000000 48.000000 15.292063 24.000000
-19.930667 -2.774844 -27.957710 0.000000 37.000000 14.510371 0.000000
-20.157319 -3.533680 -29.016683 0.000000 42.000000 14.545913 0.000000
-22.124432 -4.274879 -26.766707 0.000000 63.000000 15.121609 15.000000
-19.399984 -2.353503 -28.581503 0.000000 36.000000 14.481133 0.000000
-22.065844 -5.976458 -30.956711 0.000000 62.000000 15.218593 22.000000
-21.830303 -5.665390 -31.587866 0.000000 73.000000 15.365098 19.000000
-19.116018 -2.126985 -28.841686 0.000000 33.000000 14.447111 0.000000
-20.699468 -4.587998 -31.640647 0.000000 39.000000 15.072740 20.000000
-21.393500 -4.655604 -28.308576 0.000000 61.000000 14.728676 18.000000
-18.991406 -1.936641 -29.085175 0.000000 49.000000 14.515503 0.000000
-22.532607 -7.074905 -30.901852 0.000000 43.000000 14.971233 24.000000
-22.223208 -5.159679 -25.967502 0.000000 28.000000 14.507644 0.000000
-21.318714 -5.662852 -31.971541 0.000000 65.000000 15.058867 27.000000
-22.282056 -5.301822 -26.234729 0.000000 31.000000 14.545063 0.000000
-22.857105 -6.368421 -28.531829 0.000000 45.000000 15.007081 16.000000
-21.567576 -3.798062 -27.110675 0.000000 52.000000 15.030006 11.000000
-22.298595 -5.459128 -26.449900 0.000000 34.000000 14.527121 0.000000
-22.296739 -5.539002 -26.554129 0.000000 31.000000 14.508569 0.000000
-22.135056 -5.079174 -28.194382 0.000000 54.000000 15.055491 17.000000
-22.225385 -6.008077 -27.835021 0.000000 27.000000 14.523858 0.000000
-22.207258 -6.028727 -27.977110 0.000000 31.000000 14.534700 0.000000
-21.916322 -5.262043 -27.213696 0.000000 36.000000 14.528532 0.000000
-22.829465 -6.178506 -27.975395 0.000000 67.000000 14.946231 13.000000
-22.084680 -6.096216 -28.502961 0.000000 34.000000 14.535649 0.000000
-22.035492 -6.115832 -28.614997 0.000000 28.000000 14.514641 0.000000
-23.151518 -6.983066 -28.855589 0.000000 38.000000 14.986374 16.000000
-21.853321 -5.328702 -30.401044 0.000000 60.000000 15.262833 22.000000
-21.162160 -5.880459 -30.336917 0.000000 25.000000 14.393761 0.000000
-20.909119 -4.979083 -29.569876 0.000000 29.000000 14.490837 0.000000
-21.049547 -5.765236 -30.584112 0.000000 24.000000 14.431329 0.000000
-21.020849 -5.677209 -30.742694 0.000000 28.000000 14.497786 0.000000
-21.139781 -3.726756 -26.747171 0.000000 42.000000 14.635705 11.000000
-21.220095 -5.495431 -31.315185 0.000000 51.000000 14.903517 19.000000
-20.586127 -5.322156 -31.324559 0.000000 29.000000 14.497536 0.000000
-20.305590 -4.355044 -32.207694 0.000000 55.000000 15.033977 20.000000
-20.377417 -5.236021 -31.435331 0.000000 32.000000 14.407618 0.000000
-19.661688 -3.895989 -31.143506 0.000000 36.000000 14.500729 0.000000
-22.197031 -5.853506 -29.736248 0.000000 63.000000 15.076062 28.000000
-19.839531 -2.678511 -27.757879 0.000000 31.000000 14.439466 0.000000
-19.901102 -2.817040 -27.767399 0.000000 31.000000 14.414655 0.000000
-20.285619 -3.508981 -30.618477 0.000000 64.000000 15.074027 9.000000
-21.674919 -5.113819 -28.960944 0.000000 53.000000 14.868316 18.000000
-21.424102 -4.649678 -28.429892 0.000000 59.000000 14.787498 18.000000
-20.165065 -2.943596 -27.074254 0.000000 29.000000 14.376232 0.000000
-20.456228 -3.644840 -28.164631 0.000000 35.000000 14.502789 0.000000
-22.361261 -4.497064 -26.771905 0.000000 57.000000 15.188922 15.000000
-22.698577 -6.487867 -29.931409 0.000000 57.000000 15.175954 28.000000
-22.283352 -6.096576 -31.051858 0.000000 58.000000 15.349854 22.000000
-20.065998 -3.250964 -30.678712 0.000000 71.000000 15.056947 9.000000
-21.167318 -6.025024 -31.783132 0.000000 37.000000 14.690882 19.000000
-19.754165 -3.443528 -30.749892 0.000000 52.000000 14.721634 9.000000
-22.257615 -5.351003 -27.894780 0.000000 64.000000 14.926203 14.000000
-20.888339 -4.445080 -28.628895 0.000000 31.000000 14.525610 0.000000
-20.933808 -4.561077 -28.692250 0.000000 28.000000 14.514264 0.000000
-22.596187 -4.227035 -26.680781 0.000000 41.000000 15.500595 15.000000
-20.930450 -4.315461 -28.183814 0.000000 38.000000 14.515702 0.000000
-19.971460 -3.948681 -31.236492 0.000000 62.000000 14.741816 9.000000
-21.003184 -4.503367 -28.371202 0.000000 29.000000 14.518423 0.000000
-21.031132 -6.037145 -31.948659 0.000000 47.000000 14.618654 27.000000
-21.333570 -5.553409 -29.545282 0.000000 27.000000 14.505888 0.000000
-21.410374 -4.277950 -28.083027 0.000000 46.000000 14.891668 18.000000
-21.207323 -5.537809 -29.789932 0.000000 30.000000 14.477183 0.000000
-21.197223 -5.594131 -29.889320 0.000000 29.000000 14.463785 0.000000
-20.155457 -4.282032 -31.964471 0.000000 73.000000 14.892198 20.000000
-21.105133 -5.812732 -30.255774 0.000000 26.000000 14.364798 0.000000
-21.097647 -5.837798 -30.379080 0.000000 26.000000 14.376827 0.000000
-20.236288 -4.118203 -31.468500 0.000000 52.000000 14.918757 9.000000
-20.539128 -5.846074 -32.211504 0.000000 26.000000 14.400539 0.000000
-20.439283 -5.704278 -32.553254 0.000000 37.000000 14.487221 0.000000
-19.398200 -3.294113 -30.619024 0.000000 43.000000 14.487279 0.000000
-19.655007 -4.048567 -31.401666 0.000000 29.000000 14.478011 0.000000
-19.441928 -3.399907 -30.695844 0.000000 38.000000 14.483630 0.000000
-21.840335 -6.080916 -29.601402 0.000000 57.000000 14.632874 28.000000
-22.287438 -6.304296 -31.308181 0.000000 70.000000 15.304893 29.000000
-19.652185 -3.893684 -31.121289 0.000000 33.000000 14.488723 0.000000
-19.688022 -3.988000 -31.208640 0.000000 39.000000 14.487828 0.000000
-19.717830 -4.081645 -31.292360 0.000000 36.000000 14.481578 0.000000
-22.978758 -6.432490 -29.094958 0.000000 43.000000 15.213553 16.000000
-20.989034 -4.823223 -31.434836 0.000000 58.000000 15.120428 26.000000
-20.866152 -5.880845 -32.110774 0.000000 49.000000 14.615290 27.000000
-20.121473 -5.213537 -32.432867 0.000000 31.000000 14.473586 0.000000
-20.146244 -5.299835 -32.524930 0.000000 35.000000 14.469522 0.000000
-20.234674 -5.328970 -32.685961 0.000000 39.000000 14.565236 0.000000
-19.941520 -4.812279 -32.146379 0.000000 38.000000 14.477483 0.000000
-22.387076 -5.197390 -25.731835 0.000000 34.000000 14.556394 0.000000
-22.359500 -5.222644 -25.884202 0.000000 36.000000 14.559844 0.000000
-21.776664 -5.682090 -30.514644 0.000000 57.000000 15.036852 22.000000
-22.273542 -5.283016 -26.141939 0.000000 30.000000 14.524740 0.000000
-22.415491 -5.482590 -28.637632 0.000000 60.000000 15.170619 17.000000
-21.166273 -4.212677 -28.033961 0.000000 66.000000 14.720987 18.000000
-22.024579 -5.300580 -27.042671 0.000000 27.000000 14.549295 0.000000
-21.948575 -5.317544 -27.143820 0.000000 29.000000 14.505636 0.000000
-21.302637 -5.710587 -31.597599 0.000000 46.000000 14.923521 19.000000
-20.721425 -5.567342 -31.880537 0.000000 34.000000 14.613405 27.000000
-21.114608 -4.358410 -27.208449 0.000000 29.000000 14.387157 0.000000
-20.547376 -4.859524 -32.125264 0.000000 47.000000 14.927413 30.000000
-20.972654 -4.177798 -27.714712 0.000000 31.000000 14.504105 0.000000
-20.917070 -4.118720 -27.866472 0.000000 43.000000 14.531524 0.000000
-20.921227 -4.749542 -29.245254 0.000000 28.000000 14.543071 0.000000
-20.765542 -5.300940 -31.602781 0.000000 37.000000 14.723413 27.000000
-22.020342 -4.234045 -26.744585 0.000000 62.000000 15.055668 15.000000
-20.413761 -3.832951 -28.501471 0.000000 33.000000 14.452366 0.000000
-20.956645 -4.854151 -31.439582 0.000000 56.000000 15.078909 26.000000
-20.970561 -5.068929 -30.238760 0.000000 36.000000 14.662538 8.000000
-22.427917 -6.320880 -30.471933 0.000000 53.000000 15.191978 24.000000
-19.626122 -3.612731 -30.754490 0.000000 40.000000 14.528040 0.000000
-23.138785 -6.570314 -29.182629 0.000000 48.000000 15.287484 16.000000
-21.467964 -4.501824 -26.941251 0.000000 34.000000 14.520202 0.000000
-21.778364 -6.245626 -31.618917 0.000000 44.000000 15.012741 19.000000
-21.555905 -4.711191 -27.112146 0.000000 38.000000 14.518954 0.000000
-21.591805 -4.815764 -27.194896 0.000000 30.000000 14.511284 0.000000
-22.476723 -6.614278 -30.411166 0.000000 39.000000 15.053752 24.000000
-21.663570 -5.008425 -27.382188 0.000000 30.000000 14.510594 0.000000
-21.544877 -4.483563 -26.692665 0.000000 38.000000 14.527320 0.000000
-21.170863 -4.518255 -29.130067 0.000000 59.000000 14.838928 10.000000
-20.519460 -4.300876 -31.734369 0.000000 71.000000 15.111763 20.000000
-21.595919 -4.725935 -27.011039 0.000000 42.000000 14.516594 0.000000
-21.046920 -4.570746 -30.167413 0.000000 54.000000 14.978794 8.000000
-21.610777 -4.876625 -27.222238 0.000000 31.000000 14.499931 0.000000
-21.621323 -4.940513 -27.345418 0.000000 29.000000 14.504906 0.000000
-21.401983 -3.887520 -27.111904 0.000000 60.000000 14.849564 11.000000
-21.661805 -5.031586 -27.633591 0.000000 29.000000 14.561213 0.000000
-21.868747 -5.932764 -28.653542 0.000000 30.000000 14.492766 0.000000
-21.149741 -4.323042 -28.156348 0.000000 45.000000 14.678685 18.000000
-21.472584 -5.472024 -29.064386 0.000000 32.000000 14.537218 0.000000
-22.555837 -5.257851 -27.910815 0.000000 56.000000 15.218498 14.000000
-21.273264 -5.521408 -29.622249 0.000000 31.000000 14.495398 0.000000
-21.233403 -5.513954 -29.743401 0.000000 33.000000 14.499035 0.000000
-21.176582 -5.518718 -29.835417 0.000000 31.000000 14.474973 0.000000
-21.938639 -6.283050 -31.551683 0.000000 67.000000 15.102180 29.000000
-21.012269 -5.559659 -29.965775 0.000000 24.000000 14.355491 0.000000
-20.965892 -5.538503 -30.081369 0.000000 25.000000 14.360054 0.000000
-20.904256 -5.526533 -30.177097 0.000000 24.000000 14.342325 0.000000
-21.821963 -3.787907 -27.133061 0.000000 52.000000 15.243467 11.000000
-20.897012 -5.380545 -30.524786 0.000000 31.000000 14.506413 0.000000
-21.826613 -5.926693 -30.919682 0.000000 66.000000 15.046353 22.000000
-22.435987 -4.086410 -25.309210 0.000000 51.000000 15.097354 12.000000
-20.245615 -5.091029 -31.281065 0.000000 27.000000 14.342900 0.000000
-22.203657 -5.510753 -28.761360 0.000000 52.000000 15.018700 17.000000
-23.252172 -6.590904 -29.096959 0.000000 41.000000 15.344179 16.000000
-21.794208 -4.662213 -28.593335 0.000000 60.000000 15.116752 18.000000
-20.527499 -5.286104 -32.404433 0.000000 64.000000 14.748941 30.000000
-22.172592 -4.564781 -27.261358 0.000000 61.000000 15.127861 15.000000
-20.518789 -4.373526 -31.534082 0.000000 47.000000 15.019686 20.000000
-19.082870 -2.121862 -28.919944 0.000000 37.000000 14.443751 0.000000
-22.413921 -6.349534 -30.536067 0.000000 62.000000 15.181620 24.000000
-20.771934 -5.649441 -32.943416 0.000000 56.000000 14.882167 21.000000
-22.639654 -5.602656 -27.727157 0.000000 48.000000 15.048163 14.000000
-21.518369 -5.432108 -30.241655 0.000000 50.000000 14.898792 22.000000
-19.378070 -2.785413 -29.045577 0.000000 32.000000 14.345740 0.000000
-21.295913 -5.544443 -30.214768 0.000000 29.000000 14.653350 22.000000
-22.310055 -4.031495 -25.549792 0.000000 59.000000 15.089472 12.000000
-19.422911 -2.193949 -28.444604 0.000000 46.000000 14.551829 0.000000
-19.575718 -2.991619 -29.223226 0.000000 27.000000 14.435132 0.000000
-22.296371 -5.862082 -30.826040 0.000000 66.000000 15.430985 22.000000
-20.350892 -3.999430 -31.305839 0.000000 69.000000 15.033228 9.000000
-19.994235 -3.669187 -29.641190 0.000000 39.000000 14.502687 0.000000
-20.382087 -3.891970 -31.244247 0.000000 69.000000 15.101243 9.000000
-20.106111 -3.897832 -29.779173 0.000000 31.000000 14.501376 0.000000
-20.875578 -4.136277 -30.656036 0.000000 39.000000 15.207453 8.000000
-20.056305 -3.578933 -29.227817 0.000000 38.000000 14.495156 0.000000
-20.097852 -3.683780 -29.306532 0.000000 42.000000 14.490783 0.000000
-20.143832 -3.782579 -29.396051 0.000000 36.000000 14.496040 0.000000
-20.186396 -3.880343 -29.485106 0.000000 30.000000 14.499032 0.000000
-20.230065 -3.975475 -29.576111 0.000000 38.000000 14.504853 0.000000
-20.262636 -4.072832 -29.660058 0.000000 31.000000 14.498814 0.000000
-21.930886 -4.921851 -28.152360 0.000000 54.000000 14.968971 17.000000
-21.928993 -5.163150 -27.137013 0.000000 39.000000 14.573231 15.000000
-20.509784 -4.809886 -30.541583 0.000000 31.000000 14.516911 0.000000
-20.509004 -4.892949 -30.623173 0.000000 28.000000 14.491628 0.000000
-20.845367 -6.089174 -32.056878 0.000000 26.000000 14.470328 0.000000
-20.554592 -5.305595 -31.351031 0.000000 32.000000 14.488407 0.000000
-20.838745 -6.151926 -32.153279 0.000000 23.000000 14.455389 0.000000
-20.532330 -5.369470 -31.433289 0.000000 29.000000 14.456781 0.000000
-20.514423 -5.425042 -31.523365 0.000000 27.000000 14.435196 0.000000
-20.492309 -5.479551 -31.612349 0.000000 32.000000 14.410571 0.000000
-20.452397 -5.544484 -31.684579 0.000000 29.000000 14.361758 0.000000
-20.468063 -5.595835 -32.441826 0.000000 35.000000 14.541020 0.000000
-20.402605 -5.648079 -32.500227 0.000000 34.000000 14.475326 0.000000
-22.164529 -5.386544 -28.625129 0.000000 78.000000 15.020829 17.000000
-21.046010 -4.046662 -26.867561 0.000000 29.000000 14.416288 0.000000
-20.933058 -4.030446 -26.945049 0.000000 24.000000 14.355426 0.000000
-21.287536 -5.509782 -31.876449 0.000000 67.000000 15.093780 27.000000
-20.788277 -4.995195 -32.172702 0.000000 53.000000 15.056417 30.000000
-20.819819 -5.655113 -32.152905 0.000000 37.000000 14.713468 27.000000
-21.098685 -4.699287 -30.455732 0.000000 58.000000 15.023499 8.000000
-22.439191 -5.786168 -29.577086 0.000000 50.000000 15.264491 28.000000
-22.038769 -5.851295 -30.931465 0.000000 73.000000 15.259410 22.000000
-19.445101 -2.846678 -29.051872 0.000000 29.000000 14.366926 0.000000
-20.907224 -5.291061 -31.915778 0.000000 74.000000 14.922036 27.000000
-19.189631 -2.455763 -29.521457 0.000000 48.000000 14.499891 0.000000
-19.118987 -2.359539 -29.622839 0.000000 42.000000 14.522795 0.000000
-18.935970 -2.185600 -29.774221 0.000000 48.000000 14.512037 0.000000
-22.092153 -4.643165 -25.344864 0.000000 40.000000 14.527186 0.000000
-22.122244 -4.728190 -25.460138 0.000000 41.000000 14.534028 0.000000
-21.539987 -3.821598 -26.954875 0.000000 51.000000 14.955012 11.000000
-22.184604 -5.060311 -25.899579 0.000000 30.000000 14.514123 0.000000
-22.176148 -5.150139 -25.981050 0.000000 27.000000 14.478991 0.000000
-22.190423 -5.211852 -26.115747 0.000000 28.000000 14.491090 0.000000
-22.211798 -5.257940 -26.271286 0.000000 31.000000 14.522792 0.000000
-22.208473 -5.323215 -26.386146 0.000000 34.000000 14.513840 0.000000
-22.208848 -5.379413 -26.519276 0.000000 32.000000 14.517525 0.000000
-22.197305 -5.439837 -26.630277 0.000000 35.000000 14.503717 0.000000
-22.178514 -5.501296 -26.740626 0.000000 34.000000 14.483414 0.000000
-20.050987 -4.232029 -31.764864 0.000000 55.000000 14.785279 20.000000
-20.592426 -4.294049 -31.641175 0.000000 53.000000 15.149483 20.000000
-21.644773 -4.952940 -27.318593 0.000000 31.000000 14.509792 0.000000
-21.593887 -4.959002 -27.440218 0.000000 32.000000 14.497359 0.000000
-22.401991 -6.368383 -31.403659 0.000000 39.000000 15.385255 29.000000
-21.792064 -5.776931 -28.580761 0.000000 28.000000 14.498792 0.000000
-21.488621 -4.958451 -27.683779 0.000000 32.000000 14.476766 0.000000
-21.526654 -4.784522 -29.241718 0.000000 33.000000 15.003934 10.000000
-21.631614 -5.684589 -29.140445 0.000000 31.000000 14.566263 0.000000
-21.553815 -4.690189 -28.293876 0.000000 45.000000 14.833240 18.000000
-20.859372 -3.910467 -30.747563 0.000000 55.000000 15.342334 8.000000
-21.014053 -4.432193 -30.626977 0.000000 49.000000 15.147252 8.000000
-21.148624 -5.531235 -29.859591 0.000000 29.000000 14.452104 0.000000
-21.121138 -4.694462 -29.315008 0.000000 48.000000 14.750158 10.000000
-21.029907 -5.538190 -29.897875 0.000000 24.000000 14.363820 0.000000
-20.948409 -5.504649 -29.988123 0.000000 22.000000 14.340762 0.000000
-20.939192 -5.398446 -30.173290 0.000000 23.000000 14.439540 0.000000
-20.101932 -3.565341 -30.870399 0.000000 56.000000 14.961986 9.000000
-21.202299 -5.777943 -31.101080 0.000000 71.000000 14.678865 19.000000
-22.187111 -5.412042 -27.497064 0.000000 26.000000 14.734175 14.000000
-20.407764 -4.866831 -31.016862 0.000000 31.000000 14.526966 0.000000
-22.120109 -4.843977 -28.078296 0.000000 64.000000 15.143056 17.000000
-19.936564 -2.769280 -27.292020 0.000000 29.000000 14.346644 0.000000
-20.027527 -2.883482 -27.368176 0.000000 30.000000 14.375727 0.000000
-20.124660 -2.989592 -27.459477 0.000000 36.000000 14.418063 0.000000
-22.746166 -6.521737 -28.930076 0.000000 48.000000 14.937209 16.000000
-22.040397 -4.009535 -25.433671 0.000000 67.000000 14.857394 12.000000
-20.379923 -3.317798 -27.709012 0.000000 38.000000 14.504655 0.000000
-20.457996 -3.423505 -27.795254 0.000000 44.000000 14.530766 0.000000
-22.310097 -5.236887 -27.525821 0.000000 66.000000 14.935617 14.000000
-21.641480 -4.897644 -28.869442 0.000000 67.000000 14.937060 18.000000
-20.568158 -3.347718 -27.266018 0.000000 42.000000 14.523644 0.000000
-20.581141 -5.061519 -32.113138 0.000000 72.000000 14.840032 30.000000
-20.831031 -4.232764 -28.270142 0.000000 32.000000 14.504429 0.000000
-20.660463 -3.560875 -27.432950 0.000000 52.000000 14.522758 0.000000
-21.434607 -4.539153 -28.352988 0.000000 74.000000 14.836815 18.000000
-20.706083 -3.663038 -27.524508 0.000000 51.000000 14.526404 0.000000
-20.928722 -4.442152 -28.440194 0.000000 30.000000 14.510698 0.000000
-20.752823 -3.759036 -27.621426 0.000000 52.000000 14.535711 0.000000
-20.971628 -4.544587 -28.525541 0.000000 32.000000 14.510438 0.000000
-21.964018 -5.310997 -30.274239 0.000000 71.000000 15.327855 22.000000
-21.797870 -5.501495 -31.462339 0.000000 49.000000 15.397127 19.000000
-20.856546 -4.051971 -27.888550 0.000000 38.000000 14.525831 0.000000
-20.889862 -4.141595 -27.986542 0.000000 46.000000 14.528255 0.000000
-20.567213 -5.056460 -32.101092 0.000000 54.000000 14.828646 30.000000
-20.610408 -4.571743 -31.579367 0.000000 44.000000 14.995137 20.000000
-20.320741 -3.789952 -31.043607 0.000000 72.000000 15.056924 9.000000
-20.981996 -4.491582 -28.370955 0.000000 31.000000 14.508006 0.000000
-21.128116 -4.774845 -31.310270 0.000000 58.000000 15.225447 26.000000
-21.320799 -5.494092 -29.617412 0.000000 27.000000 14.546941 0.000000
-21.002068 -5.305041 -29.732895 0.000000 27.000000 14.427422 0.000000
-20.953460 -5.376112 -29.796431 0.000000 24.000000 14.366085 0.000000
-21.048608 -4.647633 -29.279568 0.000000 37.000000 14.709157 10.000000
-23.145777 -6.528346 -27.271492 0.000000 62.000000 14.823838 13.000000
-20.312859 -4.421097 -31.679224 0.000000 61.000000 14.867302 20.000000
-21.040347 -4.554394 -30.019470 0.000000 22.000000 14.944457 8.000000
-20.936003 -5.431152 -30.464792 0.000000 28.000000 14.494107 0.000000
-22.049499 -6.252219 -31.990997 0.000000 77.000000 15.320373 23.000000
-20.887331 -5.453684 -30.690395 0.000000 33.000000 14.501158 0.000000
-22.663616 -6.461030 -29.432788 0.000000 42.000000 15.034499 28.000000
-20.922100 -3.948859 -30.704058 0.000000 59.000000 15.359852 8.000000
-22.849066 -5.874287 -27.000189 0.000000 57.000000 14.877905 13.000000
-21.075132 -6.298591 -32.029573 0.000000 25.000000 14.530677 0.000000
-21.040981 -6.290152 -32.137427 0.000000 23.000000 14.535967 0.000000
-21.023281 -6.259330 -32.266099 0.000000 27.000000 14.571998 0.000000
-21.132266 -5.162048 -29.783432 0.000000 30.000000 14.622518 10.000000
-20.761857 -5.515262 -33.208772 0.000000 58.000000 15.016302 21.000000
-20.445384 -5.441427 -31.665824 0.000000 27.000000 14.408029 0.000000
-20.015954 -4.189803 -31.795307 0.000000 36.000000 14.788509 20.000000
-20.126258 -5.166196 -32.361272 0.000000 32.000000 14.484979 0.000000
-18.967269 -2.152064 -29.690245 0.000000 48.000000 14.533715 0.000000
-19.297356 -2.936810 -30.202585 0.000000 36.000000 14.496383 0.000000
-19.341686 -3.041190 -30.287458 0.000000 41.000000 14.496063 0.000000
-20.871224 -3.964954 -30.569951 0.000000 49.000000 15.276035 8.000000
-19.661347 -3.902773 -31.170164 0.000000 37.000000 14.503594 0.000000
-20.011371 -4.475997 -32.148005 0.000000 45.000000 14.718330 20.000000
-20.529380 -5.249515 -32.484767 0.000000 30.000000 14.791250 30.000000
-22.792539 -6.495841 -30.521926 0.000000 54.000000 15.398330 24.000000
-19.729465 -4.117661 -31.325127 0.000000 28.000000 14.479455 0.000000
-19.500214 -3.437880 -30.637129 0.000000 44.000000 14.493931 0.000000
-21.262578 -5.435155 -31.284183 0.000000 47.000000 14.962432 19.000000
-21.754412 -4.100992 -26.612439 0.000000 60.000000 14.883519 15.000000
-19.630776 -3.803645 -31.008907 0.000000 37.000000 14.492282 0.000000
-21.157549 -5.274997 -31.519557 0.000000 55.000000 15.027691 27.000000
-19.683748 -3.973991 -31.201227 0.000000 42.000000 14.490227 0.000000
-19.706177 -4.055615 -31.295458 0.000000 32.000000 14.487432 0.000000
-21.745148 -5.741505 -30.848418 0.000000 69.000000 15.065114 22.000000
-22.499471 -6.293126 -29.880194 0.000000 62.000000 15.111667 28.000000
-21.591378 -5.713335 -31.011396 0.000000 57.000000 15.000416 19.000000
-20.151892 -5.107325 -32.547525 0.000000 31.000000 14.585696 0.000000
-23.167266 -6.507684 -27.325585 0.000000 50.000000 14.866207 13.000000
-19.857279 -4.658766 -32.230200 0.000000 40.000000 14.516566 0.000000
-22.219998 -4.964697 -25.728422 0.000000 37.000000 14.550737 0.000000
-22.705920 -6.941182 -29.606604 0.000000 43.000000 14.848831 28.000000
-22.548148 -6.532591 -31.504546 0.000000 70.000000 15.437060 29.000000
-21.902149 -6.302016 -32.107543 0.000000 67.000000 15.205940 23.000000
-21.500674 -4.892729 -27.500034 0.000000 28.000000 14.475155 0.000000
-21.423285 -4.870705 -27.615265 0.000000 29.000000 14.455462 0.000000
-20.943036 -3.988641 -26.862608 0.000000 29.000000 14.365108 0.000000
-21.242775 -4.731946 -28.041869 0.000000 27.000000 14.498242 0.000000
-20.872586 -3.944773 -26.994556 0.000000 27.000000 14.367248 0.000000
-21.184014 -4.677142 -28.187145 0.000000 29.000000 14.519117 0.000000
-20.855865 -3.855233 -27.212582 0.000000 32.000000 14.459364 0.000000
-21.104590 -4.635679 -28.295100 0.000000 27.000000 14.506624 0.000000
-20.591891 -5.050126 -32.078596 0.000000 56.000000 14.845941 30.000000
-20.062508 -4.188767 -32.130960 0.000000 58.000000 14.912524 20.000000
-20.747793 -3.724742 -27.516730 0.000000 50.000000 14.523606 0.000000
-20.695941 -4.743196 -31.188182 0.000000 54.000000 14.868041 26.000000
-22.832729 -6.677210 -30.607349 0.000000 56.000000 15.352525 24.000000
-20.880657 -4.483180 -28.644458 0.000000 32.000000 14.502563 0.000000
-20.808795 -4.425176 -28.761679 0.000000 29.000000 14.507562 0.000000
-22.343939 -5.899173 -27.551781 0.000000 34.000000 14.604980 14.000000
-20.458677 -3.490255 -28.008422 0.000000 36.000000 14.549509 0.000000
-20.181319 -3.702008 -31.247483 0.000000 59.000000 15.047033 9.000000
-20.287092 -3.378255 -28.202343 0.000000 33.000000 14.524728 0.000000
-20.937793 -4.662253 -30.670957 0.000000 43.000000 14.971476 8.000000
-20.168580 -3.897892 -29.579588 0.000000 31.000000 14.499564 0.000000
-21.720852 -4.449373 -28.409435 0.000000 59.000000 15.128149 18.000000
-20.012212 -3.739993 -29.772220 0.000000 45.000000 14.511783 0.000000
-22.036237 -6.340322 -31.264390 0.000000 65.000000 15.074223 29.000000
-19.621479 -2.817594 -28.955526 0.000000 35.000000 14.498235 0.000000
-19.999943 -4.214521 -32.012187 0.000000 41.000000 14.818060 20.000000
-19.494901 -2.762222 -28.986070 0.000000 33.000000 14.435987 0.000000
-19.661523 -3.570318 -29.901302 0.000000 28.000000 14.359721 0.000000
-21.708939 -3.873938 -27.182721 0.000000 67.000000 15.119150 11.000000
-19.572074 -3.491250 -29.976601 0.000000 27.000000 14.351531 0.000000
-22.516758 -6.263507 -29.970204 0.000000 72.000000 15.164875 24.000000
-19.517907 -3.239846 -30.267238 0.000000 45.000000 14.521615 0.000000
-19.240950 -2.382308 -29.403418 0.000000 38.000000 14.550653 0.000000
-22.333515 -5.602262 -28.377723 0.000000 62.000000 14.972729 17.000000
-19.117903 -2.318962 -29.428588 0.000000 46.000000 14.494212 0.000000
-19.330612 -3.077776 -30.387245 0.000000 42.000000 14.492849 0.000000
-21.241037 -5.397925 -31.826220 0.000000 34.000000 15.105412 27.000000
-22.070155 -4.286177 -25.897961 0.000000 50.000000 14.848497 12.000000
-22.669358 -6.728713 -31.377355 0.000000 47.000000 15.392745 29.000000
-21.578866 -4.615409 -26.907685 0.000000 35.000000 14.537205 0.000000
-20.998043 -5.234788 -31.554665 0.000000 44.000000 14.932119 27.000000
-20.647639 -5.667623 -33.173314 0.000000 36.000000 14.832634 21.000000
-21.664134 -4.889924 -27.208028 0.000000 29.000000 14.531349 0.000000
-22.045083 -6.385064 -31.371392 0.000000 66.000000 15.084208 29.000000
-19.939382 -3.588396 -30.945160 0.000000 62.000000 14.839419 9.000000
-21.527029 -4.535218 -26.882799 0.000000 36.000000 14.533709 0.000000
-21.529764 -4.598825 -26.998319 0.000000 39.000000 14.530659 0.000000
-21.536373 -4.653827 -27.125491 0.000000 43.000000 14.538420 0.000000
-21.702679 -5.764832 -31.049873 0.000000 54.000000 15.070436 19.000000
-21.515461 -4.776502 -27.340084 0.000000 31.000000 14.509619 0.000000
-21.696505 -3.179495 -26.603168 0.000000 64.000000 15.341883 11.000000
-22.114112 -6.338308 -31.657362 0.000000 61.000000 15.238426 29.000000
-21.020987 -4.260288 -30.477584 0.000000 46.000000 15.208817 8.000000
-21.716229 -5.738792 -28.484132 0.000000 26.000000 14.434625 0.000000
-21.462495 -4.785530 -28.637878 0.000000 46.000000 14.796865 18.000000
-21.779793 -5.704840 -28.720123 0.000000 27.000000 14.564585 0.000000
-21.672899 -5.880164 -29.446905 0.000000 39.000000 14.570450 0.000000
-23.334895 -6.481385 -29.289819 0.000000 13.000000 15.519808 16.000000
-22.420274 -4.411683 -26.780672 0.000000 46.000000 15.285019 15.000000
-20.490060 -4.791125 -30.574460 0.000000 30.000000 14.520026 0.000000
-21.420885 -3.404127 -26.438974 0.000000 65.000000 14.957078 11.000000
-20.352123 -4.708821 -30.747010 0.000000 32.000000 14.500143 0.000000
-20.189574 -4.038542 -31.368999 0.000000 63.000000 14.899822 9.000000
-20.480774 -5.543899 -31.676544 0.000000 24.000000 14.382555 0.000000
-21.296450 -6.259399 -31.737138 0.000000 32.000000 14.652740 19.000000
-21.945630 -4.231210 -25.900722 0.000000 40.000000 14.780502 12.000000
-22.435796 -4.229516 -26.577126 0.000000 55.000000 15.345100 15.000000
-20.965115 -4.625326 -29.205174 0.000000 40.000000 14.635927 10.000000
-19.662613 -4.103047 -31.553379 0.000000 34.000000 14.493173 0.000000
-22.320430 -3.992700 -25.312179 0.000000 43.000000 15.057844 12.000000
-20.371346 -3.913609 -30.984961 0.000000 57.000000 15.014021 9.000000
-20.810201 -4.020773 -30.668495 0.000000 52.000000 15.222240 8.000000
-19.198159 -2.216753 -28.488620 0.000000 30.000000 14.372061 0.000000
-19.296987 -2.324567 -28.576794 0.000000 34.000000 14.414003 0.000000
-23.278144 -6.988543 -27.942931 0.000000 36.000000 14.848879 13.000000
-20.304861 -4.376065 -32.095215 0.000000 68.000000 14.992865 20.000000
-19.551406 -2.657367 -28.814602 0.000000 38.000000 14.494376 0.000000
-19.610586 -2.779489 -28.871196 0.000000 38.000000 14.488813 0.000000
-21.810127 -5.620710 -31.436363 0.000000 47.000000 15.334614 19.000000
-22.552004 -6.112614 -29.330092 0.000000 65.000000 15.110975 28.000000
-20.127713 -3.794415 -29.533225 0.000000 35.000000 14.512058 0.000000
-20.177445 -3.899595 -29.619896 0.000000 30.000000 14.516053 0.000000
-21.896034 -5.904682 -30.771452 0.000000 43.000000 15.075431 22.000000
-20.272511 -4.103983 -29.795878 0.000000 29.000000 14.524514 0.000000
-20.122906 -3.624565 -29.215880 0.000000 37.000000 14.519901 0.000000
-20.154719 -3.719611 -29.306180 0.000000 44.000000 14.516168 0.000000
-20.186988 -3.808538 -29.404245 0.000000 34.000000 14.518162 0.000000
-20.215074 -3.896360 -29.501174 0.000000 30.000000 14.517148 0.000000
-20.246353 -3.978604 -29.604075 0.000000 32.000000 14.523276 0.000000
-20.270256 -4.063569 -29.701572 0.000000 31.000000 14.520656 0.000000
-20.301544 -4.136996 -29.812973 0.000000 34.000000 14.533829 0.000000
-20.576258 -4.939620 -30.639211 0.000000 28.000000 14.523527 0.000000
-20.403913 -4.682846 -30.641249 0.000000 36.000000 14.528333 0.000000
-20.391449 -4.750854 -30.730609 0.000000 31.000000 14.504048 0.000000
-20.125640 -3.902158 -30.643578 0.000000 45.000000 14.737170 9.000000
-21.599538 -4.551118 -28.445639 0.000000 43.000000 14.985138 18.000000
-20.342554 -4.937356 -30.998179 0.000000 26.000000 14.431560 0.000000
-20.618403 -5.855088 -31.909670 0.000000 23.000000 14.380818 0.000000
-20.604926 -5.905316 -32.009408 0.000000 24.000000 14.368180 0.000000
-20.819520 -4.246072 -30.699066 0.000000 38.000000 15.113619 8.000000
-20.666799 -5.875229 -32.198105 0.000000 22.000000 14.482489 0.000000
-23.061071 -7.031644 -28.903516 0.000000 39.000000 14.900145 16.000000
-20.135691 -5.215407 -32.400664 0.000000 32.000000 14.475558 0.000000
-20.105261 -5.214722 -32.499383 0.000000 32.000000 14.477187 0.000000
-21.551268 -4.114969 -25.259324 0.000000 23.000000 14.365892 0.000000
-21.712468 -3.350852 -26.479322 0.000000 63.000000 15.228431 11.000000
-20.797002 -4.553854 -30.600230 0.000000 51.000000 14.901012 8.000000
-21.389843 -4.776946 -29.362677 0.000000 48.000000 14.930562 10.000000
-21.088633 -3.745279 -26.634566 0.000000 32.000000 14.555876 0.000000
-21.261153 -5.787719 -31.828346 0.000000 44.000000 14.907581 27.000000
-22.668447 -5.914427 -29.202393 0.000000 45.000000 15.279585 28.000000
-20.698959 -3.487347 -27.295326 0.000000 41.000000 14.558327 0.000000
-23.312932 -6.261389 -27.748761 0.000000 62.000000 15.226387 13.000000
-20.063629 -4.404632 -31.558559 0.000000 48.000000 14.647262 20.000000
-21.248623 -5.562359 -31.556730 0.000000 38.000000 14.951595 27.000000
-20.332484 -3.275999 -27.716035 0.000000 33.000000 14.491760 0.000000
-22.256140 -5.837878 -30.743964 0.000000 55.000000 15.391191 22.000000
-19.675319 -2.683435 -28.599397 0.000000 48.000000 14.523055 0.000000
-21.626042 -5.216850 -29.035013 0.000000 49.000000 14.791902 18.000000
-20.355693 -4.380812 -31.882791 0.000000 65.000000 14.975923 20.000000
-19.311255 -2.506474 -28.741466 0.000000 30.000000 14.367719 0.000000
-22.384710 -5.650086 -28.584225 0.000000 71.000000 15.040295 17.000000
-21.452285 -6.091314 -31.510465 0.000000 39.000000 14.810597 19.000000
-20.871165 -5.314804 -31.635648 0.000000 71.000000 14.808172 27.000000
-21.979474 -4.961371 -28.890878 0.000000 53.000000 15.176072 18.000000
-21.932980 -4.508919 -26.828212 0.000000 55.000000 14.856638 15.000000
-22.004024 -5.415421 -27.216326 0.000000 25.000000 14.514541 0.000000
-21.597350 -4.825293 -28.803978 0.000000 61.000000 14.924925 18.000000
-21.978247 -5.433434 -27.525128 0.000000 29.000000 14.563698 0.000000
-21.661573 -4.647050 -26.745910 0.000000 43.000000 14.543844 0.000000
-21.625537 -4.654844 -26.882849 0.000000 45.000000 14.546200 0.000000
-21.329416 -4.483912 -29.024874 0.000000 56.000000 14.956688 10.000000
-22.854467 -5.879791 -27.148624 0.000000 54.000000 14.917404 13.000000
-21.410934 -4.628460 -28.451708 0.000000 49.000000 14.794324 18.000000
-21.439813 -4.673769 -27.387289 0.000000 38.000000 14.518172 0.000000
-20.626426 -4.503747 -31.853589 0.000000 54.000000 15.115891 20.000000
-21.151275 -4.547900 -28.185137 0.000000 36.000000 14.563663 0.000000
-21.406367 -5.370696 -29.168654 0.000000 27.000000 14.567191 0.000000
-21.069883 -4.542271 -28.269284 0.000000 29.000000 14.523768 0.000000
-22.619817 -6.041400 -29.199574 0.000000 60.000000 15.170397 28.000000
-20.949224 -4.476916 -28.505030 0.000000 34.000000 14.524570 0.000000
-21.234749 -4.134437 -27.123282 0.000000 36.000000 14.583841 11.000000
-20.830298 -4.395081 -28.741323 0.000000 33.000000 14.535953 0.000000
-20.925748 -5.253899 -29.697977 0.000000 25.000000 14.385917 0.000000
-20.623415 -5.287252 -33.083435 0.000000 43.000000 14.999415 21.000000
-20.554090 -4.759788 -30.553610 0.000000 33.000000 14.582761 0.000000
-20.204736 -3.927760 -29.657556 0.000000 32.000000 14.531948 0.000000
-21.368631 -5.669547 -30.381787 0.000000 43.000000 14.685347 22.000000
-21.632688 -3.912224 -27.242794 0.000000 57.000000 15.052989 11.000000
-20.056296 -3.798183 -29.836596 0.000000 39.000000 14.531389 0.000000
-20.309747 -4.577994 -30.794893 0.000000 28.000000 14.550756 0.000000
-19.969858 -3.740229 -29.908192 0.000000 36.000000 14.513027 0.000000
-20.903058 -4.844807 -31.041924 0.000000 64.000000 14.939042 26.000000
-19.750067 -3.646608 -29.995039 0.000000 32.000000 14.412260 0.000000
-22.312027 -4.397542 -25.391828 0.000000 36.000000 14.849048 12.000000
-22.682482 -6.378435 -30.054352 0.000000 70.000000 15.255015 24.000000
-21.111432 -5.530666 -32.011707 0.000000 50.000000 14.977221 27.000000
-19.735667 -4.065338 -31.301527 0.000000 28.000000 14.507078 0.000000
-22.157537 -4.282854 -26.278603 0.000000 51.000000 15.017797 15.000000
-20.018469 -2.868391 -27.281882 0.000000 32.000000 14.354601 0.000000
-20.122769 -2.962532 -27.398022 0.000000 30.000000 14.415612 0.000000
-20.212646 -3.066583 -27.497951 0.000000 36.000000 14.455539 0.000000
-21.611449 -3.507798 -26.853316 0.000000 51.000000 15.158197 11.000000
-20.365590 -3.280415 -27.674892 0.000000 35.000000 14.505036 0.000000
-21.786486 -4.534129 -28.535693 0.000000 68.000000 15.166207 18.000000
-20.504462 -3.491440 -27.851845 0.000000 39.000000 14.544901 0.000000
-20.284006 -3.016973 -26.919762 0.000000 30.000000 14.390583 0.000000
-21.688339 -6.028009 -31.736287 0.000000 48.000000 15.091123 19.000000
-20.466716 -3.167244 -27.222603 0.000000 40.000000 14.531114 0.000000
-21.326120 -4.741190 -28.651900 0.000000 47.000000 14.716512 18.000000
-20.551205 -3.377354 -27.395007 0.000000 37.000000 14.527103 0.000000
-21.081936 -4.901294 -30.408514 0.000000 64.000000 14.886940 8.000000
-22.033383 -6.023687 -29.822774 0.000000 43.000000 14.874743 28.000000
-20.624663 -3.577239 -27.572084 0.000000 38.000000 14.521155 0.000000
-21.820163 -6.352233 -30.951312 0.000000 40.000000 14.815358 22.000000
-20.907806 -4.455877 -28.576742 0.000000 28.000000 14.521705 0.000000
-22.287031 -5.328733 -28.548040 0.000000 61.000000 15.130091 17.000000
-20.846097 -4.265752 -28.381011 0.000000 34.000000 14.526816 0.000000
-19.953287 -3.849463 -31.239756 0.000000 41.000000 14.782781 9.000000
-20.879738 -4.406485 -28.599609 0.000000 33.000000 14.532458 0.000000
-20.890116 -4.475672 -28.707383 0.000000 36.000000 14.530416 0.000000
-20.890117 -4.548740 -28.803871 0.000000 32.000000 14.515088 0.000000
-21.606991 -5.430441 -28.867861 0.000000 35.000000 14.616250 18.000000
-20.404193 -4.252958 -30.710647 0.000000 58.000000 14.782840 8.000000
-22.199719 -5.284531 -28.333136 0.000000 55.000000 15.029674 17.000000
-23.218568 -6.816462 -28.993307 0.000000 30.000000 15.166740 16.000000
-21.147857 -5.526866 -29.855317 0.000000 25.000000 14.452796 0.000000
-21.259483 -3.393146 -26.496624 0.000000 49.000000 14.849733 11.000000
-20.876742 -4.797413 -29.212221 0.000000 27.000000 14.472893 0.000000
-21.114807 -5.679400 -30.026647 0.000000 24.000000 14.386788 0.000000
-23.272364 -6.793157 -28.035205 0.000000 52.000000 14.975504 13.000000
-20.819870 -4.937159 -29.370826 0.000000 27.000000 14.391713 0.000000
-22.863585 -6.458455 -28.041200 0.000000 52.000000 14.836337 13.000000
-21.453257 -4.282726 -26.937366 0.000000 52.000000 14.628007 11.000000
-21.091810 -5.837752 -30.348241 0.000000 23.000000 14.364271 0.000000
-21.190483 -5.767239 -30.600613 0.000000 21.000000 14.546451 0.000000
-20.763587 -5.095750 -30.506664 0.000000 37.000000 14.552357 0.000000
-20.797877 -5.987029 -32.095098 0.000000 25.000000 14.498615 0.000000
-20.394213 -5.168122 -31.248291 0.000000 27.000000 14.410123 0.000000
-20.699246 -6.031091 -32.135452 0.000000 24.000000 14.406416 0.000000
-20.342298 -5.159812 -31.340839 0.000000 28.000000 14.397285 0.000000
-20.027613 -4.844132 -32.175112 0.000000 38.000000 14.535768 0.000000
-19.938190 -4.829189 -32.225414 0.000000 37.000000 14.485896 0.000000
-22.269847 -5.944507 -29.750009 0.000000 64.000000 15.087415 28.000000
-19.333034 -3.046657 -30.471172 0.000000 35.000000 14.533505 0.000000
-19.666068 -4.028919 -31.409485 0.000000 28.000000 14.499618 0.000000
-19.693097 -4.125328 -31.496678 0.000000 27.000000 14.490534 0.000000
-20.917486 -4.708442 -31.077552 0.000000 68.000000 15.034673 26.000000
-21.982462 -6.164366 -31.435660 0.000000 67.000000 15.172379 29.000000
-19.617276 -4.033453 -31.620310 0.000000 37.000000 14.512665 0.000000
-19.621832 -4.105739 -31.711262 0.000000 37.000000 14.499960 0.000000
-21.601733 -4.115267 -25.262544 0.000000 28.000000 14.406652 0.000000
-22.207311 -5.735589 -28.006098 0.000000 49.000000 14.703415 14.000000
-21.210299 -4.567726 -29.254137 0.000000 58.000000 14.875012 10.000000
-21.473434 -4.063587 -25.759591 0.000000 27.000000 14.461171 0.000000
-21.750074 -4.833705 -26.931197 0.000000 38.000000 14.559237 0.000000
-21.858892 -4.024622 -26.461291 0.000000 59.000000 14.969593 15.000000
-22.033507 -5.359421 -27.442426 0.000000 40.000000 14.627001 14.000000
-21.623607 -4.814885 -27.181356 0.000000 28.000000 14.533546 0.000000
-21.563085 -4.794649 -27.309315 0.000000 27.000000 14.529551 0.000000
-22.638949 -6.229759 -29.786192 0.000000 62.000000 15.233116 28.000000
-22.173610 -5.943217 -29.811416 0.000000 64.000000 15.027481 28.000000
-22.008493 -6.376435 -31.243627 0.000000 47.000000 15.026972 29.000000
-21.027802 -3.908333 -26.700617 0.000000 29.000000 14.434892 0.000000
-22.826633 -6.666511 -29.353262 0.000000 21.000000 15.030530 28.000000
-21.929015 -5.934279 -31.469768 0.000000 58.000000 15.265233 19.000000
-21.887678 -5.897100 -30.094600 0.000000 33.000000 14.898614 22.000000
-21.177889 -4.594171 -28.083710 0.000000 31.000000 14.533236 0.000000
-21.759526 -5.561527 -30.500918 0.000000 71.000000 15.086001 22.000000
-21.905200 -6.466264 -31.741266 0.000000 65.000000 15.023691 29.000000
-20.822435 -3.687154 -27.323432 0.000000 35.000000 14.553789 0.000000
-21.036178 -4.505664 -28.322008 0.000000 27.000000 14.530702 0.000000
-20.747267 -3.643809 -27.439095 0.000000 50.000000 14.547699 0.000000
-20.980139 -4.776732 -31.270190 0.000000 62.000000 15.096518 26.000000
-20.663670 -3.603099 -27.542766 0.000000 46.000000 14.530373 0.000000
-20.684793 -5.743824 -33.085479 0.000000 58.000000 14.797623 21.000000
-20.603653 -3.540484 -27.679052 0.000000 36.000000 14.552228 0.000000
-20.811364 -4.359781 -28.654872 0.000000 30.000000 14.518053 0.000000
-20.521861 -3.493151 -27.784076 0.000000 40.000000 14.540327 0.000000
-21.522175 -4.778708 -29.645134 0.000000 69.000000 15.107486 10.000000
-20.344311 -3.398060 -27.970097 0.000000 36.000000 14.499474 0.000000
-20.294970 -3.316774 -28.118190 0.000000 31.000000 14.543121 0.000000
-20.272567 -3.918750 -29.390212 0.000000 32.000000 14.521931 0.000000
-20.200547 -3.839583 -29.496288 0.000000 31.000000 14.535571 0.000000
-20.111621 -3.771975 -29.579607 0.000000 35.000000 14.523561 0.000000
-20.034120 -3.693787 -29.674907 0.000000 39.000000 14.529532 0.000000
-19.944915 -3.624323 -29.753938 0.000000 34.000000 14.517217 0.000000
-19.633220 -2.777609 -28.863171 0.000000 36.000000 14.505763 0.000000
-22.000952 -5.508419 -27.667767 0.000000 56.000000 14.577243 14.000000
-19.531382 -2.711478 -28.927382 0.000000 37.000000 14.477760 0.000000
-19.688728 -3.531604 -29.814451 0.000000 29.000000 14.380254 0.000000
-19.380160 -2.676999 -28.926667 0.000000 32.000000 14.376391 0.000000
-20.829011 -5.820357 -32.677899 0.000000 66.000000 14.765130 21.000000
-22.951442 -6.023258 -28.702055 0.000000 53.000000 15.315695 16.000000
-21.658442 -4.514005 -28.401716 0.000000 41.000000 15.041033 18.000000
-19.551308 -3.198943 -30.184556 0.000000 43.000000 14.549348 0.000000
-19.245769 -2.355292 -29.303461 0.000000 36.000000 14.543591 0.000000
-21.822531 -5.798027 -30.873368 0.000000 40.000000 15.101937 22.000000
-19.153558 -2.277425 -29.366074 0.000000 46.000000 14.529280 0.000000
-19.360086 -3.041923 -30.300777 0.000000 38.000000 14.513710 0.000000
-19.056638 -2.198814 -29.420240 0.000000 45.000000 14.509460 0.000000
-21.515699 -5.605557 -31.567075 0.000000 73.000000 15.142694 19.000000
-22.144505 -5.832685 -30.805648 0.000000 74.000000 15.321242 22.000000
-21.448135 -4.636242 -27.290595 0.000000 35.000000 14.520514 0.000000
-21.259457 -4.896912 -29.773750 0.000000 57.000000 14.866883 10.000000
-21.132896 -3.726703 -26.790605 0.000000 31.000000 14.641452 11.000000
-21.502098 -4.905531 -27.573297 0.000000 25.000000 14.488117 0.000000
-21.522862 -4.980680 -27.682968 0.000000 28.000000 14.491537 0.000000
-22.033972 -6.011318 -30.981133 0.000000 66.000000 15.180390 22.000000
-22.104501 -5.511188 -30.663747 0.000000 44.000000 15.429709 22.000000
-22.371580 -6.118581 -30.833986 0.000000 53.000000 15.351729 22.000000
-21.278652 -4.593873 -27.350576 0.000000 26.000000 14.424610 0.000000
-21.560790 -5.570270 -28.825285 0.000000 26.000000 14.491680 0.000000
-21.541232 -5.619249 -28.930606 0.000000 26.000000 14.476336 0.000000
-21.523139 -5.681729 -29.484165 0.000000 31.000000 14.570189 0.000000
-22.301522 -5.748418 -27.900909 0.000000 51.000000 14.744114 14.000000
-23.187598 -6.738497 -28.854712 0.000000 43.000000 15.149310 16.000000
-21.112874 -5.849420 -30.371606 0.000000 22.000000 14.380608 0.000000
-20.481877 -3.744072 -31.146457 0.000000 35.000000 15.236670 9.000000
-21.030104 -5.812648 -30.602709 0.000000 22.000000 14.394598 0.000000
-21.065298 -5.704862 -30.816550 0.000000 25.000000 14.536917 0.000000
-21.757293 -4.637184 -26.802831 0.000000 45.000000 14.639980 15.000000
-20.792747 -5.362028 -31.474425 0.000000 42.000000 14.678371 27.000000
-23.061555 -6.170797 -28.817499 0.000000 44.000000 15.351779 16.000000
-20.250815 -4.588038 -30.766015 0.000000 29.000000 14.490973 0.000000
-22.470601 -5.310965 -27.333968 0.000000 29.000000 14.972981 14.000000
-19.873533 -4.254998 -31.289962 0.000000 38.000000 14.509333 0.000000
-22.362434 -4.306900 -26.325329 0.000000 45.000000 15.179399 15.000000
-21.946364 -4.397224 -26.735574 0.000000 56.000000 14.904834 15.000000
-19.725215 -4.138075 -31.430291 0.000000 29.000000 14.491941 0.000000
-19.663077 -4.066975 -31.509414 0.000000 31.000000 14.502054 0.000000
-18.958352 -1.891799 -28.566895 0.000000 29.000000 14.380400 0.000000
-19.094136 -1.978045 -28.697878 0.000000 35.000000 14.474590 0.000000
-21.382471 -3.943497 -27.093470 0.000000 62.000000 14.798530 11.000000
-19.136331 -2.280152 -28.688705 0.000000 29.000000 14.339614 0.000000
-22.144814 -4.864942 -29.059270 0.000000 6.000000 15.403838 18.000000
-22.330567 -5.564419 -28.715616 0.000000 59.000000 15.078234 17.000000
