38.035465 37.313173 13.842446 0.000000 59.000000 14.768945 27.000000
37.735027 37.146717 14.992566 0.000000 37.000000 14.236923 0.000000
43.728676 37.677847 16.254911 0.000000 21.000000 14.327883 0.000000
38.870514 37.346262 13.377271 0.000000 81.000000 14.951757 17.000000
37.979416 37.068291 14.366373 0.000000 54.000000 14.366753 0.000000
40.453194 38.107461 17.860562 0.000000 26.000000 14.211033 0.000000
38.284412 37.086562 13.919285 0.000000 59.000000 14.529664 27.000000
39.641037 37.429179 15.504652 0.000000 31.000000 14.337170 0.000000
37.979351 37.020273 14.274473 0.000000 49.000000 14.351290 0.000000
41.992855 36.946173 12.277149 0.000000 81.000000 14.931848 25.000000
40.972466 36.812009 12.387438 0.000000 74.000000 14.769075 25.000000
40.676785 36.708089 13.355502 0.000000 47.000000 14.355482 0.000000
40.067249 36.369125 12.338488 0.000000 34.000000 14.366292 0.000000
40.607014 37.169664 14.882460 0.000000 45.000000 14.294485 0.000000
38.200867 37.356323 15.291993 0.000000 25.000000 14.337560 0.000000
39.312565 36.853381 12.268779 0.000000 54.000000 14.846843 28.000000
38.333439 37.952466 17.170701 0.000000 29.000000 14.289210 0.000000
39.355839 37.259042 15.157960 0.000000 28.000000 14.289245 0.000000
38.096409 37.217763 15.189006 0.000000 26.000000 14.240105 0.000000
43.705509 36.607405 13.527779 0.000000 26.000000 14.204172 0.000000
40.418133 36.972282 14.239342 0.000000 54.000000 14.317360 0.000000
40.227295 37.552682 15.917132 0.000000 50.000000 14.319574 0.000000
40.050392 37.215117 13.151116 0.000000 78.000000 14.901433 30.000000
41.153397 37.635430 16.553406 0.000000 25.000000 14.190546 0.000000
41.498066 37.799628 16.727129 0.000000 37.000000 14.289199 0.000000
37.909119 37.211905 14.782044 0.000000 21.000000 14.367132 0.000000
40.286213 38.016095 17.188037 0.000000 39.000000 14.343722 0.000000
39.867111 38.105834 17.846528 0.000000 33.000000 14.214067 0.000000
39.158081 37.329236 13.020546 0.000000 60.000000 15.051861 30.000000
38.568638 37.157591 14.883353 0.000000 56.000000 14.282779 0.000000
38.817959 36.623172 12.252630 0.000000 59.000000 14.634451 26.000000
43.127068 36.925722 14.126767 0.000000 59.000000 14.310010 0.000000
40.258854 38.098135 17.758990 0.000000 25.000000 14.235303 0.000000
40.278503 36.986026 14.202033 0.000000 45.000000 14.342508 0.000000
41.918583 36.644598 13.182707 0.000000 29.000000 14.351741 0.000000
38.628242 37.201083 15.057432 0.000000 38.000000 14.267194 0.000000
42.659203 36.817978 13.903131 0.000000 38.000000 14.280991 0.000000
41.934212 37.066298 13.755193 0.000000 46.000000 14.563957 4.000000
40.042656 36.619551 13.096636 0.000000 44.000000 14.356097 0.000000
39.528477 36.994810 13.374181 0.000000 64.000000 14.620480 30.000000
43.214130 37.673958 16.479152 0.000000 46.000000 14.251161 0.000000
37.824890 36.665759 13.349343 0.000000 21.000000 14.317467 0.000000
38.417664 36.567060 12.801836 0.000000 34.000000 14.402499 26.000000
39.245338 36.540423 12.866555 0.000000 31.000000 14.356233 0.000000
42.645252 36.550690 12.971360 0.000000 39.000000 14.331800 0.000000
42.161503 37.439866 15.523334 0.000000 52.000000 14.341188 0.000000
43.947506 37.545238 15.906295 0.000000 36.000000 14.316066 0.000000
43.683937 36.934647 14.171626 0.000000 34.000000 14.303836 0.000000
42.965157 38.221223 17.900784 0.000000 39.000000 14.305489 0.000000
38.985832 38.090154 17.738765 0.000000 27.000000 14.234345 0.000000
43.249046 36.962906 14.223673 0.000000 40.000000 14.313600 0.000000
43.103130 36.972488 14.234620 0.000000 40.000000 14.319093 0.000000
41.792110 37.189338 13.874774 0.000000 58.000000 14.641333 4.000000
39.486515 36.608956 12.178984 0.000000 33.000000 14.645000 28.000000
42.814266 36.991752 14.253319 0.000000 40.000000 14.331215 0.000000
42.523994 38.074485 17.325695 0.000000 52.000000 14.354086 0.000000
43.633648 36.956752 14.274860 0.000000 42.000000 14.291107 0.000000
43.085888 36.834717 13.807742 0.000000 39.000000 14.327889 0.000000
43.176662 38.135552 17.317198 0.000000 62.000000 14.414590 19.000000
43.780304 36.933215 14.134194 0.000000 49.000000 14.314675 0.000000
41.538368 37.048129 14.401664 0.000000 48.000000 14.336195 0.000000
43.846149 36.643691 13.565775 0.000000 32.000000 14.226102 0.000000
38.206085 37.698993 16.054357 0.000000 65.000000 14.413205 2.000000
39.852276 37.497470 14.572824 0.000000 74.000000 14.705274 8.000000
38.327904 38.174093 17.907815 0.000000 38.000000 14.258639 0.000000
41.097775 36.727252 13.084864 0.000000 66.000000 14.461759 9.000000
42.657978 37.401276 15.504293 0.000000 43.000000 14.310906 0.000000
41.909458 38.023422 16.697610 0.000000 37.000000 14.510403 23.000000
43.948151 36.659976 13.623192 0.000000 42.000000 14.222795 0.000000
40.355198 36.953174 14.140193 0.000000 34.000000 14.331592 0.000000
38.857071 38.064113 17.279093 0.000000 38.000000 14.359460 0.000000
43.515808 37.835126 16.776104 0.000000 42.000000 14.306808 0.000000
38.457993 37.090197 13.239934 0.000000 71.000000 14.754395 29.000000
41.307915 36.523892 12.717595 0.000000 36.000000 14.389126 25.000000
40.665188 36.790724 13.755719 0.000000 39.000000 14.303242 0.000000
37.730740 37.567523 16.333773 0.000000 36.000000 14.197887 0.000000
41.157463 36.971659 14.228348 0.000000 31.000000 14.320352 0.000000
40.367908 37.175412 14.789291 0.000000 37.000000 14.330268 0.000000
41.920231 36.822490 13.731742 0.000000 44.000000 14.341086 0.000000
40.735378 36.939300 13.150751 0.000000 49.000000 14.640779 10.000000
41.565102 37.605130 15.993155 0.000000 57.000000 14.344397 0.000000
39.094330 37.044743 14.354274 0.000000 43.000000 14.348431 0.000000
43.756107 37.966072 16.709100 0.000000 47.000000 14.452438 20.000000
41.731792 36.978816 14.089668 0.000000 44.000000 14.372293 0.000000
42.306396 36.657644 12.326062 0.000000 46.000000 14.643123 25.000000
41.610367 36.957100 14.071263 0.000000 46.000000 14.357757 0.000000
38.927113 36.932475 14.030506 0.000000 45.000000 14.347751 0.000000
41.489708 36.935341 14.050763 0.000000 45.000000 14.343862 0.000000
40.189571 36.890253 13.067094 0.000000 64.000000 14.621658 10.000000
41.128380 36.910252 13.953287 0.000000 39.000000 14.351894 0.000000
37.797157 36.327868 12.292472 0.000000 43.000000 14.342275 0.000000
41.006283 36.910972 13.910278 0.000000 43.000000 14.366585 0.000000
41.562191 38.032667 16.922800 0.000000 64.000000 14.445789 23.000000
40.476925 37.675182 16.158779 0.000000 36.000000 14.356678 0.000000
40.668594 36.859812 13.800687 0.000000 33.000000 14.353914 0.000000
38.468769 37.012969 14.273121 0.000000 37.000000 14.344825 0.000000
43.653442 36.585185 12.997682 0.000000 38.000000 14.355839 0.000000
39.508236 36.801429 12.618844 0.000000 53.000000 14.683693 28.000000
41.201366 36.657484 12.352952 0.000000 63.000000 14.634212 25.000000
39.693565 37.070381 13.160218 0.000000 49.000000 14.761627 30.000000
40.502472 36.779888 12.978977 0.000000 36.000000 14.546016 10.000000
39.187725 36.554230 12.914341 0.000000 36.000000 14.353721 0.000000
38.861206 37.139034 15.091192 0.000000 33.000000 14.197532 0.000000
38.717533 38.133504 17.795933 0.000000 37.000000 14.256709 0.000000
39.232189 37.038358 12.891392 0.000000 48.000000 14.818919 30.000000
37.738403 37.698436 15.142232 0.000000 47.000000 14.709797 1.000000
42.160133 38.045452 17.742506 0.000000 36.000000 14.190863 0.000000
39.881443 37.019051 13.906335 0.000000 40.000000 14.470053 16.000000
42.774906 37.636487 16.143010 0.000000 29.000000 14.325230 0.000000
43.755356 36.296495 12.180922 0.000000 45.000000 14.348950 0.000000
42.393784 36.252051 12.216115 0.000000 37.000000 14.295466 0.000000
42.260300 36.227480 12.206026 0.000000 36.000000 14.275522 0.000000
41.379250 37.831861 16.731681 0.000000 24.000000 14.318192 0.000000
43.645199 36.962629 14.278031 0.000000 36.000000 14.295631 0.000000
42.495251 36.752670 12.287144 0.000000 45.000000 14.745643 18.000000
42.598637 38.136996 17.749210 0.000000 27.000000 14.275230 0.000000
39.117916 37.887141 16.797843 0.000000 46.000000 14.348905 0.000000
42.515427 37.189670 14.702654 0.000000 49.000000 14.371970 0.000000
42.993050 37.241097 14.999228 0.000000 49.000000 14.323985 0.000000
43.877300 38.090151 17.509344 0.000000 41.000000 14.309075 0.000000
42.665863 38.046693 17.323794 0.000000 37.000000 14.328429 0.000000
41.429520 37.201988 14.940346 0.000000 53.000000 14.306190 0.000000
40.446453 38.179480 17.991139 0.000000 34.000000 14.236590 0.000000
39.764969 37.538967 14.461880 0.000000 77.000000 14.780647 8.000000
42.928761 37.020346 14.369410 0.000000 46.000000 14.320434 0.000000
42.540974 37.271331 14.538794 0.000000 76.000000 14.502554 6.000000
40.527409 38.145065 17.961658 0.000000 56.000000 14.213655 0.000000
42.862831 37.818506 16.700853 0.000000 34.000000 14.315607 0.000000
43.610226 36.565557 13.069314 0.000000 30.000000 14.313948 0.000000
39.375256 37.437435 15.570381 0.000000 35.000000 14.323565 0.000000
39.978161 37.610314 16.514968 0.000000 20.000000 14.179321 0.000000
38.071075 37.022576 14.257227 0.000000 41.000000 14.359085 0.000000
42.271751 37.206793 13.849492 0.000000 67.000000 14.666072 4.000000
43.235405 37.522969 15.859622 0.000000 30.000000 14.310215 0.000000
41.652454 36.950244 12.670528 0.000000 55.000000 14.807556 25.000000
43.386387 37.006593 14.305912 0.000000 49.000000 14.328115 0.000000
42.390472 38.039350 16.757548 0.000000 55.000000 14.505938 23.000000
39.954784 38.133246 17.848264 0.000000 31.000000 14.239418 0.000000
38.254917 37.791398 16.615920 0.000000 50.000000 14.317644 0.000000
43.835266 37.113658 15.014862 0.000000 33.000000 14.198404 0.000000
42.553680 36.749823 12.251752 0.000000 47.000000 14.754480 18.000000
40.403740 37.299058 13.770606 0.000000 64.000000 14.779001 16.000000
40.349606 36.612718 13.457123 0.000000 40.000000 14.232211 0.000000
42.939358 36.935640 14.177284 0.000000 50.000000 14.302932 0.000000
42.821705 36.741366 13.755230 0.000000 48.000000 14.256735 0.000000
41.052616 37.506940 15.868868 0.000000 45.000000 14.292048 0.000000
41.635056 37.170411 15.126076 0.000000 73.000000 14.215834 0.000000
39.857121 38.023416 17.238132 0.000000 23.000000 14.334325 0.000000
39.201572 37.060741 13.056508 0.000000 69.000000 14.786295 30.000000
39.657036 37.070718 13.945819 0.000000 77.000000 14.506041 16.000000
41.372150 37.702817 16.644565 0.000000 36.000000 14.224563 0.000000
41.104893 37.936289 16.996370 0.000000 31.000000 14.330703 0.000000
43.566360 36.642777 13.467045 0.000000 30.000000 14.257398 0.000000
38.969631 36.627996 12.249466 0.000000 60.000000 14.640042 28.000000
40.519386 36.524026 12.955468 0.000000 41.000000 14.311767 0.000000
39.064930 36.995520 14.262095 0.000000 42.000000 14.331919 0.000000
43.464596 36.601678 13.299991 0.000000 25.000000 14.272957 0.000000
43.871109 37.099498 14.791034 0.000000 40.000000 14.257927 0.000000
39.952179 36.551653 12.986686 0.000000 51.000000 14.327718 0.000000
43.522850 37.428569 15.328113 0.000000 49.000000 14.394100 7.000000
39.786114 36.847446 12.612460 0.000000 51.000000 14.729280 28.000000
43.213047 37.241626 14.913577 0.000000 28.000000 14.352385 0.000000
39.616402 36.748735 13.624496 0.000000 47.000000 14.306288 0.000000
41.310890 36.849642 13.842238 0.000000 51.000000 14.330763 0.000000
42.306793 36.528198 12.988811 0.000000 46.000000 14.304850 0.000000
38.034641 38.044274 17.311369 0.000000 41.000000 14.330189 0.000000
41.310905 37.619661 15.992711 0.000000 41.000000 14.358280 0.000000
43.675049 36.718333 13.766119 0.000000 48.000000 14.231411 0.000000
38.768799 36.729297 12.505171 0.000000 75.000000 14.652524 26.000000
39.129795 37.431008 15.538837 0.000000 30.000000 14.327764 0.000000
38.372349 37.102372 13.398560 0.000000 44.000000 14.714234 29.000000
40.249500 38.167056 17.926391 0.000000 36.000000 14.245935 0.000000
41.586960 36.637343 13.698557 0.000000 43.000000 14.176847 0.000000
40.268707 37.447565 15.564084 0.000000 30.000000 14.335194 0.000000
41.487095 37.448984 15.581525 0.000000 44.000000 14.330854 0.000000
38.283955 37.113292 14.972922 0.000000 46.000000 14.211720 0.000000
43.016323 36.695081 13.530768 0.000000 44.000000 14.286092 0.000000
38.173615 38.191094 17.893103 0.000000 32.000000 14.279505 0.000000
41.716141 37.240295 15.213111 0.000000 30.000000 14.253556 0.000000
38.780148 37.367161 13.413216 0.000000 70.000000 14.959807 17.000000
40.037510 36.652463 13.450845 0.000000 46.000000 14.271833 0.000000
41.960182 38.385250 17.405417 0.000000 32.000000 14.621932 22.000000
41.841679 37.156593 15.018215 0.000000 36.000000 14.237905 0.000000
40.688423 37.154304 14.856609 0.000000 30.000000 14.288383 0.000000
39.399639 37.204184 15.117643 0.000000 43.000000 14.250512 0.000000
40.745144 37.171885 14.719853 0.000000 26.000000 14.349553 0.000000
38.470875 36.949184 12.272936 0.000000 66.000000 14.936067 26.000000
40.369492 37.209917 14.749559 0.000000 61.000000 14.375834 0.000000
42.009060 37.155406 14.651683 0.000000 42.000000 14.356179 0.000000
42.747345 37.418451 15.544252 0.000000 42.000000 14.314128 0.000000
42.872391 37.174080 15.060159 0.000000 57.000000 14.240775 0.000000
41.046463 37.012104 14.338242 0.000000 33.000000 14.322794 0.000000
38.138348 37.002460 12.740366 0.000000 67.000000 14.834175 29.000000
42.788887 36.960818 14.185814 0.000000 41.000000 14.323958 0.000000
41.204208 36.957395 14.139939 0.000000 30.000000 14.335665 0.000000
37.717823 37.251381 14.956779 0.000000 29.000000 14.347536 0.000000
43.057236 38.216407 17.386942 0.000000 62.000000 14.468316 19.000000
38.001587 37.199517 13.671177 0.000000 41.000000 14.717278 27.000000
38.621742 37.695160 16.601509 0.000000 46.000000 14.231349 0.000000
37.987072 37.813072 16.516117 0.000000 46.000000 14.370646 0.000000
42.744011 36.800902 13.850245 0.000000 35.000000 14.282073 0.000000
43.893471 37.032376 14.425546 0.000000 56.000000 14.313522 0.000000
37.887829 37.388186 15.135727 0.000000 33.000000 14.418588 1.000000
41.098164 38.114743 17.752154 0.000000 46.000000 14.253232 0.000000
37.996674 37.172696 13.967076 0.000000 35.000000 14.595532 27.000000
39.684917 38.396432 17.348758 0.000000 40.000000 14.650961 14.000000
43.014244 36.727159 13.578628 0.000000 53.000000 14.300830 0.000000
41.985752 36.573308 12.079624 0.000000 45.000000 14.643662 25.000000
41.682537 36.885732 12.625701 0.000000 61.000000 14.761165 25.000000
38.141273 37.505146 15.896727 0.000000 40.000000 14.281277 0.000000
42.213509 37.122076 14.950674 0.000000 31.000000 14.227272 0.000000
37.922947 38.216558 17.578699 0.000000 40.000000 14.405995 13.000000
41.607944 36.997314 12.566918 0.000000 38.000000 14.885809 25.000000
43.404995 36.619040 13.244243 0.000000 40.000000 14.307532 0.000000
40.628021 36.879692 12.358469 0.000000 65.000000 14.842503 28.000000
38.373951 36.769781 12.398940 0.000000 34.000000 14.725404 26.000000
41.425159 37.439600 15.560464 0.000000 46.000000 14.328842 0.000000
41.049141 37.149747 14.592089 0.000000 28.000000 14.370241 0.000000
42.527851 36.682581 12.391819 0.000000 53.000000 14.645280 18.000000
41.002392 37.173341 14.793379 0.000000 48.000000 14.326979 0.000000
43.941505 36.477212 12.857541 0.000000 40.000000 14.299405 0.000000
41.404297 37.723584 16.660134 0.000000 43.000000 14.239126 0.000000
43.721817 36.269751 12.226890 0.000000 43.000000 14.308691 0.000000
41.401943 37.019546 13.206097 0.000000 64.000000 14.698620 9.000000
42.792000 36.684461 12.542550 0.000000 38.000000 14.597957 18.000000
38.763779 38.052482 16.632835 0.000000 52.000000 14.558978 12.000000
39.103317 37.117451 14.507421 0.000000 67.000000 14.367286 0.000000
43.903702 38.104459 17.903156 0.000000 41.000000 14.194320 0.000000
42.467236 36.794443 13.750311 0.000000 38.000000 14.308520 0.000000
40.386791 37.185297 15.142549 0.000000 49.000000 14.224543 0.000000
40.841892 36.908125 13.980365 0.000000 56.000000 14.341063 0.000000
43.637951 38.083457 17.958815 0.000000 27.000000 14.156333 0.000000
40.750343 36.450576 12.771362 0.000000 37.000000 14.302295 0.000000
41.161320 37.363380 15.237712 0.000000 42.000000 14.361914 0.000000
41.805531 36.827510 14.052886 0.000000 39.000000 14.241221 0.000000
43.561527 36.417205 12.623413 0.000000 23.000000 14.318937 0.000000
40.906734 37.636949 16.503183 0.000000 40.000000 14.208342 0.000000
38.811649 37.124907 14.949598 0.000000 32.000000 14.230299 0.000000
42.139931 38.056219 17.788378 0.000000 36.000000 14.186100 0.000000
43.694023 37.179103 15.158045 0.000000 43.000000 14.213639 0.000000
41.941456 38.117628 17.899728 0.000000 29.000000 14.207888 0.000000
39.086281 36.697130 12.285696 0.000000 63.000000 14.693604 28.000000
41.813198 38.098196 17.921636 0.000000 23.000000 14.182379 0.000000
40.735546 36.794434 12.440145 0.000000 73.000000 14.735290 28.000000
40.063766 36.379699 12.277004 0.000000 40.000000 14.396318 28.000000
42.664066 38.179766 17.889152 0.000000 30.000000 14.270082 0.000000
40.623409 37.176938 15.047910 0.000000 36.000000 14.247468 0.000000
43.815559 37.669433 16.290254 0.000000 29.000000 14.308415 0.000000
42.003677 38.121368 16.737719 0.000000 53.000000 14.589941 23.000000
39.983482 37.331397 14.807854 0.000000 66.000000 14.471699 8.000000
42.522984 36.660244 13.283285 0.000000 52.000000 14.333771 0.000000
39.324242 37.606145 15.979940 0.000000 35.000000 14.349662 0.000000
41.073357 36.714126 13.034890 0.000000 51.000000 14.465628 9.000000
40.985489 37.974839 17.166531 0.000000 38.000000 14.311721 0.000000
38.829300 38.444579 17.329537 0.000000 58.000000 14.702743 13.000000
38.830830 38.456869 17.286277 0.000000 52.000000 14.728454 13.000000
42.900005 37.357504 15.264226 0.000000 35.000000 14.347722 0.000000
43.943249 37.611283 15.195940 0.000000 71.000000 14.609903 7.000000
38.245743 37.404596 15.411480 0.000000 44.000000 14.344278 0.000000
40.186497 38.223653 16.727575 0.000000 65.000000 14.689952 15.000000
42.251892 36.801239 12.271074 0.000000 32.000000 14.796797 25.000000
41.733723 37.591924 15.966694 0.000000 54.000000 14.340531 0.000000
40.507843 38.095385 17.742709 0.000000 23.000000 14.238006 0.000000
38.748146 36.830160 12.845001 0.000000 63.000000 14.637188 29.000000
43.514324 37.802561 16.730586 0.000000 24.000000 14.290846 0.000000
40.942482 36.576914 13.023012 0.000000 49.000000 14.339769 0.000000
37.809612 37.503498 15.710751 0.000000 58.000000 14.340300 0.000000
40.695988 38.046458 17.307104 0.000000 33.000000 14.333644 0.000000
39.488152 38.066642 17.294961 0.000000 29.000000 14.356682 0.000000
38.754791 37.014671 14.085112 0.000000 57.000000 14.407677 17.000000
40.781067 37.605455 16.352416 0.000000 32.000000 14.227677 0.000000
42.325909 36.552993 12.988885 0.000000 44.000000 14.328269 0.000000
40.689507 37.403696 15.522017 0.000000 51.000000 14.307420 0.000000
40.421772 37.981993 17.138783 0.000000 26.000000 14.327524 0.000000
41.599319 37.701599 16.657640 0.000000 43.000000 14.219153 0.000000
39.797466 37.180143 13.844897 0.000000 37.000000 14.642372 16.000000
43.326344 37.361369 14.657692 0.000000 63.000000 14.548950 5.000000
39.027802 37.955306 17.009747 0.000000 22.000000 14.344325 0.000000
41.249500 38.086455 17.900277 0.000000 32.000000 14.178236 0.000000
41.324524 36.577179 12.261729 0.000000 38.000000 14.588002 25.000000
42.215527 36.615702 13.553653 0.000000 29.000000 14.203588 0.000000
43.148239 38.058925 17.379064 0.000000 39.000000 14.321990 0.000000
39.776924 37.690120 16.571976 0.000000 26.000000 14.236204 0.000000
39.745064 37.610067 15.928522 0.000000 50.000000 14.370119 0.000000
39.713608 37.697589 16.465648 0.000000 26.000000 14.277902 0.000000
39.280685 37.627757 16.303686 0.000000 35.000000 14.264637 0.000000
40.292126 38.162978 17.996439 0.000000 39.000000 14.219261 0.000000
40.058758 37.168411 14.551552 0.000000 47.000000 14.401091 8.000000
42.565060 37.965600 16.756151 0.000000 38.000000 14.436665 23.000000
43.019737 38.266169 17.945180 0.000000 35.000000 14.333521 0.000000
39.559456 37.641078 16.199021 0.000000 25.000000 14.311325 0.000000
39.720196 38.086405 17.304772 0.000000 56.000000 14.372171 0.000000
39.585598 37.603778 15.914873 0.000000 34.000000 14.368619 0.000000
38.271603 37.158488 15.135122 0.000000 52.000000 14.201615 0.000000
40.445396 37.141558 13.778241 0.000000 66.000000 14.627604 16.000000
40.231342 37.277409 15.157354 0.000000 43.000000 14.306808 0.000000
40.341290 36.892918 14.099524 0.000000 33.000000 14.287870 0.000000
42.680683 36.782016 12.138997 0.000000 75.000000 14.821646 18.000000
37.891815 37.620774 15.973623 0.000000 42.000000 14.365550 0.000000
39.405437 37.193367 13.796412 0.000000 54.000000 14.670668 16.000000
39.328251 37.468263 15.554415 0.000000 30.000000 14.357912 0.000000
38.054497 37.730479 16.431081 0.000000 36.000000 14.320258 0.000000
39.312893 37.421051 15.474292 0.000000 34.000000 14.339375 0.000000
43.591835 36.501010 12.973358 0.000000 48.000000 14.284179 0.000000
38.551933 37.221230 14.944325 0.000000 40.000000 14.323086 0.000000
40.547771 36.979940 13.736595 0.000000 69.000000 14.488367 16.000000
41.662979 36.465589 12.183366 0.000000 49.000000 14.508025 25.000000
41.254219 36.544769 12.878988 0.000000 41.000000 14.356292 0.000000
43.383110 37.650229 16.643123 0.000000 35.000000 14.175313 0.000000
43.664410 37.279761 14.583741 0.000000 45.000000 14.495883 5.000000
39.949127 37.205631 14.459855 0.000000 73.000000 14.466151 8.000000
39.296730 37.131673 14.982243 0.000000 29.000000 14.226062 0.000000
39.299034 37.125288 14.871412 0.000000 26.000000 14.256128 0.000000
38.049812 37.201049 14.759857 0.000000 20.000000 14.364095 0.000000
40.306843 37.274981 13.894831 0.000000 53.000000 14.715772 16.000000
41.397236 36.594503 13.589131 0.000000 40.000000 14.171988 0.000000
39.938862 36.496100 12.817592 0.000000 43.000000 14.330277 0.000000
40.354221 36.934028 14.056592 0.000000 52.000000 14.340722 0.000000
41.597099 37.556892 16.445558 0.000000 37.000000 14.151423 0.000000
39.398907 37.005469 14.257754 0.000000 36.000000 14.342739 0.000000
38.344738 36.866750 13.786964 0.000000 25.000000 14.364943 0.000000
37.947876 37.520711 15.732567 0.000000 39.000000 14.349468 0.000000
39.638664 36.733048 13.746279 0.000000 32.000000 14.251787 0.000000
38.270229 37.182961 13.846643 0.000000 45.000000 14.644467 27.000000
40.729641 37.705517 16.670117 0.000000 22.000000 14.218793 0.000000
42.320480 36.619361 13.589830 0.000000 51.000000 14.195263 0.000000
37.800720 37.089094 14.384167 0.000000 46.000000 14.380625 0.000000
42.121666 37.595995 16.565769 0.000000 19.000000 14.149235 0.000000
41.904217 37.290425 15.255354 0.000000 36.000000 14.287191 0.000000
41.875744 38.406799 17.352353 0.000000 69.000000 14.659591 22.000000
40.886761 36.267680 12.214925 0.000000 38.000000 14.310630 0.000000
42.140137 37.737762 16.697727 0.000000 32.000000 14.240285 0.000000
39.238289 36.874536 13.587581 0.000000 65.000000 14.437253 30.000000
39.833870 37.770472 16.650764 0.000000 21.000000 14.286509 0.000000
43.426029 37.183645 15.085644 0.000000 33.000000 14.241517 0.000000
39.136429 37.028346 14.326334 0.000000 45.000000 14.342029 0.000000
41.692650 38.359253 17.362008 0.000000 47.000000 14.611493 22.000000
38.722286 38.087306 17.762060 0.000000 34.000000 14.224064 0.000000
43.469719 37.542426 15.907344 0.000000 48.000000 14.313066 0.000000
39.944588 37.228070 14.865257 0.000000 49.000000 14.355309 0.000000
41.021416 36.798896 12.479716 0.000000 66.000000 14.726618 25.000000
41.951153 37.556690 16.338425 0.000000 30.000000 14.186130 0.000000
42.100868 37.272942 13.767853 0.000000 76.000000 14.755206 4.000000
39.663166 37.609788 16.079584 0.000000 46.000000 14.320647 0.000000
41.425468 37.703037 16.667629 0.000000 35.000000 14.217258 0.000000
40.380959 36.959289 13.221615 0.000000 50.000000 14.636594 10.000000
38.058346 36.901171 12.633687 0.000000 64.000000 14.773160 29.000000
43.088188 37.297942 15.247168 0.000000 37.000000 14.296965 0.000000
41.072231 36.638553 13.531244 0.000000 41.000000 14.232492 0.000000
42.132694 36.487399 12.927996 0.000000 33.000000 14.286087 0.000000
41.868626 37.303315 15.258107 0.000000 26.000000 14.298481 0.000000
39.337749 37.074461 13.733402 0.000000 48.000000 14.578773 16.000000
39.317432 37.069172 14.407922 0.000000 26.000000 14.354052 0.000000
41.299442 37.704370 16.634796 0.000000 30.000000 14.229214 0.000000
41.457088 37.312634 15.261658 0.000000 28.000000 14.306135 0.000000
43.735088 36.358836 12.616429 0.000000 31.000000 14.266027 0.000000
41.118317 37.961149 17.081231 0.000000 38.000000 14.326564 0.000000
41.175709 37.346802 15.233031 0.000000 28.000000 14.347765 0.000000
37.645847 36.694148 12.641797 0.000000 75.000000 14.574787 29.000000
39.752853 37.451275 14.355258 0.000000 78.000000 14.732469 8.000000
41.276199 36.623204 13.599650 0.000000 41.000000 14.195697 0.000000
39.758541 37.388123 14.557311 0.000000 52.000000 14.606944 8.000000
41.635387 36.589952 13.070319 0.000000 27.000000 14.336685 0.000000
40.527782 36.856503 12.377627 0.000000 75.000000 14.814338 28.000000
41.776890 37.234655 15.233563 0.000000 30.000000 14.241561 0.000000
43.165962 37.156592 14.988720 0.000000 63.000000 14.247512 0.000000
39.586433 36.417187 12.237817 0.000000 35.000000 14.444526 28.000000
42.471073 37.034504 14.380521 0.000000 68.000000 14.330200 0.000000
40.129612 37.585920 16.028820 0.000000 37.000000 14.314617 0.000000
40.786270 36.754532 12.517795 0.000000 50.000000 14.672270 28.000000
41.176830 38.033108 17.245830 0.000000 38.000000 14.340981 0.000000
38.121494 37.163005 13.768693 0.000000 64.000000 14.650992 27.000000
40.088135 36.704127 13.688327 0.000000 42.000000 14.243321 0.000000
41.239746 37.769174 16.650188 0.000000 32.000000 14.285469 0.000000
41.939133 37.119781 14.602435 0.000000 60.000000 14.338539 0.000000
39.995369 36.743701 13.065925 0.000000 80.000000 14.483480 30.000000
38.997082 36.790332 13.791550 0.000000 35.000000 14.291200 0.000000
39.903728 37.200829 15.133619 0.000000 23.000000 14.242136 0.000000
40.440975 37.362566 15.336937 0.000000 41.000000 14.328822 0.000000
39.282990 36.977202 12.787766 0.000000 57.000000 14.794854 30.000000
40.799488 37.177390 15.033460 0.000000 39.000000 14.252602 0.000000
43.570229 36.784699 13.779304 0.000000 59.000000 14.289863 0.000000
41.270145 38.376290 17.325917 0.000000 56.000000 14.639357 22.000000
39.538952 37.186921 15.030148 0.000000 34.000000 14.262692 0.000000
41.204185 37.209692 15.055834 0.000000 46.000000 14.275854 0.000000
39.423412 37.155352 15.007881 0.000000 46.000000 14.240098 0.000000
40.446953 37.197559 14.886999 0.000000 39.000000 14.319380 0.000000
39.310455 37.128545 14.980577 0.000000 26.000000 14.223647 0.000000
40.337193 37.192479 14.840714 0.000000 30.000000 14.329654 0.000000
43.135342 36.764617 12.297937 0.000000 49.000000 14.753423 18.000000
40.221771 37.218520 14.773280 0.000000 37.000000 14.376241 0.000000
39.080311 37.118563 14.886845 0.000000 22.000000 14.244742 0.000000
40.118053 37.204364 14.729045 0.000000 39.000000 14.377266 0.000000
38.967216 37.139989 14.819929 0.000000 25.000000 14.286797 0.000000
39.210148 36.818936 13.776349 0.000000 36.000000 14.323195 0.000000
37.908630 37.967957 17.065399 0.000000 37.000000 14.338158 0.000000
40.364052 37.422631 15.533471 0.000000 34.000000 14.321591 0.000000
39.824593 37.050894 13.874254 0.000000 68.000000 14.510610 16.000000
42.556293 36.699591 12.106007 0.000000 42.000000 14.754463 18.000000
43.485409 36.418983 12.590167 0.000000 45.000000 14.331448 0.000000
40.814739 38.157501 17.948577 0.000000 28.000000 14.229674 0.000000
39.481827 37.140159 15.008996 0.000000 27.000000 14.225371 0.000000
38.238838 37.276113 15.210029 0.000000 30.000000 14.288424 0.000000
39.779301 36.846795 13.039873 0.000000 67.000000 14.589437 30.000000
38.298939 36.188730 12.227741 0.000000 32.000000 14.231812 0.000000
41.959915 38.077360 16.955182 0.000000 39.000000 14.477496 23.000000
38.114857 37.645210 16.341991 0.000000 46.000000 14.268660 0.000000
38.898663 36.968127 12.487098 0.000000 45.000000 14.884215 28.000000
41.974949 36.807425 13.614586 0.000000 51.000000 14.365005 0.000000
41.151714 37.230400 14.812043 0.000000 54.000000 14.374846 0.000000
40.424473 37.065204 13.844489 0.000000 64.000000 14.533835 16.000000
43.064156 36.591266 13.034363 0.000000 45.000000 14.349640 0.000000
38.375622 36.744205 12.596914 0.000000 47.000000 14.636734 26.000000
42.656315 38.009578 17.239779 0.000000 34.000000 14.320706 0.000000
42.214520 37.235742 13.868484 0.000000 76.000000 14.687255 4.000000
40.249088 36.422302 12.302770 0.000000 57.000000 14.428204 28.000000
39.874477 37.541595 14.567883 0.000000 60.000000 14.748601 8.000000
38.279175 37.041012 13.773077 0.000000 57.000000 14.534225 27.000000
38.910980 36.937277 14.163806 0.000000 41.000000 14.308870 0.000000
38.890976 37.473122 13.500178 0.000000 64.000000 15.031661 17.000000
43.852737 36.672513 13.675785 0.000000 46.000000 14.217516 0.000000
37.906197 38.236137 16.717828 0.000000 62.000000 14.704930 12.000000
37.883331 38.010477 17.182376 0.000000 43.000000 14.340254 0.000000
43.124458 36.355277 12.506982 0.000000 57.000000 14.298314 0.000000
43.586739 37.529242 15.895473 0.000000 47.000000 14.304468 0.000000
43.020618 36.561266 13.000965 0.000000 40.000000 14.332156 0.000000
42.182137 37.592505 16.353081 0.000000 38.000000 14.215217 0.000000
42.427185 37.999654 17.309222 0.000000 34.000000 14.288702 0.000000
38.576962 37.607765 16.290050 0.000000 46.000000 14.250177 0.000000
43.937267 36.965668 13.289945 0.000000 38.000000 14.620367 24.000000
41.667282 36.580997 13.014863 0.000000 33.000000 14.346283 0.000000
39.315281 36.669420 12.524134 0.000000 50.000000 14.589736 28.000000
38.690979 37.071713 13.105632 0.000000 56.000000 14.780667 17.000000
42.029068 37.196670 14.001663 0.000000 72.000000 14.606932 4.000000
43.855118 36.875983 13.131438 0.000000 52.000000 14.587207 24.000000
41.404041 37.617003 16.138476 0.000000 27.000000 14.308285 0.000000
41.259514 36.574007 12.967940 0.000000 36.000000 14.354959 0.000000
42.212646 36.539339 12.908788 0.000000 38.000000 14.341451 0.000000
40.442638 37.013222 14.282203 0.000000 57.000000 14.342105 0.000000
39.055729 38.068976 17.786815 0.000000 35.000000 14.198670 0.000000
43.578045 37.181932 15.161927 0.000000 49.000000 14.215049 0.000000
40.867302 36.538854 12.914790 0.000000 30.000000 14.339037 0.000000
40.736687 36.533301 12.888651 0.000000 33.000000 14.342301 0.000000
43.098778 36.934196 14.007827 0.000000 51.000000 14.356766 0.000000
43.261768 37.894692 17.076054 0.000000 36.000000 14.265418 0.000000
41.451042 36.482920 12.756701 0.000000 36.000000 14.337650 0.000000
41.679150 37.691503 16.651886 0.000000 21.000000 14.211482 0.000000
40.193077 36.342975 12.308706 0.000000 32.000000 14.351270 0.000000
39.707172 37.603311 15.929032 0.000000 51.000000 14.363565 0.000000
39.901844 36.223023 12.183367 0.000000 32.000000 14.278689 0.000000
38.285545 36.982817 13.703094 0.000000 37.000000 14.502000 27.000000
42.585224 38.269669 17.916516 0.000000 34.000000 14.346168 0.000000
40.756622 37.622917 16.125289 0.000000 33.000000 14.318172 0.000000
40.578617 38.149387 16.577142 0.000000 55.000000 14.668739 15.000000
43.952938 36.215237 12.340630 0.000000 47.000000 14.220100 0.000000
43.654018 38.055225 17.337719 0.000000 38.000000 14.331960 0.000000
43.473850 36.944798 14.134283 0.000000 53.000000 14.325598 0.000000
43.716515 37.966039 17.071511 0.000000 35.000000 14.334354 0.000000
41.270542 37.007382 14.308042 0.000000 42.000000 14.328167 0.000000
41.390160 37.282367 15.225587 0.000000 33.000000 14.289269 0.000000
42.257431 37.056120 14.010962 0.000000 56.000000 14.471019 4.000000
41.931870 38.135562 17.974605 0.000000 28.000000 14.200453 0.000000
42.476543 37.280799 15.097297 0.000000 63.000000 14.329576 0.000000
41.583462 37.548369 16.420404 0.000000 28.000000 14.151558 0.000000
38.818996 37.522052 13.503945 0.000000 73.000000 15.076696 17.000000
39.440735 37.126460 13.371118 0.000000 46.000000 14.745948 30.000000
40.715439 38.100559 17.380174 0.000000 31.000000 14.360991 0.000000
38.885422 37.382520 13.352126 0.000000 75.000000 14.994228 17.000000
43.564259 38.064190 17.924011 0.000000 30.000000 14.149454 0.000000
40.761677 37.997484 17.155605 0.000000 25.000000 14.336690 0.000000
38.818047 36.969609 14.186138 0.000000 40.000000 14.332164 0.000000
41.273689 36.642254 13.568149 0.000000 42.000000 14.223970 0.000000
42.776081 36.709795 12.325864 0.000000 63.000000 14.692494 18.000000
40.885410 37.810968 16.696799 0.000000 24.000000 14.309801 0.000000
41.628551 37.213126 15.189021 0.000000 28.000000 14.235716 0.000000
41.510525 37.575266 16.281301 0.000000 33.000000 14.222300 0.000000
42.163097 37.678248 16.669581 0.000000 28.000000 14.193185 0.000000
40.986931 37.633496 16.536704 0.000000 23.000000 14.194158 0.000000
43.319008 36.770755 13.479956 0.000000 56.000000 14.374190 0.000000
41.032810 37.573390 16.434810 0.000000 25.000000 14.170522 0.000000
37.959137 37.321951 12.901882 0.000000 47.000000 15.083627 29.000000
43.146538 36.912615 14.092249 0.000000 54.000000 14.308862 0.000000
42.106274 37.221780 15.041754 0.000000 58.000000 14.291869 0.000000
41.130806 37.616655 15.966783 0.000000 31.000000 14.363884 0.000000
41.190407 37.549414 15.873702 0.000000 33.000000 14.330631 0.000000
43.722157 36.623162 13.605527 0.000000 35.000000 14.193743 0.000000
41.245975 37.507457 15.762554 0.000000 32.000000 14.327168 0.000000
37.972527 37.173602 15.160989 0.000000 41.000000 14.207479 0.000000
39.502296 37.099546 13.757769 0.000000 59.000000 14.594552 16.000000
42.699940 37.618794 16.594396 0.000000 28.000000 14.161465 0.000000
41.788364 37.198276 14.729786 0.000000 41.000000 14.371269 0.000000
42.611450 37.406127 15.464450 0.000000 35.000000 14.328471 0.000000
42.670803 37.376864 15.350083 0.000000 40.000000 14.338058 0.000000
41.555744 37.303001 15.224154 0.000000 34.000000 14.309244 0.000000
39.712139 37.285962 15.203990 0.000000 40.000000 14.299703 0.000000
41.731243 37.568310 15.920959 0.000000 41.000000 14.333103 0.000000
39.849865 37.138713 15.048601 0.000000 39.000000 14.211102 0.000000
40.429787 38.035169 17.362470 0.000000 42.000000 14.304935 0.000000
41.711475 37.483315 15.667249 0.000000 43.000000 14.335388 0.000000
43.467098 36.685917 13.446209 0.000000 65.000000 14.304972 0.000000
38.897293 37.221212 13.732565 0.000000 64.000000 14.717793 17.000000
42.319778 36.925863 13.688634 0.000000 62.000000 14.452863 4.000000
38.646168 36.883760 12.982897 0.000000 75.000000 14.642946 29.000000
39.847683 36.717942 12.945834 0.000000 67.000000 14.498245 30.000000
42.712288 37.941755 17.102654 0.000000 40.000000 14.301249 0.000000
41.670948 37.185779 14.891681 0.000000 48.000000 14.306717 0.000000
38.460201 36.642876 12.114154 0.000000 52.000000 14.698188 26.000000
43.408562 37.021977 14.340044 0.000000 42.000000 14.331542 0.000000
43.501797 36.965691 14.257143 0.000000 38.000000 14.305330 0.000000
38.859695 37.261382 13.516457 0.000000 35.000000 14.826167 17.000000
40.701900 37.164154 15.015430 0.000000 40.000000 14.245961 0.000000
41.497887 37.562019 16.452370 0.000000 33.000000 14.154051 0.000000
38.483215 37.072246 13.120501 0.000000 75.000000 14.776328 29.000000
42.728081 38.070304 17.319246 0.000000 44.000000 14.352234 0.000000
42.811859 36.714939 13.780364 0.000000 33.000000 14.223563 0.000000
43.945568 36.826900 13.781638 0.000000 41.000000 14.329002 0.000000
38.514557 37.192223 13.856375 0.000000 56.000000 14.650054 17.000000
41.810921 36.815197 12.123933 0.000000 68.000000 14.857925 25.000000
43.285503 36.634440 13.302174 0.000000 39.000000 14.303221 0.000000
41.061756 36.938901 14.019632 0.000000 33.000000 14.357369 0.000000
43.373749 37.176643 15.107065 0.000000 56.000000 14.227919 0.000000
38.908932 37.161207 13.812267 0.000000 66.000000 14.635098 17.000000
41.610214 38.048586 17.272287 0.000000 39.000000 14.346997 0.000000
42.370152 37.200805 15.114387 0.000000 58.000000 14.248378 0.000000
41.138416 37.939500 16.915430 0.000000 34.000000 14.360105 0.000000
41.102146 36.903735 13.846722 0.000000 62.000000 14.380445 0.000000
41.997807 37.973642 17.157594 0.000000 30.000000 14.313501 0.000000
38.360909 37.579200 16.323176 0.000000 38.000000 14.212379 0.000000
39.169334 38.145248 17.886717 0.000000 19.000000 14.238240 0.000000
41.740459 36.733910 12.694342 0.000000 45.000000 14.595264 25.000000
38.183834 37.478479 15.658820 0.000000 24.000000 14.333562 0.000000
41.458656 36.429108 12.340732 0.000000 52.000000 14.422273 25.000000
43.610210 38.048188 17.808782 0.000000 33.000000 14.171860 0.000000
38.193512 37.508068 15.754045 0.000000 24.000000 14.330518 0.000000
38.766186 38.047002 17.189681 0.000000 25.000000 14.372408 0.000000
39.971294 38.003295 17.132949 0.000000 30.000000 14.349564 0.000000
38.726528 38.005528 17.104287 0.000000 22.000000 14.361012 0.000000
38.863754 37.191677 13.839153 0.000000 72.000000 14.655148 17.000000
39.915546 37.209940 14.881080 0.000000 55.000000 14.333013 0.000000
38.524784 37.058940 14.312346 0.000000 45.000000 14.375511 0.000000
40.424965 37.073351 14.397717 0.000000 60.000000 14.361327 0.000000
40.552525 36.675020 12.247769 0.000000 73.000000 14.685054 28.000000
40.815712 36.825278 13.394049 0.000000 39.000000 14.453723 9.000000
40.557877 38.110667 17.719651 0.000000 20.000000 14.259966 0.000000
39.222454 37.042097 13.181851 0.000000 48.000000 14.727839 30.000000
42.033905 36.856973 12.306117 0.000000 36.000000 14.838077 25.000000
39.789146 37.600878 16.346572 0.000000 24.000000 14.225254 0.000000
41.821156 37.230840 13.840794 0.000000 64.000000 14.691640 4.000000
38.828403 37.550828 16.031350 0.000000 39.000000 14.280615 0.000000
38.535103 37.647852 16.123281 0.000000 21.000000 14.342401 0.000000
42.596630 36.877073 14.015859 0.000000 53.000000 14.300142 0.000000
37.940434 38.049251 17.287418 0.000000 35.000000 14.342697 0.000000
40.405674 37.460662 15.741761 0.000000 40.000000 14.289699 0.000000
42.803623 36.681757 12.338094 0.000000 48.000000 14.662001 18.000000
39.774357 37.559311 15.869689 0.000000 34.000000 14.341296 0.000000
42.159893 36.509652 12.957850 0.000000 42.000000 14.297401 0.000000
40.498699 37.146568 15.055509 0.000000 53.000000 14.216279 0.000000
43.110329 36.767717 12.081691 0.000000 77.000000 14.826794 18.000000
39.648804 37.261457 14.844459 0.000000 52.000000 14.393650 8.000000
39.810486 37.456277 15.567941 0.000000 28.000000 14.342174 0.000000
39.825859 37.440562 15.454039 0.000000 35.000000 14.364419 0.000000
39.844963 37.416572 15.346117 0.000000 37.000000 14.376892 0.000000
39.539551 36.922200 13.744853 0.000000 47.000000 14.431087 16.000000
38.741493 37.254315 13.975215 0.000000 69.000000 14.670048 17.000000
40.502979 37.045282 13.782368 0.000000 64.000000 14.535235 16.000000
42.308567 37.139591 14.393064 0.000000 67.000000 14.425470 6.000000
40.545582 37.189236 14.784328 0.000000 27.000000 14.344955 0.000000
37.976776 38.309115 17.344743 0.000000 62.000000 14.569714 13.000000
43.162849 37.688314 16.248456 0.000000 40.000000 14.339881 0.000000
39.028282 37.095660 13.874619 0.000000 66.000000 14.552815 17.000000
42.247967 37.787296 16.649757 0.000000 41.000000 14.302743 0.000000
38.968243 37.109685 14.456680 0.000000 36.000000 14.376472 0.000000
38.938305 38.072584 17.772499 0.000000 35.000000 14.206745 0.000000
41.168354 36.878068 13.869978 0.000000 36.000000 14.348603 0.000000
43.902744 36.932530 14.159872 0.000000 46.000000 14.305663 0.000000
39.078358 37.039584 14.262368 0.000000 34.000000 14.373491 0.000000
42.570618 37.961924 17.072339 0.000000 34.000000 14.330193 0.000000
39.395744 36.755848 13.753018 0.000000 49.000000 14.271148 0.000000
37.694939 36.901070 13.290476 0.000000 62.000000 14.559119 29.000000
39.403042 36.836857 13.808805 0.000000 25.000000 14.329566 0.000000
42.955639 36.717032 13.798090 0.000000 43.000000 14.219767 0.000000
42.883400 37.272700 15.073707 0.000000 53.000000 14.329603 0.000000
43.129101 37.334397 15.240380 0.000000 47.000000 14.333642 0.000000
43.419109 38.135052 17.838661 0.000000 33.000000 14.244254 0.000000
39.087711 36.958308 14.178872 0.000000 41.000000 14.323846 0.000000
39.979446 38.330900 17.413375 0.000000 43.000000 14.567954 14.000000
41.208904 37.039843 13.053153 0.000000 72.000000 14.767630 9.000000
40.126442 36.574841 13.004490 0.000000 35.000000 14.343842 0.000000
38.566692 37.579888 15.912601 0.000000 54.000000 14.346772 0.000000
40.218433 36.544955 12.924235 0.000000 32.000000 14.341729 0.000000
42.725426 36.885735 14.007311 0.000000 55.000000 14.311116 0.000000
41.928051 36.596117 13.114610 0.000000 47.000000 14.328087 0.000000
37.649345 37.202287 14.938879 0.000000 45.000000 14.306950 0.000000
43.298462 36.789855 13.757109 0.000000 39.000000 14.301968 0.000000
42.752243 36.801365 12.242358 0.000000 49.000000 14.806271 18.000000
42.498695 36.184363 12.209024 0.000000 39.000000 14.233780 0.000000
43.927624 36.964808 14.236253 0.000000 39.000000 14.311300 0.000000
39.569782 37.315137 15.244564 0.000000 36.000000 14.314070 0.000000
42.300945 37.962854 17.185347 0.000000 46.000000 14.294261 0.000000
43.337883 37.620624 15.966563 0.000000 36.000000 14.367708 0.000000
40.005482 36.941362 13.420239 0.000000 36.000000 14.554945 30.000000
38.550339 37.777460 16.664109 0.000000 38.000000 14.288769 0.000000
39.714802 36.529597 12.919947 0.000000 43.000000 14.328605 0.000000
41.682743 37.292711 15.230821 0.000000 42.000000 14.297344 0.000000
39.147934 38.087484 17.704302 0.000000 26.000000 14.243047 0.000000
42.067749 38.094334 17.456045 0.000000 30.000000 14.330391 0.000000
42.493076 37.651456 16.656237 0.000000 35.000000 14.172202 0.000000
40.385925 37.079493 14.409515 0.000000 61.000000 14.363291 0.000000
43.203030 37.673381 16.258218 0.000000 42.000000 14.322583 0.000000
40.898907 36.669399 13.643451 0.000000 37.000000 14.225105 0.000000
40.393047 37.110815 14.562564 0.000000 61.000000 14.343050 0.000000
43.012119 37.067827 14.449806 0.000000 35.000000 14.339136 0.000000
39.998669 37.590994 15.957883 0.000000 51.000000 14.342522 0.000000
41.893833 37.545588 16.369408 0.000000 22.000000 14.165541 0.000000
42.854126 37.541083 16.398355 0.000000 26.000000 14.151852 0.000000
42.993916 36.612274 13.188855 0.000000 44.000000 14.319177 0.000000
42.719017 37.546175 16.402348 0.000000 25.000000 14.155366 0.000000
41.619026 37.555889 16.384722 0.000000 25.000000 14.170291 0.000000
38.209274 37.846119 16.068475 0.000000 33.000000 14.547707 2.000000
40.379990 36.963567 13.254115 0.000000 58.000000 14.630052 10.000000
42.283829 37.271269 13.768112 0.000000 73.000000 14.753540 4.000000
39.651855 37.978370 17.093886 0.000000 38.000000 14.338724 0.000000
41.806477 36.903991 12.319748 0.000000 60.000000 14.878090 25.000000
42.721992 37.294543 14.593800 0.000000 70.000000 14.506582 6.000000
42.185360 37.572762 16.381416 0.000000 26.000000 14.187321 0.000000
42.066422 36.735792 13.545898 0.000000 57.000000 14.319654 0.000000
42.052467 37.578201 16.369475 0.000000 28.000000 14.196353 0.000000
39.338627 36.891269 12.235909 0.000000 55.000000 14.893372 28.000000
41.933357 37.548283 16.381133 0.000000 24.000000 14.164269 0.000000
40.041256 36.981832 14.223674 0.000000 39.000000 14.331493 0.000000
41.799374 37.562837 16.355553 0.000000 27.000000 14.186362 0.000000
38.681923 37.579317 15.337663 0.000000 52.000000 14.533515 3.000000
41.673748 37.562085 16.339398 0.000000 28.000000 14.190914 0.000000
42.315681 38.161088 17.940542 0.000000 20.000000 14.235683 0.000000
39.581089 37.001996 13.333780 0.000000 46.000000 14.640435 30.000000
43.734550 36.924307 13.942354 0.000000 57.000000 14.368744 0.000000
41.644493 36.597419 13.104375 0.000000 24.000000 14.332651 0.000000
37.884682 36.920450 13.443661 0.000000 49.000000 14.527543 29.000000
43.224548 37.940921 17.220974 0.000000 41.000000 14.261919 0.000000
40.171421 37.557203 16.297428 0.000000 22.000000 14.199969 0.000000
41.162281 37.614249 16.200177 0.000000 27.000000 14.285583 0.000000
42.522564 37.042051 14.255151 0.000000 72.000000 14.378174 0.000000
41.037704 37.628967 16.156643 0.000000 26.000000 14.313679 0.000000
41.099392 36.445476 12.716900 0.000000 33.000000 14.315213 0.000000
42.681999 37.360632 15.203203 0.000000 45.000000 14.370557 0.000000
38.750885 37.272902 13.861074 0.000000 61.000000 14.724802 17.000000
37.988361 37.310008 13.723565 0.000000 58.000000 14.804677 27.000000
41.274494 37.387308 15.278317 0.000000 50.000000 14.371310 0.000000
40.245396 38.291417 17.399890 0.000000 55.000000 14.535017 14.000000
42.108856 37.604173 16.040696 0.000000 38.000000 14.328006 0.000000
39.951454 37.241519 14.880836 0.000000 58.000000 14.362950 0.000000
39.461781 37.290972 14.421197 0.000000 66.000000 14.559430 8.000000
43.513657 36.468974 12.826106 0.000000 41.000000 14.301857 0.000000
39.813995 38.477623 17.425429 0.000000 40.000000 14.702748 14.000000
39.454170 37.089107 14.380857 0.000000 37.000000 14.381716 0.000000
39.880379 37.576058 16.283761 0.000000 48.000000 14.222248 0.000000
43.782146 37.585687 15.889409 0.000000 49.000000 14.359809 0.000000
42.149670 37.975618 16.941137 0.000000 57.000000 14.385879 23.000000
38.262627 38.069146 17.302778 0.000000 46.000000 14.356503 0.000000
40.058449 37.531292 15.810421 0.000000 30.000000 14.334111 0.000000
43.871037 37.586885 15.277116 0.000000 46.000000 14.560393 7.000000
40.857773 37.599739 16.453606 0.000000 37.000000 14.189311 0.000000
39.921131 36.714972 13.695063 0.000000 41.000000 14.251380 0.000000
38.205536 37.385147 15.262497 0.000000 35.000000 14.374420 0.000000
38.615772 37.239339 13.363500 0.000000 52.000000 14.855152 17.000000
40.774174 37.799047 16.745318 0.000000 45.000000 14.282725 0.000000
40.656532 36.598612 12.784330 0.000000 32.000000 14.438032 28.000000
39.439114 37.194480 13.148112 0.000000 47.000000 14.882901 30.000000
40.463047 36.917947 14.041322 0.000000 51.000000 14.330492 0.000000
39.712898 36.654978 13.585565 0.000000 40.000000 14.230326 0.000000
43.603428 37.032018 14.408668 0.000000 51.000000 14.318681 0.000000
42.261692 36.601740 13.398809 0.000000 25.000000 14.240827 0.000000
38.846722 37.606668 15.995188 0.000000 49.000000 14.345189 0.000000
38.857239 37.575893 16.229527 0.000000 33.000000 14.239758 0.000000
43.851383 37.294247 15.154933 0.000000 45.000000 14.323516 0.000000
39.333035 37.133744 13.830910 0.000000 50.000000 14.603060 16.000000
43.906891 38.069358 16.835058 0.000000 57.000000 14.509061 20.000000
39.971565 37.376299 14.537345 0.000000 71.000000 14.602269 8.000000
41.191658 38.173300 17.444333 0.000000 42.000000 14.408866 22.000000
37.931446 38.061008 17.316904 0.000000 47.000000 14.344208 0.000000
39.078537 37.212881 15.146019 0.000000 28.000000 14.249492 0.000000
42.834743 36.896454 13.935830 0.000000 55.000000 14.344535 0.000000
39.018631 37.150162 15.100411 0.000000 24.000000 14.205050 0.000000
37.769947 37.239676 15.072141 0.000000 21.000000 14.298891 0.000000
38.956352 37.140465 15.016844 0.000000 27.000000 14.223103 0.000000
37.910625 37.535551 15.842540 0.000000 45.000000 14.327675 0.000000
42.688248 36.594968 13.251291 0.000000 38.000000 14.282477 0.000000
40.183510 36.582201 13.531402 0.000000 32.000000 14.179162 0.000000
39.350334 37.226029 14.526406 0.000000 35.000000 14.463758 8.000000
43.796638 37.501364 15.840887 0.000000 30.000000 14.295891 0.000000
43.399742 36.540665 12.974909 0.000000 53.000000 14.321166 0.000000
40.334503 36.610369 12.702238 0.000000 42.000000 14.475889 28.000000
38.555069 37.033676 14.223476 0.000000 30.000000 14.380574 0.000000
38.569717 36.548643 12.839611 0.000000 34.000000 14.372781 0.000000
40.475994 36.692090 13.654361 0.000000 40.000000 14.243004 0.000000
41.698238 36.943958 14.211633 0.000000 46.000000 14.299607 0.000000
38.992523 36.894960 12.926480 0.000000 77.000000 14.671912 30.000000
43.764816 36.733268 13.771134 0.000000 35.000000 14.243898 0.000000
43.298580 36.868056 13.789996 0.000000 39.000000 14.365191 0.000000
41.301765 37.028645 14.401771 0.000000 53.000000 14.317739 0.000000
41.855827 37.566357 16.257433 0.000000 36.000000 14.221652 0.000000
42.885494 36.868471 13.861759 0.000000 43.000000 14.342207 0.000000
43.807987 36.857169 13.865535 0.000000 40.000000 14.330291 0.000000
