20.457686 16.114576 -51.619338 0.000000 54.000000 14.225646 0.000000
20.708362 16.395109 -52.411856 0.000000 62.000000 14.228302 0.000000
19.045751 15.070806 -48.494234 0.000000 39.000000 14.265358 0.000000
19.063570 15.027030 -48.333075 0.000000 44.000000 14.278711 0.000000
21.558366 14.923304 -48.410422 0.000000 50.000000 14.205759 0.000000
20.500271 16.632525 -53.336355 0.000000 41.000000 14.136643 0.000000
23.763849 14.057093 -46.248131 0.000000 33.000000 14.162346 0.000000
23.561525 14.151896 -46.236197 0.000000 42.000000 14.251504 0.000000
20.458392 14.682549 -47.584545 0.000000 37.000000 14.234507 0.000000
20.490294 16.062819 -51.426115 0.000000 52.000000 14.242571 0.000000
22.270260 15.716822 -50.627855 0.000000 49.000000 14.221498 0.000000
19.331190 15.318979 -47.710800 0.000000 58.000000 14.768332 9.000000
21.099537 14.722820 -47.950411 0.000000 45.000000 14.162398 0.000000
23.204241 14.839904 -47.675991 0.000000 35.000000 14.407730 12.000000
22.148188 14.439232 -46.848874 0.000000 44.000000 14.287223 0.000000
21.755158 14.373844 -46.875197 0.000000 26.000000 14.208815 0.000000
21.788623 14.487546 -47.117524 0.000000 41.000000 14.235040 0.000000
20.904522 16.529168 -52.841933 0.000000 35.000000 14.213851 0.000000
20.478746 15.302611 -49.626691 0.000000 33.000000 14.131834 0.000000
21.210758 14.598795 -47.589185 0.000000 50.000000 14.169388 0.000000
20.699959 14.839609 -47.852535 0.000000 52.000000 14.297154 0.000000
22.403366 16.154201 -51.604123 0.000000 66.000000 14.307631 13.000000
19.525533 14.644752 -47.494833 0.000000 40.000000 14.210130 0.000000
19.744818 15.660704 -50.215236 0.000000 43.000000 14.256103 0.000000
22.163711 16.146259 -51.952696 0.000000 45.000000 14.178036 0.000000
18.974161 15.526309 -49.919567 0.000000 47.000000 14.213349 0.000000
18.440403 15.143811 -48.896222 0.000000 49.000000 14.186575 0.000000
21.988596 15.210372 -49.477235 0.000000 24.000000 14.125957 0.000000
25.727049 15.745861 -51.088685 0.000000 34.000000 14.164118 0.000000
20.203251 15.170708 -48.147951 0.000000 51.000000 14.499425 6.000000
21.673045 16.588654 -52.753408 0.000000 29.000000 14.315259 15.000000
19.877464 15.837538 -50.744207 0.000000 36.000000 14.247370 0.000000
23.890081 14.816050 -47.608789 0.000000 47.000000 14.421818 25.000000
21.366256 16.034727 -51.926092 0.000000 22.000000 14.065763 0.000000
24.354169 15.623402 -50.477426 0.000000 51.000000 14.226508 0.000000
21.164932 14.544017 -47.277201 0.000000 33.000000 14.221819 0.000000
20.319233 16.484115 -52.907017 0.000000 41.000000 14.137641 0.000000
23.161774 16.093825 -51.819307 0.000000 40.000000 14.193827 0.000000
22.579063 15.108983 -48.684422 0.000000 48.000000 14.309170 0.000000
22.778553 15.100651 -48.893343 0.000000 43.000000 14.235109 0.000000
24.162191 16.010526 -51.504466 0.000000 46.000000 14.241638 0.000000
20.069256 16.297080 -52.373721 0.000000 39.000000 14.135839 0.000000
23.678887 14.072074 -46.269915 0.000000 26.000000 14.167395 0.000000
18.928775 14.906044 -48.031142 0.000000 37.000000 14.263617 0.000000
20.359247 14.840628 -47.019947 0.000000 64.000000 14.571232 2.000000
23.467511 14.493377 -47.168708 0.000000 27.000000 14.257448 0.000000
25.287247 15.858203 -51.029029 0.000000 49.000000 14.281014 0.000000
19.189585 15.229601 -48.059505 0.000000 72.000000 14.564014 9.000000
22.426967 16.313813 -51.758301 0.000000 70.000000 14.406529 13.000000
19.803029 15.661664 -50.046049 0.000000 54.000000 14.315096 0.000000
20.706614 15.047377 -48.386618 0.000000 46.000000 14.313264 20.000000
23.527669 14.441436 -46.779086 0.000000 33.000000 14.340819 10.000000
20.862409 16.412619 -52.524761 0.000000 42.000000 14.209944 0.000000
20.258699 15.800949 -50.561687 0.000000 56.000000 14.282062 0.000000
20.326263 16.334337 -52.346945 0.000000 41.000000 14.185148 0.000000
20.093030 15.097448 -48.840131 0.000000 29.000000 14.195391 0.000000
19.385525 15.661514 -50.526202 0.000000 38.000000 14.144965 0.000000
20.313699 16.631546 -53.136839 0.000000 51.000000 14.199036 0.000000
20.165270 16.311376 -52.370093 0.000000 44.000000 14.152471 0.000000
20.484865 16.628237 -52.604780 0.000000 67.000000 14.378361 23.000000
21.524749 15.860475 -50.991292 0.000000 41.000000 14.219348 0.000000
25.287013 15.916291 -50.378111 0.000000 56.000000 14.554640 29.000000
22.852690 15.015550 -48.711415 0.000000 36.000000 14.217685 0.000000
19.497302 15.931237 -49.697163 0.000000 64.000000 14.680037 28.000000
20.445212 16.024845 -49.978450 0.000000 61.000000 14.692831 27.000000
20.646156 15.116267 -48.781968 0.000000 52.000000 14.243918 0.000000
21.755734 14.993862 -47.905503 0.000000 62.000000 14.446035 18.000000
21.033561 16.269216 -51.873696 0.000000 70.000000 14.297397 0.000000
21.852667 15.373650 -49.666594 0.000000 26.000000 14.213231 0.000000
19.328014 15.524426 -48.918295 0.000000 46.000000 14.555552 28.000000
25.760412 15.792147 -51.234665 0.000000 30.000000 14.159274 0.000000
19.519995 15.618207 -50.019825 0.000000 51.000000 14.277246 0.000000
24.460142 15.220413 -49.109036 0.000000 41.000000 14.309507 30.000000
19.368071 15.478349 -48.109338 0.000000 51.000000 14.785081 9.000000
20.587763 16.261128 -52.034471 0.000000 49.000000 14.226641 0.000000
20.652751 15.213060 -48.987464 0.000000 39.000000 14.266065 0.000000
20.667112 15.047486 -48.545765 0.000000 55.000000 14.259034 0.000000
23.060437 15.388836 -49.732011 0.000000 32.000000 14.230081 0.000000
20.254699 15.971633 -50.259429 0.000000 72.000000 14.544350 27.000000
19.750038 15.534310 -49.907529 0.000000 27.000000 14.240705 0.000000
22.550844 15.881055 -51.229016 0.000000 41.000000 14.179626 0.000000
21.877012 15.510298 -49.943215 0.000000 61.000000 14.249339 0.000000
19.641061 15.779635 -49.761973 0.000000 61.000000 14.518425 28.000000
25.383119 15.976329 -51.137325 0.000000 41.000000 14.357754 29.000000
22.775240 15.872200 -50.964938 0.000000 51.000000 14.264676 0.000000
21.328414 16.100145 -51.970425 0.000000 27.000000 14.111673 0.000000
22.917759 15.826213 -50.883384 0.000000 42.000000 14.251707 0.000000
22.267606 15.402313 -49.685139 0.000000 41.000000 14.242416 0.000000
24.908412 15.658606 -50.511124 0.000000 34.000000 14.259588 0.000000
22.111898 14.250473 -46.683699 0.000000 20.000000 14.164323 0.000000
20.304569 16.171137 -51.726215 0.000000 45.000000 14.239838 0.000000
22.326669 14.192878 -46.581910 0.000000 31.000000 14.148701 0.000000
23.452412 15.651935 -50.519370 0.000000 43.000000 14.220930 0.000000
21.983633 14.502696 -46.867304 0.000000 54.000000 14.337432 0.000000
21.457356 15.847024 -50.747870 0.000000 32.000000 14.287190 0.000000
20.439778 14.924949 -48.234395 0.000000 55.000000 14.243773 0.000000
23.122813 14.890460 -47.896608 0.000000 24.000000 14.379467 12.000000
21.206319 15.677644 -50.401582 0.000000 36.000000 14.239088 0.000000
20.837377 15.657263 -49.969582 0.000000 38.000000 14.357703 0.000000
23.135414 15.108957 -49.026527 0.000000 37.000000 14.205388 0.000000
21.251938 15.265754 -49.026146 0.000000 38.000000 14.314848 0.000000
23.766761 15.689584 -50.682846 0.000000 28.000000 14.207783 0.000000
24.068328 15.429280 -49.998919 0.000000 42.000000 14.198876 0.000000
20.194890 15.496758 -49.609577 0.000000 52.000000 14.314611 0.000000
19.755583 15.618705 -49.526547 0.000000 40.000000 14.448422 8.000000
24.394913 15.304814 -49.641713 0.000000 35.000000 14.208477 0.000000
21.248151 15.060781 -48.736803 0.000000 40.000000 14.219108 0.000000
23.930890 14.834218 -48.055791 0.000000 35.000000 14.289402 0.000000
23.915731 15.926716 -51.032387 0.000000 26.000000 14.316505 0.000000
19.553411 15.965855 -49.577232 0.000000 72.000000 14.754110 28.000000
24.443248 14.525185 -47.517640 0.000000 41.000000 14.189870 0.000000
24.543695 16.034826 -51.785891 0.000000 31.000000 14.177615 0.000000
19.677738 15.968989 -50.677659 0.000000 69.000000 14.389455 5.000000
20.749721 14.933388 -47.947589 0.000000 51.000000 14.354488 0.000000
20.135652 15.897849 -50.961025 0.000000 49.000000 14.236474 0.000000
23.100295 15.997918 -51.383349 0.000000 40.000000 14.248916 0.000000
20.763255 15.981064 -50.453417 0.000000 50.000000 14.498319 26.000000
22.773920 15.904862 -51.420417 0.000000 39.000000 14.142199 0.000000
22.525470 15.977374 -51.281295 0.000000 52.000000 14.252213 0.000000
22.329392 15.983145 -51.236252 0.000000 62.000000 14.268809 0.000000
19.036516 15.304191 -48.222950 0.000000 36.000000 14.576153 7.000000
24.064441 14.784849 -47.845036 0.000000 33.000000 14.316525 25.000000
19.427306 15.514355 -48.312169 0.000000 73.000000 14.751962 9.000000
21.340825 14.719503 -47.438302 0.000000 49.000000 14.336432 0.000000
22.348225 16.365235 -52.463561 0.000000 46.000000 14.216125 0.000000
24.009257 15.460631 -49.216171 0.000000 46.000000 14.490473 1.000000
19.776207 15.948836 -50.358344 0.000000 63.000000 14.479886 5.000000
20.001591 15.129780 -48.409936 0.000000 45.000000 14.368671 0.000000
21.984386 16.336860 -52.462440 0.000000 43.000000 14.182390 0.000000
19.174141 16.425578 -50.022741 0.000000 69.000000 15.029387 21.000000
19.773860 15.500435 -49.729321 0.000000 44.000000 14.269237 0.000000
21.650818 16.277459 -52.522881 0.000000 39.000000 14.099351 0.000000
22.461996 14.911929 -48.290092 0.000000 33.000000 14.253895 0.000000
21.351632 16.094905 -51.589290 0.000000 32.000000 14.235408 0.000000
20.807126 16.411098 -52.494223 0.000000 50.000000 14.217660 0.000000
20.869786 16.370594 -52.373863 0.000000 49.000000 14.221283 0.000000
20.816779 15.567288 -49.852966 0.000000 51.000000 14.311795 0.000000
25.180082 15.878969 -51.333940 0.000000 32.000000 14.195828 0.000000
19.397738 15.918920 -49.051408 0.000000 15.000000 14.883619 28.000000
19.269332 15.320296 -47.946182 0.000000 73.000000 14.689143 9.000000
23.266034 14.927552 -48.239447 0.000000 44.000000 14.301986 0.000000
20.757025 16.141149 -51.701608 0.000000 58.000000 14.229080 0.000000
20.055404 16.294881 -52.557246 0.000000 41.000000 14.071757 0.000000
18.941327 15.579196 -49.376565 0.000000 51.000000 14.445116 28.000000
22.407791 15.229573 -49.246721 0.000000 37.000000 14.230092 0.000000
20.405716 15.043450 -48.269826 0.000000 56.000000 14.342733 0.000000
20.093242 15.879968 -50.937805 0.000000 49.000000 14.226587 0.000000
23.402947 15.790266 -50.887297 0.000000 35.000000 14.226411 0.000000
22.722271 14.479685 -46.831110 0.000000 52.000000 14.342958 11.000000
19.076833 16.012151 -50.242858 0.000000 66.000000 14.564124 21.000000
19.788062 15.981085 -51.346043 0.000000 36.000000 14.178272 0.000000
21.144028 15.689092 -50.102167 0.000000 59.000000 14.349309 17.000000
23.855395 14.772181 -47.985603 0.000000 31.000000 14.253066 0.000000
20.985917 15.626242 -50.354804 0.000000 28.000000 14.201945 0.000000
24.336967 15.837628 -50.037940 0.000000 42.000000 14.575679 1.000000
23.742549 15.975047 -51.303902 0.000000 48.000000 14.267163 0.000000
21.229850 16.564688 -52.975944 0.000000 39.000000 14.208832 0.000000
19.637925 16.078459 -50.492131 0.000000 56.000000 14.554117 5.000000
19.167312 15.346720 -47.704891 0.000000 58.000000 14.793106 9.000000
23.459036 14.386055 -46.749070 0.000000 45.000000 14.297378 10.000000
20.882436 14.898578 -48.115728 0.000000 50.000000 14.267858 0.000000
22.552377 15.064422 -48.714313 0.000000 30.000000 14.256618 0.000000
20.964563 14.846829 -47.995928 0.000000 36.000000 14.261100 0.000000
21.587755 15.160283 -48.962850 0.000000 48.000000 14.243664 0.000000
20.164858 15.089094 -48.543918 0.000000 47.000000 14.288618 0.000000
23.899579 14.740758 -47.224217 0.000000 37.000000 14.480475 25.000000
21.561887 15.396774 -49.630691 0.000000 46.000000 14.241166 0.000000
20.403198 14.844074 -47.928216 0.000000 40.000000 14.269868 0.000000
20.747267 15.065330 -47.336822 0.000000 50.000000 14.684098 2.000000
20.197770 14.570582 -47.171063 0.000000 49.000000 14.262867 0.000000
18.399101 15.544131 -48.144338 0.000000 80.000000 14.815543 7.000000
19.146756 15.287324 -47.360179 0.000000 69.000000 14.852711 9.000000
22.005978 14.786598 -47.902021 0.000000 37.000000 14.257152 0.000000
23.442119 16.530558 -51.868649 0.000000 56.000000 14.594121 19.000000
23.345769 14.869786 -47.627280 0.000000 66.000000 14.455125 12.000000
22.282564 14.610001 -47.468174 0.000000 38.000000 14.242433 0.000000
22.683243 16.362153 -51.541078 0.000000 56.000000 14.530316 13.000000
23.886765 14.872436 -47.556711 0.000000 47.000000 14.492356 25.000000
19.234634 15.328030 -48.372318 0.000000 50.000000 14.552386 9.000000
22.508719 14.327678 -46.976794 0.000000 37.000000 14.146498 0.000000
19.833017 14.989077 -47.855868 0.000000 61.000000 14.419133 6.000000
22.424818 15.099707 -48.805014 0.000000 44.000000 14.256738 0.000000
22.132002 15.300621 -48.970484 0.000000 42.000000 14.384292 18.000000
23.880130 16.031844 -51.600324 0.000000 40.000000 14.223732 0.000000
21.526706 16.640702 -52.560911 0.000000 49.000000 14.426035 15.000000
21.188767 15.723904 -50.357451 0.000000 54.000000 14.297129 0.000000
25.500079 15.419323 -50.511825 0.000000 29.000000 14.046093 0.000000
21.470063 16.120634 -51.460469 0.000000 57.000000 14.305370 0.000000
22.432173 16.386892 -52.523766 0.000000 33.000000 14.217973 0.000000
20.129845 16.117904 -51.577634 0.000000 55.000000 14.236143 0.000000
24.174375 15.142983 -49.131251 0.000000 36.000000 14.223324 0.000000
24.808364 15.538635 -50.361838 0.000000 36.000000 14.194812 0.000000
24.526854 15.639803 -50.502121 0.000000 54.000000 14.237155 0.000000
20.803696 15.022589 -47.625171 0.000000 72.000000 14.548016 2.000000
20.992040 16.434046 -52.573091 0.000000 53.000000 14.216498 0.000000
25.240815 15.297265 -49.847219 0.000000 32.000000 14.149446 0.000000
23.452869 15.160540 -49.170636 0.000000 40.000000 14.211937 0.000000
24.106560 15.493320 -50.472499 0.000000 34.000000 14.100657 0.000000
20.460416 15.244355 -48.424584 0.000000 56.000000 14.480947 14.000000
23.938196 15.478428 -50.515354 0.000000 33.000000 14.068798 0.000000
22.814256 14.527319 -46.831721 0.000000 41.000000 14.389471 11.000000
19.606346 15.835559 -50.880942 0.000000 35.000000 14.194002 0.000000
22.926227 15.184816 -49.222557 0.000000 38.000000 14.206622 0.000000
22.607423 14.605317 -47.440480 0.000000 52.000000 14.253942 0.000000
22.744257 15.209449 -49.227345 0.000000 38.000000 14.224504 0.000000
18.380530 15.002050 -48.648342 0.000000 38.000000 14.135263 0.000000
25.396780 15.335267 -49.899260 0.000000 23.000000 14.170891 0.000000
21.782296 16.350747 -52.682310 0.000000 31.000000 14.117401 0.000000
21.929543 14.452186 -46.988143 0.000000 33.000000 14.248131 0.000000
22.229533 15.262212 -49.285274 0.000000 51.000000 14.244232 0.000000
21.865012 14.403710 -46.805629 0.000000 42.000000 14.262567 0.000000
22.307065 16.461408 -52.670031 0.000000 47.000000 14.236390 0.000000
21.763930 14.962894 -48.182997 0.000000 36.000000 14.323708 18.000000
20.580680 14.944995 -47.245303 0.000000 74.000000 14.598197 2.000000
20.947690 14.723568 -47.554275 0.000000 44.000000 14.293257 0.000000
22.255941 15.729564 -50.557184 0.000000 48.000000 14.256974 0.000000
22.104372 15.725161 -50.619969 0.000000 43.000000 14.228629 0.000000
20.563847 16.534533 -52.269545 0.000000 53.000000 14.404501 22.000000
19.812349 15.271264 -48.566541 0.000000 56.000000 14.445358 9.000000
21.877889 16.077649 -51.489472 0.000000 42.000000 14.263436 0.000000
24.224032 15.733452 -51.078670 0.000000 38.000000 14.125244 0.000000
21.087555 15.400541 -49.505697 0.000000 52.000000 14.277111 0.000000
21.876508 14.491406 -47.075185 0.000000 31.000000 14.254702 0.000000
22.101412 15.647762 -50.389118 0.000000 39.000000 14.233344 0.000000
21.441617 15.818833 -50.758150 0.000000 45.000000 14.256869 0.000000
20.350346 16.453915 -52.941606 0.000000 40.000000 14.098207 0.000000
21.274007 15.853343 -50.785457 0.000000 57.000000 14.276769 0.000000
22.140388 16.018428 -51.481030 0.000000 39.000000 14.215854 0.000000
21.133210 15.850718 -50.863909 0.000000 49.000000 14.245047 0.000000
21.012548 15.251174 -49.044273 0.000000 35.000000 14.290157 0.000000
20.401642 15.362870 -49.913186 0.000000 33.000000 14.090637 0.000000
23.152290 14.914313 -47.553792 0.000000 44.000000 14.517833 12.000000
19.654155 16.032966 -51.543052 0.000000 32.000000 14.158132 0.000000
21.942888 15.473059 -49.721873 0.000000 45.000000 14.290067 0.000000
21.889072 16.401356 -52.165974 0.000000 35.000000 14.340894 16.000000
20.446725 14.795167 -47.163999 0.000000 76.000000 14.481755 2.000000
18.539059 15.517664 -47.877118 0.000000 81.000000 14.883350 7.000000
23.175363 16.230029 -51.353986 0.000000 60.000000 14.478855 19.000000
23.467067 15.583479 -50.288677 0.000000 48.000000 14.234370 0.000000
21.276848 16.382055 -52.401192 0.000000 41.000000 14.231157 0.000000
19.222268 15.605673 -50.347467 0.000000 42.000000 14.149189 0.000000
23.234325 15.482452 -50.141013 0.000000 39.000000 14.184188 0.000000
23.883412 14.808410 -47.524404 0.000000 40.000000 14.442872 25.000000
24.405942 15.558259 -50.014564 0.000000 46.000000 14.321914 1.000000
20.326346 16.400712 -52.845749 0.000000 39.000000 14.079869 0.000000
23.277055 15.488840 -50.001754 0.000000 49.000000 14.237911 0.000000
19.048344 15.744891 -49.076114 0.000000 68.000000 14.704355 28.000000
22.414152 16.135737 -51.566179 0.000000 37.000000 14.303229 13.000000
19.741776 14.995125 -48.302603 0.000000 43.000000 14.272710 0.000000
23.099382 14.801780 -47.556224 0.000000 40.000000 14.409987 12.000000
22.059234 14.638524 -47.154115 0.000000 38.000000 14.370382 0.000000
22.907651 15.933736 -51.160035 0.000000 47.000000 14.259684 0.000000
21.805462 15.580599 -49.961153 0.000000 60.000000 14.308040 0.000000
23.950753 14.152655 -46.401919 0.000000 37.000000 14.204391 0.000000
23.799600 14.152426 -46.451307 0.000000 30.000000 14.184491 0.000000
21.751207 15.143037 -48.272606 0.000000 55.000000 14.462917 18.000000
24.785910 14.884138 -48.663773 0.000000 44.000000 14.149288 0.000000
19.093283 15.564605 -50.221285 0.000000 38.000000 14.150342 0.000000
21.388852 15.878683 -51.038349 0.000000 26.000000 14.217901 0.000000
24.372462 15.724108 -51.138641 0.000000 32.000000 14.099293 0.000000
19.711680 15.263292 -48.757939 0.000000 39.000000 14.371428 9.000000
22.614159 16.365128 -52.065256 0.000000 43.000000 14.355403 13.000000
21.468647 16.728546 -52.601410 0.000000 50.000000 14.493939 15.000000
22.454312 14.274306 -46.928555 0.000000 30.000000 14.111366 0.000000
20.838675 15.535028 -50.305877 0.000000 40.000000 14.129528 0.000000
24.194182 14.581629 -47.623768 0.000000 32.000000 14.202252 0.000000
18.896042 15.180487 -48.690618 0.000000 30.000000 14.299526 0.000000
21.440817 15.933642 -51.152129 0.000000 39.000000 14.232431 0.000000
23.578685 16.492524 -51.750161 0.000000 62.000000 14.600942 19.000000
22.470021 14.855582 -48.129443 0.000000 45.000000 14.255041 0.000000
23.573793 15.188673 -49.290226 0.000000 42.000000 14.200658 0.000000
22.298070 15.292633 -49.060805 0.000000 46.000000 14.349768 0.000000
21.138903 16.385024 -52.364163 0.000000 32.000000 14.243602 0.000000
20.889806 16.831037 -53.087782 0.000000 48.000000 14.415073 23.000000
19.767886 15.214158 -48.175555 0.000000 56.000000 14.522198 9.000000
21.145815 14.610511 -47.420479 0.000000 42.000000 14.235843 0.000000
21.682792 14.943216 -48.625601 0.000000 51.000000 14.154659 0.000000
21.829217 16.440949 -51.749409 0.000000 55.000000 14.517068 16.000000
19.964617 15.757136 -50.605562 0.000000 40.000000 14.220075 0.000000
25.262890 15.850845 -50.962721 0.000000 56.000000 14.295893 0.000000
20.344225 15.180236 -48.908353 0.000000 32.000000 14.255497 0.000000
22.171808 16.070563 -51.498009 0.000000 26.000000 14.259868 0.000000
20.439212 15.424684 -48.512125 0.000000 63.000000 14.620853 14.000000
20.746853 15.228086 -49.122170 0.000000 59.000000 14.236816 0.000000
19.969700 16.181664 -51.987858 0.000000 32.000000 14.154936 0.000000
21.053028 15.784886 -51.182901 0.000000 25.000000 14.074140 0.000000
19.918513 14.906207 -48.267451 0.000000 40.000000 14.204409 0.000000
20.370982 15.360343 -49.359019 0.000000 43.000000 14.274030 0.000000
19.905154 15.516964 -49.738139 0.000000 54.000000 14.284503 0.000000
24.660914 15.358760 -49.118890 0.000000 44.000000 14.440530 30.000000
20.519785 16.320922 -52.167744 0.000000 58.000000 14.236728 0.000000
22.624157 15.279949 -49.398651 0.000000 41.000000 14.230819 0.000000
21.205780 14.705151 -47.238379 0.000000 61.000000 14.387418 3.000000
21.157402 15.881404 -50.050205 0.000000 47.000000 14.548124 17.000000
18.190212 14.912213 -48.175878 0.000000 46.000000 14.205727 0.000000
23.512449 15.360944 -49.938312 0.000000 32.000000 14.143620 0.000000
19.532481 15.455189 -48.531574 0.000000 43.000000 14.624598 9.000000
23.271873 15.600852 -50.382753 0.000000 45.000000 14.215116 0.000000
20.840922 14.420712 -46.883728 0.000000 63.000000 14.231485 0.000000
19.204833 15.687510 -49.898488 0.000000 69.000000 14.376902 28.000000
21.099968 16.324906 -52.348305 0.000000 47.000000 14.191544 0.000000
23.735615 16.024920 -51.382380 0.000000 38.000000 14.287582 0.000000
21.034056 16.101072 -51.818910 0.000000 24.000000 14.157524 0.000000
19.624326 14.655045 -47.636095 0.000000 41.000000 14.174315 0.000000
19.543386 14.688571 -47.759030 0.000000 43.000000 14.162886 0.000000
21.897898 15.160224 -49.248684 0.000000 55.000000 14.153772 0.000000
18.512569 15.872298 -48.059090 0.000000 7.000000 15.155497 7.000000
18.720701 15.170294 -49.162798 0.000000 43.000000 14.127544 0.000000
19.899665 15.324628 -48.658188 0.000000 54.000000 14.466550 9.000000
18.653503 15.218933 -49.297221 0.000000 49.000000 14.126759 0.000000
23.593715 16.115607 -51.613611 0.000000 29.000000 14.292304 0.000000
19.280280 15.998614 -49.404520 0.000000 48.000000 14.837492 28.000000
19.868335 15.233542 -48.515119 0.000000 41.000000 14.428276 9.000000
20.523535 14.947080 -47.388686 0.000000 76.000000 14.550770 2.000000
23.622303 15.377530 -48.302981 0.000000 8.000000 14.711521 12.000000
18.870540 15.393975 -49.708933 0.000000 33.000000 14.157494 0.000000
20.528711 16.615208 -52.866254 0.000000 59.000000 14.279037 0.000000
19.182848 15.559450 -48.664783 0.000000 43.000000 14.670847 28.000000
20.152670 16.128417 -51.599362 0.000000 54.000000 14.239196 0.000000
19.866632 15.282860 -48.605084 0.000000 42.000000 14.444415 9.000000
19.857357 15.195256 -47.705059 0.000000 69.000000 14.664474 6.000000
21.070310 16.520164 -52.850705 0.000000 44.000000 14.205794 0.000000
20.483453 16.077844 -51.558344 0.000000 47.000000 14.212103 0.000000
21.697019 14.451732 -47.003473 0.000000 46.000000 14.237819 0.000000
24.182894 14.374164 -47.350791 0.000000 31.000000 14.098507 0.000000
21.266744 16.531123 -52.647615 0.000000 55.000000 14.288416 0.000000
24.531283 15.291148 -49.222599 0.000000 64.000000 14.339354 30.000000
23.685743 16.056680 -51.661310 0.000000 39.000000 14.222651 0.000000
22.039531 16.461155 -52.511884 0.000000 63.000000 14.283906 0.000000
20.991759 16.184621 -51.238679 0.000000 69.000000 14.430490 26.000000
24.278050 15.563789 -50.400408 0.000000 41.000000 14.194740 0.000000
19.382910 15.626273 -50.170626 0.000000 41.000000 14.231331 0.000000
22.394369 16.382355 -52.454708 0.000000 57.000000 14.236160 0.000000
24.387747 15.349466 -49.711033 0.000000 35.000000 14.227056 0.000000
20.008050 15.072650 -48.160271 0.000000 55.000000 14.398990 6.000000
19.795854 16.125333 -51.969940 0.000000 44.000000 14.104392 0.000000
22.613103 16.387899 -52.103797 0.000000 55.000000 14.363857 13.000000
22.525296 15.704577 -50.542071 0.000000 30.000000 14.244008 0.000000
24.683336 15.829411 -51.043190 0.000000 36.000000 14.236864 0.000000
22.692455 15.792140 -50.754947 0.000000 48.000000 14.258247 0.000000
20.086914 15.298234 -47.751189 0.000000 46.000000 14.750580 6.000000
21.962583 15.368537 -49.598950 0.000000 37.000000 14.233403 0.000000
19.828484 16.043072 -51.371710 0.000000 44.000000 14.228823 0.000000
24.351516 15.022206 -48.749365 0.000000 33.000000 14.241661 0.000000
19.068571 15.139644 -47.696273 0.000000 60.000000 14.599032 9.000000
20.858139 15.011014 -48.186254 0.000000 51.000000 14.349502 20.000000
20.976197 16.548170 -52.794975 0.000000 38.000000 14.248993 0.000000
22.426080 16.319410 -52.306611 0.000000 45.000000 14.227354 0.000000
18.378920 15.281128 -47.685180 0.000000 71.000000 14.721951 7.000000
24.450443 15.954824 -51.576702 0.000000 31.000000 14.170758 0.000000
22.982051 15.950183 -51.448587 0.000000 24.000000 14.179626 0.000000
24.338025 14.988055 -48.706235 0.000000 32.000000 14.223740 0.000000
22.935823 15.798826 -50.607036 0.000000 40.000000 14.319240 0.000000
20.326399 15.839154 -50.593520 0.000000 68.000000 14.308702 27.000000
21.292743 15.077995 -48.532208 0.000000 53.000000 14.305039 20.000000
24.062886 15.436259 -49.992270 0.000000 38.000000 14.207573 0.000000
24.389549 15.733334 -51.204282 0.000000 28.000000 14.086249 0.000000
18.767057 15.512434 -48.226070 0.000000 79.000000 14.765690 7.000000
23.678315 15.949450 -51.103059 0.000000 53.000000 14.309312 0.000000
21.228820 15.742437 -50.594476 0.000000 44.000000 14.235669 0.000000
21.453570 15.468581 -49.929491 0.000000 43.000000 14.206069 0.000000
20.065849 15.777874 -50.628468 0.000000 43.000000 14.233954 0.000000
23.884726 16.104359 -51.923385 0.000000 40.000000 14.183437 0.000000
24.975517 15.114635 -49.336549 0.000000 29.000000 14.143869 0.000000
25.512770 15.788861 -50.803637 0.000000 33.000000 14.296124 0.000000
22.431616 16.375567 -52.390333 0.000000 63.000000 14.252179 0.000000
24.380824 15.756727 -49.888489 0.000000 51.000000 14.550670 1.000000
21.704786 16.262914 -52.254910 0.000000 48.000000 14.176887 0.000000
19.737227 16.010704 -50.325070 0.000000 70.000000 14.548535 5.000000
19.304184 15.328734 -48.628944 0.000000 53.000000 14.468146 9.000000
23.829052 15.321198 -49.903954 0.000000 26.000000 14.124192 0.000000
25.171867 15.531368 -50.278926 0.000000 25.000000 14.223248 0.000000
22.052980 15.226841 -49.385634 0.000000 28.000000 14.173582 0.000000
22.746613 15.979106 -51.473430 0.000000 49.000000 14.193715 0.000000
20.043391 16.224882 -51.868201 0.000000 53.000000 14.237372 0.000000
20.586343 16.578875 -53.227263 0.000000 38.000000 14.124574 0.000000
20.256968 16.682670 -53.170075 0.000000 52.000000 14.234837 0.000000
22.894071 14.796545 -48.257348 0.000000 32.000000 14.165057 0.000000
19.699541 14.753564 -47.661658 0.000000 43.000000 14.260003 0.000000
19.553230 15.869013 -49.811228 0.000000 52.000000 14.584223 28.000000
19.508347 15.590697 -48.395318 0.000000 74.000000 14.797521 9.000000
21.054887 16.579183 -52.984082 0.000000 47.000000 14.216185 0.000000
21.003656 15.631042 -50.266122 0.000000 32.000000 14.236653 0.000000
19.013561 15.277035 -47.494430 0.000000 58.000000 14.795161 9.000000
19.834451 15.718213 -50.378230 0.000000 44.000000 14.257247 0.000000
20.995815 16.470771 -51.975125 0.000000 56.000000 14.452281 4.000000
20.046213 15.741233 -50.557911 0.000000 40.000000 14.222789 0.000000
23.362771 16.246248 -51.794516 0.000000 55.000000 14.349761 19.000000
23.788671 14.704670 -47.806844 0.000000 43.000000 14.248273 0.000000
23.686870 15.203246 -48.646199 0.000000 42.000000 14.433299 12.000000
21.010992 16.203615 -51.229478 0.000000 48.000000 14.451860 26.000000
24.410961 15.231919 -48.783536 0.000000 47.000000 14.428824 30.000000
19.999056 15.792444 -49.241898 0.000000 80.000000 14.712693 8.000000
18.337421 15.450304 -47.602755 0.000000 42.000000 14.908113 7.000000
23.159833 14.858917 -47.956213 0.000000 49.000000 14.330473 12.000000
20.311464 15.997329 -51.377080 0.000000 36.000000 14.193769 0.000000
20.995868 16.588731 -53.004335 0.000000 47.000000 14.217163 0.000000
23.923825 14.934229 -47.432319 0.000000 41.000000 14.593128 25.000000
18.805494 15.369386 -49.644500 0.000000 28.000000 14.154693 0.000000
21.705229 14.338728 -46.674381 0.000000 22.000000 14.242283 0.000000
19.430178 15.566025 -49.034134 0.000000 58.000000 14.557832 28.000000
21.804713 15.651366 -50.339923 0.000000 39.000000 14.247252 0.000000
19.849315 15.246244 -48.873810 0.000000 46.000000 14.319201 8.000000
22.019654 15.558428 -50.117540 0.000000 46.000000 14.238919 0.000000
20.984818 14.720624 -47.636043 0.000000 35.000000 14.263737 0.000000
21.530768 15.116715 -48.880072 0.000000 43.000000 14.229328 0.000000
22.063852 14.906419 -48.197964 0.000000 42.000000 14.271600 0.000000
21.685281 14.457693 -47.028645 0.000000 42.000000 14.234726 0.000000
18.598206 15.362797 -48.543153 0.000000 64.000000 14.514719 7.000000
24.281257 15.757028 -49.867737 0.000000 42.000000 14.555909 1.000000
22.618471 15.264669 -49.412188 0.000000 35.000000 14.211765 0.000000
19.449386 15.430431 -49.168936 0.000000 27.000000 14.385218 28.000000
20.852893 16.566411 -52.796863 0.000000 47.000000 14.263025 0.000000
22.163822 14.816536 -48.038753 0.000000 36.000000 14.242558 0.000000
22.863105 15.143528 -49.005825 0.000000 44.000000 14.239363 0.000000
18.789861 15.289147 -48.493959 0.000000 71.000000 14.465819 7.000000
19.631893 15.867416 -51.063194 0.000000 36.000000 14.163214 0.000000
23.449834 15.114032 -48.249407 0.000000 46.000000 14.477947 12.000000
24.079543 14.975864 -47.918356 0.000000 65.000000 14.472013 24.000000
23.127590 14.585608 -47.342008 0.000000 36.000000 14.279083 0.000000
19.575303 15.207143 -48.001190 0.000000 75.000000 14.570326 9.000000
22.472505 14.639847 -47.528469 0.000000 36.000000 14.254115 0.000000
23.179313 14.937504 -48.498040 0.000000 38.000000 14.222613 0.000000
20.131326 16.239754 -51.919655 0.000000 55.000000 14.235856 0.000000
19.975146 15.311133 -48.568802 0.000000 43.000000 14.485445 9.000000
24.432468 14.590674 -47.698798 0.000000 33.000000 14.190375 0.000000
22.748381 14.447823 -47.010675 0.000000 31.000000 14.253092 0.000000
25.276484 15.969413 -50.735797 0.000000 46.000000 14.484131 29.000000
19.108124 15.346734 -47.570491 0.000000 44.000000 14.837122 9.000000
24.200778 14.758757 -47.671541 0.000000 38.000000 14.353086 0.000000
20.549874 14.799113 -47.317904 0.000000 57.000000 14.435801 2.000000
24.589985 15.505346 -50.075633 0.000000 61.000000 14.255296 0.000000
20.509922 14.981400 -47.011837 0.000000 71.000000 14.709561 2.000000
22.892065 15.803202 -50.635223 0.000000 48.000000 14.312991 0.000000
19.561521 16.075502 -49.648984 0.000000 65.000000 14.833375 28.000000
25.030318 16.144872 -51.425631 0.000000 49.000000 14.412294 0.000000
20.079384 15.221759 -47.519116 0.000000 47.000000 14.756484 6.000000
21.808956 15.330248 -49.504894 0.000000 30.000000 14.225867 0.000000
20.573555 16.162870 -51.750967 0.000000 47.000000 14.229198 0.000000
23.956117 14.165072 -46.427639 0.000000 42.000000 14.207540 0.000000
20.014737 15.323448 -48.716219 0.000000 38.000000 14.448260 0.000000
22.106442 15.784823 -50.812460 0.000000 33.000000 14.220098 0.000000
18.912285 15.001546 -47.952219 0.000000 40.000000 14.379745 7.000000
20.499337 16.512891 -53.066881 0.000000 39.000000 14.114625 0.000000
19.856918 16.103095 -51.875450 0.000000 42.000000 14.116478 0.000000
21.039598 15.345505 -49.121469 0.000000 45.000000 14.353555 0.000000
19.527952 15.216766 -47.920339 0.000000 50.000000 14.605619 9.000000
21.954848 14.752416 -47.760178 0.000000 39.000000 14.271639 0.000000
22.290617 14.710031 -47.690208 0.000000 46.000000 14.262094 0.000000
24.581760 15.998695 -51.788174 0.000000 31.000000 14.143603 0.000000
23.702676 15.632268 -50.453838 0.000000 36.000000 14.229544 0.000000
20.097612 16.230030 -52.179535 0.000000 40.000000 14.138602 0.000000
23.501057 15.647924 -50.419506 0.000000 50.000000 14.251732 0.000000
23.911290 15.342286 -49.994150 0.000000 26.000000 14.115380 0.000000
20.715820 16.289514 -50.770573 0.000000 80.000000 14.681089 26.000000
19.261324 15.927769 -49.566209 0.000000 66.000000 14.716022 28.000000
22.815955 15.891903 -51.509613 0.000000 40.000000 14.100851 0.000000
18.847654 15.198236 -48.714752 0.000000 44.000000 14.307135 0.000000
23.737233 14.655364 -47.166361 0.000000 51.000000 14.416235 25.000000
22.516893 16.331445 -52.072592 0.000000 55.000000 14.319246 13.000000
24.367910 14.767454 -48.026956 0.000000 35.000000 14.245126 0.000000
21.932133 15.148785 -49.147970 0.000000 52.000000 14.177574 0.000000
19.563838 15.990706 -49.768364 0.000000 39.000000 14.713432 28.000000
22.329571 16.244198 -51.964688 0.000000 35.000000 14.269587 0.000000
23.058314 16.020570 -51.888093 0.000000 34.000000 14.099616 0.000000
25.135952 15.693461 -50.723302 0.000000 50.000000 14.225663 0.000000
21.128251 15.802337 -50.571829 0.000000 47.000000 14.297637 0.000000
23.163972 16.104992 -52.107830 0.000000 33.000000 14.107340 0.000000
21.350581 15.317556 -48.989217 0.000000 56.000000 14.378048 0.000000
22.252149 16.092885 -51.654048 0.000000 55.000000 14.230034 0.000000
21.548339 15.669777 -50.471154 0.000000 39.000000 14.215234 0.000000
22.084869 16.082922 -51.692439 0.000000 41.000000 14.204339 0.000000
21.346895 16.667780 -52.467604 0.000000 68.000000 14.479257 15.000000
22.220260 15.962448 -51.217540 0.000000 62.000000 14.253399 0.000000
20.061929 15.472642 -49.338008 0.000000 64.000000 14.380546 8.000000
20.249991 15.947144 -51.170718 0.000000 45.000000 14.214680 0.000000
19.713358 15.179863 -48.085238 0.000000 44.000000 14.519179 9.000000
22.821290 14.722843 -46.509870 0.000000 50.000000 14.681959 11.000000
19.623561 15.289930 -48.183520 0.000000 69.000000 14.587925 9.000000
21.267558 15.732311 -50.512441 0.000000 42.000000 14.254515 0.000000
20.888764 16.163074 -51.847810 0.000000 52.000000 14.203225 0.000000
20.212047 15.795585 -50.617423 0.000000 48.000000 14.257317 0.000000
20.203145 15.944564 -51.077209 0.000000 36.000000 14.242750 0.000000
20.061509 15.789509 -50.678827 0.000000 44.000000 14.227882 0.000000
22.920686 16.052831 -51.972891 0.000000 31.000000 14.098670 0.000000
20.387424 16.222230 -51.930621 0.000000 55.000000 14.220875 0.000000
20.527931 16.488248 -51.973572 0.000000 65.000000 14.459744 22.000000
24.367653 16.022058 -51.552987 0.000000 37.000000 14.240353 0.000000
25.206124 15.286049 -49.532521 0.000000 43.000000 14.244030 0.000000
19.932570 16.228603 -52.118034 0.000000 47.000000 14.154590 0.000000
19.825998 15.842995 -49.138267 0.000000 65.000000 14.791626 8.000000
20.264982 16.127311 -51.607768 0.000000 50.000000 14.237611 0.000000
19.670629 15.696006 -50.285184 0.000000 58.000000 14.264304 0.000000
19.836574 15.569721 -50.045245 0.000000 52.000000 14.229483 0.000000
19.336278 15.220789 -48.909156 0.000000 44.000000 14.272915 0.000000
19.912587 15.512402 -49.917220 0.000000 51.000000 14.220124 0.000000
19.970424 15.485409 -49.753411 0.000000 46.000000 14.250982 0.000000
20.811276 16.867821 -52.872874 0.000000 52.000000 14.520395 23.000000
21.292923 14.705309 -47.426529 0.000000 34.000000 14.326054 0.000000
19.832616 14.692224 -47.259854 0.000000 50.000000 14.340105 0.000000
23.922233 14.743750 -47.910324 0.000000 32.000000 14.252977 0.000000
20.352368 15.168572 -48.926928 0.000000 50.000000 14.238433 0.000000
21.111228 14.501023 -46.799001 0.000000 56.000000 14.341093 0.000000
22.559944 16.309361 -51.491719 0.000000 44.000000 14.494707 13.000000
25.410420 15.895221 -51.359558 0.000000 40.000000 14.207195 0.000000
18.230443 15.218583 -47.971860 0.000000 23.000000 14.563619 7.000000
18.562254 15.654826 -48.042972 0.000000 41.000000 14.957176 7.000000
23.444548 16.015246 -51.458757 0.000000 29.000000 14.246866 0.000000
20.015783 14.871089 -47.384747 0.000000 64.000000 14.470225 6.000000
20.723858 16.406413 -50.951202 0.000000 41.000000 14.730559 26.000000
21.924732 15.218276 -48.594102 0.000000 53.000000 14.429147 18.000000
24.479526 14.617830 -47.791766 0.000000 43.000000 14.185630 0.000000
24.957496 14.972001 -49.035137 0.000000 33.000000 14.110592 0.000000
21.164475 15.860135 -50.883233 0.000000 60.000000 14.248049 0.000000
21.242233 15.758862 -50.546726 0.000000 50.000000 14.267466 0.000000
24.965872 15.002585 -48.779621 0.000000 38.000000 14.225501 0.000000
20.776617 16.396918 -52.472251 0.000000 48.000000 14.211079 0.000000
23.359701 16.387523 -51.953437 0.000000 46.000000 14.429258 19.000000
22.889100 14.604814 -46.740178 0.000000 38.000000 14.494746 11.000000
24.327543 14.447161 -47.442593 0.000000 26.000000 14.139298 0.000000
23.659216 15.153117 -49.120580 0.000000 39.000000 14.225979 0.000000
20.583783 16.541321 -53.059998 0.000000 36.000000 14.145424 0.000000
24.719597 15.600554 -50.461383 0.000000 30.000000 14.217823 0.000000
22.827658 14.709254 -48.119190 0.000000 36.000000 14.127992 0.000000
23.389812 15.101988 -49.289477 0.000000 36.000000 14.115555 0.000000
21.751657 14.367293 -46.741403 0.000000 32.000000 14.247578 0.000000
23.159689 15.208747 -49.230018 0.000000 49.000000 14.231390 0.000000
19.257827 15.219641 -47.602593 0.000000 73.000000 14.709708 9.000000
23.282901 15.664082 -50.562651 0.000000 27.000000 14.214363 0.000000
22.299419 14.846914 -48.165484 0.000000 39.000000 14.231289 0.000000
21.564637 16.565513 -52.654689 0.000000 38.000000 14.324472 15.000000
19.190974 15.822503 -49.151221 0.000000 72.000000 14.755064 28.000000
22.691637 15.250658 -49.384255 0.000000 41.000000 14.209455 0.000000
19.985075 15.927665 -51.037352 0.000000 45.000000 14.235812 0.000000
20.163628 15.122081 -48.250640 0.000000 53.000000 14.418297 6.000000
19.776034 15.451421 -48.549919 0.000000 45.000000 14.619830 9.000000
22.196916 15.363437 -49.481028 0.000000 55.000000 14.273030 0.000000
21.562332 14.928735 -48.444303 0.000000 47.000000 14.199556 0.000000
20.815503 16.462150 -51.231115 0.000000 43.000000 14.690749 26.000000
21.599856 16.092770 -51.399481 0.000000 50.000000 14.302288 0.000000
18.698639 15.674808 -47.976766 0.000000 54.000000 15.001031 7.000000
21.774538 15.395290 -49.698659 0.000000 54.000000 14.221231 0.000000
22.583121 15.026862 -48.647018 0.000000 42.000000 14.244515 0.000000
21.480654 15.448698 -49.821546 0.000000 47.000000 14.224208 0.000000
20.791518 14.607081 -47.239928 0.000000 23.000000 14.286140 0.000000
25.023848 15.762158 -50.858190 0.000000 24.000000 14.242693 0.000000
19.017420 15.436047 -48.839978 0.000000 89.000000 14.492370 28.000000
21.038430 15.557946 -49.989271 0.000000 54.000000 14.261660 0.000000
21.168434 15.812669 -50.958392 0.000000 41.000000 14.178159 0.000000
24.246441 15.603002 -50.240106 0.000000 61.000000 14.284935 0.000000
20.460807 16.546558 -53.072682 0.000000 25.000000 14.143588 0.000000
20.115249 15.744287 -50.562341 0.000000 51.000000 14.225578 0.000000
19.986986 15.776911 -50.648315 0.000000 46.000000 14.224768 0.000000
18.425237 15.395225 -47.646065 0.000000 69.000000 14.843474 7.000000
19.631351 15.833270 -50.978375 0.000000 44.000000 14.159583 0.000000
19.054369 15.420677 -49.916877 0.000000 40.000000 14.116430 0.000000
21.527880 15.183560 -48.816128 0.000000 47.000000 14.313713 0.000000
21.693280 16.022914 -51.361678 0.000000 38.000000 14.251132 0.000000
22.040972 15.275014 -48.806798 0.000000 67.000000 14.413388 18.000000
19.665583 15.964981 -50.658156 0.000000 78.000000 14.391994 5.000000
19.384987 16.081016 -50.858391 0.000000 34.000000 14.428188 0.000000
20.851419 16.552338 -51.179973 0.000000 56.000000 14.793594 26.000000
21.280541 15.740556 -50.300468 0.000000 63.000000 14.333839 17.000000
23.181959 14.208712 -46.353515 0.000000 42.000000 14.257820 0.000000
19.755016 14.790816 -48.110572 0.000000 34.000000 14.145210 0.000000
20.988462 16.309726 -51.317230 0.000000 80.000000 14.521791 26.000000
22.622128 14.301355 -46.598235 0.000000 34.000000 14.251350 0.000000
19.380640 14.940843 -47.590250 0.000000 62.000000 14.453864 9.000000
20.113680 15.739298 -50.264011 0.000000 57.000000 14.321193 27.000000
22.261805 14.314987 -46.859327 0.000000 34.000000 14.169039 0.000000
19.739155 15.299143 -48.264995 0.000000 62.000000 14.571544 9.000000
18.848626 15.033224 -48.370966 0.000000 49.000000 14.267427 0.000000
22.854139 14.577446 -46.849251 0.000000 69.000000 14.431581 11.000000
21.567999 14.560218 -47.143625 0.000000 55.000000 14.290197 0.000000
20.610847 14.694335 -47.237537 0.000000 37.000000 14.365422 2.000000
23.153417 14.892789 -47.809591 0.000000 59.000000 14.411551 12.000000
22.602959 16.382594 -52.086501 0.000000 46.000000 14.364475 13.000000
20.011366 15.048201 -48.428700 0.000000 44.000000 14.285750 0.000000
21.011560 16.382133 -52.378739 0.000000 50.000000 14.233389 0.000000
19.541216 15.218719 -49.005656 0.000000 43.000000 14.242675 0.000000
23.619616 15.326968 -48.569115 0.000000 69.000000 14.574346 12.000000
21.443294 15.934954 -51.175285 0.000000 44.000000 14.225929 0.000000
20.701842 16.396663 -51.013636 0.000000 64.000000 14.699931 26.000000
19.605595 15.384389 -48.458698 0.000000 65.000000 14.583937 9.000000
19.141902 15.103912 -47.852239 0.000000 66.000000 14.514421 9.000000
23.531996 15.987514 -51.365829 0.000000 54.000000 14.253790 0.000000
21.125748 15.839265 -50.790467 0.000000 46.000000 14.258815 0.000000
23.500048 15.065383 -48.520095 0.000000 48.000000 14.342116 12.000000
21.619229 14.947233 -48.530590 0.000000 32.000000 14.189106 0.000000
23.235304 15.433163 -49.907511 0.000000 46.000000 14.216340 0.000000
22.268147 16.241499 -52.093822 0.000000 40.000000 14.222361 0.000000
20.841418 16.529582 -51.110620 0.000000 73.000000 14.795293 26.000000
19.887132 15.579937 -49.428900 0.000000 66.000000 14.447440 8.000000
20.765632 16.385573 -52.394511 0.000000 55.000000 14.226322 0.000000
23.431261 15.243645 -48.866090 0.000000 45.000000 14.392178 0.000000
19.299674 15.340473 -48.615401 0.000000 55.000000 14.483662 9.000000
20.184713 15.107257 -48.831407 0.000000 45.000000 14.209424 0.000000
19.257224 15.569080 -50.231942 0.000000 37.000000 14.154304 0.000000
19.732073 14.755492 -47.505400 0.000000 21.000000 14.315039 0.000000
18.261866 15.210050 -48.028735 0.000000 69.000000 14.537094 7.000000
24.586848 15.880866 -51.382687 0.000000 45.000000 14.169156 0.000000
20.550746 16.126353 -50.958803 0.000000 58.000000 14.460801 26.000000
25.172806 15.781965 -51.029470 0.000000 34.000000 14.206759 0.000000
21.118193 15.481405 -49.826178 0.000000 55.000000 14.246074 0.000000
21.811783 16.287387 -52.262428 0.000000 23.000000 14.199575 0.000000
21.313549 14.817511 -48.324090 0.000000 25.000000 14.130213 0.000000
24.713805 16.033755 -51.205246 0.000000 48.000000 14.375368 0.000000
21.059071 16.561044 -52.969062 0.000000 38.000000 14.204244 0.000000
24.944418 16.100544 -51.418452 0.000000 59.000000 14.371227 0.000000
24.745358 15.920858 -50.954219 0.000000 48.000000 14.354150 0.000000
22.722287 15.279006 -49.410153 0.000000 51.000000 14.228057 0.000000
20.497950 16.190217 -51.219946 0.000000 41.000000 14.432020 26.000000
23.613924 15.200503 -48.703478 0.000000 40.000000 14.409968 12.000000
19.241292 15.810067 -49.535947 0.000000 35.000000 14.614975 28.000000
20.312941 16.402516 -52.492503 0.000000 54.000000 14.200111 0.000000
19.755706 15.996158 -51.230573 0.000000 55.000000 14.230644 0.000000
19.890271 15.989338 -51.139933 0.000000 57.000000 14.257447 0.000000
19.777997 15.242388 -48.579590 0.000000 54.000000 14.413083 9.000000
20.751392 16.336692 -52.263793 0.000000 49.000000 14.223978 0.000000
20.190142 15.900040 -51.052066 0.000000 47.000000 14.209023 0.000000
22.973585 14.805998 -48.280005 0.000000 26.000000 14.167953 0.000000
19.360419 15.432431 -48.182470 0.000000 72.000000 14.717094 9.000000
21.398243 16.107473 -52.113256 0.000000 36.000000 14.071951 0.000000
20.853924 16.263204 -50.749910 0.000000 69.000000 14.666075 26.000000
25.864319 15.864011 -51.386415 0.000000 27.000000 14.178006 0.000000
20.549298 15.217702 -48.925706 0.000000 40.000000 14.289105 0.000000
21.683690 14.870322 -48.008400 0.000000 32.000000 14.293645 0.000000
21.815096 15.112712 -48.459837 0.000000 28.000000 14.372688 18.000000
21.183662 15.857537 -51.265366 0.000000 21.000000 14.117461 0.000000
22.597564 14.212869 -46.455642 0.000000 35.000000 14.215501 0.000000
23.602978 15.783592 -50.823668 0.000000 30.000000 14.245596 0.000000
22.153523 16.011269 -51.437894 0.000000 48.000000 14.223890 0.000000
22.540539 14.544101 -47.262252 0.000000 28.000000 14.254896 0.000000
21.094055 16.395654 -52.477930 0.000000 50.000000 14.214433 0.000000
21.497460 16.080367 -51.378770 0.000000 25.000000 14.295495 0.000000
21.078680 15.690875 -50.433398 0.000000 38.000000 14.238248 0.000000
22.558362 15.876867 -51.177357 0.000000 56.000000 14.193213 0.000000
22.415312 14.156727 -46.391088 0.000000 30.000000 14.180650 0.000000
25.290211 15.310077 -50.002659 0.000000 42.000000 14.110229 0.000000
22.171361 15.358466 -49.826059 0.000000 46.000000 14.151777 0.000000
22.889601 15.817913 -50.793778 0.000000 46.000000 14.273459 0.000000
23.883817 14.770046 -47.732969 0.000000 27.000000 14.336609 25.000000
19.154099 15.737840 -48.957518 0.000000 67.000000 14.739756 28.000000
25.304350 15.955325 -51.196382 0.000000 54.000000 14.316514 0.000000
21.526707 15.745101 -50.590167 0.000000 36.000000 14.245682 0.000000
19.445070 15.745546 -49.460173 0.000000 66.000000 14.583856 28.000000
22.587850 15.256620 -49.345289 0.000000 37.000000 14.226065 0.000000
19.748324 14.800817 -47.558241 0.000000 40.000000 14.340270 6.000000
22.699429 15.212984 -49.240834 0.000000 35.000000 14.222383 0.000000
22.681531 15.935272 -51.334365 0.000000 49.000000 14.197895 0.000000
22.805254 15.172607 -49.130046 0.000000 35.000000 14.223783 0.000000
23.622683 15.501587 -50.205601 0.000000 37.000000 14.188375 0.000000
22.906909 15.135084 -49.014730 0.000000 38.000000 14.229309 0.000000
20.998972 15.265290 -48.217372 0.000000 49.000000 14.581304 20.000000
24.228143 15.594960 -50.228896 0.000000 43.000000 14.280762 0.000000
19.295890 15.381576 -47.913900 0.000000 50.000000 14.758237 9.000000
23.928489 15.535558 -49.777483 0.000000 38.000000 14.370576 1.000000
22.451061 16.216704 -51.614760 0.000000 61.000000 14.363870 13.000000
21.831992 15.248760 -48.352022 0.000000 59.000000 14.537387 18.000000
23.314624 14.946799 -48.565013 0.000000 35.000000 14.211590 0.000000
21.141339 16.594501 -52.921412 0.000000 25.000000 14.253445 0.000000
19.339003 15.719380 -49.075056 0.000000 52.000000 14.686600 28.000000
24.611670 14.644187 -48.205831 0.000000 39.000000 14.073860 0.000000
19.089580 15.831619 -49.014723 0.000000 67.000000 14.807498 28.000000
24.426950 15.127191 -48.646211 0.000000 43.000000 14.376735 30.000000
19.254546 15.156673 -47.589035 0.000000 65.000000 14.654916 9.000000
19.279282 15.315272 -47.666425 0.000000 78.000000 14.778713 9.000000
22.130811 15.562573 -49.903224 0.000000 42.000000 14.317169 0.000000
24.743887 14.912302 -48.715442 0.000000 37.000000 14.157572 0.000000
20.868632 15.054399 -48.200632 0.000000 47.000000 14.385727 20.000000
21.357952 15.626280 -50.268102 0.000000 51.000000 14.238707 0.000000
24.234286 14.386295 -47.212981 0.000000 27.000000 14.157328 0.000000
25.495599 15.554537 -50.578917 0.000000 25.000000 14.150742 0.000000
21.046293 15.328011 -49.134551 0.000000 29.000000 14.332821 0.000000
21.788861 15.137626 -49.162070 0.000000 44.000000 14.159412 0.000000
21.247284 15.717118 -50.274204 0.000000 35.000000 14.319930 17.000000
20.026173 15.611853 -49.874327 0.000000 47.000000 14.330494 0.000000
21.050816 15.776128 -51.123284 0.000000 26.000000 14.085902 0.000000
20.036306 15.835623 -50.803827 0.000000 48.000000 14.228742 0.000000
22.563419 14.457568 -47.196327 0.000000 23.000000 14.196062 0.000000
22.839012 14.691055 -48.130612 0.000000 27.000000 14.107245 0.000000
22.116968 16.043360 -51.501812 0.000000 45.000000 14.231862 0.000000
21.938290 16.034467 -51.492957 0.000000 46.000000 14.222834 0.000000
19.248436 15.182716 -48.717710 0.000000 46.000000 14.299677 0.000000
21.378677 16.062671 -51.415990 0.000000 49.000000 14.263900 0.000000
19.948348 15.429421 -49.525971 0.000000 42.000000 14.274321 0.000000
21.261429 15.964563 -51.543261 0.000000 31.000000 14.126337 0.000000
19.541872 15.811461 -49.745279 0.000000 67.000000 14.551988 28.000000
20.009028 15.204813 -48.475266 0.000000 43.000000 14.417493 0.000000
20.748328 16.779471 -52.870036 0.000000 67.000000 14.436887 23.000000
21.041503 16.455027 -52.687086 0.000000 53.000000 14.198914 0.000000
21.242022 16.004548 -51.755635 0.000000 35.000000 14.092156 0.000000
20.488185 15.399913 -48.676972 0.000000 48.000000 14.543079 14.000000
