6.376598 -10.904037 -8.124279 0.000000 42.000000 14.716247 4.000000
1.243975 -14.808903 -5.670928 0.000000 75.000000 14.750514 20.000000
5.601055 -11.935902 -7.290405 0.000000 53.000000 14.568906 14.000000
5.858375 -10.906243 -7.688324 0.000000 31.000000 14.350024 0.000000
2.944953 -12.214567 -6.849501 0.000000 53.000000 14.347322 0.000000
2.557207 -12.095510 -6.986035 0.000000 38.000000 14.398304 0.000000
1.230414 -10.746905 -7.952943 0.000000 45.000000 14.487270 0.000000
5.614092 -14.630686 -6.033628 0.000000 61.000000 14.960258 7.000000
1.377611 -14.869477 -6.312688 0.000000 75.000000 15.323976 20.000000
1.031430 -11.083855 -7.575978 0.000000 33.000000 14.350946 0.000000
1.286317 -14.930465 -5.939716 0.000000 41.000000 15.042474 20.000000
5.066311 -14.829626 -5.754494 0.000000 62.000000 14.832096 7.000000
4.215385 -14.095776 -5.865407 0.000000 48.000000 14.530559 0.000000
2.387856 -11.594386 -7.714919 0.000000 39.000000 14.742846 24.000000
2.079504 -15.031337 -6.067860 0.000000 56.000000 15.204767 20.000000
4.658722 -11.620854 -7.650762 0.000000 66.000000 14.703023 25.000000
1.179841 -13.414180 -6.879371 0.000000 56.000000 15.018214 21.000000
2.722233 -14.627044 -5.935520 0.000000 54.000000 14.875615 28.000000
6.373226 -14.361573 -5.622784 0.000000 39.000000 14.469155 0.000000
6.016280 -13.201173 -6.373004 0.000000 48.000000 14.476807 0.000000
6.178487 -13.016979 -6.453460 0.000000 38.000000 14.445467 0.000000
6.309904 -12.850962 -6.555870 0.000000 35.000000 14.442413 0.000000
6.619975 -12.162017 -7.491254 0.000000 61.000000 14.859887 11.000000
6.581052 -12.504425 -6.750579 0.000000 44.000000 14.419976 0.000000
1.242712 -14.770733 -5.574426 0.000000 77.000000 14.648639 20.000000
2.308094 -13.494469 -6.466716 0.000000 66.000000 14.713658 21.000000
2.677244 -14.466572 -5.816938 0.000000 37.000000 14.689300 28.000000
1.732942 -14.886336 -5.385092 0.000000 37.000000 14.551300 0.000000
2.716695 -14.815066 -5.588824 0.000000 53.000000 14.684637 20.000000
2.341809 -13.829273 -5.961367 0.000000 36.000000 14.467980 0.000000
6.366711 -12.112830 -7.289164 0.000000 65.000000 14.663096 11.000000
2.236494 -14.938897 -6.283777 0.000000 64.000000 15.336978 20.000000
3.471225 -14.703798 -6.123134 0.000000 76.000000 15.075045 28.000000
1.109816 -11.497102 -7.485716 0.000000 31.000000 14.497315 0.000000
5.998087 -14.617947 -5.414036 0.000000 41.000000 14.431227 0.000000
3.332726 -14.360010 -6.248228 0.000000 81.000000 14.995420 29.000000
6.291088 -11.757596 -7.243696 0.000000 43.000000 14.433564 0.000000
0.923345 -13.495106 -6.201279 0.000000 53.000000 14.490298 0.000000
1.561887 -13.829306 -6.042403 0.000000 70.000000 14.536293 0.000000
5.793134 -14.353975 -5.597407 0.000000 40.000000 14.443678 0.000000
5.196693 -12.638738 -6.880055 0.000000 59.000000 14.601392 9.000000
2.773019 -12.651892 -6.758911 0.000000 48.000000 14.506376 0.000000
4.717189 -12.162244 -6.953092 0.000000 45.000000 14.406462 0.000000
2.863273 -12.456501 -6.826248 0.000000 36.000000 14.457952 0.000000
3.831453 -14.698331 -6.126099 0.000000 65.000000 15.074601 28.000000
6.402142 -12.169202 -6.917452 0.000000 34.000000 14.380171 0.000000
5.496067 -12.148636 -6.936599 0.000000 40.000000 14.385238 0.000000
2.901326 -12.185348 -7.054249 0.000000 41.000000 14.504151 0.000000
1.246889 -13.589792 -6.446910 0.000000 76.000000 14.748276 21.000000
4.880121 -11.514021 -7.400736 0.000000 42.000000 14.434803 0.000000
3.360789 -14.987649 -6.060899 0.000000 68.000000 15.175385 28.000000
3.537847 -14.384624 -6.296586 0.000000 77.000000 15.049423 29.000000
2.729389 -12.612749 -6.772279 0.000000 51.000000 14.496572 0.000000
5.566476 -11.706685 -7.273222 0.000000 41.000000 14.431044 0.000000
1.139268 -14.106153 -5.780401 0.000000 56.000000 14.464504 0.000000
3.856115 -14.248910 -5.873258 0.000000 48.000000 14.619603 28.000000
4.163945 -12.895782 -6.545893 0.000000 52.000000 14.458129 0.000000
1.955883 -12.265926 -6.834707 0.000000 40.000000 14.362500 0.000000
4.203811 -10.844644 -7.893508 0.000000 47.000000 14.489790 0.000000
5.076167 -10.319856 -8.155708 0.000000 42.000000 14.428286 0.000000
5.406935 -9.750788 -8.443871 0.000000 46.000000 14.364828 0.000000
5.211482 -9.702893 -8.421619 0.000000 45.000000 14.320294 0.000000
5.892070 -14.005824 -5.962072 0.000000 35.000000 14.563607 17.000000
2.143591 -14.799164 -6.366838 0.000000 63.000000 15.331765 20.000000
6.777034 -13.807331 -5.939474 0.000000 39.000000 14.437719 0.000000
4.831885 -10.969911 -8.193250 0.000000 53.000000 14.809832 10.000000
2.099854 -10.578725 -8.076843 0.000000 45.000000 14.501163 0.000000
2.360354 -11.546371 -7.657015 0.000000 54.000000 14.668201 24.000000
5.730942 -14.165623 -5.728921 0.000000 42.000000 14.453129 0.000000
1.086002 -14.846809 -6.022114 0.000000 76.000000 15.066888 20.000000
5.315581 -10.358030 -8.571928 0.000000 71.000000 14.799612 1.000000
5.973043 -12.340928 -6.709645 0.000000 29.000000 14.297473 0.000000
1.472554 -14.764903 -5.169195 0.000000 35.000000 14.303984 0.000000
4.761096 -12.842972 -7.242813 0.000000 63.000000 15.017048 9.000000
6.524961 -11.660046 -7.303762 0.000000 34.000000 14.431677 0.000000
1.437225 -14.037755 -5.851453 0.000000 60.000000 14.487568 0.000000
1.416400 -13.922305 -5.968890 0.000000 52.000000 14.524397 0.000000
2.594043 -10.743008 -7.962258 0.000000 34.000000 14.493023 0.000000
1.526182 -13.621922 -6.393379 0.000000 70.000000 14.720456 21.000000
2.090920 -14.214634 -6.194722 0.000000 59.000000 14.872074 20.000000
4.016086 -14.370023 -6.457790 0.000000 71.000000 15.177422 29.000000
5.091607 -13.339535 -6.347349 0.000000 50.000000 14.529662 0.000000
4.804235 -14.016156 -6.188451 0.000000 59.000000 14.759954 18.000000
1.233932 -11.557385 -7.394709 0.000000 49.000000 14.453066 0.000000
0.859524 -13.570125 -6.317722 0.000000 63.000000 14.628814 21.000000
3.937536 -13.082936 -6.419662 0.000000 36.000000 14.452486 0.000000
1.232596 -10.991374 -7.566372 0.000000 31.000000 14.293070 0.000000
5.890807 -11.200878 -7.548962 0.000000 38.000000 14.391168 0.000000
1.030384 -10.825168 -7.810691 0.000000 40.000000 14.409511 0.000000
3.242301 -14.841730 -6.332296 0.000000 79.000000 15.325566 28.000000
0.851477 -10.628562 -8.026806 0.000000 40.000000 14.485819 0.000000
0.824038 -10.451841 -8.085897 0.000000 44.000000 14.440495 0.000000
0.739752 -10.339820 -8.181360 0.000000 36.000000 14.460651 0.000000
0.661797 -10.219006 -8.270221 0.000000 44.000000 14.470510 0.000000
0.652122 -10.014957 -8.306095 0.000000 37.000000 14.390909 0.000000
1.267533 -13.964670 -5.915344 0.000000 63.000000 14.502074 0.000000
5.006278 -10.385510 -8.121954 0.000000 37.000000 14.435179 0.000000
6.189495 -11.211050 -7.684877 0.000000 29.000000 14.511188 0.000000
5.556170 -11.523986 -7.401531 0.000000 48.000000 14.440837 0.000000
2.221358 -13.902098 -5.961055 0.000000 53.000000 14.506917 0.000000
1.852804 -10.235363 -8.283318 0.000000 45.000000 14.490352 0.000000
6.771569 -11.546336 -7.464486 0.000000 43.000000 14.505924 0.000000
4.062083 -9.674068 -8.420741 0.000000 27.000000 14.304038 0.000000
4.407468 -13.852284 -6.199089 0.000000 60.000000 14.680712 29.000000
4.679056 -12.028470 -7.080707 0.000000 42.000000 14.442006 0.000000
4.526550 -12.105858 -6.965054 0.000000 42.000000 14.386192 0.000000
4.091368 -14.377865 -6.530088 0.000000 71.000000 15.242574 29.000000
4.634424 -12.412754 -6.862542 0.000000 48.000000 14.464992 0.000000
3.283260 -12.945773 -6.546127 0.000000 43.000000 14.485235 0.000000
4.837044 -12.759946 -6.652660 0.000000 47.000000 14.474993 0.000000
3.136260 -13.046276 -6.442852 0.000000 43.000000 14.452296 0.000000
4.097097 -14.911573 -6.092414 0.000000 67.000000 15.160995 28.000000
1.323531 -13.371635 -6.648321 0.000000 60.000000 14.800591 21.000000
5.569944 -11.676962 -7.284428 0.000000 41.000000 14.424489 0.000000
3.267251 -13.483498 -6.538865 0.000000 71.000000 14.768558 30.000000
6.595434 -14.872418 -5.612264 0.000000 67.000000 14.735262 6.000000
5.523552 -11.738178 -7.268551 0.000000 42.000000 14.444059 0.000000
1.785490 -13.596360 -6.596052 0.000000 81.000000 14.877504 21.000000
3.801154 -12.138497 -7.190936 0.000000 55.000000 14.594128 27.000000
3.721690 -11.556877 -7.560257 0.000000 51.000000 14.592311 26.000000
2.007591 -13.925752 -5.878176 0.000000 51.000000 14.449801 0.000000
1.851192 -12.157121 -7.001587 0.000000 38.000000 14.444575 0.000000
4.427123 -14.584870 -5.911944 0.000000 75.000000 14.833045 28.000000
6.707480 -14.781033 -5.728942 0.000000 52.000000 14.784405 6.000000
3.176049 -10.312178 -8.322308 0.000000 42.000000 14.564559 3.000000
2.223083 -13.000733 -6.524047 0.000000 56.000000 14.496211 0.000000
2.800450 -9.899100 -8.406783 0.000000 38.000000 14.413404 0.000000
4.718900 -14.232857 -6.161705 0.000000 68.000000 14.854057 18.000000
4.442939 -12.113680 -7.006068 0.000000 39.000000 14.424968 0.000000
2.463617 -10.208478 -8.227103 0.000000 32.000000 14.428504 0.000000
2.307775 -10.356198 -8.133486 0.000000 32.000000 14.429120 0.000000
1.492532 -12.925207 -6.538259 0.000000 39.000000 14.467535 0.000000
3.675759 -15.017607 -5.788556 0.000000 69.000000 14.961987 28.000000
1.876908 -13.055701 -6.510788 0.000000 50.000000 14.514624 0.000000
3.172429 -10.779394 -7.905807 0.000000 39.000000 14.465033 0.000000
0.981315 -11.623981 -7.346025 0.000000 45.000000 14.447883 0.000000
3.133639 -10.823880 -7.737936 0.000000 35.000000 14.347502 0.000000
1.449204 -11.247031 -7.579837 0.000000 42.000000 14.442031 0.000000
3.029931 -10.940324 -7.612452 0.000000 35.000000 14.304426 0.000000
2.612552 -12.548716 -6.772932 0.000000 48.000000 14.462656 0.000000
3.368831 -11.208958 -7.549883 0.000000 33.000000 14.396293 0.000000
3.075546 -10.318811 -8.294799 0.000000 44.000000 14.544945 3.000000
0.834864 -13.532862 -6.429006 0.000000 66.000000 14.702543 21.000000
5.015471 -12.878932 -7.247480 0.000000 33.000000 15.040337 9.000000
5.023981 -13.462216 -6.132834 0.000000 42.000000 14.414911 0.000000
1.604609 -15.007837 -5.958681 0.000000 70.000000 15.100105 20.000000
0.855691 -11.957414 -7.115008 0.000000 37.000000 14.432666 0.000000
0.786427 -12.055485 -6.989851 0.000000 36.000000 14.379976 0.000000
0.739466 -12.131977 -6.850636 0.000000 32.000000 14.303823 0.000000
2.020288 -12.131025 -7.014134 0.000000 43.000000 14.441102 0.000000
3.854847 -14.089448 -5.904564 0.000000 43.000000 14.560153 29.000000
2.004106 -12.185841 -6.849263 0.000000 41.000000 14.331660 0.000000
3.881644 -10.949968 -7.804143 0.000000 41.000000 14.471169 0.000000
4.186587 -14.319730 -6.270362 0.000000 73.000000 14.992392 29.000000
5.811572 -14.721693 -5.246823 0.000000 35.000000 14.346148 0.000000
1.404733 -13.991104 -5.886751 0.000000 68.000000 14.492205 0.000000
3.861351 -13.629734 -6.232443 0.000000 70.000000 14.589029 30.000000
1.868615 -13.527713 -6.666888 0.000000 67.000000 14.900251 21.000000
4.374610 -10.214522 -8.245790 0.000000 39.000000 14.447506 0.000000
0.624071 -14.550897 -5.432731 0.000000 52.000000 14.410891 0.000000
0.603618 -14.656822 -5.310024 0.000000 40.000000 14.364494 0.000000
2.370813 -14.613990 -6.243964 0.000000 74.000000 15.128536 20.000000
3.628044 -14.847163 -6.136637 0.000000 77.000000 15.163595 28.000000
2.089030 -12.482663 -6.803506 0.000000 23.000000 14.452868 0.000000
4.868932 -14.694205 -5.372626 0.000000 43.000000 14.437375 0.000000
5.307570 -14.705846 -5.693524 0.000000 58.000000 14.714085 7.000000
1.404055 -10.577142 -8.054381 0.000000 51.000000 14.481380 0.000000
5.699006 -13.676480 -6.089580 0.000000 44.000000 14.493790 0.000000
3.720664 -14.750179 -6.135814 0.000000 60.000000 15.110697 28.000000
5.960953 -13.335635 -6.276531 0.000000 45.000000 14.467880 0.000000
2.080143 -14.918704 -5.709294 0.000000 59.000000 14.841951 20.000000
6.068007 -13.178564 -6.384137 0.000000 47.000000 14.474020 0.000000
3.060415 -12.106246 -7.373458 0.000000 67.000000 14.730592 27.000000
1.679618 -11.508081 -7.536745 0.000000 39.000000 14.546230 24.000000
2.478613 -12.411417 -6.805066 0.000000 52.000000 14.415833 0.000000
2.635463 -14.946988 -5.901177 0.000000 80.000000 15.018889 20.000000
0.916814 -14.195045 -5.762437 0.000000 61.000000 14.497213 0.000000
4.448232 -12.907010 -6.557898 0.000000 35.000000 14.474291 0.000000
1.533991 -15.017927 -5.738346 0.000000 36.000000 14.919844 20.000000
4.523467 -12.755453 -6.665297 0.000000 39.000000 14.483225 0.000000
6.728176 -12.232737 -6.850568 0.000000 40.000000 14.358002 0.000000
6.699166 -12.157235 -7.033925 0.000000 43.000000 14.471890 0.000000
4.830042 -12.315878 -6.776814 0.000000 39.000000 14.340597 0.000000
4.869903 -12.184742 -6.902321 0.000000 46.000000 14.375784 0.000000
4.837935 -12.110942 -7.073342 0.000000 40.000000 14.480191 0.000000
1.358788 -14.993490 -5.533010 0.000000 59.000000 14.733639 20.000000
5.072192 -13.581779 -6.178691 0.000000 58.000000 14.517915 0.000000
5.326364 -11.005825 -7.640268 0.000000 39.000000 14.363126 0.000000
5.365476 -10.847440 -7.754268 0.000000 36.000000 14.373948 0.000000
6.192922 -12.122631 -7.010014 0.000000 36.000000 14.433112 0.000000
1.433493 -10.460604 -8.113629 0.000000 40.000000 14.468584 0.000000
4.963628 -13.398215 -6.237934 0.000000 38.000000 14.469037 0.000000
4.308874 -10.889362 -7.942596 0.000000 49.000000 14.555230 5.000000
2.482504 -14.676605 -5.265240 0.000000 41.000000 14.337400 0.000000
5.608324 -11.645225 -7.769214 0.000000 55.000000 14.815969 25.000000
6.426721 -13.521348 -6.371624 0.000000 61.000000 14.647986 12.000000
4.939113 -13.411899 -6.532410 0.000000 68.000000 14.724578 16.000000
2.943499 -10.848436 -7.814797 0.000000 34.000000 14.425496 0.000000
2.411620 -10.980660 -7.592252 0.000000 40.000000 14.309114 0.000000
1.110017 -14.159129 -5.754572 0.000000 45.000000 14.471252 0.000000
5.811112 -12.316121 -7.236747 0.000000 67.000000 14.728346 14.000000
5.028044 -10.292156 -8.378300 0.000000 51.000000 14.600970 1.000000
5.903635 -14.648900 -5.374282 0.000000 39.000000 14.414384 0.000000
3.974561 -14.663757 -6.164915 0.000000 63.000000 15.088704 28.000000
2.825876 -13.403476 -6.194033 0.000000 39.000000 14.434870 0.000000
5.728691 -12.936965 -6.545101 0.000000 61.000000 14.479630 0.000000
1.244582 -13.467713 -6.229781 0.000000 57.000000 14.499574 0.000000
0.903279 -14.239591 -5.709619 0.000000 64.000000 14.476677 0.000000
1.595572 -14.953440 -5.777572 0.000000 62.000000 14.918191 20.000000
2.364040 -10.445118 -8.108769 0.000000 35.000000 14.456152 0.000000
1.360562 -12.852185 -6.568081 0.000000 39.000000 14.453362 0.000000
3.057631 -10.975923 -7.990148 0.000000 59.000000 14.641899 5.000000
3.646037 -15.133663 -5.728883 0.000000 61.000000 14.974166 28.000000
0.619836 -13.751768 -6.309521 0.000000 47.000000 14.719676 21.000000
6.615501 -12.174293 -7.103074 0.000000 31.000000 14.539348 11.000000
1.358846 -13.645620 -6.441820 0.000000 50.000000 14.774037 21.000000
6.644483 -14.222193 -5.947350 0.000000 51.000000 14.667665 8.000000
1.415832 -12.095308 -7.018744 0.000000 37.000000 14.425762 0.000000
2.294072 -14.912967 -5.901655 0.000000 55.000000 15.000979 20.000000
3.010576 -11.561884 -7.388857 0.000000 38.000000 14.450555 0.000000
4.175101 -13.691218 -5.959356 0.000000 46.000000 14.391974 0.000000
4.387088 -13.839318 -6.264877 0.000000 69.000000 14.729177 29.000000
3.087022 -11.159384 -7.526904 0.000000 35.000000 14.350243 0.000000
4.347269 -12.899116 -6.559381 0.000000 54.000000 14.471292 0.000000
3.116810 -10.963182 -7.599394 0.000000 39.000000 14.305725 0.000000
5.071840 -14.947321 -5.716894 0.000000 74.000000 14.863760 7.000000
3.064286 -10.845661 -7.721494 0.000000 35.000000 14.345369 0.000000
1.410388 -11.150236 -7.535088 0.000000 30.000000 14.352216 0.000000
2.625952 -13.371466 -6.257923 0.000000 46.000000 14.471484 0.000000
1.637704 -14.023413 -5.860403 0.000000 59.000000 14.487391 0.000000
1.371040 -10.852663 -7.714216 0.000000 33.000000 14.343004 0.000000
1.595458 -15.032294 -5.652074 0.000000 60.000000 14.854870 20.000000
1.272511 -10.790550 -7.855768 0.000000 35.000000 14.428867 0.000000
5.280241 -14.776334 -5.709612 0.000000 59.000000 14.765585 7.000000
2.844665 -10.180083 -8.261368 0.000000 39.000000 14.442097 0.000000
1.187641 -10.526447 -8.049411 0.000000 35.000000 14.449904 0.000000
2.863840 -9.969382 -8.322102 0.000000 35.000000 14.379868 0.000000
1.155712 -10.378266 -8.135379 0.000000 34.000000 14.442594 0.000000
5.692608 -14.684969 -6.006141 0.000000 61.000000 14.966312 7.000000
2.479884 -14.397804 -6.071250 0.000000 73.000000 14.866611 20.000000
1.060481 -10.108985 -8.318979 0.000000 40.000000 14.452380 0.000000
4.902256 -13.402445 -6.415712 0.000000 30.000000 14.621140 16.000000
6.544518 -10.362582 -8.126061 0.000000 47.000000 14.426298 0.000000
6.647530 -12.425731 -6.783997 0.000000 38.000000 14.405781 0.000000
6.402076 -12.529328 -6.714995 0.000000 42.000000 14.403392 0.000000
6.086594 -12.691800 -6.686364 0.000000 47.000000 14.466717 0.000000
5.614505 -10.949990 -7.949627 0.000000 34.000000 14.593791 10.000000
2.621533 -14.102244 -5.813108 0.000000 46.000000 14.489965 0.000000
1.169209 -12.158457 -7.462532 0.000000 56.000000 14.833765 19.000000
3.016567 -14.767640 -6.136124 0.000000 69.000000 15.120357 28.000000
3.005798 -13.564073 -5.994208 0.000000 41.000000 14.352908 0.000000
5.420909 -14.890607 -5.846805 0.000000 77.000000 14.942717 7.000000
2.284736 -14.901900 -5.575948 0.000000 43.000000 14.720526 20.000000
2.282152 -14.476940 -6.258786 0.000000 67.000000 15.067258 20.000000
4.755074 -10.389096 -8.291718 0.000000 43.000000 14.580181 1.000000
5.940244 -13.351349 -6.222805 0.000000 48.000000 14.431060 0.000000
3.164798 -14.041089 -6.455640 0.000000 75.000000 14.998554 29.000000
3.256487 -14.183074 -5.837010 0.000000 43.000000 14.553617 0.000000
4.851307 -13.974403 -5.855563 0.000000 54.000000 14.456931 0.000000
1.263682 -12.666728 -6.991317 0.000000 58.000000 14.710227 22.000000
0.793012 -14.726745 -5.189414 0.000000 25.000000 14.300485 0.000000
1.024944 -14.650220 -5.725806 0.000000 50.000000 14.711349 20.000000
1.453135 -13.772709 -6.222065 0.000000 57.000000 14.657242 21.000000
4.075561 -14.123948 -5.765024 0.000000 49.000000 14.461124 0.000000
1.806885 -14.929790 -6.060190 0.000000 71.000000 15.143643 20.000000
6.640174 -9.743545 -8.338905 0.000000 27.000000 14.272467 0.000000
4.572256 -10.353949 -8.112908 0.000000 22.000000 14.410567 0.000000
6.269598 -10.028172 -8.314012 0.000000 35.000000 14.404694 0.000000
2.930998 -13.817017 -6.263343 0.000000 26.000000 14.715880 29.000000
5.840449 -10.330194 -8.117678 0.000000 29.000000 14.401800 0.000000
1.402729 -15.045793 -5.877665 0.000000 74.000000 15.052258 20.000000
3.795289 -14.583002 -5.975688 0.000000 68.000000 14.885761 28.000000
6.185824 -13.630557 -6.030685 0.000000 60.000000 14.419436 0.000000
3.712663 -10.962878 -7.618632 0.000000 33.000000 14.321775 0.000000
5.196958 -10.813814 -7.846636 0.000000 38.000000 14.433693 0.000000
5.107845 -10.868058 -7.687359 0.000000 35.000000 14.328657 0.000000
3.795592 -14.994765 -5.823003 0.000000 79.000000 14.978723 28.000000
3.069258 -11.504800 -7.435212 0.000000 45.000000 14.458895 0.000000
2.921812 -10.825304 -7.817242 0.000000 33.000000 14.415105 0.000000
3.823512 -10.145197 -8.499183 0.000000 46.000000 14.623743 3.000000
3.127904 -14.859679 -6.054623 0.000000 66.000000 15.101213 28.000000
2.384390 -14.404657 -6.057865 0.000000 70.000000 14.859019 20.000000
4.999719 -13.710048 -6.251057 0.000000 51.000000 14.647947 18.000000
6.674854 -10.844096 -7.776205 0.000000 26.000000 14.390636 0.000000
4.987481 -13.397029 -6.318518 0.000000 60.000000 14.536312 0.000000
0.703984 -12.555176 -6.723920 0.000000 48.000000 14.424827 0.000000
1.340771 -13.867125 -6.044832 0.000000 59.000000 14.558697 21.000000
6.423464 -13.456392 -6.518235 0.000000 55.000000 14.736581 12.000000
2.011278 -12.464360 -6.823273 0.000000 41.000000 14.459675 0.000000
1.316463 -13.701799 -6.358556 0.000000 66.000000 14.734104 21.000000
2.321290 -13.446954 -6.490645 0.000000 61.000000 14.708249 21.000000
4.897338 -14.279256 -6.245072 0.000000 74.000000 14.949292 18.000000
4.723820 -12.839142 -7.132722 0.000000 51.000000 14.922205 9.000000
1.604982 -12.880500 -6.571505 0.000000 41.000000 14.471489 0.000000
2.636205 -14.813462 -5.182921 0.000000 53.000000 14.341690 0.000000
3.363743 -12.882598 -6.983430 0.000000 61.000000 14.819777 15.000000
3.690924 -10.408176 -8.154980 0.000000 41.000000 14.475213 0.000000
2.381699 -13.459839 -6.186949 0.000000 41.000000 14.459238 0.000000
4.130329 -13.828991 -6.194923 0.000000 64.000000 14.664663 29.000000
2.961371 -10.353106 -8.173742 0.000000 48.000000 14.461382 0.000000
6.440788 -10.997582 -7.910689 0.000000 56.000000 14.586592 4.000000
2.903283 -11.518622 -7.419220 0.000000 25.000000 14.452858 0.000000
4.050474 -14.217267 -6.116216 0.000000 40.000000 14.807329 29.000000
1.932428 -14.021294 -5.836137 0.000000 58.000000 14.465800 0.000000
1.483829 -14.737411 -5.202578 0.000000 36.000000 14.317320 0.000000
1.113914 -12.359072 -6.781770 0.000000 24.000000 14.368024 0.000000
0.729438 -9.855632 -8.317904 0.000000 30.000000 14.315101 0.000000
1.609701 -14.686128 -6.145891 0.000000 74.000000 15.084713 20.000000
3.287330 -12.637472 -6.959740 0.000000 68.000000 14.667867 15.000000
3.940522 -9.771833 -8.363345 0.000000 32.000000 14.308291 0.000000
1.811090 -13.959263 -5.889137 0.000000 49.000000 14.477077 0.000000
1.584021 -10.409581 -8.110861 0.000000 35.000000 14.438786 0.000000
4.178438 -11.636018 -7.718251 0.000000 61.000000 14.768063 26.000000
1.347367 -10.749595 -7.933068 0.000000 46.000000 14.471968 0.000000
4.115922 -13.788928 -6.328426 0.000000 41.000000 14.755610 29.000000
1.280122 -10.908163 -7.640230 0.000000 35.000000 14.310525 0.000000
5.090645 -13.682775 -6.359605 0.000000 56.000000 14.724748 18.000000
6.549656 -14.826619 -5.811615 0.000000 77.000000 14.878617 6.000000
3.826307 -11.182273 -7.526366 0.000000 32.000000 14.362110 0.000000
4.078256 -14.160713 -6.468015 0.000000 71.000000 15.073373 29.000000
0.741498 -11.788960 -7.236838 0.000000 46.000000 14.444667 0.000000
3.627934 -10.318629 -8.436841 0.000000 51.000000 14.664556 3.000000
1.505548 -13.446067 -6.557901 0.000000 66.000000 14.764453 21.000000
3.946267 -14.861025 -6.046726 0.000000 72.000000 15.095282 28.000000
6.510034 -14.736944 -5.205669 0.000000 43.000000 14.319674 0.000000
6.530640 -14.694290 -5.394041 0.000000 48.000000 14.455469 0.000000
3.675135 -14.932666 -5.934771 0.000000 73.000000 15.039492 28.000000
6.209331 -14.591483 -5.424018 0.000000 29.000000 14.425395 0.000000
2.000228 -12.099926 -7.361567 0.000000 68.000000 14.717169 23.000000
5.473964 -14.228701 -5.738137 0.000000 47.000000 14.494849 0.000000
6.009003 -13.430132 -6.104326 0.000000 39.000000 14.373616 0.000000
3.593677 -13.890745 -6.246760 0.000000 52.000000 14.741590 29.000000
2.053342 -13.450240 -6.439352 0.000000 67.000000 14.666789 21.000000
4.087706 -11.428914 -7.659239 0.000000 32.000000 14.606851 26.000000
3.276228 -14.341867 -6.409581 0.000000 70.000000 15.121637 29.000000
6.000519 -14.704056 -5.263443 0.000000 30.000000 14.350661 0.000000
1.026795 -13.847978 -6.085668 0.000000 49.000000 14.582806 21.000000
2.481953 -10.286836 -8.198705 0.000000 32.000000 14.446749 0.000000
2.276371 -12.242722 -7.469963 0.000000 42.000000 14.885385 23.000000
1.729698 -13.715309 -6.305398 0.000000 35.000000 14.696576 21.000000
6.572490 -10.970694 -8.088415 0.000000 48.000000 14.721901 4.000000
2.786344 -13.592177 -6.085708 0.000000 46.000000 14.445149 0.000000
4.519068 -13.925733 -6.168534 0.000000 38.000000 14.694496 29.000000
6.642527 -12.210597 -7.005868 0.000000 52.000000 14.476967 0.000000
4.608271 -13.108036 -6.393475 0.000000 41.000000 14.443927 0.000000
2.871379 -13.321963 -6.297992 0.000000 40.000000 14.478607 0.000000
1.744984 -13.805629 -5.973607 0.000000 58.000000 14.465569 0.000000
5.358286 -12.171933 -7.228439 0.000000 59.000000 14.643732 14.000000
1.550229 -14.851046 -5.995939 0.000000 76.000000 15.047108 20.000000
5.141887 -13.897126 -6.337843 0.000000 54.000000 14.821787 18.000000
4.749158 -12.661066 -6.733789 0.000000 59.000000 14.490142 0.000000
5.532508 -14.527225 -5.881416 0.000000 67.000000 14.776288 7.000000
4.957351 -12.366440 -6.740897 0.000000 48.000000 14.337543 0.000000
3.019037 -12.760033 -6.722314 0.000000 52.000000 14.533742 0.000000
4.996862 -12.214306 -6.855675 0.000000 55.000000 14.352386 0.000000
3.099207 -12.572017 -6.792274 0.000000 41.000000 14.491499 0.000000
3.907580 -10.432645 -8.117083 0.000000 37.000000 14.456445 0.000000
0.882780 -10.816202 -7.881638 0.000000 46.000000 14.464477 0.000000
5.526038 -14.239018 -5.829708 0.000000 63.000000 14.577576 17.000000
2.719741 -11.084525 -7.552961 0.000000 31.000000 14.331908 0.000000
5.031025 -11.808144 -7.236191 0.000000 43.000000 14.454447 0.000000
1.924992 -13.593736 -6.125616 0.000000 66.000000 14.479622 0.000000
4.110283 -14.371549 -6.426338 0.000000 77.000000 15.151737 29.000000
4.604180 -10.358151 -8.295635 0.000000 39.000000 14.566826 1.000000
1.800660 -10.249022 -8.241071 0.000000 44.000000 14.462099 0.000000
4.178864 -14.825729 -6.002875 0.000000 75.000000 15.039327 28.000000
5.283596 -11.029271 -7.594796 0.000000 49.000000 14.337424 0.000000
3.822572 -14.285342 -6.514586 0.000000 68.000000 15.179707 29.000000
5.288551 -10.876089 -7.713943 0.000000 40.000000 14.355384 0.000000
3.849930 -12.143599 -6.916357 0.000000 36.000000 14.365467 0.000000
3.535676 -14.726536 -6.091435 0.000000 76.000000 15.060570 28.000000
5.997041 -11.014163 -7.564439 0.000000 29.000000 14.303707 0.000000
3.414444 -10.792555 -7.842381 0.000000 32.000000 14.418664 0.000000
5.255835 -10.287561 -8.195883 0.000000 35.000000 14.444761 0.000000
0.701122 -14.193685 -5.716423 0.000000 45.000000 14.457702 0.000000
4.773801 -10.186585 -8.438321 0.000000 32.000000 14.594728 1.000000
3.041983 -13.975769 -6.608227 0.000000 52.000000 15.091990 29.000000
3.019857 -14.164274 -6.502006 0.000000 58.000000 15.103937 29.000000
3.122316 -10.328857 -8.644817 0.000000 48.000000 14.845338 3.000000
6.682110 -13.763284 -5.891030 0.000000 42.000000 14.373182 0.000000
6.297200 -13.947803 -5.918956 0.000000 41.000000 14.496039 0.000000
1.733918 -12.354759 -6.759765 0.000000 26.000000 14.347157 0.000000
1.801490 -13.447320 -6.343153 0.000000 44.000000 14.584144 21.000000
6.781077 -14.216384 -5.722561 0.000000 55.000000 14.475092 0.000000
2.789012 -14.159581 -5.771447 0.000000 43.000000 14.485717 0.000000
5.704294 -14.838697 -5.598158 0.000000 28.000000 14.705223 7.000000
5.468360 -14.784531 -5.261700 0.000000 38.000000 14.392510 0.000000
4.199162 -14.318485 -6.211374 0.000000 66.000000 14.942008 29.000000
6.717979 -10.899456 -8.002178 0.000000 59.000000 14.610878 4.000000
1.752490 -13.868829 -5.952275 0.000000 52.000000 14.481610 0.000000
1.732736 -13.743540 -6.063412 0.000000 69.000000 14.507833 0.000000
2.823139 -12.388075 -6.784572 0.000000 34.000000 14.385997 0.000000
2.188286 -15.141217 -6.317974 0.000000 14.000000 15.474701 20.000000
1.744001 -12.152493 -6.852376 0.000000 33.000000 14.316333 0.000000
2.357233 -12.145306 -6.882458 0.000000 45.000000 14.337817 0.000000
0.850172 -10.299023 -8.237852 0.000000 40.000000 14.486301 0.000000
4.221636 -14.789880 -5.557786 0.000000 36.000000 14.644922 28.000000
0.647702 -9.890227 -8.308600 0.000000 31.000000 14.325882 0.000000
1.503315 -12.016827 -7.148255 0.000000 58.000000 14.492666 0.000000
1.407723 -10.920706 -7.671601 0.000000 43.000000 14.343715 0.000000
0.824705 -12.695273 -6.715686 0.000000 37.000000 14.493298 0.000000
6.412818 -10.927503 -8.211928 0.000000 51.000000 14.802746 4.000000
1.112962 -10.769975 -7.911226 0.000000 38.000000 14.464530 0.000000
5.449030 -10.784833 -8.096872 0.000000 46.000000 14.628985 10.000000
3.473230 -10.265535 -8.218817 0.000000 41.000000 14.452233 0.000000
3.287596 -14.981754 -6.175265 0.000000 71.000000 15.268596 28.000000
3.105558 -10.325085 -8.171434 0.000000 43.000000 14.444354 0.000000
5.802509 -13.854335 -5.986647 0.000000 44.000000 14.502776 0.000000
0.742031 -9.924301 -8.346309 0.000000 32.000000 14.376003 0.000000
0.708852 -9.737808 -8.387582 0.000000 27.000000 14.310402 0.000000
5.539362 -11.612208 -7.620151 0.000000 60.000000 14.672571 25.000000
6.648546 -10.852901 -7.764621 0.000000 34.000000 14.385612 0.000000
4.302531 -14.717424 -5.422950 0.000000 35.000000 14.492285 0.000000
3.243115 -13.708788 -6.076325 0.000000 47.000000 14.500010 0.000000
1.182961 -14.360643 -5.851054 0.000000 62.000000 14.661033 20.000000
5.668641 -14.772760 -5.636724 0.000000 68.000000 14.702233 7.000000
2.913655 -14.300462 -6.260950 0.000000 56.000000 14.974088 29.000000
4.741747 -11.998899 -7.204980 0.000000 47.000000 14.530822 0.000000
6.626173 -12.215684 -7.497247 0.000000 69.000000 14.893826 11.000000
1.593379 -14.902605 -5.441718 0.000000 38.000000 14.607780 20.000000
2.443165 -13.194930 -6.380794 0.000000 61.000000 14.480012 0.000000
3.135181 -11.821670 -7.282426 0.000000 50.000000 14.500694 0.000000
5.616534 -12.236521 -6.959746 0.000000 49.000000 14.452051 0.000000
3.321457 -12.974964 -6.525644 0.000000 43.000000 14.483686 0.000000
1.098804 -12.265198 -6.835239 0.000000 43.000000 14.362556 0.000000
2.110663 -12.167007 -6.947309 0.000000 41.000000 14.404152 0.000000
1.965161 -9.831208 -8.461037 0.000000 38.000000 14.422583 0.000000
2.955085 -13.263396 -6.393281 0.000000 50.000000 14.527389 0.000000
4.496636 -13.057817 -6.435307 0.000000 35.000000 14.452150 0.000000
2.213558 -13.432051 -6.570089 0.000000 64.000000 14.767180 21.000000
3.855304 -13.654129 -6.166371 0.000000 84.000000 14.546477 0.000000
3.391616 -14.615407 -6.113509 0.000000 71.000000 15.019355 28.000000
3.218793 -14.855926 -5.925801 0.000000 67.000000 14.990625 28.000000
2.520537 -13.619456 -6.131809 0.000000 42.000000 14.498685 0.000000
2.337697 -13.780128 -6.079776 0.000000 49.000000 14.541318 0.000000
4.465195 -13.956736 -6.233352 0.000000 53.000000 14.765811 29.000000
3.495607 -13.412465 -6.544346 0.000000 48.000000 14.734942 30.000000
6.508496 -14.842738 -5.761961 0.000000 75.000000 14.845446 6.000000
3.958767 -12.637967 -6.925049 0.000000 37.000000 14.638897 15.000000
3.033009 -14.833897 -6.135347 0.000000 71.000000 15.155367 28.000000
5.787703 -11.675649 -7.708935 0.000000 64.000000 14.781544 25.000000
5.279241 -10.190434 -8.597074 0.000000 62.000000 14.730592 1.000000
2.672061 -10.008968 -8.331940 0.000000 35.000000 14.409467 0.000000
3.900657 -10.950456 -8.047649 0.000000 51.000000 14.676651 5.000000
1.094081 -13.847587 -6.003421 0.000000 74.000000 14.513280 0.000000
0.982882 -15.076940 -5.677952 0.000000 37.000000 14.900711 20.000000
0.885044 -13.932144 -6.189025 0.000000 50.000000 14.715216 21.000000
1.929383 -13.424112 -6.503397 0.000000 67.000000 14.706701 21.000000
3.677320 -10.259585 -8.212150 0.000000 36.000000 14.443412 0.000000
1.962503 -12.113060 -7.380621 0.000000 43.000000 14.740297 23.000000
1.915025 -10.779010 -7.887167 0.000000 42.000000 14.449117 0.000000
6.457812 -10.879035 -7.981590 0.000000 42.000000 14.582535 4.000000
1.770912 -10.936002 -7.614395 0.000000 37.000000 14.303737 0.000000
3.145418 -10.825980 -7.778199 0.000000 37.000000 14.382565 0.000000
1.616481 -11.115810 -7.543539 0.000000 31.000000 14.340807 0.000000
1.041376 -13.908615 -5.944165 0.000000 72.000000 14.496191 0.000000
2.434171 -14.573784 -6.043667 0.000000 72.000000 14.938090 20.000000
1.266603 -11.529918 -7.446500 0.000000 47.000000 14.481929 0.000000
4.016798 -12.199955 -7.140798 0.000000 56.000000 14.584954 27.000000
2.492470 -11.709146 -7.304383 0.000000 26.000000 14.458630 0.000000
1.067890 -11.788457 -7.243159 0.000000 46.000000 14.449723 0.000000
2.435470 -11.666061 -7.343438 0.000000 42.000000 14.468353 0.000000
0.948208 -11.943974 -7.163147 0.000000 43.000000 14.466002 0.000000
0.886693 -12.038240 -7.036904 0.000000 43.000000 14.410348 0.000000
0.837472 -12.123030 -6.906642 0.000000 39.000000 14.346208 0.000000
4.372522 -14.530758 -5.751127 0.000000 82.000000 14.668386 28.000000
2.061371 -12.195714 -6.916961 0.000000 43.000000 14.394028 0.000000
0.650994 -12.400316 -6.723926 0.000000 32.000000 14.341475 0.000000
3.413297 -15.127918 -5.739490 0.000000 44.000000 14.980013 28.000000
6.403152 -13.416963 -6.122565 0.000000 35.000000 14.381898 0.000000
1.296736 -13.409943 -6.222928 0.000000 58.000000 14.462703 0.000000
1.021732 -13.969997 -5.863459 0.000000 54.000000 14.461214 0.000000
2.057674 -13.951991 -5.883870 0.000000 52.000000 14.468724 0.000000
0.667042 -13.625266 -6.428617 0.000000 74.000000 14.751954 21.000000
3.323626 -14.465428 -5.983662 0.000000 67.000000 14.829194 28.000000
0.797626 -14.520515 -5.499492 0.000000 59.000000 14.450802 0.000000
0.855745 -13.963701 -6.299907 0.000000 64.000000 14.825651 21.000000
6.716012 -10.937477 -7.615915 0.000000 34.000000 14.305812 0.000000
6.274759 -9.633576 -8.420323 0.000000 19.000000 14.281890 0.000000
2.354303 -13.467056 -6.541895 0.000000 46.000000 14.762261 21.000000
5.979629 -11.494214 -7.546928 0.000000 58.000000 14.547348 25.000000
3.384867 -14.359722 -5.997712 0.000000 55.000000 14.784137 29.000000
3.996902 -12.135196 -7.236916 0.000000 52.000000 14.631102 27.000000
3.254097 -15.118152 -5.872383 0.000000 78.000000 15.086755 28.000000
3.402674 -12.207709 -7.304892 0.000000 82.000000 14.727422 27.000000
6.000139 -13.386460 -6.127861 0.000000 40.000000 14.369943 0.000000
5.864573 -13.741643 -6.095350 0.000000 57.000000 14.533729 0.000000
5.385003 -12.098593 -7.320224 0.000000 41.000000 14.681609 14.000000
3.935929 -14.913681 -5.923091 0.000000 74.000000 15.019429 28.000000
4.272102 -14.089483 -6.245038 0.000000 65.000000 14.847114 29.000000
5.788692 -14.211233 -6.099160 0.000000 72.000000 14.789706 17.000000
4.441262 -14.163058 -6.424170 0.000000 70.000000 15.037685 29.000000
4.968296 -14.812634 -5.176065 0.000000 35.000000 14.335466 0.000000
2.682896 -13.035957 -6.475878 0.000000 31.000000 14.474575 0.000000
3.505552 -12.191007 -7.276413 0.000000 50.000000 14.694430 27.000000
3.978370 -14.337769 -6.473681 0.000000 52.000000 15.173453 29.000000
1.834243 -11.035582 -7.561174 0.000000 22.000000 14.312485 0.000000
4.592518 -12.718892 -6.665410 0.000000 39.000000 14.463640 0.000000
3.359417 -11.930289 -7.239128 0.000000 55.000000 14.522670 0.000000
4.634068 -12.587456 -6.787023 0.000000 43.000000 14.495384 0.000000
1.309376 -11.747572 -7.287348 0.000000 55.000000 14.464957 0.000000
2.447076 -12.137562 -7.286994 0.000000 73.000000 14.674579 23.000000
3.302299 -13.421381 -6.344933 0.000000 61.000000 14.571682 30.000000
4.850050 -12.096245 -7.081759 0.000000 38.000000 14.479374 0.000000
5.840572 -14.628763 -5.429269 0.000000 42.000000 14.449887 0.000000
4.127995 -12.037024 -7.136104 0.000000 54.000000 14.493297 0.000000
3.144567 -11.569906 -7.672586 0.000000 48.000000 14.693992 26.000000
1.194425 -14.748781 -6.239847 0.000000 77.000000 15.197621 20.000000
1.812981 -14.346511 -6.193620 0.000000 71.000000 14.942131 20.000000
4.333746 -13.456673 -6.020834 0.000000 35.000000 14.317537 0.000000
0.791576 -13.673057 -6.356100 0.000000 74.000000 14.716563 21.000000
5.372765 -10.243113 -8.199315 0.000000 26.000000 14.423728 0.000000
4.340277 -10.828604 -7.756405 0.000000 30.000000 14.365610 0.000000
6.018596 -11.457005 -7.600872 0.000000 61.000000 14.572782 25.000000
1.432894 -14.208722 -5.782474 0.000000 47.000000 14.521461 0.000000
3.700692 -15.037021 -5.903442 0.000000 73.000000 15.069260 28.000000
1.899564 -14.970528 -6.264073 0.000000 77.000000 15.337398 20.000000
4.395128 -14.662334 -5.291424 0.000000 36.000000 14.351785 0.000000
3.712053 -14.347722 -6.221520 0.000000 75.000000 14.966296 29.000000
3.083157 -13.341995 -6.343985 0.000000 61.000000 14.528152 0.000000
1.463764 -13.718008 -6.417228 0.000000 78.000000 14.792276 21.000000
5.056065 -11.531128 -7.700999 0.000000 41.000000 14.697064 25.000000
3.177343 -12.857521 -6.609028 0.000000 56.000000 14.490743 0.000000
5.677355 -12.224482 -7.437868 0.000000 57.000000 14.848518 14.000000
1.671719 -12.731349 -6.647653 0.000000 40.000000 14.455380 0.000000
0.940590 -14.163781 -5.757832 0.000000 59.000000 14.476503 0.000000
3.285991 -12.182519 -6.947856 0.000000 40.000000 14.412963 0.000000
4.330097 -14.200340 -6.377763 0.000000 46.000000 15.018642 29.000000
1.822447 -12.138225 -6.802676 0.000000 31.000000 14.266767 0.000000
2.830881 -14.114820 -6.442812 0.000000 72.000000 15.027430 29.000000
4.362562 -14.152390 -6.263504 0.000000 43.000000 14.896537 29.000000
3.988089 -13.134190 -6.403828 0.000000 39.000000 14.466730 0.000000
3.257065 -11.587711 -7.349339 0.000000 45.000000 14.431153 0.000000
3.174587 -11.507926 -7.493051 0.000000 62.000000 14.509323 0.000000
1.617527 -11.577982 -7.377874 0.000000 42.000000 14.449964 0.000000
4.745916 -13.165525 -6.416959 0.000000 51.000000 14.494663 0.000000
3.288659 -10.879523 -7.667391 0.000000 36.000000 14.318000 0.000000
3.198680 -10.796195 -7.805427 0.000000 37.000000 14.389479 0.000000
3.442533 -13.273153 -6.455389 0.000000 51.000000 14.584984 30.000000
3.813944 -10.363840 -8.596028 0.000000 70.000000 14.823050 3.000000
3.093177 -10.544129 -8.026168 0.000000 39.000000 14.439833 0.000000
1.530367 -10.805382 -7.790563 0.000000 33.000000 14.381897 0.000000
3.131142 -13.594524 -5.977123 0.000000 36.000000 14.354900 0.000000
3.316016 -14.142717 -6.404419 0.000000 60.000000 15.010090 29.000000
3.043526 -14.635943 -6.151017 0.000000 81.000000 15.062020 28.000000
5.710868 -14.191275 -6.134380 0.000000 45.000000 14.808646 17.000000
4.945258 -12.344864 -6.772722 0.000000 40.000000 14.352751 0.000000
4.885938 -14.790514 -5.485040 0.000000 61.000000 14.583955 7.000000
1.311399 -10.310709 -8.178855 0.000000 32.000000 14.442870 0.000000
5.528091 -14.803528 -5.430888 0.000000 52.000000 14.545322 0.000000
6.593391 -12.714653 -6.662559 0.000000 50.000000 14.458956 0.000000
2.377905 -12.271746 -7.310102 0.000000 77.000000 14.766282 23.000000
3.219981 -14.847067 -5.980823 0.000000 67.000000 15.032227 28.000000
3.778509 -13.592604 -6.343175 0.000000 36.000000 14.662365 30.000000
0.688346 -11.896907 -7.156828 0.000000 33.000000 14.435341 0.000000
1.908561 -11.496161 -7.808165 0.000000 53.000000 14.768559 24.000000
2.388978 -12.707054 -6.890616 0.000000 70.000000 14.647065 22.000000
2.287102 -14.696665 -6.186498 0.000000 68.000000 15.124607 20.000000
4.682564 -12.943508 -7.124807 0.000000 78.000000 14.971711 9.000000
5.514403 -13.011808 -6.460913 0.000000 52.000000 14.448965 0.000000
6.754189 -13.003275 -6.422723 0.000000 37.000000 14.412186 0.000000
6.545540 -12.193019 -7.002127 0.000000 47.000000 14.464353 0.000000
2.350261 -14.514964 -6.172446 0.000000 64.000000 15.014960 20.000000
4.749484 -13.415937 -6.133049 0.000000 36.000000 14.390181 0.000000
3.662490 -13.595005 -6.416721 0.000000 54.000000 14.725640 30.000000
6.486653 -12.432036 -6.733150 0.000000 46.000000 14.366323 0.000000
3.768616 -11.525338 -7.491966 0.000000 45.000000 14.517781 0.000000
2.748990 -9.651417 -8.438550 0.000000 26.000000 14.306855 0.000000
1.704256 -13.499834 -6.512719 0.000000 35.000000 14.755316 21.000000
3.154614 -11.397897 -7.695193 0.000000 66.000000 14.620457 26.000000
5.289185 -14.030879 -5.838808 0.000000 39.000000 14.473210 0.000000
3.722448 -14.999666 -5.789920 0.000000 70.000000 14.953480 28.000000
2.852854 -13.493209 -6.087044 0.000000 40.000000 14.393003 0.000000
4.544341 -10.278976 -8.174536 0.000000 31.000000 14.422149 0.000000
6.577824 -14.766674 -5.554818 0.000000 62.000000 14.629930 6.000000
2.905187 -12.989084 -6.513474 0.000000 47.000000 14.481030 0.000000
0.667608 -13.583835 -6.367626 0.000000 77.000000 14.678251 21.000000
2.439950 -13.684082 -6.091201 0.000000 49.000000 14.499248 0.000000
2.380397 -12.068966 -7.291557 0.000000 64.000000 14.641502 23.000000
5.643238 -9.702607 -8.510082 0.000000 37.000000 14.394694 0.000000
4.855847 -14.194471 -5.739522 0.000000 38.000000 14.477592 0.000000
1.698876 -13.587641 -6.287174 0.000000 68.000000 14.612497 21.000000
4.875706 -14.433931 -5.910841 0.000000 57.000000 14.750869 7.000000
3.133924 -14.023406 -6.526197 0.000000 71.000000 15.048499 29.000000
6.225255 -10.162666 -8.290898 0.000000 49.000000 14.457609 0.000000
5.190121 -14.701952 -5.916461 0.000000 68.000000 14.899874 7.000000
6.795057 -11.433610 -7.664155 0.000000 59.000000 14.613522 13.000000
4.064283 -10.860090 -7.817188 0.000000 35.000000 14.433784 0.000000
2.626400 -11.847155 -7.237039 0.000000 42.000000 14.476161 0.000000
1.248170 -14.983509 -6.223803 0.000000 21.000000 15.310447 20.000000
1.682694 -11.504386 -7.630792 0.000000 54.000000 14.623501 24.000000
4.110843 -9.733083 -8.391426 0.000000 25.000000 14.311099 0.000000
1.394761 -12.908523 -6.543212 0.000000 51.000000 14.462728 0.000000
2.043107 -14.645989 -6.350532 0.000000 38.000000 15.235573 20.000000
5.003511 -11.124763 -7.542737 0.000000 46.000000 14.344951 0.000000
1.304543 -14.975994 -5.562173 0.000000 53.000000 14.748799 20.000000
2.741573 -14.028047 -6.317273 0.000000 56.000000 14.874922 29.000000
4.215254 -13.876712 -6.429263 0.000000 50.000000 14.887845 29.000000
4.215065 -14.628898 -6.042065 0.000000 55.000000 14.966406 28.000000
1.566728 -9.693025 -8.403755 0.000000 21.000000 14.299927 0.000000
4.418902 -11.655095 -7.310450 0.000000 34.000000 14.434649 0.000000
4.515961 -13.869154 -6.341771 0.000000 50.000000 14.810040 18.000000
2.455521 -12.803726 -6.838017 0.000000 66.000000 14.654772 22.000000
2.613233 -12.157491 -6.856442 0.000000 46.000000 14.322450 0.000000
3.224976 -10.493545 -8.672194 0.000000 76.000000 14.957057 3.000000
3.270119 -14.372015 -6.401371 0.000000 73.000000 15.130946 29.000000
3.927162 -12.140711 -6.854070 0.000000 37.000000 14.311419 0.000000
2.919168 -14.177623 -6.348368 0.000000 67.000000 14.981641 29.000000
6.555715 -9.622081 -8.435028 0.000000 22.000000 14.288096 0.000000
1.653996 -12.816555 -6.836576 0.000000 82.000000 14.660463 22.000000
2.978952 -13.163016 -6.426382 0.000000 52.000000 14.501254 0.000000
1.127129 -10.804905 -7.820959 0.000000 22.000000 14.407258 0.000000
3.109303 -14.210369 -6.456822 0.000000 69.000000 15.090669 29.000000
3.158945 -12.861563 -6.990374 0.000000 63.000000 14.814306 15.000000
1.189300 -13.804200 -6.025963 0.000000 60.000000 14.508924 0.000000
6.063564 -10.952656 -7.978148 0.000000 53.000000 14.619262 10.000000
1.117412 -13.914329 -5.917435 0.000000 58.000000 14.476739 0.000000
4.181731 -14.795622 -5.899287 0.000000 74.000000 14.935820 28.000000
4.112112 -11.901506 -7.207494 0.000000 47.000000 14.480517 0.000000
5.386316 -14.039357 -5.938553 0.000000 47.000000 14.561836 17.000000
4.563338 -14.124252 -5.768894 0.000000 43.000000 14.464549 0.000000
0.742865 -12.760952 -6.649663 0.000000 46.000000 14.473009 0.000000
4.108532 -14.388932 -6.495443 0.000000 76.000000 15.219333 29.000000
5.862268 -10.999846 -8.164192 0.000000 58.000000 14.801456 10.000000
0.623336 -14.744007 -5.228301 0.000000 35.000000 14.342549 0.000000
2.575385 -13.370112 -6.251564 0.000000 49.000000 14.465396 0.000000
4.059120 -12.864495 -6.629168 0.000000 45.000000 14.511471 0.000000
0.987720 -9.762241 -8.382406 0.000000 27.000000 14.319192 0.000000
0.789471 -10.025081 -8.351351 0.000000 33.000000 14.434499 0.000000
2.628673 -9.656469 -8.441900 0.000000 32.000000 14.312397 0.000000
2.529778 -14.912809 -5.724563 0.000000 67.000000 14.851646 20.000000
5.172900 -14.007305 -6.289514 0.000000 74.000000 14.840363 18.000000
2.090249 -14.907727 -6.346871 0.000000 62.000000 15.373374 20.000000
1.737483 -10.472312 -8.088735 0.000000 36.000000 14.453906 0.000000
1.551641 -10.771090 -7.886866 0.000000 36.000000 14.444600 0.000000
1.519603 -10.850365 -7.742995 0.000000 36.000000 14.366021 0.000000
3.925773 -14.230775 -6.199785 0.000000 54.000000 14.885030 29.000000
5.231537 -14.240754 -6.086430 0.000000 54.000000 14.794869 17.000000
2.513373 -13.411365 -6.250473 0.000000 46.000000 14.486682 0.000000
1.031898 -11.693030 -7.328296 0.000000 51.000000 14.470108 0.000000
3.189767 -13.354337 -6.439385 0.000000 32.000000 14.615195 30.000000
1.386282 -10.782799 -7.949646 0.000000 38.000000 14.503812 0.000000
0.879115 -12.073777 -7.001642 0.000000 40.000000 14.399759 0.000000
5.408019 -11.470616 -7.611484 0.000000 49.000000 14.589052 25.000000
4.843598 -11.606367 -7.323556 0.000000 31.000000 14.419465 0.000000
1.317500 -13.544115 -6.488781 0.000000 64.000000 14.758977 21.000000
3.629472 -14.778944 -6.159936 0.000000 63.000000 15.146510 28.000000
1.389523 -9.656387 -8.470516 0.000000 31.000000 14.336470 0.000000
5.261704 -13.434353 -6.027089 0.000000 31.000000 14.310795 0.000000
4.300675 -10.470227 -8.070017 0.000000 39.000000 14.437008 0.000000
4.340115 -12.051286 -7.099468 0.000000 38.000000 14.470098 0.000000
4.876912 -14.713132 -5.498539 0.000000 50.000000 14.553679 0.000000
4.682977 -11.404794 -7.615031 0.000000 57.000000 14.556611 25.000000
1.381930 -15.015980 -5.785774 0.000000 67.000000 14.958767 20.000000
6.012821 -13.474701 -6.154006 0.000000 42.000000 14.439475 0.000000
6.102635 -13.343447 -6.268244 0.000000 44.000000 14.465101 0.000000
0.972596 -13.752707 -6.184772 0.000000 79.000000 14.615046 21.000000
1.595517 -10.653440 -8.013140 0.000000 52.000000 14.487693 0.000000
2.745535 -12.098267 -7.285940 0.000000 47.000000 14.652540 27.000000
5.375338 -13.559102 -5.978009 0.000000 40.000000 14.336580 0.000000
6.687897 -12.529772 -6.755953 0.000000 44.000000 14.438149 0.000000
5.980138 -11.494859 -7.651915 0.000000 70.000000 14.636175 25.000000
0.983068 -14.159325 -5.747979 0.000000 54.000000 14.465801 0.000000
2.723393 -13.824049 -6.012157 0.000000 47.000000 14.507973 0.000000
3.277082 -10.849019 -7.724938 0.000000 25.000000 14.350079 0.000000
4.513565 -11.598481 -7.364190 0.000000 46.000000 14.449466 0.000000
6.813165 -13.491211 -6.115650 0.000000 51.000000 14.416036 0.000000
3.912599 -13.714181 -6.221968 0.000000 34.000000 14.625657 30.000000
2.229734 -14.817556 -6.308826 0.000000 62.000000 15.292774 20.000000
2.903794 -13.359549 -6.265300 0.000000 39.000000 14.471287 0.000000
0.975345 -14.406418 -5.859321 0.000000 65.000000 14.692640 20.000000
6.415860 -13.523435 -6.583272 0.000000 71.000000 14.827480 12.000000
3.729523 -15.141907 -5.811228 0.000000 60.000000 15.048002 28.000000
4.353371 -10.271272 -8.194471 0.000000 30.000000 14.434803 0.000000
3.826958 -14.362442 -6.054056 0.000000 58.000000 14.833086 28.000000
6.080229 -11.138283 -7.459555 0.000000 26.000000 14.282125 0.000000
0.944724 -10.180700 -8.300246 0.000000 47.000000 14.475195 0.000000
1.301350 -14.944819 -5.880162 0.000000 64.000000 15.000010 20.000000
4.951953 -12.244937 -6.780168 0.000000 40.000000 14.305238 0.000000
5.761817 -14.696252 -5.390227 0.000000 41.000000 14.453311 0.000000
4.552008 -11.749902 -7.264725 0.000000 39.000000 14.447145 0.000000
3.233461 -12.364839 -6.756448 0.000000 44.000000 14.349788 0.000000
6.713144 -14.106987 -5.900902 0.000000 64.000000 14.566508 8.000000
4.574611 -12.276959 -6.778599 0.000000 25.000000 14.321152 0.000000
2.908037 -14.797806 -6.114320 0.000000 70.000000 15.118219 28.000000
3.176953 -12.165542 -7.030653 0.000000 37.000000 14.473603 0.000000
1.140422 -13.816467 -6.097362 0.000000 67.000000 14.575700 21.000000
4.273859 -14.710490 -5.921448 0.000000 79.000000 14.908672 28.000000
0.652824 -12.063280 -6.914639 0.000000 27.000000 14.320786 0.000000
4.952299 -11.289239 -7.637807 0.000000 41.000000 14.513606 0.000000
6.609643 -12.254895 -7.229388 0.000000 61.000000 14.689188 11.000000
5.160915 -10.942984 -7.620567 0.000000 32.000000 14.312697 0.000000
5.126513 -10.819935 -7.753021 0.000000 34.000000 14.358092 0.000000
5.884770 -14.595898 -5.470029 0.000000 47.000000 14.466548 0.000000
3.347061 -10.843038 -7.743995 0.000000 34.000000 14.362920 0.000000
5.081315 -10.381717 -8.098510 0.000000 29.000000 14.413379 0.000000
2.669161 -10.969520 -7.598100 0.000000 39.000000 14.308046 0.000000
3.808190 -10.986309 -7.786919 0.000000 37.000000 14.476214 0.000000
4.979435 -9.975316 -8.450390 0.000000 32.000000 14.491179 0.000000
6.416123 -12.223012 -7.350695 0.000000 58.000000 14.774260 11.000000
0.742002 -12.072549 -6.969279 0.000000 33.000000 14.371824 0.000000
4.163122 -14.238713 -5.896240 0.000000 52.000000 14.633483 28.000000
