-43.775338 -55.084956 15.476014 0.000000 54.000000 14.476014 29.000000
-41.051247 -60.401437 15.960248 0.000000 46.000000 14.960248 17.000000
-42.298748 -57.845775 15.150043 0.000000 36.000000 14.150043 0.000000
-40.697701 -58.334497 15.809652 0.000000 52.000000 14.809652 20.000000
-42.418537 -57.923276 15.149558 0.000000 35.000000 14.149558 0.000000
-42.999902 -56.107242 15.761281 0.000000 63.000000 14.761281 4.000000
-42.327970 -55.684979 15.598364 0.000000 48.000000 14.598364 4.000000
-42.322401 -55.106118 15.464475 0.000000 82.000000 14.464475 13.000000
-46.454220 -57.706538 15.189570 0.000000 30.000000 14.189570 0.000000
-41.900726 -60.103608 15.359447 0.000000 62.000000 14.359447 17.000000
-43.286695 -60.442737 15.317781 0.000000 44.000000 14.317781 7.000000
-43.516014 -59.052455 15.148803 0.000000 41.000000 14.148803 0.000000
-44.177290 -60.345104 15.088127 0.000000 27.000000 14.088127 0.000000
-42.094290 -58.989907 15.378297 0.000000 69.000000 14.378297 28.000000
-43.991455 -56.548713 15.153842 0.000000 41.000000 14.153842 0.000000
-43.482523 -60.568243 15.280064 0.000000 68.000000 14.280064 7.000000
-45.414949 -56.112810 15.304007 0.000000 34.000000 14.304007 9.000000
-43.317551 -58.367449 15.176798 0.000000 39.000000 14.176798 0.000000
-44.036151 -59.292680 15.179882 0.000000 44.000000 14.179882 0.000000
-43.819512 -56.418660 15.186312 0.000000 26.000000 14.186312 0.000000
-44.168258 -59.366697 15.156064 0.000000 36.000000 14.156064 0.000000
-42.809281 -60.112398 15.203762 0.000000 32.000000 14.203762 0.000000
-44.304898 -59.393711 15.197205 0.000000 50.000000 14.197205 0.000000
-43.724839 -58.539690 15.156888 0.000000 48.000000 14.156888 0.000000
-45.910252 -58.737802 15.181810 0.000000 39.000000 14.181810 0.000000
-44.004692 -58.635894 15.153255 0.000000 42.000000 14.153255 0.000000
-44.146899 -58.691533 15.131704 0.000000 34.000000 14.131704 0.000000
-40.978571 -57.574250 15.810591 0.000000 52.000000 14.810591 3.000000
-44.288707 -58.733058 15.128351 0.000000 41.000000 14.128351 0.000000
-45.002958 -59.638307 15.188358 0.000000 46.000000 14.188358 0.000000
-41.773716 -59.055470 15.427161 0.000000 46.000000 14.427161 28.000000
-45.149949 -59.711434 15.141420 0.000000 39.000000 14.141420 0.000000
-44.576650 -58.847592 15.062472 0.000000 31.000000 14.062472 0.000000
-46.965128 -58.745608 15.148042 0.000000 45.000000 14.148042 0.000000
-44.723424 -58.885931 15.052343 0.000000 31.000000 14.052343 0.000000
-44.357790 -55.702239 15.806664 0.000000 53.000000 14.806664 10.000000
-41.052878 -57.754583 15.493196 0.000000 44.000000 14.493196 3.000000
-45.590622 -59.836862 15.109514 0.000000 52.000000 14.109514 0.000000
-40.447625 -58.058763 15.788266 0.000000 53.000000 14.788266 30.000000
-41.359452 -59.874224 15.810477 0.000000 55.000000 14.810477 17.000000
-41.580996 -60.858855 15.949560 0.000000 66.000000 14.949560 22.000000
-44.675451 -58.148346 15.143823 0.000000 32.000000 14.143823 0.000000
-42.167170 -59.674623 16.100242 0.000000 59.000000 15.100242 16.000000
-43.145240 -56.333763 15.258678 0.000000 50.000000 14.258678 4.000000
-40.043699 -58.988830 15.372350 0.000000 37.000000 14.372350 25.000000
-46.199320 -60.004811 15.013966 0.000000 54.000000 14.013966 0.000000
-43.850844 -60.611272 15.205436 0.000000 24.000000 14.205436 0.000000
-45.758697 -58.950571 15.172938 0.000000 41.000000 14.172938 0.000000
-42.463169 -56.612290 15.161317 0.000000 26.000000 14.161317 0.000000
-45.802813 -58.090897 15.829386 0.000000 60.000000 14.829386 6.000000
-43.056236 -58.447535 15.202236 0.000000 30.000000 14.202236 0.000000
-46.367369 -58.995697 15.139805 0.000000 37.000000 14.139805 0.000000
-39.681467 -58.593702 15.495539 0.000000 52.000000 14.495539 25.000000
-46.672725 -59.007499 15.116402 0.000000 36.000000 14.116402 0.000000
-40.032609 -58.866634 15.483499 0.000000 46.000000 14.483499 25.000000
-41.870743 -59.506302 15.990567 0.000000 37.000000 14.990567 16.000000
-42.474875 -61.536489 15.455200 0.000000 38.000000 14.455200 15.000000
-44.177476 -54.924177 15.175482 0.000000 44.000000 14.175482 0.000000
-44.463247 -55.563228 15.483820 0.000000 69.000000 14.483820 10.000000
-41.153748 -57.735722 15.317053 0.000000 48.000000 14.317053 3.000000
-43.574796 -55.244550 15.037845 0.000000 29.000000 14.037845 0.000000
-45.345536 -56.450398 15.681906 0.000000 51.000000 14.681906 9.000000
-41.683941 -60.986456 15.510850 0.000000 28.000000 14.510850 22.000000
-43.236785 -54.762414 15.081852 0.000000 35.000000 14.081852 0.000000
-42.322361 -55.900915 15.586638 0.000000 42.000000 14.586638 4.000000
-43.684135 -56.731235 15.194373 0.000000 31.000000 14.194373 0.000000
-41.985610 -56.372348 15.063172 0.000000 28.000000 14.063172 0.000000
-39.597582 -58.329105 15.407889 0.000000 34.000000 14.407889 25.000000
-41.825416 -56.503798 15.174190 0.000000 38.000000 14.174190 0.000000
-42.313033 -56.935295 15.119607 0.000000 37.000000 14.119607 0.000000
-41.043309 -57.702211 15.223899 0.000000 39.000000 14.223899 0.000000
-41.574597 -56.814471 15.163198 0.000000 39.000000 14.163198 0.000000
-45.313613 -58.047164 15.593293 0.000000 52.000000 14.593293 6.000000
-43.894215 -58.888269 15.203126 0.000000 36.000000 14.203126 0.000000
-41.130356 -57.545314 15.056579 0.000000 28.000000 14.056579 0.000000
-43.924277 -61.839858 15.057914 0.000000 45.000000 14.057914 0.000000
-46.804869 -58.853176 15.063526 0.000000 48.000000 14.063526 0.000000
-40.865940 -58.159758 15.232512 0.000000 46.000000 14.232512 0.000000
-40.686303 -59.188134 15.238814 0.000000 40.000000 14.238814 0.000000
-42.995637 -57.513870 15.211031 0.000000 34.000000 14.211031 0.000000
-43.481446 -57.782321 15.199405 0.000000 37.000000 14.199405 0.000000
-42.627531 -61.939241 15.163778 0.000000 36.000000 14.163778 0.000000
-42.768888 -61.996453 15.151474 0.000000 38.000000 14.151474 0.000000
-42.907457 -62.082343 15.107454 0.000000 34.000000 14.107454 0.000000
-44.388521 -55.799381 15.523328 0.000000 45.000000 14.523328 10.000000
-43.128269 -59.292854 15.049702 0.000000 21.000000 14.049702 0.000000
-43.339198 -62.262033 15.036208 0.000000 35.000000 14.036208 0.000000
-43.494452 -62.280535 15.054293 0.000000 32.000000 14.054293 0.000000
-40.103638 -57.650201 15.661600 0.000000 50.000000 14.661600 8.000000
-41.879017 -59.164295 15.529341 0.000000 44.000000 14.529341 28.000000
-42.500749 -59.763913 15.511656 0.000000 39.000000 14.511656 16.000000
-45.537927 -59.709294 15.110716 0.000000 31.000000 14.110716 0.000000
-43.172857 -59.047212 15.053001 0.000000 23.000000 14.053001 0.000000
-40.326724 -57.098252 15.188681 0.000000 35.000000 14.188681 0.000000
-45.928721 -57.184683 15.134375 0.000000 51.000000 14.134375 0.000000
-44.037800 -57.042269 15.388190 0.000000 61.000000 14.388190 18.000000
-45.677866 -57.398578 14.974188 0.000000 26.000000 13.974188 0.000000
-40.000711 -58.331076 15.723343 0.000000 51.000000 14.723343 25.000000
-45.418331 -57.523716 14.986958 0.000000 30.000000 13.986958 0.000000
-44.420447 -56.551985 15.074669 0.000000 36.000000 14.074669 0.000000
-45.682568 -56.380550 15.175710 0.000000 35.000000 14.175710 0.000000
-41.451191 -59.413045 15.514282 0.000000 20.000000 14.514282 28.000000
-45.162652 -57.591518 15.112590 0.000000 46.000000 14.112590 0.000000
-42.344713 -56.638933 15.166310 0.000000 29.000000 14.166310 0.000000
-45.036688 -57.642833 15.150375 0.000000 48.000000 14.150375 0.000000
-43.021418 -56.397725 15.487421 0.000000 29.000000 14.487421 4.000000
-44.912569 -57.725448 15.141461 0.000000 47.000000 14.141461 0.000000
-44.090487 -56.751870 15.266603 0.000000 45.000000 14.266603 0.000000
-44.790502 -57.803946 15.142583 0.000000 39.000000 14.142583 0.000000
-41.659828 -60.206944 15.840046 0.000000 56.000000 14.840046 17.000000
-44.668226 -57.892947 15.129433 0.000000 48.000000 14.129433 0.000000
-43.651572 -54.779619 15.389613 0.000000 55.000000 14.389613 29.000000
-42.440897 -57.657127 15.163830 0.000000 31.000000 14.163830 0.000000
-40.960262 -60.001338 15.804137 0.000000 25.000000 14.804137 17.000000
-42.281466 -61.208412 15.885434 0.000000 11.000000 14.885434 15.000000
-43.473119 -57.275570 15.073900 0.000000 35.000000 14.073900 0.000000
-44.190197 -58.312794 15.023156 0.000000 29.000000 14.023156 0.000000
-44.312103 -57.107129 15.386384 0.000000 50.000000 14.386384 5.000000
-44.021468 -55.166139 15.321732 0.000000 40.000000 14.321732 11.000000
-43.235486 -57.474834 15.048126 0.000000 32.000000 14.048126 0.000000
-43.962182 -58.439870 15.124877 0.000000 39.000000 14.124877 0.000000
-44.297765 -59.059820 15.175723 0.000000 29.000000 14.175723 0.000000
-43.923107 -54.825938 15.608340 0.000000 67.000000 14.608340 29.000000
-46.974350 -57.999469 15.524032 0.000000 47.000000 14.524032 2.000000
-40.660106 -57.485613 15.351768 0.000000 63.000000 14.351768 3.000000
-45.020647 -56.428973 15.522835 0.000000 62.000000 14.522835 9.000000
-40.887426 -57.556228 15.732943 0.000000 64.000000 14.732943 3.000000
-42.789579 -57.817409 15.143417 0.000000 31.000000 14.143417 0.000000
-42.093819 -57.676559 15.171799 0.000000 33.000000 14.171799 0.000000
-42.681012 -57.914771 15.155887 0.000000 37.000000 14.155887 0.000000
-43.411558 -58.935484 15.166819 0.000000 42.000000 14.166819 0.000000
-42.573232 -58.015911 15.165857 0.000000 36.000000 14.165857 0.000000
-44.089504 -58.089911 15.068948 0.000000 26.000000 14.068948 0.000000
-41.349936 -60.272140 15.736490 0.000000 48.000000 14.736490 17.000000
-40.692737 -59.361105 15.278440 0.000000 45.000000 14.278440 21.000000
-42.338489 -58.352561 14.989342 0.000000 25.000000 13.989342 0.000000
-43.084909 -59.384388 15.014725 0.000000 28.000000 14.014725 0.000000
-42.241706 -58.434167 15.042935 0.000000 31.000000 14.042935 0.000000
-42.984934 -59.480535 15.054811 0.000000 34.000000 14.054811 0.000000
-42.141463 -58.544071 15.059232 0.000000 27.000000 14.059232 0.000000
-42.895265 -59.540380 15.146224 0.000000 34.000000 14.146224 0.000000
-41.619051 -58.299614 15.209971 0.000000 30.000000 14.209971 0.000000
-41.956920 -58.740967 15.132256 0.000000 28.000000 14.132256 0.000000
-45.102031 -56.518032 15.468225 0.000000 43.000000 14.468225 9.000000
-41.834824 -58.544823 15.146659 0.000000 33.000000 14.146659 0.000000
-42.522157 -60.046360 15.162695 0.000000 32.000000 14.162695 0.000000
-42.428027 -60.211045 15.120118 0.000000 30.000000 14.120118 0.000000
-44.231446 -56.854783 15.474864 0.000000 53.000000 14.474864 5.000000
-42.241488 -60.582321 15.001795 0.000000 27.000000 14.001795 0.000000
-41.861292 -57.040881 15.191010 0.000000 31.000000 14.191010 0.000000
-44.319337 -57.648454 15.239701 0.000000 47.000000 14.239701 1.000000
-46.526912 -58.513351 15.116101 0.000000 62.000000 14.116101 0.000000
-41.220752 -60.175894 15.802454 0.000000 73.000000 14.802454 17.000000
-46.279577 -58.669766 15.178200 0.000000 44.000000 14.178200 0.000000
-46.023917 -59.685536 15.092998 0.000000 31.000000 14.092998 0.000000
-46.041840 -58.889811 15.161814 0.000000 47.000000 14.161814 0.000000
-43.175472 -59.818811 15.169315 0.000000 35.000000 14.169315 0.000000
-41.792074 -58.955236 15.444141 0.000000 40.000000 14.444141 28.000000
-41.283965 -59.712310 15.800286 0.000000 56.000000 14.800286 17.000000
-45.243450 -59.694889 15.160421 0.000000 37.000000 14.160421 0.000000
-40.979381 -59.151178 15.708084 0.000000 77.000000 14.708084 21.000000
-41.339824 -58.301451 15.578210 0.000000 51.000000 14.578210 20.000000
-44.921384 -60.051951 15.196539 0.000000 50.000000 14.196539 0.000000
-40.127483 -57.600120 15.836380 0.000000 64.000000 14.836380 8.000000
-44.709824 -60.435006 15.048368 0.000000 34.000000 14.048368 0.000000
-46.499044 -59.294486 15.193788 0.000000 34.000000 14.193788 0.000000
-44.502115 -60.786043 14.961983 0.000000 29.000000 13.961983 0.000000
-42.708909 -59.692667 15.327338 0.000000 42.000000 14.327338 27.000000
-44.303810 -61.033702 15.021717 0.000000 29.000000 14.021717 0.000000
-42.877449 -55.784328 15.203702 0.000000 44.000000 14.203702 0.000000
-42.854138 -58.692920 15.082599 0.000000 35.000000 14.082599 0.000000
-45.076943 -59.379774 15.259676 0.000000 59.000000 14.259676 12.000000
-45.739851 -58.169043 15.820428 0.000000 14.000000 14.820428 6.000000
-43.836380 -61.795399 15.050125 0.000000 48.000000 14.050125 0.000000
-45.147273 -57.361810 15.107668 0.000000 31.000000 14.107668 0.000000
-43.663668 -62.118365 15.065046 0.000000 38.000000 14.065046 0.000000
-43.582904 -62.284148 15.071529 0.000000 34.000000 14.071529 0.000000
-43.502829 -62.446126 15.082490 0.000000 33.000000 14.082490 0.000000
-45.662778 -58.359694 15.305739 0.000000 50.000000 14.305739 0.000000
-41.852626 -55.752639 15.034233 0.000000 22.000000 14.034233 0.000000
-41.951382 -55.818404 15.095529 0.000000 24.000000 14.095529 0.000000
-43.886745 -54.659578 15.307776 0.000000 56.000000 14.307776 29.000000
-42.908940 -56.866078 15.048377 0.000000 38.000000 14.048377 0.000000
-40.791873 -58.159481 15.774500 0.000000 53.000000 14.774500 20.000000
-43.103329 -57.025412 15.095846 0.000000 32.000000 14.095846 0.000000
-43.330559 -60.630297 15.555606 0.000000 63.000000 14.555606 7.000000
-43.300042 -57.236679 15.039417 0.000000 31.000000 14.039417 0.000000
-42.625124 -59.342877 15.571584 0.000000 55.000000 14.571584 27.000000
-43.510666 -57.414078 15.028685 0.000000 35.000000 14.028685 0.000000
-43.621549 -57.478083 15.058658 0.000000 35.000000 14.058658 0.000000
-43.112799 -56.744115 15.151761 0.000000 23.000000 14.151761 0.000000
-41.570428 -57.804848 15.145742 0.000000 52.000000 14.145742 0.000000
-41.522424 -58.890667 15.773257 0.000000 67.000000 14.773257 28.000000
-44.457397 -55.866568 15.807824 0.000000 25.000000 14.807824 10.000000
-44.324751 -57.933644 15.068247 0.000000 28.000000 14.068247 0.000000
-44.449355 -57.989300 15.087872 0.000000 30.000000 14.087872 0.000000
-44.578104 -58.038479 15.121022 0.000000 37.000000 14.121022 0.000000
-43.457555 -55.670662 15.209181 0.000000 36.000000 14.209181 0.000000
-44.704883 -58.100005 15.124983 0.000000 39.000000 14.124983 0.000000
-44.109357 -57.296245 15.139215 0.000000 36.000000 14.139215 0.000000
-43.477717 -58.810165 15.205415 0.000000 45.000000 14.205415 0.000000
-39.999616 -57.695344 15.758430 0.000000 45.000000 14.758430 8.000000
-45.263374 -57.855692 15.517930 0.000000 42.000000 14.517930 6.000000
-44.373683 -57.410814 15.136445 0.000000 41.000000 14.136445 0.000000
-44.847291 -57.741541 15.164083 0.000000 38.000000 14.164083 0.000000
-44.510804 -57.447258 15.166625 0.000000 34.000000 14.166625 0.000000
-44.647373 -57.510147 15.143609 0.000000 37.000000 14.143609 0.000000
-41.229244 -60.656075 15.502237 0.000000 46.000000 14.502237 22.000000
-42.826057 -55.550528 15.291756 0.000000 40.000000 14.291756 0.000000
-43.995444 -59.869537 15.163386 0.000000 37.000000 14.163386 0.000000
-45.062774 -57.640287 15.158678 0.000000 44.000000 14.158678 0.000000
-45.201561 -57.695334 15.137369 0.000000 39.000000 14.137369 0.000000
-45.342803 -57.736302 15.133189 0.000000 36.000000 14.133189 0.000000
-42.456913 -55.130438 15.604836 0.000000 66.000000 14.604836 13.000000
-40.860013 -59.344253 15.792364 0.000000 47.000000 14.792364 21.000000
-45.152121 -60.304490 15.160802 0.000000 38.000000 14.160802 0.000000
-45.780267 -57.908136 15.023418 0.000000 27.000000 14.023418 0.000000
-41.889916 -57.237982 15.212914 0.000000 36.000000 14.212914 0.000000
-40.853880 -58.287066 15.618245 0.000000 50.000000 14.618245 20.000000
-41.045908 -60.428881 15.458361 0.000000 38.000000 14.458361 17.000000
-46.079056 -58.011483 14.948739 0.000000 26.000000 13.948739 0.000000
-46.807557 -58.847227 15.051889 0.000000 58.000000 14.051889 0.000000
-46.227158 -58.030005 14.961729 0.000000 25.000000 13.961729 0.000000
-42.777448 -56.033621 15.483823 0.000000 64.000000 14.483823 4.000000
-46.373089 -58.040205 14.982712 0.000000 25.000000 13.982712 0.000000
-47.108629 -58.897456 15.056373 0.000000 48.000000 14.056373 0.000000
-46.511517 -57.975344 15.121991 0.000000 36.000000 14.121991 0.000000
-43.983140 -60.169698 15.015252 0.000000 30.000000 14.015252 0.000000
-42.530394 -61.798761 16.127044 0.000000 74.000000 15.127044 26.000000
-43.348741 -54.128000 15.159849 0.000000 38.000000 14.159849 0.000000
-39.789985 -58.354601 15.326399 0.000000 51.000000 14.326399 25.000000
-40.834181 -59.771423 15.855452 0.000000 52.000000 14.855452 17.000000
-41.179959 -56.268583 15.154359 0.000000 28.000000 14.154359 0.000000
-41.706144 -60.143714 15.244843 0.000000 31.000000 14.244843 0.000000
-42.592693 -56.012158 15.594948 0.000000 51.000000 14.594948 4.000000
-41.023530 -58.192011 15.395842 0.000000 45.000000 14.395842 20.000000
-41.039308 -56.670580 15.236082 0.000000 40.000000 14.236082 0.000000
-40.896826 -57.337882 15.090353 0.000000 26.000000 14.090353 0.000000
-41.500478 -58.821121 15.380360 0.000000 44.000000 14.380360 28.000000
-42.157225 -57.430781 15.143142 0.000000 47.000000 14.143142 0.000000
-40.134952 -57.321749 15.166761 0.000000 34.000000 14.166761 0.000000
-42.206047 -59.748626 15.258076 0.000000 36.000000 14.258076 0.000000
-40.992438 -58.358988 15.203406 0.000000 40.000000 14.203406 0.000000
-40.219528 -57.508918 15.248524 0.000000 32.000000 14.248524 0.000000
-42.400451 -58.969314 15.397360 0.000000 73.000000 14.397360 27.000000
-41.341634 -58.944797 15.344124 0.000000 42.000000 14.344124 28.000000
-45.838036 -58.959161 15.274857 0.000000 39.000000 14.274857 0.000000
-40.286164 -57.774600 15.198464 0.000000 36.000000 14.198464 0.000000
-45.323571 -57.195516 15.008225 0.000000 28.000000 14.008225 0.000000
-40.332263 -57.889951 15.197041 0.000000 29.000000 14.197041 0.000000
-41.129281 -58.856322 15.168770 0.000000 31.000000 14.168770 0.000000
-42.232297 -60.587301 14.996542 0.000000 26.000000 13.996542 0.000000
-43.933628 -55.062699 15.497123 0.000000 62.000000 14.497123 29.000000
-42.449478 -60.770896 14.994115 0.000000 26.000000 13.994115 0.000000
-42.337091 -60.032669 15.146355 0.000000 29.000000 14.146355 0.000000
-40.413556 -57.924087 15.857889 0.000000 55.000000 14.857889 30.000000
-42.465939 -60.094707 15.152990 0.000000 30.000000 14.152990 0.000000
-41.858306 -58.770603 15.186461 0.000000 31.000000 14.186461 0.000000
-44.591440 -60.095849 15.126009 0.000000 26.000000 14.126009 0.000000
-44.375459 -59.947652 15.143961 0.000000 32.000000 14.143961 0.000000
-42.735763 -60.186525 15.200610 0.000000 53.000000 14.200610 0.000000
-44.246575 -57.899472 15.167649 0.000000 31.000000 14.167649 1.000000
-42.872633 -60.234981 15.213666 0.000000 45.000000 14.213666 0.000000
-43.568184 -61.438639 15.003325 0.000000 26.000000 14.003325 0.000000
-43.002254 -60.332445 15.157767 0.000000 38.000000 14.157767 0.000000
-44.092473 -59.449611 15.223380 0.000000 38.000000 14.223380 0.000000
-43.139829 -60.383730 15.157684 0.000000 33.000000 14.157684 0.000000
-43.845191 -61.525456 15.040438 0.000000 50.000000 14.040438 0.000000
-43.953285 -57.420005 15.143001 0.000000 27.000000 14.143001 0.000000
-43.985059 -61.563877 15.058110 0.000000 59.000000 14.058110 0.000000
-43.419588 -60.500885 15.131675 0.000000 27.000000 14.131675 0.000000
-40.233774 -58.370494 15.660011 0.000000 51.000000 14.660011 30.000000
-43.693761 -55.193446 15.347356 0.000000 44.000000 14.347356 29.000000
-44.275721 -61.595136 15.141017 0.000000 56.000000 14.141017 0.000000
-41.536509 -60.386863 15.791979 0.000000 51.000000 14.791979 17.000000
-44.421902 -61.659305 15.116161 0.000000 48.000000 14.116161 0.000000
-43.163073 -55.730380 15.296278 0.000000 43.000000 14.296278 0.000000
-44.000377 -60.720078 15.045317 0.000000 23.000000 14.045317 0.000000
-41.156794 -57.837709 15.671060 0.000000 55.000000 14.671060 3.000000
-40.483957 -57.943145 15.467623 0.000000 36.000000 14.467623 30.000000
-44.383161 -56.220318 15.056869 0.000000 31.000000 14.056869 0.000000
-44.872909 -59.013118 15.090673 0.000000 27.000000 14.090673 0.000000
-42.863358 -56.911199 15.122678 0.000000 48.000000 14.122678 0.000000
-44.302702 -56.937672 15.481686 0.000000 49.000000 14.481686 5.000000
-46.762149 -58.892003 15.099165 0.000000 40.000000 14.099165 0.000000
-41.769566 -55.785557 15.158437 0.000000 47.000000 14.158437 0.000000
-45.383094 -60.790157 15.164478 0.000000 40.000000 14.164478 0.000000
-42.044892 -60.640621 15.608769 0.000000 45.000000 14.608769 23.000000
-43.874777 -57.224424 15.482179 0.000000 59.000000 14.482179 18.000000
-41.694774 -57.091814 15.361135 0.000000 64.000000 14.361135 14.000000
-44.214352 -55.545262 15.158579 0.000000 32.000000 14.158579 0.000000
-44.081357 -55.643006 15.072170 0.000000 27.000000 14.072170 0.000000
-41.637019 -58.991797 15.572315 0.000000 60.000000 14.572315 28.000000
-44.657490 -56.676779 15.019163 0.000000 36.000000 14.019163 0.000000
-45.748214 -59.968131 15.159406 0.000000 33.000000 14.159406 0.000000
-41.981015 -60.329314 15.324677 0.000000 54.000000 14.324677 17.000000
-43.703289 -55.816164 15.085035 0.000000 34.000000 14.085035 0.000000
-40.664240 -58.139374 15.678702 0.000000 43.000000 14.678702 20.000000
-45.094007 -59.294912 15.421343 0.000000 34.000000 14.421343 12.000000
-44.190238 -60.375677 15.019400 0.000000 27.000000 14.019400 0.000000
-43.461593 -55.909019 15.161984 0.000000 37.000000 14.161984 0.000000
-42.412719 -59.124037 15.511868 0.000000 47.000000 14.511868 27.000000
-44.060250 -56.882108 15.259662 0.000000 44.000000 14.259662 0.000000
-42.562991 -55.668329 15.553866 0.000000 58.000000 14.553866 4.000000
-40.998213 -59.573715 15.786467 0.000000 33.000000 14.786467 17.000000
-41.048453 -59.329614 15.658412 0.000000 68.000000 14.658412 21.000000
-39.881280 -58.205560 15.334994 0.000000 45.000000 14.334994 25.000000
-43.467477 -57.421525 15.011778 0.000000 31.000000 14.011778 0.000000
-44.225487 -55.641436 15.596283 0.000000 49.000000 14.596283 10.000000
-43.257616 -57.519300 15.148096 0.000000 41.000000 14.148096 0.000000
-42.403497 -56.648906 15.108352 0.000000 25.000000 14.108352 0.000000
-43.155247 -57.576301 15.206458 0.000000 49.000000 14.206458 0.000000
-42.501488 -59.744311 15.541659 0.000000 74.000000 14.541659 16.000000
-42.350937 -55.768096 15.640653 0.000000 41.000000 14.640653 4.000000
-42.187025 -56.826004 15.127901 0.000000 28.000000 14.127901 0.000000
-42.749935 -56.109991 15.804903 0.000000 41.000000 14.804903 4.000000
-42.082610 -56.920843 15.132493 0.000000 27.000000 14.132493 0.000000
-42.835391 -57.898692 15.159165 0.000000 42.000000 14.159165 0.000000
-41.978549 -57.018985 15.135391 0.000000 26.000000 14.135391 0.000000
-42.735190 -57.996385 15.163775 0.000000 48.000000 14.163775 0.000000
-42.235611 -59.423684 15.926784 0.000000 67.000000 14.926784 16.000000
-43.197510 -60.523136 15.728195 0.000000 69.000000 14.728195 7.000000
-40.648937 -57.936470 15.592958 0.000000 45.000000 14.592958 20.000000
-40.588476 -57.725172 15.386117 0.000000 33.000000 14.386117 30.000000
-43.203044 -55.237527 15.537148 0.000000 64.000000 14.537148 19.000000
-41.097501 -58.507829 15.523056 0.000000 55.000000 14.523056 20.000000
-44.532488 -55.692867 15.709467 0.000000 72.000000 14.709467 10.000000
-40.890667 -59.582441 15.821939 0.000000 76.000000 14.821939 17.000000
-43.985824 -56.953663 15.337703 0.000000 36.000000 14.337703 18.000000
-42.243391 -58.604469 15.069621 0.000000 32.000000 14.069621 0.000000
-41.382248 -57.703465 15.069252 0.000000 33.000000 14.069252 0.000000
-43.311921 -59.509421 15.022231 0.000000 29.000000 14.022231 0.000000
-41.307595 -57.774772 15.146142 0.000000 36.000000 14.146142 0.000000
-44.275715 -57.885898 15.189912 0.000000 28.000000 14.189912 1.000000
-41.224650 -57.794522 15.157474 0.000000 35.000000 14.157474 0.000000
-43.377133 -56.356460 15.410908 0.000000 53.000000 14.410908 4.000000
-41.139731 -58.009154 15.150166 0.000000 27.000000 14.150166 0.000000
-41.916248 -59.030738 15.155973 0.000000 39.000000 14.155973 0.000000
-46.055941 -58.549390 15.329404 0.000000 52.000000 14.329404 6.000000
-41.841619 -59.140627 15.178076 0.000000 40.000000 14.178076 0.000000
-41.005169 -58.189236 15.256033 0.000000 40.000000 14.256033 0.000000
-41.448235 -59.895770 15.243267 0.000000 25.000000 14.243267 0.000000
-47.365663 -58.317031 15.166550 0.000000 50.000000 14.166550 0.000000
-41.686206 -59.848671 15.815723 0.000000 86.000000 14.815723 17.000000
-41.184715 -58.702621 15.206801 0.000000 40.000000 14.206801 0.000000
-45.372167 -56.629578 15.477170 0.000000 51.000000 14.477170 9.000000
-40.194502 -58.964358 15.351368 0.000000 30.000000 14.351368 21.000000
-42.937465 -55.780646 15.207367 0.000000 30.000000 14.207367 0.000000
-41.797988 -60.766050 15.468132 0.000000 52.000000 14.468132 23.000000
-46.724607 -58.014207 15.526366 0.000000 54.000000 14.526366 2.000000
-41.271166 -57.628554 15.107126 0.000000 29.000000 14.107126 0.000000
-45.900033 -57.927132 15.056130 0.000000 30.000000 14.056130 0.000000
-43.786229 -56.006408 15.157619 0.000000 56.000000 14.157619 0.000000
-45.894087 -57.863715 15.016030 0.000000 41.000000 14.016030 0.000000
-45.228947 -59.810533 15.196864 0.000000 39.000000 14.196864 0.000000
-45.766354 -57.940538 15.021103 0.000000 29.000000 14.021103 0.000000
-40.282526 -57.742862 15.641613 0.000000 41.000000 14.641613 8.000000
-43.259845 -60.606735 15.761482 0.000000 66.000000 14.761482 7.000000
-46.342916 -58.954835 15.155690 0.000000 45.000000 14.155690 0.000000
-46.217347 -59.039332 15.164978 0.000000 53.000000 14.164978 0.000000
-46.095389 -59.133867 15.161718 0.000000 50.000000 14.161718 0.000000
-45.972906 -59.221451 15.171848 0.000000 46.000000 14.171848 0.000000
-45.141144 -58.302641 15.154157 0.000000 52.000000 14.154157 0.000000
-41.223333 -57.628249 15.136021 0.000000 24.000000 14.136021 0.000000
-45.019476 -58.381602 15.181194 0.000000 47.000000 14.181194 0.000000
-44.898395 -58.568427 15.040863 0.000000 29.000000 14.040863 0.000000
-45.616123 -59.604049 15.055674 0.000000 39.000000 14.055674 0.000000
-41.496607 -56.974393 15.546687 0.000000 37.000000 14.546687 14.000000
-43.174245 -60.049968 15.194021 0.000000 38.000000 14.194021 0.000000
-44.447650 -56.902838 15.515493 0.000000 72.000000 14.515493 5.000000
-44.955116 -56.883044 15.121173 0.000000 36.000000 14.121173 0.000000
-44.543052 -58.857405 15.077268 0.000000 31.000000 14.077268 0.000000
-45.262008 -59.858028 15.157160 0.000000 40.000000 14.157160 0.000000
-44.708337 -59.496296 15.506760 0.000000 47.000000 14.506760 12.000000
-45.149448 -59.955060 15.179008 0.000000 43.000000 14.179008 0.000000
-44.593892 -55.990386 15.867108 0.000000 66.000000 14.867108 10.000000
-43.740025 -55.686320 15.076778 0.000000 31.000000 14.076778 0.000000
-44.202540 -59.123817 15.177691 0.000000 45.000000 14.177691 0.000000
-44.923648 -60.172242 15.204075 0.000000 49.000000 14.204075 0.000000
-45.564643 -57.785186 15.402017 0.000000 54.000000 14.402017 6.000000
-44.810439 -60.367562 15.107902 0.000000 33.000000 14.107902 0.000000
-45.225370 -57.986368 15.471792 0.000000 38.000000 14.471792 6.000000
-42.878615 -60.313732 15.156996 0.000000 38.000000 14.156996 0.000000
-46.731170 -57.764718 15.280500 0.000000 44.000000 14.280500 2.000000
-44.589649 -60.730172 14.960333 0.000000 28.000000 13.960333 0.000000
-43.757103 -59.675215 15.074849 0.000000 34.000000 14.074849 0.000000
-44.482145 -60.849826 14.975035 0.000000 31.000000 13.975035 0.000000
-45.604246 -60.290200 15.192016 0.000000 54.000000 14.192016 0.000000
-44.379566 -60.930177 15.045368 0.000000 36.000000 14.045368 0.000000
-42.024087 -57.856948 15.102387 0.000000 29.000000 14.102387 0.000000
-44.274873 -61.069176 15.044838 0.000000 30.000000 14.044838 0.000000
-43.445487 -60.038423 15.113051 0.000000 30.000000 14.113051 0.000000
-40.737061 -60.169488 15.913747 0.000000 35.000000 14.913747 17.000000
-43.723268 -59.332783 15.210808 0.000000 35.000000 14.210808 0.000000
-44.073874 -61.323826 15.080059 0.000000 43.000000 14.080059 0.000000
-43.248585 -60.271914 15.168501 0.000000 31.000000 14.168501 0.000000
-43.974507 -61.483393 15.062485 0.000000 55.000000 14.062485 0.000000
-43.057248 -59.842825 15.182735 0.000000 49.000000 14.182735 0.000000
-44.746277 -56.906644 15.550699 0.000000 43.000000 14.550699 5.000000
-46.406813 -57.155663 15.170169 0.000000 26.000000 14.170169 0.000000
-43.688036 -61.939690 15.063441 0.000000 41.000000 14.063441 0.000000
-44.118130 -61.874757 15.103903 0.000000 44.000000 14.103903 0.000000
-43.508537 -62.242775 15.080619 0.000000 38.000000 14.080619 0.000000
-46.980507 -58.349789 15.242197 0.000000 41.000000 14.242197 2.000000
-43.447101 -58.818172 15.189575 0.000000 37.000000 14.189575 0.000000
-42.617455 -61.271192 15.217854 0.000000 33.000000 14.217854 0.000000
-43.339197 -62.568300 15.084338 0.000000 34.000000 14.084338 0.000000
-43.258310 -62.726686 15.093179 0.000000 32.000000 14.093179 0.000000
-42.873948 -54.645873 15.015151 0.000000 27.000000 14.015151 0.000000
-42.933045 -54.751463 15.013692 0.000000 28.000000 14.013692 0.000000
-42.994057 -54.862369 15.002366 0.000000 29.000000 14.002366 0.000000
-40.465792 -59.883778 15.348474 0.000000 53.000000 14.348474 17.000000
-45.927234 -59.152499 15.177220 0.000000 42.000000 14.177220 0.000000
-43.204030 -55.154159 15.045753 0.000000 32.000000 14.045753 0.000000
-43.278017 -55.256290 15.044888 0.000000 33.000000 14.044888 0.000000
-44.082372 -55.411513 15.220597 0.000000 36.000000 14.220597 0.000000
-43.972201 -54.668948 15.339426 0.000000 53.000000 14.339426 29.000000
-42.718932 -54.763470 15.044296 0.000000 29.000000 14.044296 0.000000
-45.733787 -59.491525 15.068510 0.000000 26.000000 14.068510 0.000000
-42.809386 -54.865487 15.037896 0.000000 29.000000 14.037896 0.000000
-46.621206 -59.146319 15.166673 0.000000 35.000000 14.166673 0.000000
-42.748187 -59.094005 15.570927 0.000000 55.000000 14.570927 27.000000
-41.592201 -56.993924 15.300587 0.000000 45.000000 14.300587 14.000000
-43.214670 -56.445971 15.332153 0.000000 55.000000 14.332153 4.000000
-43.776605 -55.855331 15.026964 0.000000 32.000000 14.026964 0.000000
-43.481132 -57.847596 15.213212 0.000000 49.000000 14.213212 0.000000
-43.868680 -55.954943 15.016252 0.000000 28.000000 14.016252 0.000000
-43.195216 -55.224301 15.083462 0.000000 40.000000 14.083462 0.000000
-40.907168 -58.056466 15.589116 0.000000 47.000000 14.589116 20.000000
-43.067781 -60.382050 15.278737 0.000000 49.000000 14.278737 7.000000
-40.731094 -56.888487 15.178779 0.000000 29.000000 14.178779 0.000000
-43.393693 -55.436151 15.017355 0.000000 26.000000 14.017355 0.000000
-45.649622 -58.001435 15.574623 0.000000 65.000000 14.574623 6.000000
-42.210368 -56.452265 15.091514 0.000000 25.000000 14.091514 0.000000
-42.907735 -59.867128 15.199268 0.000000 36.000000 14.199268 0.000000
-43.874532 -60.254263 15.010927 0.000000 23.000000 14.010927 0.000000
-43.720237 -55.694359 15.020511 0.000000 28.000000 14.020511 0.000000
-43.362951 -58.283781 15.172767 0.000000 58.000000 14.172767 0.000000
-45.881192 -57.200895 15.144047 0.000000 33.000000 14.144047 0.000000
-44.590060 -56.590852 14.988378 0.000000 32.000000 13.988378 0.000000
-43.946027 -55.873712 14.987612 0.000000 29.000000 13.987612 0.000000
-44.701311 -56.676823 14.983447 0.000000 34.000000 13.983447 0.000000
-45.555220 -57.298569 15.012472 0.000000 21.000000 14.012472 0.000000
-44.931555 -56.815265 15.027754 0.000000 36.000000 14.027754 0.000000
-40.603148 -59.107673 15.625774 0.000000 55.000000 14.625774 21.000000
-45.413542 -57.133492 14.989637 0.000000 27.000000 13.989637 0.000000
-41.175557 -59.296042 15.531082 0.000000 56.000000 14.531082 21.000000
-43.230054 -56.059967 15.194126 0.000000 36.000000 14.194126 0.000000
-44.836558 -55.832682 15.841091 0.000000 80.000000 14.841091 10.000000
-43.900518 -61.532561 15.047091 0.000000 26.000000 14.047091 0.000000
-42.546497 -58.787517 15.106879 0.000000 27.000000 14.106879 0.000000
-42.295852 -55.666628 15.547482 0.000000 46.000000 14.547482 4.000000
-44.126680 -56.064539 15.081061 0.000000 29.000000 14.081061 0.000000
-43.585274 -55.348867 15.031933 0.000000 33.000000 14.031933 0.000000
-45.714571 -56.727456 15.150598 0.000000 37.000000 14.150598 0.000000
-41.832025 -56.488651 15.177137 0.000000 42.000000 14.177137 0.000000
-45.928096 -58.213402 15.381588 0.000000 63.000000 14.381588 6.000000
-46.588588 -57.617681 15.128381 0.000000 50.000000 14.128381 0.000000
-43.651876 -55.762139 15.094815 0.000000 27.000000 14.094815 0.000000
-42.908633 -55.279358 15.481115 0.000000 62.000000 14.481115 19.000000
-46.128749 -56.884569 15.134482 0.000000 45.000000 14.134482 0.000000
-44.280771 -58.327266 15.069694 0.000000 25.000000 14.069694 0.000000
-41.348619 -55.999446 15.136585 0.000000 35.000000 14.136585 0.000000
-39.786024 -58.683805 15.548822 0.000000 37.000000 14.548822 25.000000
-43.973097 -55.131681 15.494500 0.000000 48.000000 14.494500 11.000000
-41.361846 -56.337516 15.141117 0.000000 32.000000 14.141117 0.000000
-44.915272 -56.112128 15.454950 0.000000 71.000000 14.454950 9.000000
-41.291812 -58.787138 15.684353 0.000000 67.000000 14.684353 28.000000
-40.695263 -57.927848 15.526866 0.000000 42.000000 14.526866 20.000000
-41.454001 -56.743761 15.235037 0.000000 43.000000 14.235037 0.000000
-41.133716 -59.306865 15.470992 0.000000 61.000000 14.470992 21.000000
-44.444341 -55.649197 15.647645 0.000000 73.000000 14.647645 10.000000
-42.186843 -55.367900 15.327609 0.000000 62.000000 14.327609 13.000000
-40.831317 -56.627085 15.066281 0.000000 21.000000 14.066281 0.000000
-41.650689 -57.528681 15.049254 0.000000 27.000000 14.049254 0.000000
-39.920824 -58.725087 15.546192 0.000000 39.000000 14.546192 25.000000
-44.316892 -55.578748 15.450106 0.000000 81.000000 14.450106 10.000000
-47.124808 -57.924581 15.276213 0.000000 39.000000 14.276213 2.000000
-41.814738 -57.883770 15.009590 0.000000 29.000000 14.009590 0.000000
-41.882166 -57.982607 15.026171 0.000000 28.000000 14.026171 0.000000
-41.948678 -58.096203 15.015429 0.000000 30.000000 14.015429 0.000000
-41.238422 -57.266953 15.082975 0.000000 35.000000 14.082975 0.000000
-40.998273 -57.105998 15.149520 0.000000 31.000000 14.149520 0.000000
-41.764901 -59.281554 15.732967 0.000000 41.000000 14.732967 28.000000
-42.094499 -58.314525 15.003015 0.000000 29.000000 14.003015 0.000000
-41.291409 -57.306699 15.093757 0.000000 36.000000 14.093757 0.000000
-41.133334 -60.465576 15.813478 0.000000 58.000000 14.813478 22.000000
-45.332066 -59.730827 15.160987 0.000000 33.000000 14.160987 0.000000
-45.615079 -59.828592 15.123079 0.000000 33.000000 14.123079 0.000000
-41.934645 -59.512046 15.920689 0.000000 67.000000 14.920689 16.000000
-42.350442 -58.600672 15.037746 0.000000 27.000000 14.037746 0.000000
-45.249427 -57.556831 15.149909 0.000000 45.000000 14.149909 0.000000
-42.437894 -58.710268 15.019059 0.000000 29.000000 14.019059 0.000000
-41.756617 -57.915315 14.993723 0.000000 26.000000 13.993723 0.000000
-42.529754 -58.810866 15.012604 0.000000 30.000000 14.012604 0.000000
-41.864045 -57.991344 15.022774 0.000000 26.000000 14.022774 0.000000
-42.627002 -58.911219 15.006233 0.000000 29.000000 14.006233 0.000000
-41.966190 -58.088281 15.013196 0.000000 27.000000 14.013196 0.000000
-45.066684 -56.076158 15.646238 0.000000 62.000000 14.646238 9.000000
-41.562789 -59.023534 15.999936 0.000000 62.000000 14.999936 28.000000
-42.757956 -55.857862 15.351877 0.000000 47.000000 14.351877 4.000000
-42.182153 -58.263129 15.011797 0.000000 25.000000 14.011797 0.000000
-46.776976 -58.496796 15.098004 0.000000 46.000000 14.098004 0.000000
-40.254813 -59.664354 15.510181 0.000000 43.000000 14.510181 21.000000
-43.038836 -59.285768 14.983423 0.000000 28.000000 13.983423 0.000000
-42.405858 -58.431756 15.007031 0.000000 27.000000 14.007031 0.000000
-43.151319 -59.366675 14.990120 0.000000 29.000000 13.990120 0.000000
-42.532501 -58.469786 15.072082 0.000000 33.000000 14.072082 0.000000
-44.395074 -56.675756 15.233537 0.000000 35.000000 14.233537 0.000000
-42.446479 -60.897729 15.108227 0.000000 28.000000 14.108227 0.000000
-42.122435 -55.619956 15.330176 0.000000 28.000000 14.330176 13.000000
-42.770271 -58.632034 15.053226 0.000000 34.000000 14.053226 0.000000
-40.519532 -59.053631 15.332031 0.000000 38.000000 14.332031 21.000000
-45.840778 -59.592653 15.080209 0.000000 27.000000 14.080209 0.000000
-43.628313 -59.631510 15.057682 0.000000 34.000000 14.057682 0.000000
-45.772084 -57.397172 15.045237 0.000000 27.000000 14.045237 0.000000
-43.754791 -59.682513 15.089741 0.000000 37.000000 14.089741 0.000000
-43.532129 -57.827847 15.214655 0.000000 40.000000 14.214655 0.000000
-41.088911 -57.758730 15.265430 0.000000 48.000000 14.265430 0.000000
-43.289342 -58.851767 15.136690 0.000000 34.000000 14.136690 0.000000
-40.457688 -58.166203 15.766368 0.000000 69.000000 14.766368 30.000000
-40.590545 -59.483334 15.593266 0.000000 64.000000 14.593266 21.000000
-41.865223 -60.566366 15.360195 0.000000 63.000000 14.360195 23.000000
-43.358949 -60.353655 15.281583 0.000000 60.000000 14.281583 7.000000
-44.272772 -59.940614 15.100041 0.000000 37.000000 14.100041 0.000000
-43.791360 -60.702265 15.182399 0.000000 32.000000 14.182399 0.000000
-44.407562 -59.988165 15.114210 0.000000 37.000000 14.114210 0.000000
-41.991694 -59.008773 15.984895 0.000000 82.000000 14.984895 28.000000
-42.240861 -59.609273 15.569253 0.000000 37.000000 14.569253 16.000000
-44.524604 -59.315371 15.429104 0.000000 48.000000 14.429104 12.000000
-45.106121 -58.194602 15.179133 0.000000 31.000000 14.179133 0.000000
-39.954174 -58.513438 15.536799 0.000000 58.000000 14.536799 25.000000
-44.821917 -60.067359 15.227673 0.000000 50.000000 14.227673 0.000000
-40.948523 -59.302088 15.466413 0.000000 68.000000 14.466413 21.000000
-44.962692 -60.160650 15.165184 0.000000 52.000000 14.165184 0.000000
-45.102833 -60.225654 15.140396 0.000000 44.000000 14.140396 0.000000
-40.512361 -57.594263 15.469728 0.000000 70.000000 14.469728 8.000000
-43.415152 -54.417649 15.214492 0.000000 41.000000 14.214492 0.000000
-44.818444 -59.369369 15.153165 0.000000 49.000000 14.153165 0.000000
-46.121998 -59.656378 15.197529 0.000000 26.000000 14.197529 0.000000
-42.471506 -55.790621 15.813823 0.000000 52.000000 14.813823 4.000000
-43.295454 -61.621303 15.036541 0.000000 24.000000 14.036541 0.000000
-45.410694 -59.510513 15.106915 0.000000 37.000000 14.106915 0.000000
-40.549265 -58.297495 15.613747 0.000000 54.000000 14.613747 30.000000
-42.150902 -60.126556 15.043657 0.000000 20.000000 14.043657 0.000000
-41.072822 -59.895101 15.910923 0.000000 49.000000 14.910923 17.000000
-44.579038 -60.606514 15.003237 0.000000 25.000000 14.003237 0.000000
-46.164956 -59.571572 15.126719 0.000000 39.000000 14.126719 0.000000
-44.561295 -55.611997 15.649230 0.000000 65.000000 14.649230 10.000000
-42.206664 -59.351080 15.728748 0.000000 57.000000 14.728748 16.000000
-42.544180 -59.443149 15.760962 0.000000 52.000000 14.760962 27.000000
-44.541136 -55.498147 15.174392 0.000000 39.000000 14.174392 0.000000
-41.144587 -59.638764 15.728425 0.000000 50.000000 14.728425 17.000000
-43.333905 -54.836669 15.049822 0.000000 24.000000 14.049822 0.000000
-44.061764 -55.723012 15.150771 0.000000 34.000000 14.150771 0.000000
-41.109982 -59.686711 15.742071 0.000000 60.000000 14.742071 17.000000
-42.681786 -59.007285 15.075630 0.000000 29.000000 14.075630 0.000000
-46.078264 -57.416959 15.170740 0.000000 35.000000 14.170740 0.000000
-42.196446 -59.495110 15.904475 0.000000 44.000000 14.904475 16.000000
-44.530209 -57.872887 15.174163 0.000000 35.000000 14.174163 0.000000
-43.716236 -55.905536 15.152555 0.000000 44.000000 14.152555 0.000000
-42.864652 -55.045174 15.125337 0.000000 26.000000 14.125337 0.000000
-41.983136 -60.183137 15.512511 0.000000 41.000000 14.512511 17.000000
-39.651733 -58.971610 15.676132 0.000000 46.000000 14.676132 25.000000
-43.272551 -56.727647 15.135574 0.000000 33.000000 14.135574 0.000000
-42.370814 -59.396893 15.689754 0.000000 48.000000 14.689754 16.000000
-43.379508 -56.109709 15.156074 0.000000 42.000000 14.156074 0.000000
-42.540717 -55.186422 15.270840 0.000000 39.000000 14.270840 0.000000
-43.270366 -56.181241 15.159971 0.000000 39.000000 14.159971 0.000000
-45.083718 -55.812497 15.342985 0.000000 49.000000 14.342985 10.000000
-42.304696 -55.384482 15.164902 0.000000 26.000000 14.164902 0.000000
-42.200042 -55.449273 15.193704 0.000000 42.000000 14.193704 0.000000
-41.863077 -55.763208 15.056934 0.000000 22.000000 14.056934 0.000000
-44.423660 -60.167950 15.088757 0.000000 33.000000 14.088757 0.000000
-46.134337 -58.265865 15.313148 0.000000 51.000000 14.313148 6.000000
-44.701909 -55.999050 15.248495 0.000000 34.000000 14.248495 10.000000
-41.162597 -58.245911 15.843749 0.000000 73.000000 14.843749 20.000000
-42.310011 -55.844963 15.535487 0.000000 72.000000 14.535487 4.000000
-41.445085 -58.885558 15.690109 0.000000 43.000000 14.690109 28.000000
-43.230061 -61.949556 15.153878 0.000000 30.000000 14.153878 0.000000
-40.004946 -58.694974 15.248905 0.000000 40.000000 14.248905 0.000000
-42.204998 -55.660361 15.487014 0.000000 42.000000 14.487014 4.000000
-42.639687 -55.221367 15.303500 0.000000 46.000000 14.303500 0.000000
-41.307667 -56.292853 15.140699 0.000000 24.000000 14.140699 0.000000
-42.101394 -57.256492 15.150636 0.000000 36.000000 14.150636 0.000000
-39.973085 -57.336965 15.790308 0.000000 65.000000 14.790308 8.000000
-42.018948 -57.360998 15.150496 0.000000 32.000000 14.150496 0.000000
-40.563328 -57.887078 15.610482 0.000000 52.000000 14.610482 30.000000
-41.834018 -60.534220 15.295709 0.000000 33.000000 14.295709 17.000000
-40.717434 -60.014519 15.525218 0.000000 46.000000 14.525218 17.000000
-41.849072 -57.607713 15.096094 0.000000 33.000000 14.096094 0.000000
-43.498284 -56.298926 15.166542 0.000000 34.000000 14.166542 0.000000
-41.761500 -57.758926 15.030536 0.000000 28.000000 14.030536 0.000000
-40.890328 -56.860333 15.081098 0.000000 24.000000 14.081098 0.000000
-45.914872 -58.680897 15.293693 0.000000 41.000000 14.293693 0.000000
-45.149353 -56.924049 15.065493 0.000000 24.000000 14.065493 0.000000
-40.751828 -57.085975 15.083629 0.000000 26.000000 14.083629 0.000000
-46.000904 -58.656800 15.180563 0.000000 44.000000 14.180563 0.000000
-43.901958 -60.067797 15.024901 0.000000 25.000000 14.024901 0.000000
-41.512195 -58.157354 15.137998 0.000000 37.000000 14.137998 0.000000
-40.649908 -57.269815 15.176741 0.000000 31.000000 14.176741 0.000000
-41.457216 -58.267359 15.156307 0.000000 38.000000 14.156307 0.000000
-40.585373 -57.405385 15.148039 0.000000 28.000000 14.148039 0.000000
-44.067630 -61.674593 15.094337 0.000000 32.000000 14.094337 0.000000
-41.454922 -59.036895 16.063076 0.000000 51.000000 15.063076 28.000000
-41.351899 -58.504875 15.166190 0.000000 29.000000 14.166190 0.000000
-41.304049 -58.625376 15.176496 0.000000 43.000000 14.176496 0.000000
-40.888247 -57.822724 15.331576 0.000000 35.000000 14.331576 20.000000
-46.348456 -59.842111 15.051106 0.000000 27.000000 14.051106 0.000000
-41.803462 -60.323228 15.317554 0.000000 48.000000 14.317554 17.000000
-41.227969 -58.851010 15.217230 0.000000 34.000000 14.217230 0.000000
-40.378985 -57.984573 15.219378 0.000000 29.000000 14.219378 0.000000
-41.469337 -60.173411 15.801880 0.000000 45.000000 14.801880 17.000000
-46.780281 -58.746687 15.071044 0.000000 48.000000 14.071044 0.000000
-45.947907 -56.665187 15.145006 0.000000 45.000000 14.145006 0.000000
-46.637310 -57.618920 15.149315 0.000000 53.000000 14.149315 0.000000
-40.597469 -56.701963 15.068830 0.000000 26.000000 14.068830 0.000000
-46.507210 -57.678022 15.147917 0.000000 54.000000 14.147917 0.000000
-40.817253 -60.276051 15.731507 0.000000 67.000000 14.731507 17.000000
-44.601745 -55.555569 15.476325 0.000000 62.000000 14.476325 10.000000
-42.877825 -59.633804 15.361132 0.000000 40.000000 14.361132 27.000000
-42.306566 -55.570991 15.256413 0.000000 60.000000 14.256413 4.000000
-45.425658 -56.943279 15.068954 0.000000 27.000000 14.068954 0.000000
-43.069551 -55.364639 15.481551 0.000000 55.000000 14.481551 19.000000
-43.271779 -58.296726 15.234465 0.000000 43.000000 14.234465 0.000000
-45.999193 -58.041312 14.971526 0.000000 32.000000 13.971526 0.000000
-42.271886 -60.674113 15.448579 0.000000 61.000000 14.448579 23.000000
-42.032203 -58.835809 15.185735 0.000000 28.000000 14.185735 0.000000
-45.039101 -57.167489 15.030396 0.000000 30.000000 14.030396 0.000000
-45.739269 -58.108795 15.099951 0.000000 40.000000 14.099951 0.000000
-44.911742 -57.195192 15.110774 0.000000 39.000000 14.110774 0.000000
-44.785551 -57.235293 15.167316 0.000000 45.000000 14.167316 0.000000
-45.243876 -58.377957 15.171202 0.000000 43.000000 14.171202 0.000000
-46.869927 -58.182652 15.540884 0.000000 37.000000 14.540884 2.000000
-44.292267 -57.560573 15.159515 0.000000 44.000000 14.159515 0.000000
-42.504525 -62.022364 15.231124 0.000000 37.000000 14.231124 0.000000
-44.880972 -58.755883 14.994345 0.000000 26.000000 13.994345 0.000000
-46.196658 -56.874932 15.168735 0.000000 38.000000 14.168735 0.000000
-44.646286 -58.900466 15.063779 0.000000 42.000000 14.063779 0.000000
-43.810281 -57.960093 15.095296 0.000000 31.000000 14.095296 0.000000
-41.604582 -59.709876 15.661873 0.000000 37.000000 14.661873 17.000000
-41.124641 -58.411463 15.277431 0.000000 57.000000 14.277431 20.000000
-41.917140 -60.501019 15.180904 0.000000 49.000000 14.180904 0.000000
-41.169054 -57.232540 15.081777 0.000000 30.000000 14.081777 0.000000
-44.063202 -59.776237 15.132867 0.000000 43.000000 14.132867 0.000000
-45.179451 -56.414321 15.612807 0.000000 47.000000 14.612807 9.000000
-44.388289 -56.563557 15.156950 0.000000 29.000000 14.156950 0.000000
-42.013024 -59.105775 15.926788 0.000000 72.000000 14.926788 28.000000
-44.085375 -59.341682 15.179547 0.000000 42.000000 14.179547 0.000000
-43.249691 -58.417427 15.181368 0.000000 41.000000 14.181368 0.000000
-43.804488 -54.793516 15.191336 0.000000 40.000000 14.191336 0.000000
-43.138258 -58.534402 15.170899 0.000000 37.000000 14.170899 0.000000
-43.868268 -59.567417 15.182060 0.000000 48.000000 14.182060 0.000000
-44.566489 -55.330016 15.328526 0.000000 44.000000 14.328526 10.000000
-43.754127 -59.755028 15.075707 0.000000 37.000000 14.075707 0.000000
-46.909013 -57.828335 15.410243 0.000000 68.000000 14.410243 2.000000
-44.653117 -57.224336 15.265025 0.000000 37.000000 14.265025 0.000000
-42.805032 -58.952151 15.053435 0.000000 28.000000 14.053435 0.000000
-41.578228 -58.959333 15.940164 0.000000 47.000000 14.940164 28.000000
-40.904384 -58.004614 15.421694 0.000000 48.000000 14.421694 20.000000
-43.451267 -60.089615 15.121648 0.000000 32.000000 14.121648 0.000000
-46.836598 -58.079084 15.571468 0.000000 43.000000 14.571468 2.000000
-42.121021 -61.422526 15.496016 0.000000 55.000000 14.496016 15.000000
-47.406848 -58.165980 15.168953 0.000000 41.000000 14.168953 0.000000
-44.398044 -55.634100 15.355940 0.000000 79.000000 14.355940 10.000000
-43.082710 -60.534102 15.225684 0.000000 41.000000 14.225684 0.000000
-42.644270 -61.322853 15.128803 0.000000 34.000000 14.128803 0.000000
-41.675310 -60.600897 15.190403 0.000000 33.000000 14.190403 0.000000
-47.398924 -58.817843 15.152174 0.000000 41.000000 14.152174 0.000000
-41.217235 -60.271510 15.611731 0.000000 40.000000 14.611731 17.000000
-43.534017 -55.697046 15.156090 0.000000 59.000000 14.156090 0.000000
-47.540731 -58.607596 15.153697 0.000000 55.000000 14.153697 0.000000
-43.573729 -55.279572 15.039398 0.000000 24.000000 14.039398 0.000000
-39.602636 -58.870920 15.664969 0.000000 73.000000 14.664969 25.000000
-42.314356 -55.604026 15.264937 0.000000 48.000000 14.264937 4.000000
-42.867787 -54.912194 15.249715 0.000000 63.000000 14.249715 13.000000
-42.089842 -57.303272 15.174905 0.000000 27.000000 14.174905 0.000000
-46.813295 -59.193874 15.150608 0.000000 45.000000 14.150608 0.000000
-45.192498 -56.421890 15.574009 0.000000 39.000000 14.574009 9.000000
-46.579868 -59.401416 15.156953 0.000000 41.000000 14.156953 0.000000
-46.461060 -59.496252 15.181684 0.000000 52.000000 14.181684 0.000000
-44.491306 -57.792026 15.432870 0.000000 60.000000 14.432870 1.000000
-46.237487 -59.787130 15.091920 0.000000 38.000000 14.091920 0.000000
