54.498932 -23.157552 28.196124 0.000000 40.000000 14.196124 0.000000
55.040962 -27.169435 28.151165 0.000000 36.000000 14.151165 0.000000
57.394714 -25.658371 28.137411 0.000000 47.000000 14.137411 0.000000
55.564182 -23.542226 28.675975 0.000000 77.000000 14.675975 20.000000
52.026638 -24.547259 28.183312 0.000000 33.000000 14.183312 0.000000
56.155663 -26.841598 28.069308 0.000000 29.000000 14.069308 0.000000
54.049877 -26.767092 28.084135 0.000000 31.000000 14.084135 0.000000
56.916534 -23.146269 28.371244 0.000000 55.000000 14.371244 27.000000
52.952156 -27.283479 28.174774 0.000000 44.000000 14.174774 0.000000
55.118546 -23.296915 28.150552 0.000000 43.000000 14.150552 0.000000
56.533432 -24.441959 28.421030 0.000000 60.000000 14.421030 16.000000
55.834030 -23.196688 28.155313 0.000000 43.000000 14.155313 0.000000
56.109840 -23.809593 28.356645 0.000000 65.000000 14.356645 20.000000
54.752716 -24.360963 28.209522 0.000000 36.000000 14.209522 0.000000
53.281513 -27.925144 28.177714 0.000000 47.000000 14.177714 0.000000
56.817230 -26.472833 28.179584 0.000000 37.000000 14.179584 0.000000
54.359016 -26.145361 28.143857 0.000000 36.000000 14.143857 0.000000
52.466869 -25.001944 28.247464 0.000000 42.000000 14.247464 0.000000
55.255772 -23.640877 28.617778 0.000000 54.000000 14.617778 20.000000
55.596405 -22.821024 28.483088 0.000000 75.000000 14.483088 28.000000
54.584286 -25.795835 28.133032 0.000000 38.000000 14.133032 0.000000
54.085266 -22.860135 28.682250 0.000000 77.000000 14.682250 30.000000
54.207832 -24.625199 28.282294 0.000000 54.000000 14.282294 2.000000
57.534019 -23.543205 28.517729 0.000000 62.000000 14.517729 21.000000
56.310619 -24.614716 28.182960 0.000000 56.000000 14.182960 0.000000
58.011719 -24.168925 28.006368 0.000000 27.000000 14.006368 0.000000
56.890503 -23.639383 28.583503 0.000000 74.000000 14.583503 21.000000
54.938908 -25.359082 28.051924 0.000000 33.000000 14.051924 0.000000
56.068768 -25.384474 28.179646 0.000000 45.000000 14.179646 0.000000
57.863907 -27.188829 28.278732 0.000000 43.000000 14.278732 7.000000
56.531284 -23.702799 28.428164 0.000000 38.000000 14.428164 21.000000
56.491508 -23.191052 28.488794 0.000000 49.000000 14.488794 27.000000
57.486984 -24.208947 28.202637 0.000000 61.000000 14.202637 0.000000
55.142223 -25.002960 28.194089 0.000000 48.000000 14.194089 0.000000
55.913956 -24.049301 28.011005 0.000000 35.000000 14.011005 0.000000
57.686066 -27.185120 28.005398 0.000000 32.000000 14.005398 0.000000
56.294392 -28.382186 28.035525 0.000000 48.000000 14.035525 0.000000
52.135666 -22.935142 28.725100 0.000000 68.000000 14.725100 25.000000
57.703575 -23.795271 28.454839 0.000000 59.000000 14.454839 21.000000
54.613934 -23.850999 28.355212 0.000000 41.000000 14.355212 19.000000
56.675354 -23.520687 28.254059 0.000000 48.000000 14.254059 21.000000
52.583950 -25.134002 28.215110 0.000000 58.000000 14.215110 0.000000
54.707050 -22.996585 28.668859 0.000000 73.000000 14.668859 28.000000
53.287659 -22.610728 28.692547 0.000000 49.000000 14.692547 30.000000
57.750168 -23.155460 28.267418 0.000000 55.000000 14.267418 27.000000
55.731903 -24.380640 28.154279 0.000000 44.000000 14.154279 0.000000
54.327518 -24.544466 28.396769 0.000000 68.000000 14.396769 2.000000
56.199772 -23.151572 28.233168 0.000000 43.000000 14.233168 27.000000
51.976891 -22.541441 28.081534 0.000000 36.000000 14.081534 0.000000
57.822975 -22.438075 28.308333 0.000000 77.000000 14.308333 22.000000
57.340477 -26.724894 28.093446 0.000000 40.000000 14.093446 0.000000
54.220100 -27.223296 28.467832 0.000000 76.000000 14.467832 9.000000
55.049126 -24.327730 28.226398 0.000000 54.000000 14.226398 0.000000
52.490219 -22.550637 28.694055 0.000000 72.000000 14.694055 26.000000
57.238335 -25.355564 28.087547 0.000000 48.000000 14.087547 0.000000
53.590893 -24.648686 28.204404 0.000000 50.000000 14.204404 0.000000
55.890541 -24.913190 28.192177 0.000000 63.000000 14.192177 0.000000
57.053352 -22.396379 28.285011 0.000000 66.000000 14.285011 23.000000
54.978962 -23.359747 28.132874 0.000000 33.000000 14.132874 0.000000
55.877655 -27.334146 28.367023 0.000000 69.000000 14.367023 6.000000
57.231773 -25.397614 28.157017 0.000000 36.000000 14.157017 0.000000
56.956879 -23.325258 28.128617 0.000000 44.000000 14.128617 0.000000
58.057419 -22.634254 28.000595 0.000000 41.000000 14.000595 0.000000
53.811737 -23.474515 28.534838 0.000000 72.000000 14.534838 18.000000
55.213226 -23.045058 28.577628 0.000000 66.000000 14.577628 28.000000
52.001995 -27.894287 28.206619 0.000000 40.000000 14.206619 0.000000
54.942280 -23.635815 28.843432 0.000000 65.000000 14.843432 19.000000
57.122009 -23.705566 28.458036 0.000000 58.000000 14.458036 21.000000
52.096275 -27.554287 28.166303 0.000000 38.000000 14.166303 0.000000
57.971214 -24.701838 28.148385 0.000000 24.000000 14.148385 0.000000
53.258877 -27.358053 28.364939 0.000000 59.000000 14.364939 9.000000
57.616821 -25.551144 28.053399 0.000000 43.000000 14.053399 0.000000
52.346958 -26.875367 28.122922 0.000000 34.000000 14.122922 0.000000
55.341175 -25.772965 28.383063 0.000000 70.000000 14.383063 1.000000
55.113224 -24.885996 28.176554 0.000000 57.000000 14.176554 0.000000
57.794235 -22.559083 28.529613 0.000000 38.000000 14.529613 22.000000
55.088131 -25.816029 28.598126 0.000000 54.000000 14.598126 1.000000
55.664207 -27.070713 28.096824 0.000000 48.000000 14.096824 0.000000
52.856174 -23.269139 28.528640 0.000000 75.000000 14.528640 30.000000
54.510761 -22.401064 28.655711 0.000000 80.000000 14.655711 24.000000
52.791874 -25.984393 28.171925 0.000000 29.000000 14.171925 0.000000
54.377884 -24.126737 28.266550 0.000000 51.000000 14.266550 2.000000
51.869530 -23.806677 28.264039 0.000000 37.000000 14.264039 4.000000
51.849724 -25.645036 28.097487 0.000000 25.000000 14.097487 0.000000
55.375809 -23.347180 28.270705 0.000000 54.000000 14.270705 20.000000
51.940571 -25.554629 28.031853 0.000000 26.000000 14.031853 0.000000
55.233433 -28.328302 28.178670 0.000000 38.000000 14.178670 0.000000
53.873760 -25.140714 28.304458 0.000000 57.000000 14.304458 0.000000
55.380302 -24.016649 28.081610 0.000000 39.000000 14.081610 0.000000
57.454643 -23.686455 28.762008 0.000000 46.000000 14.762008 21.000000
57.235123 -26.322873 28.171510 0.000000 37.000000 14.171510 0.000000
56.679546 -23.654013 28.544086 0.000000 70.000000 14.544086 21.000000
57.299255 -25.903014 28.132491 0.000000 26.000000 14.132491 0.000000
58.056343 -25.941867 28.105597 0.000000 34.000000 14.105597 0.000000
55.645973 -23.790613 28.428883 0.000000 43.000000 14.428883 20.000000
54.187214 -23.288521 28.132647 0.000000 45.000000 14.132647 0.000000
56.263020 -22.620926 28.028154 0.000000 42.000000 14.028154 0.000000
57.524239 -23.142107 28.686902 0.000000 73.000000 14.686902 27.000000
54.997566 -24.065818 28.105024 0.000000 45.000000 14.105024 0.000000
55.639545 -25.937406 28.168211 0.000000 45.000000 14.168211 0.000000
53.443390 -22.596679 28.605635 0.000000 65.000000 14.605635 30.000000
55.655899 -22.401401 28.722001 0.000000 70.000000 14.722001 24.000000
54.213661 -24.202324 28.319177 0.000000 60.000000 14.319177 2.000000
52.750404 -24.508051 28.167579 0.000000 23.000000 14.167579 0.000000
57.208755 -25.735032 28.156622 0.000000 45.000000 14.156622 0.000000
53.890415 -23.504967 28.596811 0.000000 76.000000 14.596811 18.000000
53.312767 -24.116028 28.048697 0.000000 36.000000 14.048697 0.000000
57.642159 -22.531914 28.542836 0.000000 85.000000 14.542836 22.000000
57.591805 -24.981587 28.170184 0.000000 53.000000 14.170184 0.000000
53.528873 -23.948410 28.035296 0.000000 36.000000 14.035296 0.000000
54.698387 -24.017477 27.990283 0.000000 40.000000 13.990283 0.000000
57.565186 -27.251564 28.373784 0.000000 69.000000 14.373784 7.000000
54.099373 -23.729668 28.573386 0.000000 72.000000 14.573386 18.000000
54.528305 -23.235531 28.139036 0.000000 37.000000 14.139036 0.000000
55.281551 -26.254602 28.163733 0.000000 29.000000 14.163733 0.000000
55.814640 -24.848295 28.175682 0.000000 44.000000 14.175682 0.000000
52.052860 -24.433432 28.549632 0.000000 66.000000 14.549632 3.000000
55.850990 -23.346856 28.131134 0.000000 56.000000 14.131134 0.000000
53.699631 -22.527973 28.509182 0.000000 53.000000 14.509182 30.000000
56.335545 -23.008809 28.645205 0.000000 68.000000 14.645205 27.000000
57.072510 -22.642120 27.987805 0.000000 44.000000 13.987805 0.000000
56.621056 -25.149105 28.217984 0.000000 56.000000 14.217984 0.000000
57.116852 -22.571631 28.180733 0.000000 54.000000 14.180733 0.000000
54.918797 -24.065218 28.054331 0.000000 48.000000 14.054331 0.000000
57.355690 -22.521430 27.997356 0.000000 45.000000 13.997356 0.000000
55.612667 -24.447158 28.166275 0.000000 59.000000 14.166275 0.000000
54.891605 -23.038015 28.581148 0.000000 57.000000 14.581148 28.000000
56.917049 -25.581749 28.113057 0.000000 30.000000 14.113057 0.000000
56.784588 -22.568593 28.367843 0.000000 70.000000 14.367843 23.000000
57.693604 -22.528261 28.292594 0.000000 76.000000 14.292594 22.000000
58.015457 -22.545954 28.005327 0.000000 41.000000 14.005327 0.000000
52.970535 -22.796407 28.800425 0.000000 76.000000 14.800425 30.000000
54.237247 -23.327449 28.148651 0.000000 47.000000 14.148651 0.000000
54.896885 -22.455207 28.650496 0.000000 76.000000 14.650496 24.000000
53.759228 -26.752497 28.107964 0.000000 42.000000 14.107964 0.000000
57.078171 -27.658161 28.125047 0.000000 35.000000 14.125047 0.000000
56.746681 -26.923679 28.001600 0.000000 38.000000 14.001600 0.000000
55.663960 -23.420477 28.495469 0.000000 64.000000 14.495469 20.000000
57.680511 -22.586985 28.314771 0.000000 49.000000 14.314771 22.000000
53.110474 -22.881649 28.810827 0.000000 77.000000 14.810827 30.000000
53.506603 -24.603466 28.233974 0.000000 49.000000 14.233974 0.000000
56.472164 -28.093358 28.166750 0.000000 42.000000 14.166750 0.000000
53.121948 -23.441003 28.589222 0.000000 58.000000 14.589222 18.000000
56.386078 -28.203583 28.093739 0.000000 47.000000 14.093739 0.000000
54.230091 -25.678415 28.135336 0.000000 49.000000 14.135336 0.000000
54.561237 -22.862183 28.703744 0.000000 70.000000 14.703744 28.000000
57.806580 -25.537126 28.061414 0.000000 28.000000 14.061414 0.000000
52.068035 -22.664750 28.823699 0.000000 44.000000 14.823699 25.000000
51.809433 -24.231144 28.340400 0.000000 59.000000 14.340400 3.000000
53.912365 -26.619546 28.141179 0.000000 22.000000 14.141179 0.000000
53.372612 -27.049941 28.069396 0.000000 34.000000 14.069396 0.000000
57.534576 -23.136812 28.592094 0.000000 76.000000 14.592094 27.000000
56.069920 -23.688105 28.532074 0.000000 41.000000 14.532074 20.000000
56.815990 -23.350855 28.145963 0.000000 41.000000 14.145963 0.000000
53.358242 -26.148477 28.157926 0.000000 35.000000 14.157926 0.000000
55.865536 -28.333156 28.302979 0.000000 44.000000 14.302979 14.000000
53.853073 -26.822624 28.177428 0.000000 39.000000 14.177428 0.000000
56.676323 -25.411494 28.097779 0.000000 35.000000 14.097779 0.000000
57.760506 -27.156249 28.002369 0.000000 42.000000 14.002369 0.000000
55.258408 -24.487691 28.172822 0.000000 43.000000 14.172822 0.000000
55.773495 -22.430464 28.214961 0.000000 46.000000 14.214961 0.000000
54.226585 -26.196277 28.193925 0.000000 22.000000 14.193925 0.000000
52.538231 -22.611942 28.485035 0.000000 67.000000 14.485035 30.000000
56.305740 -25.642269 28.068558 0.000000 37.000000 14.068558 0.000000
56.488964 -23.176914 28.577324 0.000000 39.000000 14.577324 27.000000
53.616711 -22.771242 28.761500 0.000000 60.000000 14.761500 30.000000
52.770077 -27.226038 28.117048 0.000000 37.000000 14.117048 0.000000
55.854439 -25.816973 28.204664 0.000000 43.000000 14.204664 0.000000
56.752838 -24.021788 27.967984 0.000000 31.000000 13.967984 0.000000
55.289803 -24.652683 28.168928 0.000000 39.000000 14.168928 0.000000
56.482143 -24.462138 28.272785 0.000000 53.000000 14.272785 16.000000
51.828182 -26.414075 28.218516 0.000000 54.000000 14.218516 0.000000
56.899216 -23.818684 28.524700 0.000000 71.000000 14.524700 21.000000
55.080330 -26.183412 28.157289 0.000000 39.000000 14.157289 0.000000
56.022522 -26.277565 28.147049 0.000000 43.000000 14.147049 0.000000
53.796413 -25.820451 28.175785 0.000000 32.000000 14.175785 0.000000
57.475266 -22.890113 28.714373 0.000000 71.000000 14.714373 27.000000
57.057922 -23.646564 28.626614 0.000000 74.000000 14.626614 21.000000
57.010284 -27.057413 28.108534 0.000000 43.000000 14.108534 0.000000
55.870689 -26.827399 28.029434 0.000000 25.000000 14.029434 0.000000
55.501629 -26.355723 28.144798 0.000000 47.000000 14.144798 0.000000
53.120598 -27.997627 28.390159 0.000000 63.000000 14.390159 13.000000
54.994671 -27.026033 28.093910 0.000000 39.000000 14.093910 0.000000
57.791595 -22.700456 28.039131 0.000000 27.000000 14.039131 0.000000
53.457001 -24.256898 28.153716 0.000000 51.000000 14.153716 0.000000
52.714985 -27.831141 28.171800 0.000000 46.000000 14.171800 0.000000
57.258965 -23.017152 28.636071 0.000000 75.000000 14.636071 27.000000
55.302475 -22.752137 28.086898 0.000000 44.000000 14.086898 0.000000
57.772552 -24.246355 28.039142 0.000000 19.000000 14.039142 0.000000
57.124084 -27.332135 28.479959 0.000000 59.000000 14.479959 8.000000
54.920376 -26.601295 28.152020 0.000000 38.000000 14.152020 0.000000
52.095131 -28.333260 28.067623 0.000000 61.000000 14.067623 0.000000
53.734215 -23.843453 28.594711 0.000000 55.000000 14.594711 18.000000
56.650402 -27.847303 28.237005 0.000000 48.000000 14.237005 0.000000
57.983536 -25.018024 28.177972 0.000000 47.000000 14.177972 0.000000
56.121342 -23.643918 28.411459 0.000000 66.000000 14.411459 20.000000
57.901733 -23.845626 27.971123 0.000000 23.000000 13.971123 0.000000
57.726257 -23.795995 28.377912 0.000000 55.000000 14.377912 21.000000
54.866798 -24.031993 28.025247 0.000000 42.000000 14.025247 0.000000
53.136425 -24.493073 28.172488 0.000000 46.000000 14.172488 0.000000
53.728668 -27.876073 28.231883 0.000000 52.000000 14.231883 0.000000
55.936428 -25.644812 28.082766 0.000000 41.000000 14.082766 0.000000
52.800404 -26.804127 28.029549 0.000000 25.000000 14.029549 0.000000
54.704403 -24.877007 28.160086 0.000000 41.000000 14.160086 0.000000
53.648834 -26.476455 28.309013 0.000000 50.000000 14.309013 5.000000
54.927914 -25.075489 28.201459 0.000000 54.000000 14.201459 0.000000
56.692184 -25.774105 28.175413 0.000000 37.000000 14.175413 0.000000
57.879791 -22.649630 28.007650 0.000000 36.000000 14.007650 0.000000
55.175690 -23.033282 28.627069 0.000000 72.000000 14.627069 28.000000
53.329895 -26.836552 28.046331 0.000000 30.000000 14.046331 0.000000
56.812294 -23.356136 28.145021 0.000000 44.000000 14.145021 0.000000
54.894497 -23.937315 28.060160 0.000000 47.000000 14.060160 0.000000
54.404812 -26.654498 28.127869 0.000000 40.000000 14.127869 0.000000
57.128891 -23.365488 28.159044 0.000000 48.000000 14.159044 0.000000
51.849800 -26.844106 28.045844 0.000000 25.000000 14.045844 0.000000
52.811073 -26.835246 28.024691 0.000000 29.000000 14.024691 0.000000
52.315174 -24.507454 28.196888 0.000000 47.000000 14.196888 0.000000
58.062164 -23.048464 28.237846 0.000000 58.000000 14.237846 0.000000
52.290558 -22.923583 28.483163 0.000000 28.000000 14.483163 25.000000
52.287914 -26.766391 28.099686 0.000000 33.000000 14.099686 0.000000
55.032001 -27.185901 28.285747 0.000000 50.000000 14.285747 6.000000
57.098389 -27.140715 28.114723 0.000000 35.000000 14.114723 0.000000
51.908436 -26.693088 28.139561 0.000000 28.000000 14.139561 0.000000
56.652824 -23.439347 28.147050 0.000000 38.000000 14.147050 0.000000
54.199852 -26.854483 28.095742 0.000000 51.000000 14.095742 0.000000
57.677444 -27.784390 28.116444 0.000000 36.000000 14.116444 0.000000
57.689796 -27.632465 28.115961 0.000000 34.000000 14.115961 0.000000
57.754356 -27.182646 28.096393 0.000000 31.000000 14.096393 0.000000
54.347939 -24.344875 28.541430 0.000000 31.000000 14.541430 2.000000
56.833153 -23.909039 28.353995 0.000000 65.000000 14.353995 21.000000
55.990215 -27.537531 28.439855 0.000000 58.000000 14.439855 6.000000
55.598118 -25.464843 28.233053 0.000000 39.000000 14.233053 0.000000
56.725044 -23.350856 28.132999 0.000000 42.000000 14.132999 0.000000
56.275723 -27.551028 28.194721 0.000000 44.000000 14.194721 0.000000
56.412998 -27.097974 28.074206 0.000000 44.000000 14.074206 0.000000
57.979454 -26.000877 28.123995 0.000000 48.000000 14.123995 0.000000
54.215794 -26.834001 28.077477 0.000000 28.000000 14.077477 0.000000
58.032501 -24.047271 27.965571 0.000000 30.000000 13.965571 0.000000
57.292892 -25.240913 28.128763 0.000000 39.000000 14.128763 0.000000
57.614075 -22.480444 28.662600 0.000000 67.000000 14.662600 22.000000
54.701496 -23.507199 28.598101 0.000000 49.000000 14.598101 19.000000
56.801472 -26.732625 28.012201 0.000000 24.000000 14.012201 0.000000
55.622234 -23.656521 28.606036 0.000000 62.000000 14.606036 20.000000
56.379097 -23.857112 28.012192 0.000000 29.000000 14.012192 0.000000
57.569542 -22.509701 27.988391 0.000000 40.000000 13.988391 0.000000
56.223358 -23.902183 28.039155 0.000000 28.000000 14.039155 0.000000
57.208603 -23.952270 28.001905 0.000000 32.000000 14.001905 0.000000
57.341179 -25.171449 28.196993 0.000000 56.000000 14.196993 0.000000
52.996399 -24.144457 28.083636 0.000000 41.000000 14.083636 0.000000
55.935188 -23.990755 28.044249 0.000000 38.000000 14.044249 0.000000
57.987633 -28.091079 28.210152 0.000000 47.000000 14.210152 0.000000
55.701912 -27.047203 28.078515 0.000000 48.000000 14.078515 0.000000
54.253609 -23.484821 28.404383 0.000000 71.000000 14.404383 18.000000
55.660679 -24.079711 28.003212 0.000000 35.000000 14.003212 0.000000
57.566261 -23.731061 28.661160 0.000000 66.000000 14.661160 21.000000
55.684715 -23.596402 28.722590 0.000000 48.000000 14.722590 20.000000
55.973049 -25.167282 28.237147 0.000000 62.000000 14.237147 0.000000
54.916264 -22.536697 28.674430 0.000000 54.000000 14.674430 24.000000
55.136223 -24.453413 28.160810 0.000000 44.000000 14.160810 0.000000
57.462059 -23.083055 28.434968 0.000000 69.000000 14.434968 27.000000
57.159294 -23.645307 28.487350 0.000000 47.000000 14.487350 21.000000
55.045033 -24.205029 28.109612 0.000000 40.000000 14.109612 0.000000
58.016861 -22.836474 28.093360 0.000000 46.000000 14.093360 0.000000
54.664497 -24.664872 28.152047 0.000000 47.000000 14.152047 0.000000
55.176968 -25.476922 28.132686 0.000000 43.000000 14.132686 0.000000
54.748215 -24.256976 28.143645 0.000000 38.000000 14.143645 0.000000
52.061832 -24.547569 28.209859 0.000000 27.000000 14.209859 0.000000
54.605019 -24.286608 28.136331 0.000000 40.000000 14.136331 0.000000
51.877403 -24.295326 28.445441 0.000000 38.000000 14.445441 3.000000
52.543705 -22.954299 28.587130 0.000000 44.000000 14.587130 30.000000
57.451775 -24.272898 28.225835 0.000000 62.000000 14.225835 15.000000
53.347176 -27.732219 28.158505 0.000000 44.000000 14.158505 0.000000
57.552956 -23.663536 28.721503 0.000000 77.000000 14.721503 21.000000
56.274101 -23.468348 28.133554 0.000000 52.000000 14.133554 0.000000
55.704529 -24.595611 28.138358 0.000000 51.000000 14.138358 0.000000
57.696442 -23.838200 28.140081 0.000000 47.000000 14.140081 0.000000
52.900871 -27.168652 28.116390 0.000000 33.000000 14.116390 0.000000
54.917274 -23.674455 28.764984 0.000000 55.000000 14.764984 19.000000
56.539127 -23.504807 28.314390 0.000000 58.000000 14.314390 21.000000
53.319710 -24.424105 28.183601 0.000000 35.000000 14.183601 0.000000
54.057899 -24.477882 28.317828 0.000000 56.000000 14.317828 2.000000
53.711884 -24.534234 28.198696 0.000000 32.000000 14.198696 0.000000
53.237644 -24.997133 28.274762 0.000000 63.000000 14.274762 0.000000
54.259499 -23.230960 28.158233 0.000000 37.000000 14.158233 0.000000
53.720268 -28.297285 28.261101 0.000000 35.000000 14.261101 13.000000
57.856628 -24.881296 28.145455 0.000000 44.000000 14.145455 0.000000
53.559853 -24.399820 28.157556 0.000000 39.000000 14.157556 0.000000
52.950535 -27.632165 28.182064 0.000000 43.000000 14.182064 0.000000
53.418655 -24.390832 28.173472 0.000000 39.000000 14.173472 0.000000
56.832329 -27.376319 28.422068 0.000000 49.000000 14.422068 8.000000
54.159046 -23.626679 28.505731 0.000000 56.000000 14.505731 18.000000
57.211334 -23.924824 28.324220 0.000000 44.000000 14.324220 21.000000
55.207050 -23.141722 28.356010 0.000000 34.000000 14.356010 28.000000
52.887299 -24.338476 28.193595 0.000000 51.000000 14.193595 0.000000
54.215961 -23.361723 28.143916 0.000000 55.000000 14.143916 0.000000
52.630886 -24.301161 28.190090 0.000000 36.000000 14.190090 0.000000
52.504707 -24.280046 28.189887 0.000000 36.000000 14.189887 0.000000
57.044174 -23.712794 28.594033 0.000000 69.000000 14.594033 21.000000
52.268856 -24.239979 28.127934 0.000000 33.000000 14.127934 0.000000
52.131004 -24.202880 28.198127 0.000000 35.000000 14.198127 0.000000
55.539150 -24.760878 28.137335 0.000000 24.000000 14.137335 0.000000
51.816437 -23.582011 28.563035 0.000000 52.000000 14.563035 4.000000
52.559761 -23.646127 28.200727 0.000000 56.000000 14.200727 0.000000
54.284527 -23.557786 28.516258 0.000000 72.000000 14.516258 18.000000
57.765991 -22.840490 28.414045 0.000000 65.000000 14.414045 27.000000
54.017559 -23.579111 28.477695 0.000000 67.000000 14.477695 18.000000
53.637054 -26.245152 28.179101 0.000000 22.000000 14.179101 0.000000
55.066547 -27.775105 28.139714 0.000000 34.000000 14.139714 0.000000
56.270103 -27.834663 28.138364 0.000000 38.000000 14.138364 0.000000
55.101349 -27.635592 28.152326 0.000000 38.000000 14.152326 0.000000
56.310947 -27.697991 28.137954 0.000000 38.000000 14.137954 0.000000
57.415161 -23.472136 28.458852 0.000000 64.000000 14.458852 21.000000
55.312260 -22.768384 28.445729 0.000000 59.000000 14.445729 28.000000
52.305927 -22.891508 28.605818 0.000000 70.000000 14.605818 25.000000
56.437412 -27.288219 28.149753 0.000000 44.000000 14.149753 0.000000
56.016495 -25.908522 28.198257 0.000000 52.000000 14.198257 0.000000
55.547279 -24.499285 28.172397 0.000000 55.000000 14.172397 0.000000
52.873802 -27.453400 28.281506 0.000000 42.000000 14.281506 0.000000
54.024967 -27.905123 28.199165 0.000000 44.000000 14.199165 0.000000
52.658379 -23.100441 28.595276 0.000000 75.000000 14.595276 30.000000
55.575054 -25.742912 28.507336 0.000000 69.000000 14.507336 1.000000
57.497040 -23.653665 28.750924 0.000000 39.000000 14.750924 21.000000
55.830864 -23.377680 28.411399 0.000000 76.000000 14.411399 20.000000
57.289421 -23.466086 28.584056 0.000000 74.000000 14.584056 21.000000
56.341415 -23.056219 28.596754 0.000000 51.000000 14.596754 27.000000
54.053677 -28.302892 28.264573 0.000000 48.000000 14.264573 13.000000
56.105930 -26.479397 28.191210 0.000000 38.000000 14.191210 0.000000
55.206905 -23.880299 28.399558 0.000000 60.000000 14.399558 20.000000
52.773956 -26.599494 28.204569 0.000000 31.000000 14.204569 0.000000
55.690865 -26.193707 28.158269 0.000000 38.000000 14.158269 0.000000
56.916405 -22.943068 28.381635 0.000000 69.000000 14.381635 27.000000
54.760960 -24.941512 28.171544 0.000000 30.000000 14.171544 0.000000
55.218788 -24.255423 28.160193 0.000000 62.000000 14.160193 0.000000
53.405029 -23.635746 28.604795 0.000000 72.000000 14.604795 18.000000
57.423286 -23.954084 28.387496 0.000000 38.000000 14.387496 21.000000
56.022636 -23.890410 28.130123 0.000000 45.000000 14.130123 0.000000
57.718704 -24.985080 28.181712 0.000000 39.000000 14.181712 0.000000
54.338570 -23.546295 28.283100 0.000000 47.000000 14.283100 18.000000
57.274605 -25.639604 28.093140 0.000000 38.000000 14.093140 0.000000
56.533955 -24.530906 28.309374 0.000000 60.000000 14.309374 16.000000
56.042328 -27.685259 28.131721 0.000000 35.000000 14.131721 0.000000
53.135422 -22.812807 28.741014 0.000000 70.000000 14.741014 30.000000
57.732826 -27.140360 27.974725 0.000000 32.000000 13.974725 0.000000
56.918022 -23.878678 28.282657 0.000000 60.000000 14.282657 21.000000
57.610138 -27.065883 28.232044 0.000000 27.000000 14.232044 0.000000
51.907997 -24.664873 28.173969 0.000000 40.000000 14.173969 0.000000
56.408157 -24.973959 28.216413 0.000000 52.000000 14.216413 0.000000
57.844734 -24.217324 28.056075 0.000000 37.000000 14.056075 0.000000
56.491810 -24.859705 28.216887 0.000000 48.000000 14.216887 0.000000
57.750061 -24.920232 28.120182 0.000000 49.000000 14.120182 0.000000
52.756004 -22.598121 28.689054 0.000000 79.000000 14.689054 30.000000
55.726116 -24.646652 28.174234 0.000000 49.000000 14.174234 0.000000
57.863281 -24.002352 27.981784 0.000000 25.000000 13.981784 0.000000
56.904167 -23.729374 28.500134 0.000000 42.000000 14.500134 21.000000
57.893799 -24.546530 28.260374 0.000000 57.000000 14.260374 15.000000
56.983692 -24.307870 28.143135 0.000000 40.000000 14.143135 0.000000
55.230247 -27.982024 28.425359 0.000000 46.000000 14.425359 14.000000
54.800377 -27.280786 28.360929 0.000000 51.000000 14.360929 6.000000
53.280952 -22.552971 28.602806 0.000000 63.000000 14.602806 30.000000
55.758553 -24.409191 28.161304 0.000000 50.000000 14.161304 0.000000
52.858078 -23.072117 28.770903 0.000000 57.000000 14.770903 30.000000
57.719139 -22.939134 28.641605 0.000000 65.000000 14.641605 27.000000
55.354782 -25.644065 28.305993 0.000000 48.000000 14.305993 1.000000
54.386150 -22.523025 28.324784 0.000000 48.000000 14.324784 28.000000
55.335976 -27.365018 28.407414 0.000000 69.000000 14.407414 6.000000
53.857647 -22.798727 28.683885 0.000000 65.000000 14.683885 30.000000
53.913342 -22.888757 28.622377 0.000000 58.000000 14.622377 30.000000
53.527153 -22.370800 28.698269 0.000000 44.000000 14.698269 29.000000
53.616623 -22.742396 28.659440 0.000000 69.000000 14.659440 30.000000
55.283115 -22.927415 28.668148 0.000000 78.000000 14.668148 28.000000
57.679649 -24.693393 28.427882 0.000000 70.000000 14.427882 15.000000
57.141068 -22.558234 28.154056 0.000000 51.000000 14.154056 0.000000
54.948452 -25.519979 28.107996 0.000000 34.000000 14.107996 0.000000
56.981396 -22.566010 28.165927 0.000000 42.000000 14.165927 0.000000
57.576141 -26.033344 28.166759 0.000000 55.000000 14.166759 0.000000
56.855614 -22.576012 28.108135 0.000000 50.000000 14.108135 0.000000
55.760784 -22.608346 28.048507 0.000000 44.000000 14.048507 0.000000
55.981510 -23.831038 28.273328 0.000000 49.000000 14.273328 20.000000
52.749870 -25.829861 28.151282 0.000000 51.000000 14.151282 0.000000
57.724976 -24.148398 28.025290 0.000000 26.000000 14.025290 0.000000
57.633308 -27.734275 28.131370 0.000000 39.000000 14.131370 0.000000
57.237679 -23.823172 28.403910 0.000000 56.000000 14.403910 21.000000
55.204052 -23.024432 28.605493 0.000000 80.000000 14.605493 28.000000
55.043236 -22.516163 28.526249 0.000000 59.000000 14.526249 24.000000
53.323620 -23.469543 28.347367 0.000000 59.000000 14.347367 18.000000
51.924744 -23.619052 28.623839 0.000000 69.000000 14.623839 4.000000
57.155510 -24.298947 28.269389 0.000000 63.000000 14.269389 15.000000
54.110638 -24.212733 28.538125 0.000000 65.000000 14.538125 2.000000
56.440613 -25.046894 28.230741 0.000000 59.000000 14.230741 0.000000
55.141941 -23.780208 28.517940 0.000000 65.000000 14.517940 19.000000
55.668938 -22.575670 28.051733 0.000000 42.000000 14.051733 0.000000
57.740402 -23.514860 28.461270 0.000000 89.000000 14.461270 21.000000
54.251896 -23.593148 28.528625 0.000000 71.000000 14.528625 18.000000
52.169300 -22.872083 28.707004 0.000000 75.000000 14.707004 25.000000
52.279823 -22.799716 28.513094 0.000000 45.000000 14.513094 25.000000
54.898861 -22.733909 28.514239 0.000000 49.000000 14.514239 28.000000
56.278564 -22.718694 28.298178 0.000000 47.000000 14.298178 27.000000
57.644501 -25.882571 28.144110 0.000000 55.000000 14.144110 0.000000
52.388393 -22.375303 28.901194 0.000000 69.000000 14.901194 26.000000
57.710663 -23.877460 28.254930 0.000000 52.000000 14.254930 21.000000
56.599831 -22.853011 28.692923 0.000000 74.000000 14.692923 27.000000
54.514755 -26.887013 28.057599 0.000000 29.000000 14.057599 0.000000
57.367310 -25.982652 28.205960 0.000000 49.000000 14.205960 0.000000
53.392792 -27.926619 28.207877 0.000000 39.000000 14.207877 0.000000
54.322624 -24.289105 28.608468 0.000000 71.000000 14.608468 2.000000
56.892502 -23.746337 28.572080 0.000000 31.000000 14.572080 21.000000
54.290150 -23.516725 28.396537 0.000000 64.000000 14.396537 18.000000
55.628201 -27.205270 28.228120 0.000000 37.000000 14.228120 0.000000
57.651604 -26.649306 28.094688 0.000000 43.000000 14.094688 0.000000
56.338146 -22.491559 28.634185 0.000000 74.000000 14.634185 23.000000
57.313690 -23.485636 28.303544 0.000000 40.000000 14.303544 21.000000
54.084351 -22.791673 28.620171 0.000000 79.000000 14.620171 30.000000
53.022625 -23.693389 28.259432 0.000000 71.000000 14.259432 18.000000
55.107735 -22.759664 28.548637 0.000000 80.000000 14.548637 28.000000
52.690105 -26.853593 28.028803 0.000000 27.000000 14.028803 0.000000
53.831715 -26.851978 28.170084 0.000000 34.000000 14.170084 0.000000
52.027115 -22.642426 28.510759 0.000000 70.000000 14.510759 25.000000
53.922066 -26.762364 28.074881 0.000000 33.000000 14.074881 0.000000
52.646347 -22.556856 28.631242 0.000000 44.000000 14.631242 30.000000
57.891136 -24.644993 28.219879 0.000000 49.000000 14.219879 0.000000
56.090679 -22.907696 28.615177 0.000000 79.000000 14.615177 27.000000
57.579773 -24.535295 28.428763 0.000000 64.000000 14.428763 15.000000
52.982403 -26.241005 28.148520 0.000000 31.000000 14.148520 0.000000
54.160912 -26.293337 28.130366 0.000000 39.000000 14.130366 0.000000
53.052666 -26.128656 28.149968 0.000000 32.000000 14.149968 0.000000
53.181843 -25.962503 28.129961 0.000000 23.000000 14.129961 0.000000
56.857861 -22.349348 28.616889 0.000000 73.000000 14.616889 23.000000
53.283611 -25.569209 28.105813 0.000000 38.000000 14.105813 0.000000
55.600124 -23.599351 28.681096 0.000000 61.000000 14.681096 20.000000
54.278034 -23.583397 28.442647 0.000000 52.000000 14.442647 18.000000
57.011459 -27.766286 28.144450 0.000000 45.000000 14.144450 0.000000
54.718067 -23.138495 28.327376 0.000000 48.000000 14.327376 28.000000
55.878010 -23.137033 28.379798 0.000000 58.000000 14.379798 27.000000
54.636169 -24.413248 28.156743 0.000000 35.000000 14.156743 0.000000
54.982578 -25.430159 28.101108 0.000000 44.000000 14.101108 0.000000
56.699482 -24.001033 27.989088 0.000000 30.000000 13.989088 0.000000
55.257790 -22.964303 28.544567 0.000000 72.000000 14.544567 28.000000
54.722878 -25.557106 28.045103 0.000000 39.000000 14.045103 0.000000
56.195000 -23.475091 28.164239 0.000000 50.000000 14.164239 0.000000
54.371723 -24.423017 28.329790 0.000000 44.000000 14.329790 2.000000
57.313660 -24.816325 28.187268 0.000000 43.000000 14.187268 0.000000
54.891094 -25.349654 28.047485 0.000000 38.000000 14.047485 0.000000
53.667572 -24.573049 28.316713 0.000000 53.000000 14.316713 0.000000
57.346817 -23.622704 28.685466 0.000000 74.000000 14.685466 21.000000
54.996861 -27.425529 28.405256 0.000000 61.000000 14.405256 6.000000
57.301727 -24.245315 28.069079 0.000000 47.000000 14.069079 0.000000
57.732895 -22.726477 28.466856 0.000000 70.000000 14.466856 27.000000
53.165779 -27.273902 28.327990 0.000000 55.000000 14.327990 9.000000
54.961704 -23.611180 28.507179 0.000000 77.000000 14.507179 19.000000
55.652664 -24.527441 28.175340 0.000000 41.000000 14.175340 0.000000
54.580761 -22.847642 28.807600 0.000000 66.000000 14.807600 28.000000
55.476944 -27.658257 28.190836 0.000000 38.000000 14.190836 0.000000
55.508724 -24.638664 28.144764 0.000000 46.000000 14.144764 0.000000
55.322548 -27.354968 28.403319 0.000000 39.000000 14.403319 6.000000
54.546574 -24.393052 28.147709 0.000000 39.000000 14.147709 0.000000
55.708126 -24.450563 28.151818 0.000000 47.000000 14.151818 0.000000
57.840218 -23.385925 28.144943 0.000000 41.000000 14.144943 0.000000
55.786743 -22.482779 28.452389 0.000000 56.000000 14.452389 24.000000
54.885033 -22.734370 28.549470 0.000000 74.000000 14.549470 28.000000
55.944546 -24.276787 28.091440 0.000000 44.000000 14.091440 0.000000
57.645164 -22.515618 28.268189 0.000000 55.000000 14.268189 22.000000
56.085907 -24.195987 28.019773 0.000000 36.000000 14.019773 0.000000
55.229855 -23.059315 28.538865 0.000000 69.000000 14.538865 28.000000
55.389000 -24.388340 28.176097 0.000000 50.000000 14.176097 0.000000
55.740528 -23.224933 28.135096 0.000000 42.000000 14.135096 0.000000
56.026775 -23.796888 28.517541 0.000000 77.000000 14.517541 20.000000
53.068012 -23.021243 28.827493 0.000000 74.000000 14.827493 30.000000
54.073402 -23.505439 28.450035 0.000000 75.000000 14.450035 18.000000
55.025780 -27.904394 28.313123 0.000000 31.000000 14.313123 14.000000
53.552517 -23.163109 28.456200 0.000000 60.000000 14.456200 30.000000
57.218315 -25.348834 28.110476 0.000000 37.000000 14.110476 0.000000
57.564957 -27.550634 28.308466 0.000000 55.000000 14.308466 0.000000
56.036797 -22.939106 28.685921 0.000000 50.000000 14.685921 27.000000
57.356232 -23.265797 28.111516 0.000000 45.000000 14.111516 0.000000
53.864681 -25.791133 28.121447 0.000000 45.000000 14.121447 0.000000
57.440376 -22.580759 27.989848 0.000000 43.000000 13.989848 0.000000
52.221600 -22.477123 28.912087 0.000000 65.000000 14.912087 26.000000
54.527073 -27.293626 28.173401 0.000000 47.000000 14.173401 0.000000
55.614922 -22.880691 28.513059 0.000000 74.000000 14.513059 28.000000
57.739792 -23.334203 28.130137 0.000000 48.000000 14.130137 0.000000
52.405273 -24.530115 28.160991 0.000000 37.000000 14.160991 0.000000
52.485668 -24.435162 28.185044 0.000000 48.000000 14.185044 0.000000
52.570297 -24.347023 28.193420 0.000000 37.000000 14.193420 0.000000
55.469437 -27.971428 28.314946 0.000000 67.000000 14.314946 14.000000
56.648460 -24.198954 28.051545 0.000000 44.000000 14.051545 0.000000
53.375530 -23.315671 28.190253 0.000000 31.000000 14.190253 0.000000
54.037319 -27.700756 28.145355 0.000000 48.000000 14.145355 0.000000
54.853329 -23.931610 28.061721 0.000000 41.000000 14.061721 0.000000
57.488060 -22.503795 28.574531 0.000000 71.000000 14.574531 22.000000
52.194122 -25.020917 28.276555 0.000000 62.000000 14.276555 17.000000
56.993587 -25.029130 28.222004 0.000000 43.000000 14.222004 0.000000
53.883099 -23.319754 28.136540 0.000000 39.000000 14.136540 0.000000
51.817707 -24.961704 28.307991 0.000000 60.000000 14.307991 17.000000
55.264301 -22.621896 27.992363 0.000000 41.000000 13.992363 0.000000
57.422859 -24.927465 28.139234 0.000000 55.000000 14.139234 0.000000
53.737911 -23.242496 28.460581 0.000000 37.000000 14.460581 30.000000
57.318901 -24.509552 28.334294 0.000000 57.000000 14.334294 15.000000
57.804794 -25.760383 28.110989 0.000000 36.000000 14.110989 0.000000
56.579285 -26.849842 28.030289 0.000000 32.000000 14.030289 0.000000
53.459568 -25.715156 28.126104 0.000000 48.000000 14.126104 0.000000
57.196014 -25.330997 28.090686 0.000000 48.000000 14.090686 0.000000
52.442924 -23.881505 28.558908 0.000000 57.000000 14.558908 4.000000
57.233109 -26.239137 28.102081 0.000000 37.000000 14.102081 0.000000
58.009270 -26.231751 28.085264 0.000000 35.000000 14.085264 0.000000
57.208916 -27.697495 28.120170 0.000000 44.000000 14.120170 0.000000
54.922325 -24.421998 28.192852 0.000000 44.000000 14.192852 0.000000
56.861752 -26.495167 28.127901 0.000000 38.000000 14.127901 0.000000
55.644855 -25.964618 28.546085 0.000000 65.000000 14.546085 1.000000
55.286800 -22.501841 28.439354 0.000000 41.000000 14.439354 24.000000
54.296227 -26.708281 28.132502 0.000000 29.000000 14.132502 0.000000
53.260902 -24.161397 28.110332 0.000000 49.000000 14.110332 0.000000
56.049210 -23.562438 28.620205 0.000000 78.000000 14.620205 20.000000
56.567776 -24.320250 28.321838 0.000000 47.000000 14.321838 16.000000
57.986275 -26.356853 28.171455 0.000000 51.000000 14.171455 0.000000
55.891441 -23.303329 28.163130 0.000000 24.000000 14.163130 0.000000
56.324444 -23.376354 28.144710 0.000000 45.000000 14.144710 0.000000
52.741325 -27.357202 28.259646 0.000000 26.000000 14.259646 0.000000
58.055794 -23.942547 27.973460 0.000000 26.000000 13.973460 0.000000
56.650352 -22.802207 28.648057 0.000000 71.000000 14.648057 27.000000
55.643661 -23.888778 27.992515 0.000000 39.000000 13.992515 0.000000
55.806759 -27.337392 28.437924 0.000000 64.000000 14.437924 6.000000
56.046955 -23.650591 28.530668 0.000000 43.000000 14.530668 20.000000
57.003387 -23.130729 28.514325 0.000000 72.000000 14.514325 27.000000
55.131863 -24.076634 28.036491 0.000000 47.000000 14.036491 0.000000
55.111126 -25.656797 28.387092 0.000000 63.000000 14.387092 1.000000
52.101284 -26.166875 28.174294 0.000000 41.000000 14.174294 0.000000
55.892010 -27.649667 28.129996 0.000000 36.000000 14.129996 0.000000
56.501789 -23.683506 28.565892 0.000000 60.000000 14.565892 21.000000
57.187782 -27.440462 28.426850 0.000000 53.000000 14.426850 8.000000
53.132645 -23.946501 28.013555 0.000000 40.000000 14.013555 0.000000
55.096264 -26.477300 28.162332 0.000000 57.000000 14.162332 0.000000
55.647369 -22.869573 28.399170 0.000000 65.000000 14.399170 28.000000
55.264343 -25.879712 28.511297 0.000000 53.000000 14.511297 1.000000
52.606869 -25.345068 28.134927 0.000000 40.000000 14.134927 0.000000
55.197220 -26.513570 28.158712 0.000000 44.000000 14.158712 0.000000
54.265751 -27.760814 28.134160 0.000000 36.000000 14.134160 0.000000
54.392574 -22.958445 28.636258 0.000000 63.000000 14.636258 28.000000
52.422894 -22.522369 28.755208 0.000000 68.000000 14.755208 26.000000
55.071457 -27.891379 28.140656 0.000000 40.000000 14.140656 0.000000
56.861603 -24.067289 28.056305 0.000000 34.000000 14.056305 0.000000
57.383240 -24.834200 28.166847 0.000000 26.000000 14.166847 0.000000
57.369347 -27.859253 28.146651 0.000000 37.000000 14.146651 0.000000
54.657730 -27.968972 28.165671 0.000000 43.000000 14.165671 0.000000
56.956814 -22.717336 28.438566 0.000000 77.000000 14.438566 27.000000
57.867775 -23.589977 28.253675 0.000000 66.000000 14.253675 21.000000
53.430149 -27.932354 28.214292 0.000000 35.000000 14.214292 0.000000
56.971176 -24.372996 28.139277 0.000000 40.000000 14.139277 0.000000
57.343056 -22.380599 28.541072 0.000000 73.000000 14.541072 22.000000
57.853111 -24.101601 28.033817 0.000000 15.000000 14.033817 0.000000
57.070732 -27.891539 28.282743 0.000000 32.000000 14.282743 0.000000
56.026524 -27.140815 28.083712 0.000000 18.000000 14.083712 0.000000
57.650116 -25.236364 28.127050 0.000000 30.000000 14.127050 0.000000
52.150982 -24.207275 28.313467 0.000000 59.000000 14.313467 3.000000
51.919205 -22.418266 28.412380 0.000000 38.000000 14.412380 26.000000
53.904194 -24.416248 28.344387 0.000000 70.000000 14.344387 2.000000
56.765434 -28.109878 28.476798 0.000000 74.000000 14.476798 12.000000
57.517616 -24.650383 28.241158 0.000000 50.000000 14.241158 15.000000
52.257465 -25.682617 28.203158 0.000000 53.000000 14.203158 0.000000
52.415970 -23.582904 28.529675 0.000000 71.000000 14.529675 4.000000
57.278770 -25.208198 28.102493 0.000000 41.000000 14.102493 0.000000
57.023842 -24.161258 28.044442 0.000000 26.000000 14.044442 0.000000
53.470493 -22.820463 28.730736 0.000000 67.000000 14.730736 30.000000
51.972385 -27.894165 28.213839 0.000000 42.000000 14.213839 0.000000
55.693653 -26.041101 28.166776 0.000000 41.000000 14.166776 0.000000
57.603104 -24.232814 28.040081 0.000000 29.000000 14.040081 0.000000
57.907364 -24.031237 27.973667 0.000000 26.000000 13.973667 0.000000
53.819653 -25.807943 28.130791 0.000000 47.000000 14.130791 0.000000
56.327747 -24.825118 28.137753 0.000000 61.000000 14.137753 0.000000
52.826237 -23.365399 28.181914 0.000000 43.000000 14.181914 0.000000
55.231289 -24.340683 28.239185 0.000000 36.000000 14.239185 0.000000
52.708603 -22.921743 28.710923 0.000000 68.000000 14.710923 30.000000
56.877617 -24.513882 28.150969 0.000000 42.000000 14.150969 0.000000
54.086891 -26.887658 28.137602 0.000000 50.000000 14.137602 0.000000
52.294079 -22.880537 28.836782 0.000000 69.000000 14.836782 25.000000
55.869808 -22.733565 28.087795 0.000000 53.000000 14.087795 0.000000
55.518375 -25.582014 28.194588 0.000000 31.000000 14.194588 0.000000
57.378616 -26.398130 28.137930 0.000000 38.000000 14.137930 0.000000
57.862984 -23.847412 28.016236 0.000000 35.000000 14.016236 0.000000
55.465076 -27.417904 28.450231 0.000000 48.000000 14.450231 6.000000
55.993977 -27.090169 28.039578 0.000000 40.000000 14.039578 0.000000
54.140705 -22.594176 28.460393 0.000000 54.000000 14.460393 30.000000
55.482738 -23.375841 28.365665 0.000000 60.000000 14.365665 20.000000
57.311577 -22.999240 28.715345 0.000000 77.000000 14.715345 27.000000
55.506092 -24.141319 28.029372 0.000000 43.000000 14.029372 0.000000
56.379238 -22.581373 28.065411 0.000000 29.000000 14.065411 0.000000
57.858047 -23.693811 28.169740 0.000000 65.000000 14.169740 0.000000
57.887596 -23.689033 28.181766 0.000000 59.000000 14.181766 0.000000
52.515377 -22.734005 28.577271 0.000000 53.000000 14.577271 30.000000
55.809731 -23.033545 28.569906 0.000000 65.000000 14.569906 27.000000
55.800194 -22.453320 28.561441 0.000000 56.000000 14.561441 24.000000
56.542858 -26.058626 28.156008 0.000000 43.000000 14.156008 0.000000
52.304127 -26.966692 28.107021 0.000000 31.000000 14.107021 0.000000
54.966812 -25.248465 28.107095 0.000000 38.000000 14.107095 0.000000
58.040947 -26.892339 27.987378 0.000000 31.000000 13.987378 0.000000
54.830189 -25.287039 28.095661 0.000000 38.000000 14.095661 0.000000
54.681339 -25.316962 28.120244 0.000000 36.000000 14.120244 0.000000
53.360611 -24.290832 28.165508 0.000000 30.000000 14.165508 0.000000
55.415134 -27.515021 28.341272 0.000000 47.000000 14.341272 6.000000
57.895729 -27.073826 27.991755 0.000000 28.000000 13.991755 0.000000
55.318562 -25.406173 28.135448 0.000000 43.000000 14.135448 0.000000
54.297020 -25.430104 28.021181 0.000000 31.000000 14.021181 0.000000
52.250237 -23.703342 28.551206 0.000000 65.000000 14.551206 4.000000
57.650551 -27.093786 27.981876 0.000000 27.000000 13.981876 0.000000
56.353790 -24.971067 28.207230 0.000000 60.000000 14.207230 0.000000
57.924652 -26.860190 27.959035 0.000000 26.000000 13.959035 0.000000
53.753735 -24.794785 28.158601 0.000000 45.000000 14.158601 0.000000
56.747467 -27.711977 28.158693 0.000000 35.000000 14.158693 0.000000
56.889053 -23.236732 28.502877 0.000000 70.000000 14.502877 27.000000
55.991219 -28.053427 28.369914 0.000000 40.000000 14.369914 14.000000
57.664764 -24.280063 28.258752 0.000000 45.000000 14.258752 15.000000
55.480938 -24.452617 28.210382 0.000000 25.000000 14.210382 0.000000
52.817379 -22.466885 28.479073 0.000000 67.000000 14.479073 30.000000
56.786926 -24.092930 27.991675 0.000000 26.000000 13.991675 0.000000
52.428749 -23.920956 28.456435 0.000000 46.000000 14.456435 4.000000
53.030228 -23.457640 28.210514 0.000000 49.000000 14.210514 0.000000
54.243061 -25.564794 28.033046 0.000000 37.000000 14.033046 0.000000
53.169636 -25.568210 28.073020 0.000000 34.000000 14.073020 0.000000
54.107853 -25.572493 28.030415 0.000000 35.000000 14.030415 0.000000
51.782936 -26.489945 28.339213 0.000000 50.000000 14.339213 0.000000
53.324490 -27.634823 28.139211 0.000000 35.000000 14.139211 0.000000
55.382736 -27.898351 28.170115 0.000000 44.000000 14.170115 0.000000
53.788296 -25.546505 28.187899 0.000000 37.000000 14.187899 0.000000
53.897079 -22.701033 28.612595 0.000000 74.000000 14.612595 30.000000
57.773514 -24.807673 28.133552 0.000000 43.000000 14.133552 0.000000
51.791985 -24.888776 28.290799 0.000000 61.000000 14.290799 17.000000
53.203499 -25.241304 28.310265 0.000000 54.000000 14.310265 0.000000
57.998611 -24.799790 28.129303 0.000000 48.000000 14.129303 0.000000
51.820988 -24.806488 28.287683 0.000000 48.000000 14.287683 0.000000
54.135559 -22.647109 28.753427 0.000000 65.000000 14.753427 30.000000
56.234211 -25.656549 28.141825 0.000000 30.000000 14.141825 0.000000
53.607235 -23.784718 28.707038 0.000000 74.000000 14.707038 18.000000
53.165352 -25.558881 28.048117 0.000000 36.000000 14.048117 0.000000
57.355202 -26.329767 28.136230 0.000000 24.000000 14.136230 0.000000
57.863678 -24.425858 28.257082 0.000000 50.000000 14.257082 15.000000
51.960041 -25.580408 28.036350 0.000000 27.000000 14.036350 0.000000
56.408722 -22.482070 28.535722 0.000000 49.000000 14.535722 23.000000
51.829445 -25.572034 28.024759 0.000000 26.000000 14.024759 0.000000
56.876812 -23.168613 28.464969 0.000000 65.000000 14.464969 27.000000
52.654320 -25.507946 28.036891 0.000000 33.000000 14.036891 0.000000
52.514439 -25.477280 28.087515 0.000000 34.000000 14.087515 0.000000
55.266449 -23.371090 28.402685 0.000000 63.000000 14.402685 20.000000
54.166389 -24.359873 28.706545 0.000000 62.000000 14.706545 2.000000
57.031021 -23.737664 28.513072 0.000000 75.000000 14.513072 21.000000
57.257889 -23.128486 28.574267 0.000000 55.000000 14.574267 27.000000
51.906044 -25.352544 28.080421 0.000000 33.000000 14.080421 0.000000
51.794151 -25.326167 28.053023 0.000000 32.000000 14.053023 0.000000
56.817745 -24.544197 28.196852 0.000000 54.000000 14.196852 0.000000
52.773415 -27.095045 28.101072 0.000000 21.000000 14.101072 0.000000
53.406185 -24.413806 28.203047 0.000000 49.000000 14.203047 0.000000
57.513824 -22.335691 28.569433 0.000000 75.000000 14.569433 22.000000
53.591686 -24.611979 28.223004 0.000000 55.000000 14.223004 0.000000
52.937313 -22.349707 28.649886 0.000000 62.000000 14.649886 29.000000
55.838543 -27.111974 28.080183 0.000000 27.000000 14.080183 0.000000
57.902328 -27.633229 28.108821 0.000000 38.000000 14.108821 0.000000
57.767265 -23.034579 28.294445 0.000000 70.000000 14.294445 27.000000
54.738873 -23.888123 28.380652 0.000000 58.000000 14.380652 19.000000
56.855522 -27.019649 28.055302 0.000000 33.000000 14.055302 0.000000
56.101669 -23.750807 28.521619 0.000000 66.000000 14.521619 20.000000
53.128090 -23.327204 28.148428 0.000000 44.000000 14.148428 0.000000
56.968945 -26.590414 28.108732 0.000000 35.000000 14.108732 0.000000
57.085747 -23.387193 28.368529 0.000000 60.000000 14.368529 21.000000
55.524490 -22.398402 28.604796 0.000000 67.000000 14.604796 24.000000
52.096634 -27.526769 28.195358 0.000000 31.000000 14.195358 0.000000
56.945122 -22.962062 28.455861 0.000000 65.000000 14.455861 27.000000
57.157417 -27.158928 28.268103 0.000000 64.000000 14.268103 0.000000
53.505867 -26.363132 28.131043 0.000000 34.000000 14.131043 0.000000
57.221062 -22.762034 28.599037 0.000000 64.000000 14.599037 27.000000
54.312523 -23.196564 28.158593 0.000000 41.000000 14.158593 0.000000
55.760201 -26.151299 28.191910 0.000000 33.000000 14.191910 0.000000
57.032906 -24.251887 28.137681 0.000000 47.000000 14.137681 0.000000
55.346756 -22.457724 28.325698 0.000000 47.000000 14.325698 24.000000
57.900795 -23.776696 28.100706 0.000000 44.000000 14.100706 0.000000
53.160294 -23.233219 28.591654 0.000000 65.000000 14.591654 30.000000
57.859024 -24.757182 28.122606 0.000000 41.000000 14.122606 0.000000
54.890041 -26.722347 28.078758 0.000000 33.000000 14.078758 0.000000
57.119034 -24.629397 28.488176 0.000000 45.000000 14.488176 15.000000
57.972359 -22.831323 28.164013 0.000000 45.000000 14.164013 0.000000
57.275261 -27.322166 28.399528 0.000000 62.000000 14.399528 8.000000
55.740128 -25.294735 28.189750 0.000000 50.000000 14.189750 0.000000
53.405590 -26.991351 28.136013 0.000000 45.000000 14.136013 0.000000
52.040607 -23.247632 28.403207 0.000000 64.000000 14.403207 25.000000
56.303349 -22.552428 28.510562 0.000000 66.000000 14.510562 23.000000
55.539375 -25.797401 28.583187 0.000000 73.000000 14.583187 1.000000
54.012325 -24.318793 28.425302 0.000000 33.000000 14.425302 2.000000
53.952793 -25.433062 28.048489 0.000000 38.000000 14.048489 0.000000
57.131073 -27.381832 28.399763 0.000000 51.000000 14.399763 8.000000
56.987617 -23.320716 28.129539 0.000000 44.000000 14.129539 0.000000
52.627571 -28.067942 28.219784 0.000000 29.000000 14.219784 0.000000
53.541943 -25.586668 28.149972 0.000000 55.000000 14.149972 0.000000
56.537235 -23.377351 28.120214 0.000000 42.000000 14.120214 0.000000
56.099144 -25.393802 28.155636 0.000000 32.000000 14.155636 0.000000
55.282001 -23.412798 28.152460 0.000000 41.000000 14.152460 0.000000
