-34.179084 -40.166718 -21.244696 0.000000 41.000000 14.579152 15.000000
-34.076298 -39.637791 -20.786592 0.000000 54.000000 14.475724 0.000000
-37.004703 -40.712071 -24.218872 0.000000 37.000000 14.284162 0.000000
-36.700424 -40.201267 -23.422123 0.000000 42.000000 14.318105 0.000000
-33.381789 -39.171816 -19.602532 0.000000 38.000000 14.614300 16.000000
-37.101599 -37.883293 -20.248073 0.000000 46.000000 14.957296 12.000000
-34.472435 -41.333244 -22.071947 0.000000 41.000000 14.950110 9.000000
-37.290236 -40.703417 -24.397886 0.000000 28.000000 14.288602 0.000000
-38.302285 -38.553754 -22.797549 0.000000 38.000000 14.315482 0.000000
-37.865694 -37.940992 -21.856142 0.000000 26.000000 14.316652 0.000000
-38.187844 -38.589246 -22.772384 0.000000 38.000000 14.305532 0.000000
-37.880244 -39.759676 -22.968789 0.000000 56.000000 14.816534 23.000000
-33.643144 -38.977322 -19.561227 0.000000 48.000000 14.624586 16.000000
-37.647262 -38.026039 -21.784299 0.000000 27.000000 14.323847 0.000000
-37.981517 -38.679525 -22.701065 0.000000 39.000000 14.320989 0.000000
-37.533444 -38.069598 -21.755754 0.000000 34.000000 14.321547 0.000000
-36.093183 -38.196914 -20.105309 0.000000 58.000000 14.820842 11.000000
-37.367549 -37.699445 -20.806300 0.000000 48.000000 14.601933 6.000000
-36.602725 -38.444363 -21.677462 0.000000 25.000000 14.217962 0.000000
-36.986025 -39.113808 -22.615902 0.000000 27.000000 14.232939 0.000000
-35.868843 -40.049877 -22.674890 0.000000 33.000000 14.330861 0.000000
-35.440714 -37.998087 -19.460602 0.000000 66.000000 14.815026 3.000000
-35.318436 -39.553503 -21.750979 0.000000 30.000000 14.348573 0.000000
-35.743042 -40.218911 -22.708051 0.000000 37.000000 14.366911 0.000000
-35.239541 -39.631739 -21.790529 0.000000 30.000000 14.341311 0.000000
-37.700447 -38.743389 -21.662751 0.000000 59.000000 14.891408 19.000000
-36.722578 -39.229693 -21.130546 0.000000 49.000000 15.124189 27.000000
-34.525472 -41.600079 -23.229724 0.000000 39.000000 14.423837 0.000000
-36.279407 -39.342923 -21.074327 0.000000 56.000000 15.044067 27.000000
-37.320502 -40.816901 -23.739500 0.000000 71.000000 14.787048 23.000000
-37.034448 -39.291373 -21.809534 0.000000 60.000000 14.873482 27.000000
-37.319609 -39.901023 -22.677133 0.000000 75.000000 14.851722 23.000000
-35.335386 -40.714322 -22.970107 0.000000 39.000000 14.352927 0.000000
-33.537145 -39.572520 -19.843681 0.000000 45.000000 14.791910 16.000000
-35.176757 -40.868970 -23.129992 0.000000 35.000000 14.286380 0.000000
-35.062575 -41.567354 -23.271726 0.000000 52.000000 14.605578 22.000000
-35.168641 -41.481169 -23.364873 0.000000 67.000000 14.536343 22.000000
-37.614966 -39.108735 -21.812793 0.000000 42.000000 14.999977 19.000000
-34.548880 -40.549589 -22.439239 0.000000 27.000000 14.241033 0.000000
-38.028463 -39.397933 -22.547510 0.000000 73.000000 14.906574 13.000000
-37.508294 -39.980283 -22.917300 0.000000 58.000000 14.834061 23.000000
-34.974334 -41.314235 -23.423262 0.000000 28.000000 14.307763 0.000000
-34.541030 -40.743994 -22.520980 0.000000 24.000000 14.313687 0.000000
-34.953166 -41.405346 -23.478747 0.000000 32.000000 14.323615 0.000000
-34.510624 -40.831656 -22.597255 0.000000 22.000000 14.310350 0.000000
-36.390315 -38.589536 -20.755224 0.000000 49.000000 14.798332 11.000000
-35.217120 -41.958259 -23.641474 0.000000 48.000000 14.696093 22.000000
-35.134637 -40.413518 -22.179761 0.000000 56.000000 14.564354 10.000000
-34.452672 -41.183237 -22.898003 0.000000 24.000000 14.327520 0.000000
-38.587929 -39.589569 -24.044549 0.000000 41.000000 14.335460 0.000000
-38.067864 -40.149657 -23.732084 0.000000 55.000000 14.674693 23.000000
-38.337895 -39.669602 -23.965921 0.000000 44.000000 14.330121 0.000000
-38.218505 -39.716154 -23.923002 0.000000 41.000000 14.336379 0.000000
-35.580274 -39.206322 -21.122497 0.000000 31.000000 14.626109 24.000000
-37.983176 -39.814266 -23.837588 0.000000 31.000000 14.353375 0.000000
-33.057940 -41.742384 -22.063497 0.000000 36.000000 14.618759 28.000000
-36.131050 -41.693024 -24.055796 0.000000 53.000000 14.654163 8.000000
-36.014920 -40.794813 -23.599087 0.000000 28.000000 14.302775 0.000000
-37.767198 -40.420656 -23.563411 0.000000 71.000000 14.828816 23.000000
-35.589548 -41.122848 -23.584649 0.000000 30.000000 14.344563 0.000000
-32.497575 -40.537935 -20.666992 0.000000 52.000000 14.464634 1.000000
-35.237602 -41.253520 -23.758199 0.000000 24.000000 14.171249 0.000000
-35.196185 -41.361095 -23.698397 0.000000 23.000000 14.261241 0.000000
-34.155078 -42.296312 -24.081904 0.000000 25.000000 14.188346 0.000000
-33.709386 -39.392255 -20.157058 0.000000 46.000000 14.551845 0.000000
-34.091088 -42.517927 -24.070864 0.000000 26.000000 14.312778 0.000000
-36.356226 -42.000020 -24.033706 0.000000 74.000000 14.964801 8.000000
-33.914056 -39.663886 -20.305649 0.000000 48.000000 14.723973 17.000000
-33.872218 -42.828668 -24.229215 0.000000 29.000000 14.323497 0.000000
-33.806022 -42.933656 -24.288256 0.000000 35.000000 14.326967 0.000000
-37.794483 -37.776605 -21.667614 0.000000 29.000000 14.296573 0.000000
-37.771217 -37.855625 -21.730626 0.000000 30.000000 14.298922 0.000000
-37.579315 -37.720966 -20.814271 0.000000 42.000000 14.701457 6.000000
-37.353193 -40.641783 -23.341746 0.000000 53.000000 14.935045 23.000000
-37.730308 -38.101372 -21.915711 0.000000 36.000000 14.326453 0.000000
-36.614581 -37.688312 -20.152016 0.000000 50.000000 14.681871 12.000000
-36.606572 -39.670680 -21.592299 0.000000 47.000000 15.074416 27.000000
-36.282674 -38.282594 -20.343660 0.000000 48.000000 14.808858 11.000000
-37.233367 -37.758602 -21.224283 0.000000 26.000000 14.322156 0.000000
-37.688959 -38.328920 -22.151452 0.000000 38.000000 14.310251 0.000000
-37.228776 -37.837713 -21.307041 0.000000 26.000000 14.320203 0.000000
-36.308636 -38.519257 -20.349076 0.000000 25.000000 14.971260 11.000000
-37.690222 -38.490634 -22.297369 0.000000 30.000000 14.325333 0.000000
-37.695109 -38.571412 -22.373397 0.000000 34.000000 14.332723 0.000000
-37.479851 -40.400045 -23.202455 0.000000 44.000000 14.918144 23.000000
-37.747151 -40.406903 -23.543471 0.000000 51.000000 14.823723 23.000000
-37.736329 -38.819030 -22.597539 0.000000 45.000000 14.372149 0.000000
-37.949168 -39.251826 -22.578568 0.000000 45.000000 14.757801 13.000000
-34.407464 -40.374424 -21.178259 0.000000 63.000000 14.853963 14.000000
-35.623582 -42.156521 -24.169637 0.000000 47.000000 14.669294 21.000000
-36.833760 -37.719379 -20.130625 0.000000 44.000000 14.809146 12.000000
-36.242580 -41.887589 -24.007670 0.000000 56.000000 14.859042 8.000000
-38.146461 -39.882922 -24.090220 0.000000 31.000000 14.310149 0.000000
-38.181982 -39.943282 -24.210938 0.000000 37.000000 14.289353 0.000000
-38.289104 -40.033415 -24.235395 0.000000 39.000000 14.378738 0.000000
-37.117265 -37.850754 -20.191909 0.000000 63.000000 14.977807 12.000000
-38.178084 -39.762892 -23.960288 0.000000 40.000000 14.326372 0.000000
-38.239153 -39.814563 -24.080222 0.000000 33.000000 14.311296 0.000000
-38.311199 -39.870327 -24.185869 0.000000 33.000000 14.312510 0.000000
-38.384767 -39.924752 -24.292446 0.000000 33.000000 14.312918 0.000000
-37.998137 -38.029933 -21.998049 0.000000 33.000000 14.342692 0.000000
-37.889736 -38.071424 -22.000943 0.000000 35.000000 14.321712 0.000000
-37.802594 -38.125169 -21.984245 0.000000 36.000000 14.330061 0.000000
-37.708896 -38.179673 -21.976165 0.000000 37.000000 14.330722 0.000000
-34.728677 -41.845492 -23.188849 0.000000 47.000000 14.696574 22.000000
-35.000553 -38.838444 -20.388824 0.000000 62.000000 14.596441 18.000000
-36.583804 -37.893011 -21.127520 0.000000 18.000000 14.193067 0.000000
-36.480860 -37.950493 -21.157004 0.000000 22.000000 14.168258 0.000000
-38.139254 -39.586656 -22.694930 0.000000 54.000000 14.985148 13.000000
-36.372598 -38.118767 -21.135883 0.000000 22.000000 14.245214 0.000000
-36.872890 -38.809659 -22.029999 0.000000 29.000000 14.351866 0.000000
-35.932425 -38.674403 -21.292446 0.000000 23.000000 14.322620 0.000000
-36.704786 -40.238149 -23.246611 0.000000 50.000000 14.453731 0.000000
-35.854220 -38.852444 -21.342758 0.000000 24.000000 14.374169 0.000000
-35.453201 -39.476522 -21.863738 0.000000 21.000000 14.285357 0.000000
-35.901173 -40.112207 -22.810059 0.000000 29.000000 14.300961 0.000000
-35.441622 -39.567682 -21.917309 0.000000 23.000000 14.306531 0.000000
-37.044439 -36.558130 -19.678910 0.000000 54.000000 14.422264 0.000000
-35.435665 -39.659981 -21.970754 0.000000 28.000000 14.330929 0.000000
-35.855645 -40.280651 -22.936308 0.000000 34.000000 14.312749 0.000000
-35.438597 -39.752942 -22.022313 0.000000 27.000000 14.360735 0.000000
-36.910463 -39.471381 -21.844502 0.000000 48.000000 14.916352 27.000000
-37.807481 -39.238190 -22.153991 0.000000 43.000000 14.953642 19.000000
-34.578942 -40.317194 -21.694439 0.000000 43.000000 14.567291 14.000000
-35.406121 -39.918186 -22.180304 0.000000 29.000000 14.356172 0.000000
-38.669107 -39.027698 -23.366838 0.000000 35.000000 14.426264 0.000000
-35.377546 -39.995393 -22.279329 0.000000 23.000000 14.332569 0.000000
-35.376281 -40.079543 -22.358380 0.000000 24.000000 14.337646 0.000000
-35.379493 -40.165003 -22.435145 0.000000 25.000000 14.346920 0.000000
-35.346746 -40.233600 -22.556567 0.000000 24.000000 14.301914 0.000000
-35.359530 -40.318753 -22.637498 0.000000 30.000000 14.312472 0.000000
-35.367288 -40.396286 -22.726535 0.000000 28.000000 14.310838 0.000000
-37.154411 -39.747017 -22.067492 0.000000 55.000000 15.061389 26.000000
-35.785854 -41.101967 -23.738394 0.000000 35.000000 14.318693 0.000000
-36.947509 -39.308766 -21.469493 0.000000 58.000000 15.060171 27.000000
-34.280389 -39.298872 -20.108945 0.000000 44.000000 14.764716 17.000000
-35.415998 -40.633932 -23.001845 0.000000 29.000000 14.314977 0.000000
-36.496512 -39.074304 -21.105211 0.000000 76.000000 14.941900 27.000000
-37.565935 -37.479803 -20.397399 0.000000 57.000000 14.798552 6.000000
-35.854205 -41.413185 -24.105386 0.000000 32.000000 14.322030 0.000000
-34.217960 -39.617848 -20.500228 0.000000 48.000000 14.702097 17.000000
-35.598618 -41.078333 -23.594273 0.000000 28.000000 14.313325 0.000000
-34.505324 -40.316851 -21.418858 0.000000 41.000000 14.707802 14.000000
-34.605296 -40.359298 -21.374456 0.000000 48.000000 14.805983 14.000000
-35.813120 -37.595872 -19.349044 0.000000 64.000000 14.780848 4.000000
-35.791183 -41.351969 -24.002223 0.000000 33.000000 14.319554 0.000000
-35.339495 -38.778167 -20.201764 0.000000 56.000000 14.818657 24.000000
-35.918477 -38.336434 -20.660707 0.000000 39.000000 14.490436 11.000000
-38.773801 -39.543146 -24.044545 0.000000 49.000000 14.384496 0.000000
-38.659784 -39.567314 -24.006343 0.000000 47.000000 14.375469 0.000000
-33.940232 -40.448267 -21.518227 0.000000 53.000000 14.490294 0.000000
-36.781027 -36.853472 -19.431399 0.000000 51.000000 14.657465 5.000000
-37.094769 -36.880564 -20.066468 0.000000 42.000000 14.412388 0.000000
-37.403574 -40.322939 -23.068136 0.000000 55.000000 14.919086 23.000000
-38.178315 -39.184759 -23.067526 0.000000 48.000000 14.506335 13.000000
-34.312967 -40.473057 -21.210636 0.000000 53.000000 14.857852 14.000000
-37.934803 -38.974471 -22.755545 0.000000 49.000000 14.459799 13.000000
-37.173703 -39.360788 -22.829580 0.000000 25.000000 14.341031 0.000000
-37.292714 -39.952352 -22.760967 0.000000 52.000000 14.821411 23.000000
-35.383142 -38.229267 -20.297978 0.000000 40.000000 14.418387 0.000000
-35.560695 -37.829823 -19.707633 0.000000 47.000000 14.601938 3.000000
-37.765981 -37.650496 -21.281967 0.000000 43.000000 14.442909 0.000000
-36.214384 -40.837457 -23.691236 0.000000 36.000000 14.358261 0.000000
-35.650646 -42.113860 -24.251216 0.000000 52.000000 14.601998 21.000000
-35.236998 -40.120736 -21.764938 0.000000 55.000000 14.675856 10.000000
-35.663282 -40.305563 -22.752329 0.000000 24.000000 14.361827 0.000000
-35.990068 -40.982323 -23.749076 0.000000 29.000000 14.321022 0.000000
-36.817331 -39.149665 -21.192012 0.000000 54.000000 15.073939 27.000000
-35.885034 -41.061753 -23.775663 0.000000 31.000000 14.311477 0.000000
-34.460421 -40.221321 -21.592347 0.000000 29.000000 14.517790 14.000000
-35.800338 -41.144995 -23.783860 0.000000 37.000000 14.324598 0.000000
-35.335595 -40.533827 -22.844974 0.000000 27.000000 14.313212 0.000000
-35.703294 -41.227234 -23.811971 0.000000 31.000000 14.319349 0.000000
-36.111334 -37.990274 -20.364771 0.000000 53.000000 14.531415 11.000000
-35.571616 -41.299883 -23.882307 0.000000 35.000000 14.266659 0.000000
-35.106878 -40.685189 -22.942698 0.000000 24.000000 14.253422 0.000000
-33.101677 -39.345547 -19.832137 0.000000 44.000000 14.464787 16.000000
-35.968209 -39.614024 -21.920554 0.000000 24.000000 14.559679 0.000000
-35.326272 -41.454019 -24.018720 0.000000 30.000000 14.177410 0.000000
-34.891650 -40.843838 -23.043519 0.000000 23.000000 14.202221 0.000000
-36.859374 -40.341466 -21.859119 0.000000 51.000000 15.454149 25.000000
-35.044342 -41.315179 -22.743954 0.000000 50.000000 14.762690 20.000000
-35.308867 -41.671779 -23.914681 0.000000 38.000000 14.377320 0.000000
-34.328006 -40.054643 -21.030383 0.000000 46.000000 14.703387 15.000000
-34.013272 -42.259074 -23.813879 0.000000 28.000000 14.270899 0.000000
-34.004820 -42.358844 -23.864354 0.000000 30.000000 14.300971 0.000000
-36.705269 -39.830358 -22.235843 0.000000 37.000000 14.818875 25.000000
-34.150124 -39.364288 -20.284097 0.000000 43.000000 14.642415 17.000000
-37.026811 -40.824818 -23.652819 0.000000 50.000000 14.720956 23.000000
-33.916629 -42.732759 -24.188235 0.000000 34.000000 14.305373 0.000000
-33.888770 -42.821861 -24.291759 0.000000 28.000000 14.287040 0.000000
-35.661032 -38.442041 -20.432005 0.000000 45.000000 14.592410 24.000000
-33.880900 -43.005552 -24.469661 0.000000 27.000000 14.292604 0.000000
-37.710810 -39.672973 -23.091645 0.000000 62.000000 14.610744 23.000000
-35.490271 -42.358995 -24.196734 0.000000 48.000000 14.727784 21.000000
-36.501475 -40.456523 -23.423663 0.000000 34.000000 14.399033 30.000000
-33.809241 -41.771516 -22.896743 0.000000 28.000000 14.438063 0.000000
-37.948893 -39.053839 -22.690985 0.000000 39.000000 14.558031 13.000000
-34.388670 -39.877242 -21.287963 0.000000 34.000000 14.452405 0.000000
-37.045667 -37.474100 -20.795200 0.000000 23.000000 14.324105 0.000000
-34.243914 -39.532248 -20.193280 0.000000 47.000000 14.848999 17.000000
-33.842417 -39.632556 -20.281866 0.000000 56.000000 14.687758 17.000000
-38.056912 -39.133234 -22.735140 0.000000 61.000000 14.628473 13.000000
-35.022353 -39.250509 -20.194346 0.000000 47.000000 14.996609 18.000000
-37.590264 -38.480287 -21.374524 0.000000 56.000000 14.852448 19.000000
-34.060145 -39.165426 -20.134469 0.000000 32.000000 14.567482 17.000000
-36.501560 -38.305012 -21.395236 0.000000 23.000000 14.259996 0.000000
-35.274728 -40.212489 -21.702724 0.000000 50.000000 14.790814 10.000000
-38.010392 -39.733200 -23.691842 0.000000 41.000000 14.403066 0.000000
-36.946942 -39.004827 -22.393537 0.000000 28.000000 14.283938 0.000000
-32.901685 -40.454293 -20.586163 0.000000 43.000000 14.633038 1.000000
-36.856103 -39.734100 -23.025524 0.000000 39.000000 14.327000 0.000000
-36.874275 -40.044993 -23.380375 0.000000 32.000000 14.316282 0.000000
-36.531267 -39.752913 -22.868222 0.000000 33.000000 14.298852 0.000000
-35.638281 -37.885790 -19.354855 0.000000 57.000000 14.892062 4.000000
-36.438811 -38.501029 -20.913733 0.000000 35.000000 14.662157 11.000000
-36.643915 -39.979310 -23.153797 0.000000 33.000000 14.316528 0.000000
-36.716151 -40.064531 -23.214547 0.000000 41.000000 14.365129 0.000000
-36.720459 -40.119255 -23.361934 0.000000 41.000000 14.310657 0.000000
-37.092939 -40.703811 -24.262381 0.000000 35.000000 14.289261 0.000000
-36.761577 -40.185306 -23.468602 0.000000 30.000000 14.304749 0.000000
-38.210018 -39.866491 -23.217469 0.000000 61.000000 14.871820 23.000000
-37.614285 -38.977686 -21.441794 0.000000 60.000000 15.145812 19.000000
-36.517811 -40.252760 -22.983496 0.000000 54.000000 14.547819 0.000000
-37.269270 -40.740569 -24.429124 0.000000 28.000000 14.284417 0.000000
-36.439371 -38.432955 -20.645048 0.000000 64.000000 14.785764 11.000000
-36.116716 -39.281880 -20.899868 0.000000 51.000000 15.043683 27.000000
-37.901333 -38.282032 -22.229795 0.000000 36.000000 14.321352 0.000000
-36.872030 -37.701942 -19.804814 0.000000 67.000000 15.017649 12.000000
-37.683972 -38.374767 -22.173899 0.000000 29.000000 14.324066 0.000000
-33.284305 -39.220891 -19.638107 0.000000 39.000000 14.582521 16.000000
-37.785545 -39.093891 -22.211817 0.000000 62.000000 14.813823 19.000000
-36.813939 -39.734718 -23.016614 0.000000 38.000000 14.314965 0.000000
-36.489576 -37.181232 -19.780361 0.000000 49.000000 14.529224 12.000000
-36.022113 -41.888844 -23.959547 0.000000 61.000000 14.795776 8.000000
-36.858045 -39.255357 -21.074578 0.000000 47.000000 15.233784 27.000000
-34.336594 -40.169340 -21.148392 0.000000 48.000000 14.708300 15.000000
-37.224938 -39.798239 -22.438386 0.000000 79.000000 14.893267 26.000000
-36.083853 -40.308408 -23.212158 0.000000 27.000000 14.256008 0.000000
-34.756558 -40.599256 -22.184724 0.000000 45.000000 14.521203 0.000000
-34.990575 -41.182993 -22.858533 0.000000 45.000000 14.581736 20.000000
-35.221052 -39.221667 -20.952956 0.000000 37.000000 14.588655 0.000000
-37.178217 -38.079073 -21.016344 0.000000 60.000000 14.637999 12.000000
-35.471976 -39.996380 -22.290770 0.000000 26.000000 14.366393 0.000000
-34.139486 -39.519363 -20.512866 0.000000 55.000000 14.596312 17.000000
-35.208729 -42.194504 -23.717322 0.000000 47.000000 14.799548 22.000000
-35.231199 -40.230187 -22.472866 0.000000 24.000000 14.302631 0.000000
-36.083531 -40.092270 -22.398527 0.000000 39.000000 14.622920 25.000000
-35.141299 -40.408969 -22.552907 0.000000 29.000000 14.331095 0.000000
-37.432325 -39.231321 -22.557035 0.000000 55.000000 14.537129 19.000000
-35.450739 -41.149332 -23.621647 0.000000 33.000000 14.279480 0.000000
-37.021017 -39.249945 -21.730328 0.000000 50.000000 14.890151 27.000000
-33.844275 -39.823837 -20.267057 0.000000 36.000000 14.822839 17.000000
-37.185731 -39.726867 -22.535620 0.000000 56.000000 14.769120 26.000000
-37.356349 -37.997510 -21.249711 0.000000 38.000000 14.514956 19.000000
-35.219047 -39.320806 -20.280205 0.000000 5.000000 15.072917 18.000000
-37.751595 -38.781273 -21.819670 0.000000 72.000000 14.839977 19.000000
-35.234085 -41.484176 -23.914574 0.000000 30.000000 14.222821 0.000000
-34.842310 -40.913664 -22.970874 0.000000 26.000000 14.272179 0.000000
-33.957430 -39.670475 -20.380795 0.000000 50.000000 14.699854 17.000000
-37.762115 -39.065096 -21.509252 0.000000 61.000000 15.223936 19.000000
-34.740575 -41.444133 -23.412108 0.000000 23.000000 14.299814 0.000000
-38.908332 -39.822907 -24.431485 0.000000 37.000000 14.383071 0.000000
-38.757169 -39.848695 -24.435286 0.000000 38.000000 14.332997 0.000000
-38.628248 -39.889269 -24.403551 0.000000 42.000000 14.324290 0.000000
-38.516197 -39.939715 -24.349037 0.000000 39.000000 14.343471 0.000000
-37.166643 -39.599657 -22.453296 0.000000 40.000000 14.729249 26.000000
-37.979524 -40.116912 -24.281354 0.000000 32.000000 14.272394 0.000000
-37.713889 -39.149107 -22.165532 0.000000 50.000000 14.848232 19.000000
-36.485005 -40.866858 -24.139310 0.000000 25.000000 14.213108 0.000000
-36.424503 -40.962459 -24.069059 0.000000 28.000000 14.293652 0.000000
-33.895924 -39.702299 -20.126364 0.000000 46.000000 14.853351 17.000000
-38.108246 -40.169422 -23.441401 0.000000 68.000000 14.886468 23.000000
-38.103612 -40.407464 -23.549161 0.000000 41.000000 14.972765 23.000000
-34.874414 -42.636739 -23.738456 0.000000 18.000000 14.932647 22.000000
-35.880244 -41.371734 -24.067880 0.000000 28.000000 14.329487 0.000000
-35.770848 -41.455845 -24.081197 0.000000 30.000000 14.329430 0.000000
-35.594947 -41.523865 -24.175155 0.000000 22.000000 14.240070 0.000000
-36.215389 -41.840546 -24.203810 0.000000 49.000000 14.694137 8.000000
-37.003861 -39.051419 -21.590438 0.000000 52.000000 14.840454 27.000000
-35.328571 -41.808528 -24.180432 0.000000 26.000000 14.309090 0.000000
-36.583015 -38.659110 -21.307074 0.000000 49.000000 14.581325 27.000000
-38.059568 -38.118087 -22.195755 0.000000 31.000000 14.303029 0.000000
-37.631465 -37.640155 -21.268734 0.000000 34.000000 14.386970 0.000000
-36.184869 -39.704867 -21.179751 0.000000 22.000000 15.174419 27.000000
-37.594089 -37.706156 -21.366581 0.000000 25.000000 14.353019 0.000000
-35.153944 -42.105299 -23.620600 0.000000 69.000000 14.778270 22.000000
-34.824077 -39.075094 -20.426506 0.000000 63.000000 14.652223 18.000000
-38.017802 -38.357268 -22.393484 0.000000 36.000000 14.318002 0.000000
-37.314791 -38.657152 -21.095578 0.000000 63.000000 15.024693 19.000000
-38.001624 -38.432392 -22.473943 0.000000 35.000000 14.309931 0.000000
-37.542250 -37.931206 -21.626013 0.000000 28.000000 14.315903 0.000000
-37.999791 -38.515188 -22.541109 0.000000 39.000000 14.321306 0.000000
-36.590482 -37.128033 -19.420989 0.000000 55.000000 14.762067 5.000000
-36.566681 -39.264612 -21.106149 0.000000 61.000000 15.095679 27.000000
-37.113686 -37.968323 -20.765072 0.000000 68.000000 14.695034 12.000000
-34.958492 -39.092985 -20.398241 0.000000 36.000000 14.738980 18.000000
-34.419275 -41.223613 -22.023851 0.000000 60.000000 14.885794 9.000000
-37.993497 -38.750190 -22.774681 0.000000 45.000000 14.326303 0.000000
-37.552155 -38.255068 -21.954601 0.000000 29.000000 14.326540 0.000000
-35.602270 -38.668397 -20.136897 0.000000 51.000000 14.899652 24.000000
-35.982514 -40.949049 -23.134299 0.000000 43.000000 14.680141 2.000000
-36.703852 -40.710530 -23.439732 0.000000 54.000000 14.641457 30.000000
-37.595268 -38.427149 -22.103570 0.000000 31.000000 14.364364 0.000000
-34.324696 -40.050278 -20.963524 0.000000 59.000000 14.740892 15.000000
-36.134767 -39.138967 -21.367960 0.000000 53.000000 14.665524 27.000000
-36.744462 -39.869387 -21.979744 0.000000 50.000000 15.021129 25.000000
-38.073673 -39.355768 -23.499564 0.000000 41.000000 14.303505 0.000000
-37.683982 -37.695542 -20.724655 0.000000 60.000000 14.785527 6.000000
-38.108404 -39.435206 -23.579258 0.000000 41.000000 14.320473 0.000000
-34.513146 -39.622005 -21.082048 0.000000 49.000000 14.467373 15.000000
-34.783378 -42.136744 -23.190641 0.000000 39.000000 14.909197 22.000000
-38.166681 -39.583212 -23.769059 0.000000 49.000000 14.323525 0.000000
-38.194347 -39.652747 -23.874697 0.000000 42.000000 14.314794 0.000000
-36.250998 -39.801303 -21.570038 0.000000 53.000000 15.021858 27.000000
-35.676911 -38.577956 -20.510155 0.000000 55.000000 14.639209 24.000000
-38.997388 -39.686245 -24.323320 0.000000 47.000000 14.399350 0.000000
-37.962042 -39.377056 -23.410036 0.000000 32.000000 14.325681 0.000000
-35.078724 -40.286538 -21.534478 0.000000 64.000000 14.860627 10.000000
-37.364152 -38.049434 -21.217147 0.000000 66.000000 14.572574 19.000000
-36.920622 -37.958578 -20.653074 0.000000 56.000000 14.676188 12.000000
-38.119020 -39.579740 -23.720396 0.000000 33.000000 14.331304 0.000000
-38.173875 -39.643158 -23.826699 0.000000 37.000000 14.329771 0.000000
-37.311705 -39.849593 -22.595567 0.000000 75.000000 14.865688 23.000000
-38.352783 -39.356551 -23.001130 0.000000 59.000000 14.734620 13.000000
-35.512807 -37.996629 -19.551458 0.000000 75.000000 14.788097 3.000000
-37.866970 -39.203510 -22.241380 0.000000 65.000000 14.901780 19.000000
-38.501361 -39.952861 -24.331652 0.000000 37.000000 14.356590 0.000000
-35.176443 -39.385114 -20.182079 0.000000 4.000000 15.158065 18.000000
-35.617229 -40.014642 -22.272061 0.000000 28.000000 14.452051 0.000000
-38.061974 -38.379559 -22.435049 0.000000 37.000000 14.325469 0.000000
-38.653976 -40.485408 -24.062948 0.000000 48.000000 14.937753 7.000000
-37.145300 -39.430530 -22.050428 0.000000 47.000000 14.861282 26.000000
-37.484274 -37.832786 -21.478538 0.000000 24.000000 14.318948 0.000000
-38.093992 -39.413145 -22.692750 0.000000 61.000000 14.853761 13.000000
-35.133477 -42.428055 -24.110252 0.000000 55.000000 14.674585 22.000000
-37.799106 -38.553752 -22.417101 0.000000 35.000000 14.338287 0.000000
-37.376083 -40.644026 -23.229491 0.000000 63.000000 15.016420 23.000000
-38.097725 -39.015218 -22.883580 0.000000 42.000000 14.476018 0.000000
-37.003851 -39.109759 -22.610653 0.000000 25.000000 14.241184 0.000000
-36.587998 -39.758246 -22.804397 0.000000 36.000000 14.366441 0.000000
-36.504139 -39.821566 -22.890583 0.000000 36.000000 14.318172 0.000000
-36.468572 -39.909134 -22.928416 0.000000 35.000000 14.336586 0.000000
-36.497143 -38.606556 -20.636310 0.000000 52.000000 14.929373 11.000000
-38.627457 -39.112323 -23.441670 0.000000 36.000000 14.417041 0.000000
-35.853514 -39.685513 -22.265447 0.000000 23.000000 14.341949 0.000000
-36.216368 -40.294404 -23.286689 0.000000 42.000000 14.256881 0.000000
-35.273556 -38.239764 -19.521052 0.000000 53.000000 14.863849 3.000000
-38.775822 -40.402998 -24.024482 0.000000 76.000000 14.959952 7.000000
-34.961719 -40.238001 -21.381473 0.000000 54.000000 14.874525 10.000000
-37.503248 -38.964222 -21.446158 0.000000 49.000000 15.086866 19.000000
-35.761769 -39.927560 -22.497463 0.000000 25.000000 14.316031 0.000000
-36.171515 -40.557491 -23.454146 0.000000 33.000000 14.305076 0.000000
-34.143011 -41.012129 -21.929296 0.000000 57.000000 14.688648 9.000000
-35.313979 -39.147166 -20.716492 0.000000 55.000000 14.727377 18.000000
-35.776198 -40.201870 -22.672565 0.000000 32.000000 14.392102 0.000000
-35.696431 -39.974314 -22.296181 0.000000 46.000000 14.444444 0.000000
-35.742470 -40.272685 -22.784151 0.000000 32.000000 14.354272 0.000000
-35.320148 -41.734024 -23.698156 0.000000 53.000000 14.558104 22.000000
-37.407608 -40.129139 -22.653536 0.000000 44.000000 15.053157 23.000000
-37.974670 -40.156456 -23.813365 0.000000 51.000000 14.588556 23.000000
-35.705768 -40.423495 -22.988898 0.000000 25.000000 14.309258 0.000000
-37.762912 -38.698392 -21.834068 0.000000 61.000000 14.781638 19.000000
-35.715459 -40.506784 -23.070747 0.000000 30.000000 14.316703 0.000000
-35.972382 -38.888602 -21.153220 0.000000 44.000000 14.566684 0.000000
-34.460207 -39.877658 -21.184828 0.000000 47.000000 14.547663 0.000000
-36.117846 -41.295838 -24.184670 0.000000 35.000000 14.308380 0.000000
-35.587442 -38.577970 -20.096937 0.000000 68.000000 14.859176 24.000000
-36.131896 -41.451207 -24.379373 0.000000 33.000000 14.294295 0.000000
-36.151985 -41.529855 -24.470630 0.000000 38.000000 14.297270 0.000000
-37.049026 -38.906337 -21.565768 0.000000 51.000000 14.780319 27.000000
-35.876303 -41.125937 -23.827459 0.000000 28.000000 14.317343 0.000000
-35.914269 -41.200455 -23.925946 0.000000 38.000000 14.320735 0.000000
-36.591181 -39.110819 -21.189438 0.000000 70.000000 14.953576 27.000000
-35.305689 -40.331749 -21.786685 0.000000 51.000000 14.829537 10.000000
-37.657059 -38.842028 -21.411946 0.000000 45.000000 15.094052 19.000000
-36.079847 -41.474609 -24.346178 0.000000 32.000000 14.308104 0.000000
-36.128040 -41.540552 -24.455291 0.000000 31.000000 14.303619 0.000000
-38.940407 -39.800421 -24.428880 0.000000 38.000000 14.383698 0.000000
-38.800714 -39.828355 -24.429068 0.000000 40.000000 14.342183 0.000000
-38.669074 -39.861553 -24.421942 0.000000 49.000000 14.312117 0.000000
-35.891083 -37.716222 -19.165907 0.000000 61.000000 15.007230 4.000000
-34.672285 -39.667724 -21.205390 0.000000 43.000000 14.488158 0.000000
-38.473813 -39.973586 -24.310380 0.000000 41.000000 14.371663 0.000000
-34.161120 -40.626849 -21.455641 0.000000 32.000000 14.740461 14.000000
-38.244694 -40.071550 -24.260064 0.000000 39.000000 14.369287 0.000000
-32.825698 -40.569616 -20.675338 0.000000 58.000000 14.620256 1.000000
-36.505534 -40.666720 -23.366306 0.000000 55.000000 14.574001 0.000000
-36.618037 -39.990863 -21.974859 0.000000 46.000000 15.049594 25.000000
-35.954415 -38.895587 -21.166165 0.000000 40.000000 14.555489 0.000000
-34.120681 -41.173342 -21.780546 0.000000 70.000000 14.877426 9.000000
-37.412628 -40.453905 -24.210533 0.000000 32.000000 14.294825 0.000000
-37.372770 -40.546591 -24.114539 0.000000 41.000000 14.398363 0.000000
-35.049571 -39.225511 -20.244264 0.000000 55.000000 14.960705 18.000000
-37.238701 -38.692809 -21.123029 0.000000 55.000000 14.998356 19.000000
-34.924506 -41.242929 -22.754687 0.000000 35.000000 14.657580 20.000000
-36.978011 -40.719901 -24.196637 0.000000 32.000000 14.291773 0.000000
-38.065047 -39.832469 -23.375405 0.000000 58.000000 14.688996 23.000000
-36.397476 -38.867252 -21.132603 0.000000 59.000000 14.747150 27.000000
-36.170250 -40.299258 -23.318474 0.000000 32.000000 14.220500 0.000000
-36.510786 -40.995491 -24.284926 0.000000 28.000000 14.217224 0.000000
-36.350030 -38.463238 -20.536563 0.000000 64.000000 14.835184 11.000000
-37.678108 -38.946300 -21.294826 0.000000 15.000000 15.244374 19.000000
-36.045046 -40.484435 -23.255057 0.000000 28.000000 14.327696 0.000000
-36.368884 -41.170687 -24.244357 0.000000 31.000000 14.296490 0.000000
-34.507946 -39.830853 -20.839740 0.000000 56.000000 14.753056 15.000000
-36.265445 -41.248787 -24.270003 0.000000 31.000000 14.287345 0.000000
-36.175464 -41.335155 -24.282343 0.000000 30.000000 14.297663 0.000000
-36.086626 -41.419410 -24.299508 0.000000 31.000000 14.304075 0.000000
-36.009003 -41.508305 -24.308561 0.000000 37.000000 14.323377 0.000000
-36.577958 -37.061186 -19.929334 0.000000 44.000000 14.395424 0.000000
-35.201288 -41.121161 -23.576905 0.000000 23.000000 14.182488 0.000000
-35.149003 -41.219463 -23.584417 0.000000 27.000000 14.219723 0.000000
-35.116455 -41.324730 -23.576986 0.000000 26.000000 14.279276 0.000000
-37.028170 -39.688869 -22.422983 0.000000 48.000000 14.747367 26.000000
-34.486095 -42.565547 -24.269666 0.000000 21.000000 14.388392 0.000000
-38.050817 -38.082451 -22.105318 0.000000 30.000000 14.332500 0.000000
-37.967246 -38.138676 -22.151535 0.000000 37.000000 14.304688 0.000000
-37.905377 -38.208960 -22.179239 0.000000 35.000000 14.306900 0.000000
-37.851310 -38.284152 -22.201563 0.000000 37.000000 14.319014 0.000000
-36.606572 -39.670680 -21.592299 0.000000 47.000000 15.074416 27.000000
-37.499613 -40.675264 -23.289120 0.000000 63.000000 15.052340 23.000000
-37.298224 -37.797791 -21.298959 0.000000 23.000000 14.328814 0.000000
-34.444911 -41.444380 -21.805426 0.000000 16.000000 15.177516 9.000000
-35.691867 -40.602971 -22.925118 0.000000 58.000000 14.460487 0.000000
-33.534447 -39.816491 -20.215847 0.000000 47.000000 14.717716 17.000000
-37.634116 -38.574934 -22.352299 0.000000 35.000000 14.322159 0.000000
-36.796610 -39.324289 -21.392072 0.000000 53.000000 15.054245 27.000000
-35.005308 -41.392134 -22.609133 0.000000 55.000000 14.880555 20.000000
-37.342740 -40.547470 -24.090279 0.000000 38.000000 14.401270 0.000000
-37.294696 -40.590604 -24.278977 0.000000 31.000000 14.291055 0.000000
-37.190603 -37.783391 -20.278900 0.000000 70.000000 14.910744 12.000000
-37.327048 -40.664843 -24.370371 0.000000 32.000000 14.296299 0.000000
-35.906510 -37.803677 -19.945557 0.000000 50.000000 14.583883 0.000000
-37.307632 -40.613737 -24.303930 0.000000 30.000000 14.296111 0.000000
-35.835652 -41.103068 -23.438651 0.000000 39.000000 14.527949 0.000000
-38.215611 -38.479578 -22.669071 0.000000 29.000000 14.310250 0.000000
-37.803209 -38.796962 -21.714451 0.000000 57.000000 14.938013 19.000000
-38.006952 -38.578123 -22.609016 0.000000 31.000000 14.323077 0.000000
-35.557084 -38.899118 -20.196160 0.000000 48.000000 14.994144 24.000000
-37.898336 -38.628646 -22.587018 0.000000 35.000000 14.323460 0.000000
-35.173443 -39.168059 -20.409274 0.000000 48.000000 14.872958 18.000000
-36.141456 -38.498469 -20.515303 0.000000 49.000000 14.782422 11.000000
-36.565794 -37.032267 -19.607857 0.000000 53.000000 14.572175 5.000000
-34.189927 -41.325216 -21.846420 0.000000 35.000000 14.965117 9.000000
-34.666784 -39.836025 -21.427921 0.000000 51.000000 14.456792 0.000000
-32.996575 -41.520105 -21.834628 0.000000 42.000000 14.590245 28.000000
-37.081707 -39.100531 -22.482553 0.000000 26.000000 14.348435 0.000000
-36.848572 -40.270429 -23.461097 0.000000 35.000000 14.402233 0.000000
-36.736808 -40.334240 -23.515388 0.000000 34.000000 14.362295 0.000000
-37.272005 -37.976467 -21.257183 0.000000 35.000000 14.460513 19.000000
-35.870845 -40.131705 -22.762611 0.000000 24.000000 14.330399 0.000000
-35.827153 -40.225218 -22.777503 0.000000 29.000000 14.363562 0.000000
-34.347596 -39.432393 -20.143279 0.000000 40.000000 14.859245 17.000000
-35.749908 -40.303442 -22.835134 0.000000 29.000000 14.345701 0.000000
-36.111367 -40.965145 -23.831029 0.000000 35.000000 14.310394 0.000000
-35.661922 -40.377187 -22.908203 0.000000 24.000000 14.310679 0.000000
-38.523549 -40.421834 -24.083293 0.000000 69.000000 14.827786 7.000000
-35.598802 -40.460869 -22.961190 0.000000 23.000000 14.305318 0.000000
-35.985721 -41.133723 -23.931150 0.000000 33.000000 14.304377 0.000000
-35.551879 -40.549728 -23.005564 0.000000 28.000000 14.315641 0.000000
-34.893959 -42.227015 -23.507187 0.000000 56.000000 14.817660 22.000000
-35.564841 -40.656645 -22.991960 0.000000 30.000000 14.399564 0.000000
-33.639012 -39.230096 -19.581214 0.000000 52.000000 14.775564 16.000000
-37.194847 -39.614820 -22.156598 0.000000 64.000000 14.936574 26.000000
-35.801672 -41.486448 -24.127986 0.000000 30.000000 14.333366 0.000000
-35.258683 -40.964197 -23.375529 0.000000 23.000000 14.230210 0.000000
-35.212465 -41.046853 -23.454615 0.000000 22.000000 14.215092 0.000000
-35.158586 -41.127945 -23.549028 0.000000 24.000000 14.186103 0.000000
-35.158358 -41.226187 -23.594890 0.000000 27.000000 14.221570 0.000000
-35.166621 -41.324866 -23.636554 0.000000 27.000000 14.263572 0.000000
-35.231412 -41.436132 -23.625949 0.000000 33.000000 14.370598 0.000000
-34.139459 -39.527962 -20.535375 0.000000 43.000000 14.587858 17.000000
-37.882872 -37.890696 -21.842127 0.000000 25.000000 14.299868 0.000000
-37.872966 -37.972803 -21.916440 0.000000 27.000000 14.302879 0.000000
-38.055971 -39.155353 -22.729959 0.000000 63.000000 14.645767 13.000000
-37.880206 -38.061956 -21.977438 0.000000 26.000000 14.326138 0.000000
-38.309409 -38.639936 -22.915034 0.000000 36.000000 14.301458 0.000000
-33.483317 -39.123561 -19.440592 0.000000 45.000000 14.727291 16.000000
-38.295576 -38.713587 -22.998518 0.000000 39.000000 14.291536 0.000000
-36.953014 -37.440272 -20.111903 0.000000 50.000000 14.689328 12.000000
-36.810227 -38.817411 -21.334667 0.000000 69.000000 14.764595 27.000000
-36.082451 -39.176788 -21.036980 0.000000 62.000000 14.874691 27.000000
-33.651038 -39.797106 -20.225329 0.000000 72.000000 14.748912 17.000000
-34.299490 -41.711466 -22.538893 0.000000 55.000000 14.831750 20.000000
-37.883562 -38.535596 -22.492108 0.000000 28.000000 14.315624 0.000000
-37.592378 -40.339305 -23.026023 0.000000 49.000000 15.036725 23.000000
-38.656710 -39.369385 -23.483913 0.000000 40.000000 14.571175 0.000000
-37.922087 -38.700668 -22.659839 0.000000 36.000000 14.335185 0.000000
-38.378297 -39.294329 -23.504817 0.000000 40.000000 14.390154 0.000000
-37.928351 -38.771009 -22.766106 0.000000 35.000000 14.317448 0.000000
-38.410550 -38.798256 -22.941775 0.000000 44.000000 14.431433 0.000000
-37.950925 -38.848944 -22.859089 0.000000 33.000000 14.319939 0.000000
-38.356673 -39.414875 -23.757112 0.000000 36.000000 14.302091 0.000000
-38.376275 -39.490088 -23.849251 0.000000 37.000000 14.302061 0.000000
-36.323431 -39.028864 -21.032185 0.000000 44.000000 14.883907 27.000000
-36.804053 -40.714480 -23.521890 0.000000 47.000000 14.635501 23.000000
-38.423953 -39.638646 -24.038060 0.000000 38.000000 14.301567 0.000000
-35.507052 -41.903010 -24.132769 0.000000 55.000000 14.476851 0.000000
-38.480648 -39.786164 -24.231631 0.000000 41.000000 14.301270 0.000000
-38.120490 -39.289734 -23.456811 0.000000 35.000000 14.307045 0.000000
-36.691247 -37.637494 -19.817349 0.000000 64.000000 14.890484 12.000000
-38.014000 -40.196702 -23.319031 0.000000 43.000000 14.940505 23.000000
-38.553300 -39.929093 -24.421689 0.000000 40.000000 14.306982 0.000000
-35.325431 -38.712478 -20.156922 0.000000 41.000000 14.797728 24.000000
-38.255954 -39.504296 -23.747555 0.000000 32.000000 14.323500 0.000000
-38.298494 -39.569865 -23.856326 0.000000 38.000000 14.316571 0.000000
-36.501487 -39.687402 -21.394733 0.000000 43.000000 15.163904 27.000000
-37.158516 -39.020043 -22.207722 0.000000 34.000000 14.500331 0.000000
-34.354782 -41.016272 -22.005130 0.000000 42.000000 14.734416 9.000000
-38.506891 -39.829221 -24.282200 0.000000 38.000000 14.309028 0.000000
-36.089069 -38.001245 -20.074110 0.000000 40.000000 14.710675 11.000000
-38.623606 -39.950590 -24.495655 0.000000 41.000000 14.304847 0.000000
-37.922085 -37.968766 -21.908048 0.000000 24.000000 14.326460 0.000000
-38.292341 -38.625353 -22.863572 0.000000 36.000000 14.316788 0.000000
-37.823109 -38.023847 -21.906808 0.000000 25.000000 14.320971 0.000000
-36.922326 -39.134939 -21.918851 0.000000 55.000000 14.655046 27.000000
-37.738191 -38.086419 -21.898202 0.000000 27.000000 14.330984 0.000000
-37.232068 -38.016672 -20.941116 0.000000 48.000000 14.667207 12.000000
-37.639873 -38.141946 -21.907361 0.000000 24.000000 14.319570 0.000000
-37.197104 -38.289503 -21.278440 0.000000 55.000000 14.619866 19.000000
-34.359475 -42.866736 -24.284762 0.000000 48.000000 14.521764 29.000000
-37.956807 -38.869827 -22.849884 0.000000 39.000000 14.341853 0.000000
-37.475296 -38.274488 -21.904472 0.000000 28.000000 14.337730 0.000000
-37.768114 -39.256222 -22.781538 0.000000 52.000000 14.556544 13.000000
-35.934510 -37.784535 -20.130682 0.000000 56.000000 14.467668 11.000000
-35.332323 -38.296822 -20.176796 0.000000 30.000000 14.516554 24.000000
-36.224008 -39.989911 -21.961307 0.000000 30.000000 14.889165 25.000000
-36.026533 -40.079036 -23.029462 0.000000 23.000000 14.195739 0.000000
-36.418667 -40.717288 -23.995630 0.000000 28.000000 14.176775 0.000000
-34.377587 -40.195098 -20.944118 0.000000 57.000000 14.870268 15.000000
-36.964793 -37.401664 -20.296512 0.000000 51.000000 14.553783 12.000000
-34.837142 -42.134543 -23.312236 0.000000 51.000000 14.854750 22.000000
-36.434267 -40.903011 -24.086550 0.000000 28.000000 14.248034 0.000000
-36.043958 -40.351843 -23.202011 0.000000 23.000000 14.273702 0.000000
-36.432702 -40.989467 -24.151325 0.000000 31.000000 14.263410 0.000000
-37.837347 -39.904924 -23.072469 0.000000 82.000000 14.828382 23.000000
-35.282857 -39.144042 -20.254640 0.000000 67.000000 15.000595 18.000000
-35.712842 -38.851224 -20.275856 0.000000 51.000000 14.979563 24.000000
-35.830624 -41.883244 -24.075185 0.000000 46.000000 14.638091 8.000000
-35.849618 -38.093545 -20.222281 0.000000 56.000000 14.576175 11.000000
-36.429698 -41.242129 -24.380336 0.000000 33.000000 14.284205 0.000000
-35.203588 -40.257672 -22.207710 0.000000 39.000000 14.474467 10.000000
-36.432354 -41.324946 -24.462214 0.000000 29.000000 14.288319 0.000000
-36.074880 -40.771436 -23.607006 0.000000 25.000000 14.308154 0.000000
-36.119871 -40.862562 -23.659768 0.000000 30.000000 14.353969 0.000000
-38.403270 -38.973679 -23.087373 0.000000 37.000000 14.452027 0.000000
-37.019650 -38.318072 -21.382946 0.000000 54.000000 14.497466 19.000000
-37.250437 -39.649423 -22.258652 0.000000 64.000000 14.919172 26.000000
-36.158734 -41.154400 -24.088493 0.000000 31.000000 14.293477 0.000000
-35.297025 -38.786287 -20.194211 0.000000 63.000000 14.810546 24.000000
-36.215306 -41.301298 -24.293285 0.000000 25.000000 14.285711 0.000000
-36.252611 -41.374194 -24.391826 0.000000 34.000000 14.287727 0.000000
-36.291808 -41.444449 -24.491023 0.000000 28.000000 14.288414 0.000000
-38.881128 -39.347315 -23.922065 0.000000 31.000000 14.378845 0.000000
-38.755752 -39.384596 -23.900366 0.000000 37.000000 14.363228 0.000000
-38.493825 -39.461280 -23.871750 0.000000 28.000000 14.319374 0.000000
-34.662554 -42.242351 -23.505197 0.000000 61.000000 14.730104 22.000000
-37.496166 -39.643743 -22.770288 0.000000 54.000000 14.700745 23.000000
-38.149197 -39.614439 -23.781261 0.000000 33.000000 14.328847 0.000000
-32.495488 -40.547636 -20.449842 0.000000 46.000000 14.605753 1.000000
-35.255786 -38.844599 -20.215468 0.000000 58.000000 14.817771 24.000000
-36.796521 -40.168900 -23.129129 0.000000 31.000000 14.521041 0.000000
-35.155260 -38.315004 -19.587161 0.000000 52.000000 14.821209 3.000000
-35.748329 -41.252091 -23.885678 0.000000 25.000000 14.308780 0.000000
-34.571544 -41.382125 -22.849758 0.000000 44.000000 14.538434 20.000000
-35.231182 -41.630533 -23.688621 0.000000 51.000000 14.458419 22.000000
-36.423201 -39.554956 -21.326177 0.000000 56.000000 15.086727 27.000000
-34.262905 -39.807486 -20.694512 0.000000 59.000000 14.723869 15.000000
-38.270938 -39.452272 -22.778212 0.000000 68.000000 14.901509 13.000000
-35.298355 -41.801450 -24.138431 0.000000 26.000000 14.317800 0.000000
-35.269236 -41.903449 -24.152551 0.000000 34.000000 14.363217 0.000000
-36.068175 -37.953115 -20.240346 0.000000 54.000000 14.566431 11.000000
-37.734167 -37.756344 -21.536544 0.000000 23.000000 14.339459 0.000000
-38.147207 -38.385558 -22.522420 0.000000 35.000000 14.311203 0.000000
-37.748456 -39.393906 -22.191380 0.000000 52.000000 15.006862 19.000000
-38.082997 -38.452272 -22.555829 0.000000 30.000000 14.306518 0.000000
-37.588739 -37.884181 -21.624183 0.000000 25.000000 14.306162 0.000000
-34.075442 -39.613151 -20.448311 0.000000 47.000000 14.670600 17.000000
-34.666242 -41.620964 -23.022398 0.000000 52.000000 14.627137 20.000000
-36.128269 -37.967933 -20.241460 0.000000 43.000000 14.601085 11.000000
-37.697182 -40.074588 -23.228103 0.000000 62.000000 14.782192 23.000000
-33.564264 -39.387718 -19.935584 0.000000 39.000000 14.625275 16.000000
-37.860787 -38.742906 -22.703823 0.000000 39.000000 14.309137 0.000000
-37.818309 -38.819434 -22.739270 0.000000 32.000000 14.318874 0.000000
-34.297252 -40.901542 -21.870866 0.000000 44.000000 14.718736 9.000000
-34.693288 -38.984564 -20.422821 0.000000 37.000000 14.539494 0.000000
-32.956238 -41.511087 -21.931039 0.000000 47.000000 14.506890 28.000000
-36.987520 -39.131755 -22.566642 0.000000 22.000000 14.276086 0.000000
-37.052557 -39.252783 -22.564063 0.000000 27.000000 14.384583 0.000000
-36.505694 -39.531305 -21.792882 0.000000 54.000000 14.814912 27.000000
-34.435079 -40.564662 -21.255462 0.000000 49.000000 14.941875 14.000000
-37.016969 -39.478967 -22.839434 0.000000 29.000000 14.345191 0.000000
-34.955257 -39.206173 -20.763468 0.000000 28.000000 14.583403 18.000000
-36.439344 -37.593720 -19.941188 0.000000 31.000000 14.676922 12.000000
-37.436326 -40.530442 -24.328931 0.000000 40.000000 14.281004 0.000000
-37.514077 -38.577953 -21.375244 0.000000 58.000000 14.883303 19.000000
-37.640284 -39.831103 -22.760696 0.000000 54.000000 14.890757 23.000000
-37.786821 -39.220125 -22.167551 0.000000 76.000000 14.924539 19.000000
-37.413586 -40.642039 -24.418859 0.000000 28.000000 14.288056 0.000000
-38.433605 -38.697453 -23.020975 0.000000 34.000000 14.325905 0.000000
-38.786642 -39.381002 -23.892830 0.000000 40.000000 14.378778 0.000000
-38.337409 -38.753622 -22.979471 0.000000 31.000000 14.347471 0.000000
-36.136695 -40.838327 -23.086474 0.000000 41.000000 14.703489 2.000000
-38.558267 -39.261032 -23.460998 0.000000 54.000000 14.472624 0.000000
-35.702472 -37.450600 -19.710795 0.000000 51.000000 14.412624 0.000000
-38.430626 -39.511002 -23.887280 0.000000 40.000000 14.315183 0.000000
-38.321362 -39.563383 -23.877604 0.000000 39.000000 14.308806 0.000000
-38.226945 -39.625161 -23.851786 0.000000 45.000000 14.324997 0.000000
-38.125036 -39.681746 -23.840605 0.000000 40.000000 14.325449 0.000000
-38.017273 -39.737761 -23.841060 0.000000 27.000000 14.315759 0.000000
-37.579689 -39.131173 -22.885926 0.000000 20.000000 14.329117 0.000000
-37.377719 -40.574362 -23.964624 0.000000 64.000000 14.512292 0.000000
-37.490379 -39.200744 -22.864275 0.000000 17.000000 14.349979 0.000000
-34.289396 -40.217532 -21.389906 0.000000 56.000000 14.568755 14.000000
-37.286277 -40.624256 -23.219634 0.000000 53.000000 14.971303 23.000000
-37.291746 -40.018067 -22.729246 0.000000 66.000000 14.883772 23.000000
-34.734987 -41.791382 -23.288650 0.000000 59.000000 14.601546 22.000000
-37.647323 -37.675965 -20.989154 0.000000 50.000000 14.591824 6.000000
-36.470127 -40.944367 -24.165504 0.000000 30.000000 14.241054 0.000000
-38.756080 -40.300028 -24.031150 0.000000 73.000000 14.880047 7.000000
-38.233738 -39.432014 -22.734975 0.000000 55.000000 14.899394 13.000000
-37.580248 -37.670888 -21.092092 0.000000 59.000000 14.495548 6.000000
-35.150732 -38.208886 -19.415192 0.000000 65.000000 14.857350 3.000000
-38.329801 -39.129860 -23.098434 0.000000 52.000000 14.515832 0.000000
-36.330287 -40.671128 -23.304347 0.000000 26.000000 14.540752 30.000000
-36.237648 -41.295555 -24.306903 0.000000 29.000000 14.282990 0.000000
-36.178794 -41.380795 -24.358058 0.000000 41.000000 14.281614 0.000000
-35.908152 -39.192252 -21.254737 0.000000 48.000000 14.674316 27.000000
-36.146840 -41.580911 -24.380284 0.000000 34.000000 14.384892 0.000000
-39.059859 -39.761595 -24.380288 0.000000 41.000000 14.439691 0.000000
-35.561757 -41.138759 -23.689556 0.000000 23.000000 14.277552 0.000000
-35.466631 -41.207139 -23.817898 0.000000 19.000000 14.201441 0.000000
-35.721783 -38.746428 -20.070787 0.000000 54.000000 15.043001 24.000000
-35.363711 -40.268516 -21.945572 0.000000 71.000000 14.713714 10.000000
-33.662220 -39.090856 -19.605127 0.000000 54.000000 14.679518 16.000000
-37.057311 -37.878839 -20.171863 0.000000 62.000000 14.983085 12.000000
-34.911175 -38.752472 -20.217863 0.000000 31.000000 14.608885 18.000000
-37.360999 -38.899435 -21.415250 0.000000 52.000000 15.003078 19.000000
-37.998536 -38.033993 -22.015552 0.000000 25.000000 14.334581 0.000000
-37.978600 -38.109583 -22.098468 0.000000 28.000000 14.323674 0.000000
-38.427300 -38.703911 -23.014674 0.000000 37.000000 14.331371 0.000000
-37.519720 -40.465328 -23.621415 0.000000 53.000000 14.716090 23.000000
-38.428196 -38.791561 -23.071336 0.000000 33.000000 14.353647 0.000000
-37.949608 -38.262824 -22.266799 0.000000 30.000000 14.306294 0.000000
-38.655114 -39.178144 -23.384825 0.000000 59.000000 14.507393 0.000000
-37.639198 -38.520602 -22.019838 0.000000 44.000000 14.496525 19.000000
-36.847383 -37.714990 -20.015459 0.000000 66.000000 14.884047 12.000000
-37.966972 -38.590592 -22.580277 0.000000 35.000000 14.332109 0.000000
-37.295778 -37.897940 -20.974507 0.000000 41.000000 14.595942 12.000000
-36.078310 -37.859019 -20.273458 0.000000 54.000000 14.488564 11.000000
-37.979609 -38.743121 -22.764754 0.000000 38.000000 14.321953 0.000000
-38.434036 -39.339240 -23.616203 0.000000 34.000000 14.373725 0.000000
-37.984266 -38.817076 -22.867136 0.000000 29.000000 14.308319 0.000000
-38.421505 -39.401998 -23.733040 0.000000 38.000000 14.336400 0.000000
-38.414738 -39.466511 -23.847724 0.000000 39.000000 14.304029 0.000000
-37.631205 -38.758266 -22.003636 0.000000 61.000000 14.658588 19.000000
-38.068268 -39.061595 -23.113871 0.000000 30.000000 14.349874 0.000000
-38.454017 -39.620606 -24.021754 0.000000 36.000000 14.312802 0.000000
-38.471907 -39.693270 -24.119985 0.000000 45.000000 14.306568 0.000000
-33.790448 -39.956275 -20.391849 0.000000 55.000000 14.808455 17.000000
-37.347038 -37.681815 -20.799991 0.000000 53.000000 14.585592 6.000000
-38.521630 -39.838533 -24.310579 0.000000 41.000000 14.303679 0.000000
-37.393324 -39.926840 -23.196479 0.000000 44.000000 14.575606 23.000000
-34.326580 -39.962490 -21.271584 0.000000 40.000000 14.491846 15.000000
-35.279074 -40.394552 -22.169775 0.000000 44.000000 14.619879 10.000000
-38.239241 -39.486482 -23.723422 0.000000 32.000000 14.319796 0.000000
-35.067566 -42.653659 -24.001104 0.000000 61.000000 14.862100 22.000000
-38.325679 -39.627407 -23.923792 0.000000 38.000000 14.323643 0.000000
-34.474464 -38.780570 -20.193975 0.000000 27.000000 14.455675 0.000000
-38.415703 -39.758076 -24.139787 0.000000 34.000000 14.312556 0.000000
-34.978017 -40.381986 -21.684872 0.000000 55.000000 14.786049 10.000000
