53.004161 -54.350574 -16.320541 0.000000 46.000000 14.946910 11.000000
52.880090 -54.870714 -15.455728 0.000000 43.000000 14.335863 22.000000
52.545524 -57.641544 -19.068265 0.000000 39.000000 14.127831 0.000000
53.534932 -58.711512 -17.932215 0.000000 41.000000 14.140976 0.000000
52.149942 -52.615693 -15.653292 0.000000 53.000000 14.714484 7.000000
52.739132 -54.227092 -14.957738 0.000000 51.000000 14.314118 0.000000
52.925330 -58.637958 -19.355155 0.000000 31.000000 14.135066 0.000000
54.563783 -57.518197 -14.342586 0.000000 44.000000 14.293760 0.000000
51.968269 -53.498557 -15.619298 0.000000 23.000000 14.185174 0.000000
53.008966 -54.669048 -16.041538 0.000000 63.000000 14.725583 11.000000
52.996774 -57.704067 -18.185702 0.000000 50.000000 14.186436 0.000000
53.972322 -58.751539 -17.111856 0.000000 66.000000 14.218098 0.000000
53.401090 -55.757578 -15.293927 0.000000 50.000000 14.356516 0.000000
52.224288 -55.085257 -17.213523 0.000000 36.000000 14.284923 0.000000
50.955028 -54.227568 -19.164545 0.000000 32.000000 14.222118 0.000000
54.061085 -56.670419 -14.709769 0.000000 57.000000 14.341714 12.000000
54.466627 -57.360673 -14.247860 0.000000 44.000000 14.244564 0.000000
52.749483 -54.708077 -16.745233 0.000000 44.000000 14.727099 30.000000
53.385631 -56.073568 -15.425719 0.000000 34.000000 14.257547 24.000000
54.402802 -57.282380 -14.301437 0.000000 45.000000 14.240896 0.000000
51.271030 -54.683324 -20.959882 0.000000 40.000000 14.906830 6.000000
53.874920 -58.234312 -16.366753 0.000000 37.000000 14.097787 0.000000
53.955501 -58.338697 -16.501761 0.000000 43.000000 14.168451 0.000000
53.993766 -58.436429 -16.640724 0.000000 67.000000 14.207376 0.000000
53.979332 -58.533102 -16.790411 0.000000 52.000000 14.205753 0.000000
53.948952 -58.628690 -16.941744 0.000000 49.000000 14.191636 0.000000
53.964389 -58.730757 -17.083004 0.000000 67.000000 14.210228 0.000000
53.950852 -58.832372 -17.228863 0.000000 55.000000 14.206036 0.000000
53.744462 -58.916210 -17.413413 0.000000 39.000000 14.058999 0.000000
52.698231 -54.048011 -16.139263 0.000000 60.000000 14.751656 11.000000
52.029883 -53.607991 -16.362487 0.000000 40.000000 14.442725 11.000000
54.501636 -57.484991 -14.266750 0.000000 46.000000 14.229292 0.000000
52.574379 -54.186146 -15.127773 0.000000 29.000000 14.248888 0.000000
53.396412 -56.100872 -15.249922 0.000000 46.000000 14.196148 0.000000
53.426899 -56.128396 -15.208643 0.000000 41.000000 14.196684 0.000000
52.318415 -54.433850 -17.146471 0.000000 45.000000 14.610623 18.000000
52.069213 -55.362678 -19.865199 0.000000 57.000000 14.933169 5.000000
54.727061 -57.521998 -15.542278 0.000000 77.000000 14.834807 23.000000
54.454633 -56.999569 -15.420377 0.000000 76.000000 14.778597 23.000000
52.011916 -55.531211 -18.889589 0.000000 47.000000 14.486288 2.000000
53.264111 -56.380270 -17.370255 0.000000 42.000000 14.683734 9.000000
51.838511 -53.384658 -15.713160 0.000000 32.000000 14.153969 0.000000
53.279554 -58.867353 -19.270025 0.000000 62.000000 14.311558 0.000000
54.218865 -57.784530 -15.726649 0.000000 35.000000 14.358587 23.000000
53.237964 -54.280845 -15.423191 0.000000 47.000000 14.871038 22.000000
51.789980 -53.447676 -15.848621 0.000000 24.000000 14.132572 0.000000
53.633071 -58.669095 -17.444010 0.000000 44.000000 14.076950 0.000000
50.948844 -54.195854 -18.829400 0.000000 27.000000 14.116984 0.000000
53.866217 -58.565905 -17.064031 0.000000 60.000000 14.188730 0.000000
53.910405 -58.503427 -16.892122 0.000000 44.000000 14.193943 0.000000
51.368836 -53.415502 -17.755520 0.000000 60.000000 14.432241 4.000000
53.986914 -58.372597 -16.552459 0.000000 51.000000 14.198147 0.000000
51.971508 -54.903452 -20.248146 0.000000 3.000000 15.168957 5.000000
53.201801 -56.348733 -16.388780 0.000000 37.000000 14.313142 19.000000
54.359991 -57.256402 -14.383101 0.000000 49.000000 14.242907 0.000000
53.311060 -55.955854 -16.425397 0.000000 55.000000 14.579979 19.000000
52.685384 -55.046050 -15.573182 0.000000 34.000000 14.138362 0.000000
54.398984 -57.675452 -16.301113 0.000000 66.000000 14.749668 16.000000
53.365743 -55.879634 -15.156383 0.000000 40.000000 14.229897 0.000000
53.637608 -55.976282 -16.190913 0.000000 65.000000 14.768877 24.000000
54.410478 -57.315236 -14.330201 0.000000 40.000000 14.243539 0.000000
52.994568 -54.569297 -15.045565 0.000000 58.000000 14.418785 22.000000
53.153148 -54.548069 -15.445960 0.000000 40.000000 14.696727 22.000000
54.487625 -57.460294 -14.281884 0.000000 43.000000 14.232721 0.000000
51.432229 -56.045856 -20.216806 0.000000 36.000000 14.230854 0.000000
54.383839 -58.102363 -15.264888 0.000000 41.000000 14.211472 0.000000
53.802717 -56.300786 -16.125564 0.000000 54.000000 14.752760 24.000000
53.452497 -55.489070 -16.043900 0.000000 41.000000 14.763578 25.000000
52.008729 -55.323401 -18.820948 0.000000 61.000000 14.546152 2.000000
54.095769 -56.800675 -15.898006 0.000000 50.000000 14.717914 23.000000
54.359251 -57.914649 -15.594395 0.000000 45.000000 14.379156 27.000000
51.802783 -54.608704 -17.436517 0.000000 45.000000 14.199892 0.000000
51.650329 -54.465677 -17.642303 0.000000 39.000000 14.199221 0.000000
51.485191 -54.317979 -17.857428 0.000000 43.000000 14.192890 0.000000
53.493886 -55.351800 -15.298029 0.000000 48.000000 14.603779 20.000000
51.329441 -54.175254 -18.072897 0.000000 50.000000 14.192569 0.000000
52.091630 -55.547941 -17.905620 0.000000 27.000000 14.215150 0.000000
51.126909 -54.021302 -18.302623 0.000000 44.000000 14.162091 0.000000
51.982511 -52.627253 -15.460966 0.000000 52.000000 14.503179 7.000000
54.712821 -57.045603 -15.090673 0.000000 67.000000 14.866981 26.000000
51.947859 -55.171628 -17.724214 0.000000 40.000000 14.187510 0.000000
54.512126 -57.202283 -15.061295 0.000000 73.000000 14.622607 23.000000
51.595189 -54.839636 -18.348351 0.000000 29.000000 14.236348 0.000000
51.255736 -54.677824 -18.615105 0.000000 45.000000 14.105712 0.000000
52.637103 -53.989954 -16.444112 0.000000 63.000000 14.826632 11.000000
51.083937 -54.480542 -19.040888 0.000000 46.000000 14.185206 0.000000
50.982212 -54.379262 -19.265853 0.000000 50.000000 14.216719 0.000000
50.891422 -54.283175 -19.486018 0.000000 61.000000 14.253725 0.000000
51.844407 -52.873006 -15.443237 0.000000 34.000000 14.278972 7.000000
53.339853 -58.363030 -19.817710 0.000000 81.000000 14.755202 14.000000
54.589352 -57.894620 -15.714347 0.000000 61.000000 14.622595 27.000000
54.311955 -57.722217 -14.789532 0.000000 51.000000 14.147160 0.000000
54.276261 -57.587631 -14.682538 0.000000 54.000000 14.136386 0.000000
52.464350 -57.714472 -19.730167 0.000000 52.000000 14.252188 0.000000
54.338986 -57.195844 -14.348039 0.000000 48.000000 14.238284 0.000000
51.342178 -53.769369 -18.646225 0.000000 41.000000 14.564009 29.000000
51.753067 -54.360415 -17.319185 0.000000 38.000000 14.220657 0.000000
51.585451 -54.105496 -17.512783 0.000000 51.000000 14.249189 0.000000
54.212380 -56.706637 -15.315423 0.000000 68.000000 14.658994 12.000000
53.104694 -55.631921 -16.628222 0.000000 59.000000 14.607287 19.000000
50.866374 -54.253554 -19.644274 0.000000 47.000000 14.298091 0.000000
52.779770 -54.269995 -16.474936 0.000000 64.000000 14.842278 11.000000
54.423674 -57.366505 -14.354282 0.000000 51.000000 14.241682 0.000000
51.163700 -53.422350 -18.551321 0.000000 62.000000 14.524075 29.000000
52.608634 -54.006496 -15.455731 0.000000 41.000000 14.462524 22.000000
54.320478 -57.113286 -15.228298 0.000000 62.000000 14.553409 23.000000
54.478032 -57.985739 -14.646246 0.000000 51.000000 14.130738 0.000000
52.846041 -54.292509 -14.969289 0.000000 44.000000 14.381515 0.000000
54.653698 -57.759290 -14.194724 0.000000 45.000000 14.220587 0.000000
54.045942 -56.744880 -15.255679 0.000000 74.000000 14.482220 12.000000
54.067434 -57.439166 -14.900094 0.000000 47.000000 14.094215 0.000000
52.248751 -52.821545 -15.840970 0.000000 65.000000 14.776484 7.000000
53.023423 -56.220718 -17.447417 0.000000 47.000000 14.571842 9.000000
52.650369 -54.295540 -15.118429 0.000000 31.000000 14.264937 22.000000
51.571229 -55.699052 -19.852878 0.000000 53.000000 14.368834 5.000000
52.091891 -55.517003 -17.877942 0.000000 56.000000 14.218799 0.000000
53.047586 -54.332807 -15.540260 0.000000 54.000000 14.727949 22.000000
51.880202 -55.430409 -18.117714 0.000000 35.000000 14.156179 0.000000
53.268893 -55.144885 -15.469262 0.000000 41.000000 14.556415 21.000000
51.354082 -53.789035 -18.266194 0.000000 61.000000 14.437862 29.000000
54.028095 -56.364726 -15.902878 0.000000 80.000000 14.842067 24.000000
52.221536 -53.089878 -15.669417 0.000000 71.000000 14.584958 7.000000
53.684240 -56.224612 -15.633184 0.000000 67.000000 14.517917 24.000000
54.334021 -57.034006 -15.194730 0.000000 72.000000 14.586250 23.000000
52.049209 -54.092006 -16.879277 0.000000 41.000000 14.433687 18.000000
51.071238 -53.418077 -18.304909 0.000000 46.000000 14.364516 29.000000
52.338663 -52.945779 -15.779717 0.000000 56.000000 14.780696 7.000000
52.320824 -56.458725 -18.423245 0.000000 52.000000 14.208013 0.000000
52.229502 -56.423952 -18.636340 0.000000 46.000000 14.216900 0.000000
51.983899 -52.505812 -15.399000 0.000000 63.000000 14.533546 7.000000
51.953026 -56.342827 -19.099171 0.000000 43.000000 14.172389 0.000000
50.752588 -54.891495 -20.475118 0.000000 46.000000 14.218787 0.000000
51.805039 -56.305029 -19.335545 0.000000 45.000000 14.142413 0.000000
51.542947 -56.248405 -19.606766 0.000000 28.000000 14.035378 0.000000
51.587969 -56.249687 -19.794418 0.000000 42.000000 14.136212 0.000000
51.742952 -55.022668 -19.570092 0.000000 48.000000 14.697781 5.000000
53.127107 -58.338248 -20.008895 0.000000 37.000000 14.649818 14.000000
54.422152 -57.415867 -14.978641 0.000000 55.000000 14.430513 23.000000
52.619442 -54.503856 -16.901321 0.000000 61.000000 14.753880 30.000000
51.910163 -55.251706 -17.995243 0.000000 30.000000 14.213948 0.000000
52.775801 -54.173112 -15.440443 0.000000 63.000000 14.530137 22.000000
51.768055 -53.343872 -15.716623 0.000000 30.000000 14.112328 0.000000
51.149704 -54.678260 -19.186366 0.000000 47.000000 14.208370 0.000000
52.910872 -54.968348 -16.052345 0.000000 36.000000 14.522774 11.000000
51.924533 -53.003838 -15.217617 0.000000 30.000000 14.216772 0.000000
53.289670 -54.302558 -15.454594 0.000000 47.000000 14.916430 22.000000
53.202702 -55.661050 -16.456754 0.000000 48.000000 14.620420 19.000000
51.203141 -54.534718 -18.804640 0.000000 26.000000 14.184110 0.000000
50.929950 -54.222106 -19.208160 0.000000 47.000000 14.217850 0.000000
52.081496 -55.605009 -17.959237 0.000000 48.000000 14.201113 0.000000
54.720115 -57.951329 -15.471532 0.000000 52.000000 14.628023 27.000000
52.273343 -55.753382 -17.751301 0.000000 48.000000 14.232194 0.000000
52.967158 -55.361518 -16.794673 0.000000 54.000000 14.658513 19.000000
51.223742 -54.635505 -18.593606 0.000000 37.000000 14.088839 0.000000
51.084625 -53.941144 -20.286897 0.000000 52.000000 14.828277 3.000000
53.556842 -57.476365 -17.256603 0.000000 57.000000 14.441140 10.000000
52.907099 -55.344371 -16.506858 0.000000 63.000000 14.517729 19.000000
52.147138 -55.354417 -17.498274 0.000000 41.000000 14.204618 0.000000
53.178603 -56.605772 -16.422321 0.000000 45.000000 14.198813 0.000000
54.120933 -56.837156 -15.480086 0.000000 73.000000 14.583283 23.000000
53.479970 -56.829956 -16.044663 0.000000 44.000000 14.234105 0.000000
52.527071 -55.703708 -16.895571 0.000000 54.000000 14.178945 0.000000
54.298149 -57.538891 -14.638135 0.000000 44.000000 14.160042 0.000000
54.478231 -57.625955 -14.458607 0.000000 48.000000 14.216027 0.000000
53.713920 -58.929176 -18.634159 0.000000 35.000000 14.439325 28.000000
52.258380 -54.919069 -17.205800 0.000000 36.000000 14.379708 0.000000
53.935823 -58.415064 -16.944399 0.000000 35.000000 14.269519 0.000000
52.995493 -54.357644 -16.310194 0.000000 58.000000 14.933170 11.000000
51.404443 -55.130714 -20.661354 0.000000 56.000000 14.734603 6.000000
52.129808 -53.380795 -15.162396 0.000000 28.000000 14.216431 0.000000
54.312766 -56.845737 -14.829484 0.000000 54.000000 14.522776 12.000000
53.292114 -56.683875 -16.297992 0.000000 57.000000 14.220759 0.000000
53.687283 -58.945077 -18.994493 0.000000 49.000000 14.531696 28.000000
54.247294 -57.347112 -16.248126 0.000000 68.000000 14.738832 16.000000
51.552744 -55.189606 -18.431185 0.000000 16.000000 14.084021 0.000000
52.873096 -56.668807 -17.300572 0.000000 51.000000 14.210320 0.000000
52.678778 -55.189489 -16.590485 0.000000 42.000000 14.416557 30.000000
52.652621 -56.670464 -17.721077 0.000000 42.000000 14.164797 0.000000
51.853221 -55.492211 -18.578876 0.000000 35.000000 14.263319 2.000000
53.979951 -56.716868 -15.807940 0.000000 49.000000 14.624094 23.000000
52.384866 -56.702743 -18.351515 0.000000 45.000000 14.137401 0.000000
51.355388 -54.165177 -18.035194 0.000000 28.000000 14.205974 0.000000
52.399458 -56.736908 -18.538736 0.000000 58.000000 14.198774 0.000000
53.206315 -57.932387 -17.612463 0.000000 31.000000 14.076376 0.000000
53.032998 -55.192329 -16.077312 0.000000 68.000000 14.542181 25.000000
54.483743 -56.231138 -15.027939 0.000000 45.000000 14.987841 12.000000
51.773022 -55.817260 -19.591931 0.000000 28.000000 14.402902 0.000000
53.953995 -56.147391 -15.155796 0.000000 65.000000 14.617135 20.000000
52.125359 -56.801409 -19.187441 0.000000 46.000000 14.158877 0.000000
52.765160 -54.890077 -15.725582 0.000000 39.000000 14.321578 0.000000
54.575147 -57.392141 -15.212818 0.000000 64.000000 14.648726 23.000000
51.205187 -54.125746 -20.677480 0.000000 48.000000 14.985851 3.000000
52.472379 -54.526828 -16.588555 0.000000 44.000000 14.514506 30.000000
53.051683 -54.568142 -15.639572 0.000000 50.000000 14.667844 22.000000
51.888638 -56.896079 -19.834780 0.000000 43.000000 14.137713 0.000000
51.114230 -53.987683 -20.204096 0.000000 59.000000 14.806227 3.000000
51.782585 -56.982279 -20.254424 0.000000 44.000000 14.153872 0.000000
52.844214 -58.242957 -19.136491 0.000000 42.000000 14.155600 0.000000
53.226945 -58.647493 -19.507865 0.000000 31.000000 14.437881 14.000000
52.513584 -56.178923 -17.702933 0.000000 30.000000 14.243720 0.000000
52.596259 -53.867779 -16.298021 0.000000 69.000000 14.793200 11.000000
51.657144 -56.422741 -19.913820 0.000000 45.000000 14.163641 0.000000
51.049160 -53.984250 -20.302756 0.000000 61.000000 14.785830 3.000000
51.735419 -56.575753 -19.505272 0.000000 19.000000 14.029061 0.000000
53.686952 -55.795046 -15.212348 0.000000 42.000000 14.555498 20.000000
53.418853 -55.388784 -16.105655 0.000000 53.000000 14.797280 25.000000
51.252192 -55.601552 -20.013495 0.000000 47.000000 14.193175 0.000000
52.340927 -56.868084 -18.773594 0.000000 50.000000 14.174312 0.000000
54.628564 -56.945995 -14.933509 0.000000 63.000000 14.783768 26.000000
52.486537 -56.948402 -18.551148 0.000000 53.000000 14.189436 0.000000
51.382224 -55.748251 -19.571758 0.000000 29.000000 14.093815 0.000000
52.593552 -57.020189 -18.337560 0.000000 46.000000 14.178399 0.000000
52.468803 -58.112598 -20.203578 0.000000 53.000000 14.251360 0.000000
51.433951 -54.722266 -21.028054 0.000000 46.000000 15.051638 6.000000
51.805503 -55.941238 -19.058113 0.000000 55.000000 14.199309 0.000000
52.794083 -57.151866 -17.920652 0.000000 52.000000 14.153270 0.000000
53.237178 -55.103636 -14.806851 0.000000 40.000000 14.323281 0.000000
52.900799 -57.215609 -17.711623 0.000000 53.000000 14.146834 0.000000
52.587661 -56.136422 -17.617563 0.000000 52.000000 14.295163 0.000000
54.758329 -57.620331 -15.099306 0.000000 84.000000 14.671388 23.000000
52.065089 -56.132126 -18.407973 0.000000 37.000000 14.121116 0.000000
52.215261 -54.014028 -15.931161 0.000000 45.000000 14.286764 11.000000
52.296919 -56.256171 -17.967524 0.000000 44.000000 14.117687 0.000000
52.525904 -57.315569 -19.044300 0.000000 32.000000 14.237579 0.000000
54.746080 -57.407645 -15.727733 0.000000 87.000000 14.960581 23.000000
52.933786 -56.229221 -17.450985 0.000000 33.000000 14.493675 9.000000
54.096559 -56.813800 -15.949472 0.000000 65.000000 14.730519 23.000000
51.455664 -53.168082 -17.408688 0.000000 39.000000 14.490844 17.000000
53.053521 -58.721051 -20.094007 0.000000 43.000000 14.458364 14.000000
51.624151 -55.200110 -19.781650 0.000000 46.000000 14.595376 5.000000
54.277837 -57.554260 -16.515485 0.000000 52.000000 14.769383 16.000000
54.386873 -57.844347 -14.630409 0.000000 38.000000 14.106558 0.000000
54.721134 -57.903940 -14.256030 0.000000 48.000000 14.238673 0.000000
51.525560 -53.409452 -18.501135 0.000000 65.000000 14.818731 29.000000
54.164861 -56.947516 -14.438362 0.000000 52.000000 14.223775 0.000000
53.184123 -58.439555 -19.627993 0.000000 59.000000 14.527889 14.000000
53.287841 -57.968987 -17.546098 0.000000 37.000000 14.107908 0.000000
51.374904 -55.263244 -20.826933 0.000000 32.000000 14.710766 6.000000
51.521019 -53.390776 -18.166387 0.000000 40.000000 14.709744 4.000000
53.230558 -58.223766 -18.038664 0.000000 48.000000 14.120404 0.000000
52.298592 -54.102374 -17.019929 0.000000 40.000000 14.687888 18.000000
53.265892 -58.813239 -18.966411 0.000000 34.000000 14.219961 0.000000
53.647300 -58.942072 -18.977874 0.000000 46.000000 14.493493 28.000000
54.276089 -57.640687 -16.563200 0.000000 42.000000 14.748346 16.000000
52.822739 -54.074581 -16.295740 0.000000 72.000000 14.898825 11.000000
53.830512 -56.666833 -15.423031 0.000000 27.000000 14.388496 24.000000
53.235848 -59.360231 -19.727756 0.000000 47.000000 14.225609 0.000000
53.664809 -59.170007 -19.067773 0.000000 42.000000 14.444617 28.000000
54.196744 -56.477958 -15.849387 0.000000 82.000000 14.920072 24.000000
52.241884 -53.527712 -15.140676 0.000000 43.000000 14.243374 0.000000
52.734488 -54.290212 -15.245681 0.000000 57.000000 14.381224 22.000000
52.199376 -53.024413 -15.537065 0.000000 73.000000 14.548585 7.000000
52.252504 -53.552396 -15.072512 0.000000 41.000000 14.219204 0.000000
52.091041 -53.339786 -15.199940 0.000000 51.000000 14.213189 0.000000
52.028610 -57.474744 -20.222958 0.000000 51.000000 14.148393 0.000000
54.196140 -56.757983 -15.498069 0.000000 63.000000 14.685646 23.000000
53.446033 -54.864068 -15.314337 0.000000 40.000000 14.769917 21.000000
51.698288 -53.361143 -16.200587 0.000000 37.000000 14.209306 0.000000
51.609612 -56.316558 -20.386814 0.000000 33.000000 14.326653 0.000000
53.179853 -57.789169 -19.389661 0.000000 62.000000 14.712151 15.000000
54.410073 -57.919124 -16.068898 0.000000 41.000000 14.580282 16.000000
53.273785 -54.362648 -15.275142 0.000000 66.000000 14.817710 22.000000
51.364417 -54.587391 -20.626900 0.000000 46.000000 14.913179 3.000000
52.791232 -57.548832 -18.440465 0.000000 45.000000 14.162380 0.000000
53.641116 -58.630047 -17.426965 0.000000 39.000000 14.094115 0.000000
52.875363 -57.545624 -18.228625 0.000000 44.000000 14.163494 0.000000
53.837190 -58.635139 -17.205584 0.000000 57.000000 14.183330 0.000000
53.683258 -58.424563 -17.359158 0.000000 31.000000 14.191665 0.000000
51.512661 -54.746739 -21.042320 0.000000 35.000000 15.112970 6.000000
52.842736 -57.505026 -17.863712 0.000000 45.000000 14.029607 0.000000
52.493067 -54.703742 -17.108605 0.000000 67.000000 14.634368 30.000000
53.727450 -55.684257 -15.286816 0.000000 49.000000 14.660567 20.000000
54.071167 -58.601810 -16.629789 0.000000 65.000000 14.200994 0.000000
52.063046 -52.549266 -15.885512 0.000000 59.000000 14.746619 7.000000
51.405165 -53.474375 -17.627070 0.000000 54.000000 14.395408 4.000000
53.394955 -57.378506 -17.213787 0.000000 50.000000 14.330053 10.000000
54.174598 -58.536591 -16.088774 0.000000 40.000000 14.133047 0.000000
54.162789 -57.012056 -14.497083 0.000000 53.000000 14.215200 0.000000
54.366591 -56.944506 -14.736955 0.000000 73.000000 14.496406 26.000000
54.685361 -57.550634 -15.656837 0.000000 74.000000 14.826324 23.000000
51.937382 -52.925950 -15.117766 0.000000 41.000000 14.226106 0.000000
52.070914 -53.166126 -15.049911 0.000000 43.000000 14.217196 0.000000
51.633500 -53.293276 -17.020260 0.000000 43.000000 14.458781 17.000000
54.729529 -57.768828 -16.403194 0.000000 50.000000 15.025324 16.000000
51.319853 -55.033930 -20.862252 0.000000 54.000000 14.770650 6.000000
52.962875 -54.497392 -14.830476 0.000000 47.000000 14.349107 0.000000
51.987577 -53.723288 -15.937367 0.000000 51.000000 14.216060 0.000000
53.145098 -55.208075 -15.995258 0.000000 57.000000 14.602901 25.000000
51.466800 -53.154665 -16.474425 0.000000 42.000000 14.190855 0.000000
52.373490 -54.522173 -15.659143 0.000000 37.000000 14.119420 0.000000
53.433120 -54.565780 -15.414362 0.000000 57.000000 14.915722 22.000000
53.299804 -59.545840 -19.658531 0.000000 56.000000 14.179856 0.000000
53.371434 -59.503826 -19.454000 0.000000 57.000000 14.188857 0.000000
52.586307 -55.757229 -17.203974 0.000000 52.000000 14.310972 0.000000
53.653050 -59.200127 -18.317379 0.000000 53.000000 14.169281 0.000000
52.976842 -55.536499 -16.680905 0.000000 66.000000 14.556194 19.000000
53.637118 -57.540894 -16.784682 0.000000 49.000000 14.323380 10.000000
54.032178 -58.648751 -16.832737 0.000000 33.000000 14.217052 0.000000
53.183190 -54.384067 -15.431890 0.000000 74.000000 14.785044 22.000000
53.522710 -57.058929 -16.280194 0.000000 48.000000 14.255249 0.000000
53.967726 -58.837057 -17.244647 0.000000 63.000000 14.223705 0.000000
52.749155 -54.253198 -15.293646 0.000000 69.000000 14.425072 22.000000
51.118463 -54.754884 -19.434860 0.000000 37.000000 14.234099 0.000000
51.349081 -55.067618 -19.805673 0.000000 30.000000 14.425312 5.000000
52.878977 -56.643332 -17.482632 0.000000 50.000000 14.287178 0.000000
54.437570 -57.975091 -16.016042 0.000000 40.000000 14.562654 16.000000
52.861742 -57.674158 -19.518636 0.000000 50.000000 14.533831 15.000000
54.355807 -57.336863 -14.490365 0.000000 52.000000 14.242343 0.000000
52.910992 -54.659584 -15.943590 0.000000 63.000000 14.613548 11.000000
54.573445 -57.315548 -15.586069 0.000000 42.000000 14.804698 23.000000
51.533951 -53.043444 -16.113802 0.000000 49.000000 14.171986 0.000000
52.922998 -54.811849 -15.874311 0.000000 72.000000 14.537560 11.000000
52.861766 -54.907383 -16.087963 0.000000 70.000000 14.518364 11.000000
52.263655 -54.140865 -16.758203 0.000000 64.000000 14.554216 18.000000
51.713715 -55.535880 -18.462687 0.000000 12.000000 14.088072 0.000000
51.804520 -55.216173 -18.190144 0.000000 21.000000 14.204895 0.000000
52.657850 -54.919946 -15.645277 0.000000 50.000000 14.191368 0.000000
53.236475 -55.938248 -15.270241 0.000000 42.000000 14.134704 0.000000
52.109503 -53.976719 -16.949479 0.000000 49.000000 14.555926 18.000000
52.157289 -54.450256 -16.420698 0.000000 50.000000 14.222826 0.000000
51.782445 -55.502701 -20.096581 0.000000 38.000000 14.710723 5.000000
52.891772 -54.383580 -14.883725 0.000000 45.000000 14.353817 0.000000
52.227574 -57.258711 -19.493830 0.000000 28.000000 14.160080 0.000000
51.662665 -54.722549 -17.867268 0.000000 47.000000 14.179565 0.000000
52.909132 -54.023960 -15.657754 0.000000 85.000000 14.777748 22.000000
52.051776 -54.635848 -18.258646 0.000000 42.000000 14.676575 1.000000
51.024707 -54.324578 -19.000071 0.000000 42.000000 14.185638 0.000000
52.738528 -56.131805 -17.307666 0.000000 35.000000 14.320283 9.000000
54.688500 -57.925742 -14.309643 0.000000 52.000000 14.220136 0.000000
53.568475 -58.756970 -20.093525 0.000000 59.000000 14.879212 13.000000
52.183274 -54.529932 -16.419238 0.000000 49.000000 14.211468 0.000000
54.152415 -56.951499 -14.433164 0.000000 48.000000 14.209846 0.000000
53.681684 -56.108818 -15.080418 0.000000 37.000000 14.377166 20.000000
53.148359 -57.574760 -19.327914 0.000000 43.000000 14.753103 15.000000
53.922964 -57.454835 -17.014340 0.000000 64.000000 14.678212 10.000000
53.432381 -56.253211 -16.192656 0.000000 47.000000 14.481569 24.000000
52.775722 -53.729152 -15.632757 0.000000 49.000000 14.777991 22.000000
52.165287 -55.265874 -17.372863 0.000000 50.000000 14.214216 0.000000
53.106008 -56.571992 -16.515313 0.000000 41.000000 14.182652 0.000000
51.095136 -53.422757 -18.299114 0.000000 50.000000 14.380857 29.000000
53.344200 -56.022110 -16.681942 0.000000 37.000000 14.667186 19.000000
51.891070 -55.187407 -17.823610 0.000000 45.000000 14.166447 0.000000
51.791876 -55.159340 -18.044814 0.000000 55.000000 14.168640 0.000000
52.160391 -57.584362 -20.192569 0.000000 28.000000 14.204473 0.000000
52.452846 -56.892932 -18.626437 0.000000 35.000000 14.209178 0.000000
52.663491 -56.491780 -17.523860 0.000000 39.000000 14.181202 0.000000
53.666882 -55.711892 -15.115082 0.000000 58.000000 14.540016 20.000000
51.297129 -53.219816 -17.901199 0.000000 74.000000 14.501364 4.000000
52.368636 -56.454490 -17.966078 0.000000 36.000000 14.096109 0.000000
51.355299 -55.077673 -19.161530 0.000000 57.000000 14.209283 0.000000
52.182216 -56.432339 -18.201200 0.000000 25.000000 14.026732 0.000000
52.509094 -53.918576 -15.261628 0.000000 47.000000 14.349105 22.000000
52.281534 -56.483609 -18.560742 0.000000 43.000000 14.210849 0.000000
51.582554 -55.068446 -19.565913 0.000000 43.000000 14.541742 5.000000
51.460626 -53.912519 -17.786942 0.000000 60.000000 14.315550 0.000000
52.461617 -53.664975 -15.456930 0.000000 67.000000 14.479346 22.000000
50.796508 -55.061150 -20.577508 0.000000 47.000000 14.220509 0.000000
51.717669 -56.479098 -19.487471 0.000000 24.000000 14.047898 0.000000
52.853767 -54.249266 -15.247123 0.000000 69.000000 14.499548 22.000000
53.071863 -58.963975 -19.863023 0.000000 41.000000 14.295839 13.000000
52.062858 -52.636402 -15.364951 0.000000 45.000000 14.535039 7.000000
50.875483 -54.101860 -20.136935 0.000000 31.000000 14.534439 3.000000
52.667204 -54.858120 -16.852158 0.000000 50.000000 14.631631 30.000000
54.599023 -57.850596 -15.262177 0.000000 52.000000 14.496506 23.000000
51.141506 -54.540994 -18.844528 0.000000 37.000000 14.142804 0.000000
52.162774 -52.660018 -15.836556 0.000000 64.000000 14.768844 7.000000
51.515628 -54.845299 -18.398686 0.000000 29.000000 14.183645 0.000000
54.391251 -57.292073 -15.745033 0.000000 52.000000 14.713770 23.000000
52.628764 -53.742253 -15.674211 0.000000 65.000000 14.662186 22.000000
52.332729 -57.959441 -20.216896 0.000000 34.000000 14.203847 0.000000
51.986615 -53.700142 -16.215925 0.000000 46.000000 14.318695 11.000000
52.084183 -55.363790 -17.569312 0.000000 40.000000 14.171419 0.000000
50.829817 -53.928757 -19.828086 0.000000 42.000000 14.463062 3.000000
54.117884 -56.837158 -15.440229 0.000000 63.000000 14.567265 23.000000
52.974345 -54.110204 -16.298131 0.000000 77.000000 15.013249 11.000000
52.412569 -55.610971 -17.152093 0.000000 61.000000 14.206758 0.000000
53.727267 -55.706023 -15.280638 0.000000 65.000000 14.649353 20.000000
52.421278 -55.696933 -16.976494 0.000000 47.000000 14.119483 0.000000
54.107725 -57.927415 -15.735728 0.000000 27.000000 14.208660 0.000000
53.452350 -58.626270 -19.547680 0.000000 48.000000 14.650824 14.000000
51.357520 -54.777810 -20.994783 0.000000 44.000000 14.952830 6.000000
53.049683 -57.652888 -19.582286 0.000000 51.000000 14.723121 15.000000
54.338761 -57.267934 -14.680392 0.000000 59.000000 14.320402 26.000000
53.865538 -55.487347 -15.202895 0.000000 66.000000 14.830351 20.000000
54.351338 -57.517856 -14.559615 0.000000 44.000000 14.187264 0.000000
53.056496 -54.477759 -15.238929 0.000000 40.000000 14.574131 22.000000
52.805499 -56.527562 -16.787203 0.000000 39.000000 14.038300 0.000000
52.853546 -56.694214 -17.314700 0.000000 51.000000 14.188060 0.000000
52.773354 -56.737637 -17.509390 0.000000 43.000000 14.167914 0.000000
53.205380 -55.276500 -15.896003 0.000000 57.000000 14.592241 25.000000
51.679866 -55.635934 -19.491430 0.000000 50.000000 14.364960 5.000000
52.510768 -56.814349 -17.923324 0.000000 26.000000 14.053583 0.000000
53.660043 -58.977956 -19.057581 0.000000 26.000000 14.516350 28.000000
52.639583 -57.939324 -19.703110 0.000000 47.000000 14.298644 0.000000
53.564359 -58.121836 -17.178081 0.000000 41.000000 14.154839 0.000000
52.557368 -56.954871 -18.267261 0.000000 45.000000 14.151014 0.000000
52.904439 -58.085377 -19.247170 0.000000 61.000000 14.308867 0.000000
52.505104 -57.015485 -18.454611 0.000000 47.000000 14.144941 0.000000
53.519422 -58.249384 -17.514841 0.000000 47.000000 14.177731 0.000000
51.566881 -55.744683 -19.426581 0.000000 26.000000 14.202628 0.000000
54.581547 -58.290905 -16.166463 0.000000 58.000000 14.604973 16.000000
51.410631 -53.804447 -18.463979 0.000000 45.000000 14.546041 29.000000
50.828007 -54.096814 -20.262312 0.000000 67.000000 14.538605 3.000000
52.900838 -57.557416 -19.209031 0.000000 43.000000 14.510694 15.000000
51.634135 -54.623155 -18.295709 0.000000 40.000000 14.340840 1.000000
52.303600 -57.288117 -19.213844 0.000000 53.000000 14.117911 0.000000
54.288000 -57.503492 -16.485264 0.000000 39.000000 14.788733 16.000000
52.222035 -57.622248 -19.933661 0.000000 51.000000 14.153740 0.000000
53.314092 -58.857570 -18.865468 0.000000 36.000000 14.208444 0.000000
52.182748 -57.708643 -20.115092 0.000000 50.000000 14.146023 0.000000
52.001760 -52.501215 -15.610508 0.000000 54.000000 14.621860 7.000000
52.076417 -53.624334 -16.895481 0.000000 52.000000 14.655045 17.000000
52.907299 -54.912449 -16.031005 0.000000 76.000000 14.535609 11.000000
53.172773 -59.315620 -19.690592 0.000000 47.000000 14.178096 0.000000
51.419039 -56.266874 -20.266019 0.000000 45.000000 14.145133 0.000000
51.552972 -56.353090 -20.026804 0.000000 45.000000 14.142288 0.000000
51.656547 -56.429927 -19.800220 0.000000 44.000000 14.121877 0.000000
53.231931 -55.092010 -16.068112 0.000000 55.000000 14.748815 25.000000
50.851751 -55.260515 -20.557816 0.000000 45.000000 14.178407 0.000000
51.552600 -53.200447 -17.353451 0.000000 42.000000 14.540916 17.000000
52.117390 -56.670110 -19.088168 0.000000 52.000000 14.172815 0.000000
53.145455 -58.202999 -18.679651 0.000000 40.000000 14.273025 8.000000
53.167263 -58.525132 -19.903535 0.000000 78.000000 14.571215 14.000000
52.487655 -56.865523 -18.419989 0.000000 52.000000 14.180346 0.000000
52.436034 -56.895053 -18.242250 0.000000 37.000000 14.064562 0.000000
52.699950 -55.524009 -16.516466 0.000000 54.000000 14.271567 19.000000
52.552248 -56.951142 -18.024239 0.000000 31.000000 14.066294 0.000000
51.757834 -55.769628 -18.866950 0.000000 43.000000 14.165294 0.000000
52.702553 -57.009605 -17.802017 0.000000 42.000000 14.094480 0.000000
51.954016 -55.970671 -18.664444 0.000000 28.000000 14.180154 0.000000
52.433571 -54.570754 -16.769156 0.000000 44.000000 14.524428 30.000000
51.779408 -52.725530 -15.310883 0.000000 37.000000 14.240162 0.000000
53.512051 -54.777289 -15.262791 0.000000 57.000000 14.844202 21.000000
51.964543 -55.904536 -18.223056 0.000000 27.000000 14.067541 0.000000
53.850774 -57.595513 -17.272801 0.000000 36.000000 14.646228 10.000000
51.865561 -55.138173 -17.915471 0.000000 25.000000 14.196129 0.000000
54.424458 -57.163240 -15.858296 0.000000 60.000000 14.833187 23.000000
53.942736 -56.132980 -15.071793 0.000000 45.000000 14.585232 20.000000
52.409941 -57.905201 -19.999724 0.000000 30.000000 14.218352 0.000000
54.305715 -57.473448 -14.658003 0.000000 42.000000 14.200133 0.000000
54.384311 -57.479135 -14.475867 0.000000 56.000000 14.202907 0.000000
51.332475 -55.365622 -20.623484 0.000000 55.000000 14.564052 6.000000
54.092207 -56.890994 -14.575074 0.000000 55.000000 14.231681 0.000000
53.733141 -58.052511 -16.547754 0.000000 38.000000 14.113787 0.000000
50.985742 -54.426616 -19.450746 0.000000 49.000000 14.262506 0.000000
54.762208 -57.680872 -15.402472 0.000000 49.000000 14.751903 23.000000
54.497828 -56.610257 -14.963383 0.000000 44.000000 14.821651 12.000000
53.835277 -56.207850 -15.535477 0.000000 61.000000 14.619720 24.000000
54.844366 -56.831217 -15.043817 0.000000 14.000000 15.050929 26.000000
53.763241 -58.727165 -17.363419 0.000000 40.000000 14.136001 0.000000
52.709297 -55.358086 -16.533122 0.000000 42.000000 14.353520 0.000000
53.644561 -58.954602 -17.651348 0.000000 43.000000 14.038826 0.000000
52.729320 -54.297121 -15.234492 0.000000 54.000000 14.370230 22.000000
52.598139 -54.331648 -16.088374 0.000000 60.000000 14.532818 11.000000
52.779029 -54.926842 -15.545103 0.000000 29.000000 14.257312 0.000000
53.076964 -58.887836 -19.376341 0.000000 52.000000 14.167491 0.000000
52.125448 -57.729370 -20.279758 0.000000 47.000000 14.144489 0.000000
54.640245 -57.809942 -15.203956 0.000000 74.000000 14.528532 23.000000
52.229659 -57.739072 -20.046057 0.000000 45.000000 14.149904 0.000000
53.068917 -54.328321 -16.248801 0.000000 57.000000 14.986708 11.000000
53.880658 -58.003689 -17.220239 0.000000 52.000000 14.485470 10.000000
53.846060 -57.881321 -17.107827 0.000000 78.000000 14.468758 10.000000
53.545934 -58.877001 -18.134175 0.000000 43.000000 14.150122 0.000000
54.260710 -57.634151 -15.987584 0.000000 42.000000 14.543981 16.000000
54.117704 -56.290396 -14.835831 0.000000 70.000000 14.588850 12.000000
52.281686 -54.330596 -17.016358 0.000000 62.000000 14.578258 18.000000
53.570027 -58.841565 -17.762870 0.000000 43.000000 14.059957 0.000000
52.842471 -57.722142 -18.515368 0.000000 42.000000 14.159523 0.000000
53.575768 -58.820080 -17.580109 0.000000 34.000000 14.012066 0.000000
53.806056 -58.812454 -20.121302 0.000000 53.000000 15.066767 13.000000
52.732475 -55.126428 -16.495983 0.000000 57.000000 14.456152 30.000000
51.920124 -54.848198 -17.586330 0.000000 27.000000 14.250937 0.000000
53.930226 -58.804239 -17.148608 0.000000 58.000000 14.173127 0.000000
54.350370 -57.298159 -16.376186 0.000000 59.000000 14.889428 16.000000
53.376707 -57.554584 -17.519059 0.000000 30.000000 14.344904 0.000000
53.005082 -57.635700 -17.730174 0.000000 24.000000 14.068100 0.000000
53.256745 -57.637975 -17.492553 0.000000 50.000000 14.200050 0.000000
52.205102 -54.846989 -17.109212 0.000000 40.000000 14.331783 30.000000
54.499892 -57.594691 -14.300458 0.000000 48.000000 14.193939 0.000000
53.077832 -56.655361 -16.925921 0.000000 43.000000 14.262843 9.000000
52.674100 -57.709587 -19.071813 0.000000 33.000000 14.209785 0.000000
51.550888 -53.861173 -17.719438 0.000000 39.000000 14.390361 0.000000
53.641457 -55.414680 -14.977471 0.000000 46.000000 14.594679 20.000000
52.330190 -53.613377 -14.933066 0.000000 43.000000 14.212795 0.000000
52.200734 -53.457969 -15.104068 0.000000 41.000000 14.224968 0.000000
52.044016 -53.292207 -15.285460 0.000000 60.000000 14.221841 0.000000
53.487812 -58.639949 -18.654164 0.000000 37.000000 14.373984 8.000000
51.311251 -54.345099 -20.430523 0.000000 59.000000 14.901904 3.000000
53.217749 -55.205278 -16.080999 0.000000 71.000000 14.694445 25.000000
53.444197 -54.889494 -15.255761 0.000000 44.000000 14.738132 21.000000
53.728148 -55.221020 -15.258662 0.000000 69.000000 14.842705 20.000000
54.383470 -58.009091 -14.806907 0.000000 43.000000 14.095236 0.000000
53.195715 -55.479440 -16.441921 0.000000 63.000000 14.684402 19.000000
54.477730 -57.207012 -14.985126 0.000000 73.000000 14.565869 26.000000
51.515872 -54.564931 -20.997857 0.000000 3.000000 15.175676 6.000000
54.526095 -57.612630 -14.260856 0.000000 46.000000 14.195368 0.000000
52.891836 -54.132481 -16.299603 0.000000 63.000000 14.934728 11.000000
51.852121 -55.457909 -18.724012 0.000000 38.000000 14.325461 2.000000
52.168177 -53.367285 -15.056582 0.000000 36.000000 14.218805 0.000000
53.688807 -57.534587 -16.858198 0.000000 65.000000 14.394510 10.000000
51.976515 -52.665547 -15.419245 0.000000 57.000000 14.468248 7.000000
53.571675 -58.542057 -18.626122 0.000000 47.000000 14.475877 8.000000
52.839727 -54.594054 -14.793540 0.000000 42.000000 14.192568 0.000000
52.069276 -54.091485 -15.807088 0.000000 38.000000 14.089442 0.000000
52.860827 -54.128716 -16.290888 0.000000 70.000000 14.907099 11.000000
52.990227 -58.430444 -20.119323 0.000000 32.000000 14.533176 14.000000
51.807887 -54.768707 -17.499131 0.000000 37.000000 14.159334 0.000000
51.709323 -54.725446 -17.715505 0.000000 47.000000 14.166698 0.000000
53.551875 -58.463033 -18.729242 0.000000 49.000000 14.526472 8.000000
51.188865 -54.542440 -18.629568 0.000000 50.000000 14.109825 0.000000
52.036512 -55.621186 -19.741167 0.000000 39.000000 14.757073 5.000000
51.054998 -54.499631 -19.071473 0.000000 43.000000 14.163152 0.000000
53.415157 -55.347841 -15.846332 0.000000 53.000000 14.723617 25.000000
52.134812 -56.411883 -18.884241 0.000000 31.000000 14.225307 0.000000
51.344857 -53.036645 -16.637599 0.000000 44.000000 14.191328 0.000000
51.508079 -53.205514 -16.439463 0.000000 39.000000 14.193035 0.000000
54.676817 -57.212760 -15.536129 0.000000 51.000000 14.917740 23.000000
51.735287 -54.705496 -17.721514 0.000000 33.000000 14.198925 0.000000
51.955366 -53.677172 -15.861798 0.000000 47.000000 14.182342 0.000000
54.350983 -57.219538 -15.916246 0.000000 73.000000 14.767320 23.000000
51.735197 -53.203208 -17.327265 0.000000 46.000000 14.685488 17.000000
52.808531 -55.274289 -15.544116 0.000000 41.000000 14.138662 0.000000
53.534426 -58.804626 -18.716400 0.000000 58.000000 14.366502 8.000000
53.257232 -56.609024 -16.140108 0.000000 45.000000 14.168881 0.000000
54.442049 -57.224175 -15.749113 0.000000 27.000000 14.786139 23.000000
53.284480 -56.642038 -16.313594 0.000000 61.000000 14.236811 0.000000
52.175331 -55.296572 -17.349977 0.000000 48.000000 14.202341 0.000000
52.117323 -54.788148 -20.068617 0.000000 7.000000 15.279397 5.000000
52.050585 -55.299912 -17.567317 0.000000 39.000000 14.168654 0.000000
52.889921 -56.633106 -16.738367 0.000000 36.000000 14.049760 0.000000
51.961488 -55.313195 -17.776285 0.000000 43.000000 14.158216 0.000000
52.974622 -56.684013 -16.902705 0.000000 44.000000 14.155850 0.000000
54.271034 -56.416241 -14.944866 0.000000 55.000000 14.703477 12.000000
52.987295 -56.722753 -17.079197 0.000000 50.000000 14.210097 0.000000
52.916978 -55.137212 -15.491502 0.000000 32.000000 14.269238 0.000000
51.683132 -53.400725 -16.327870 0.000000 36.000000 14.223064 0.000000
51.611102 -55.354486 -18.439782 0.000000 28.000000 14.068313 0.000000
54.575201 -56.423243 -14.947182 0.000000 47.000000 14.958797 12.000000
53.299696 -54.440800 -15.475557 0.000000 48.000000 14.874971 22.000000
53.308819 -55.344544 -16.170707 0.000000 49.000000 14.744329 25.000000
54.273546 -56.967283 -15.084424 0.000000 69.000000 14.525400 26.000000
52.578777 -56.880744 -18.067300 0.000000 32.000000 14.132295 0.000000
52.324441 -56.408226 -18.116306 0.000000 25.000000 14.128428 0.000000
52.865853 -54.209643 -15.261044 0.000000 25.000000 14.530810 22.000000
52.795234 -55.030401 -16.874682 0.000000 54.000000 14.676531 30.000000
53.459045 -55.061336 -15.075727 0.000000 63.000000 14.619139 21.000000
54.180896 -56.932936 -15.246354 0.000000 56.000000 14.515739 23.000000
53.105784 -58.184612 -19.956696 0.000000 60.000000 14.677535 14.000000
50.769088 -53.761625 -19.213197 0.000000 49.000000 14.273306 0.000000
51.219930 -55.710910 -20.096306 0.000000 42.000000 14.148688 0.000000
53.391298 -55.018251 -15.081116 0.000000 61.000000 14.581388 21.000000
53.912915 -59.106068 -18.596080 0.000000 63.000000 14.521955 28.000000
53.361193 -55.638687 -16.228416 0.000000 50.000000 14.686804 25.000000
53.760209 -57.355772 -16.124271 0.000000 53.000000 14.281272 16.000000
52.147157 -57.384635 -19.785369 0.000000 45.000000 14.138369 0.000000
53.651562 -55.797491 -15.726086 0.000000 65.000000 14.697723 25.000000
52.087035 -57.534288 -20.159100 0.000000 41.000000 14.151757 0.000000
50.766750 -54.115229 -19.298814 0.000000 42.000000 14.154363 0.000000
50.942126 -54.260899 -19.066082 0.000000 46.000000 14.164261 0.000000
50.939747 -54.584315 -19.837999 0.000000 23.000000 14.289090 3.000000
50.982571 -54.097166 -19.027756 0.000000 34.000000 14.253094 0.000000
51.804676 -55.006845 -17.755638 0.000000 38.000000 14.144878 0.000000
51.616707 -55.836611 -20.335739 0.000000 33.000000 14.513371 6.000000
52.187516 -55.323560 -17.127374 0.000000 53.000000 14.126484 0.000000
54.712929 -58.099740 -15.592730 0.000000 46.000000 14.601593 27.000000
51.362296 -55.119985 -20.767026 0.000000 46.000000 14.738980 6.000000
53.541191 -58.537558 -18.727228 0.000000 47.000000 14.486017 8.000000
51.583777 -54.247741 -17.501103 0.000000 49.000000 14.185172 0.000000
51.581030 -54.314588 -17.307574 0.000000 37.000000 14.090040 0.000000
53.347183 -56.228663 -16.649121 0.000000 49.000000 14.573464 19.000000
54.352264 -57.577869 -16.064686 0.000000 63.000000 14.670669 16.000000
52.696514 -54.977106 -15.795094 0.000000 55.000000 14.251023 0.000000
52.868575 -57.906433 -18.815936 0.000000 27.000000 14.206938 0.000000
54.333491 -57.635002 -15.052249 0.000000 34.000000 14.289919 23.000000
51.609205 -53.649719 -18.497721 0.000000 66.000000 14.789286 29.000000
54.231380 -57.650043 -14.676361 0.000000 44.000000 14.070581 0.000000
52.868100 -55.561465 -16.553218 0.000000 69.000000 14.410822 19.000000
54.315175 -57.945323 -15.283631 0.000000 42.000000 14.224442 0.000000
52.173869 -53.605679 -16.251480 0.000000 75.000000 14.528118 11.000000
53.491782 -58.338013 -18.860856 0.000000 35.000000 14.571539 8.000000
52.481529 -53.981296 -15.312356 0.000000 58.000000 14.317011 22.000000
53.108291 -57.012049 -16.695118 0.000000 39.000000 14.063718 0.000000
54.967945 -57.643460 -15.295116 0.000000 49.000000 14.905264 23.000000
51.748342 -53.055392 -17.123733 0.000000 56.000000 14.688961 17.000000
51.820251 -53.411895 -17.176013 0.000000 52.000000 14.620422 17.000000
53.096258 -57.471938 -17.483173 0.000000 41.000000 14.129535 0.000000
50.934397 -53.854454 -18.954133 0.000000 25.000000 14.287599 0.000000
51.177149 -54.122041 -19.976697 0.000000 63.000000 14.727410 3.000000
52.859006 -57.638852 -17.845483 0.000000 36.000000 13.982043 0.000000
52.894408 -54.099193 -15.518414 0.000000 65.000000 14.687288 22.000000
50.839776 -54.133174 -20.829002 0.000000 29.000000 14.724607 3.000000
53.010685 -57.976400 -18.264169 0.000000 44.000000 14.112351 0.000000
53.019024 -58.088225 -18.410990 0.000000 45.000000 14.122787 0.000000
53.235689 -55.897312 -16.433834 0.000000 66.000000 14.543177 19.000000
53.460214 -58.752167 -20.151332 0.000000 40.000000 14.809055 13.000000
53.396130 -55.579293 -15.899925 0.000000 50.000000 14.630130 25.000000
53.206421 -55.647095 -15.496569 0.000000 42.000000 14.305636 25.000000
54.501722 -58.035099 -16.127348 0.000000 59.000000 14.629723 16.000000
52.035033 -53.605716 -16.798551 0.000000 60.000000 14.595023 17.000000
51.453708 -56.481170 -20.393225 0.000000 50.000000 14.128981 0.000000
51.607001 -54.470056 -17.733108 0.000000 27.000000 14.191356 0.000000
51.706382 -56.623202 -19.918974 0.000000 49.000000 14.124380 0.000000
51.764794 -56.678919 -19.703390 0.000000 42.000000 14.078164 0.000000
51.020030 -54.609340 -19.613181 0.000000 42.000000 14.270927 0.000000
52.071612 -56.812818 -19.227073 0.000000 44.000000 14.122045 0.000000
52.575975 -54.926012 -15.720022 0.000000 26.000000 14.144770 0.000000
51.844487 -54.927657 -19.468187 0.000000 7.000000 14.788543 5.000000
51.386253 -55.626861 -19.839959 0.000000 44.000000 14.237698 0.000000
52.310799 -56.923121 -18.778159 0.000000 43.000000 14.127656 0.000000
51.111376 -53.677830 -19.761315 0.000000 55.000000 14.782329 3.000000
53.372992 -58.713921 -19.675136 0.000000 75.000000 14.590480 14.000000
51.186587 -53.886028 -18.119670 0.000000 36.000000 14.206712 0.000000
52.532647 -57.019182 -18.339593 0.000000 45.000000 14.127954 0.000000
51.655117 -55.775562 -19.154802 0.000000 51.000000 14.172951 0.000000
54.250091 -57.235133 -14.504207 0.000000 29.000000 14.199491 0.000000
52.711106 -55.972028 -17.332718 0.000000 50.000000 14.371411 0.000000
54.474991 -56.203394 -15.062931 0.000000 41.000000 15.003671 12.000000
51.831353 -55.860425 -18.708365 0.000000 50.000000 14.136612 0.000000
51.057881 -54.530856 -19.869923 0.000000 29.000000 14.421879 3.000000
54.496131 -57.659891 -16.264417 0.000000 64.000000 14.825934 16.000000
51.863082 -56.127476 -19.226447 0.000000 40.000000 14.227982 0.000000
54.031604 -57.534442 -17.027039 0.000000 57.000000 14.741609 10.000000
52.195691 -54.011549 -16.583004 0.000000 44.000000 14.490965 18.000000
52.729567 -54.353828 -16.073427 0.000000 63.000000 14.629864 11.000000
53.048360 -54.567748 -15.090900 0.000000 43.000000 14.480233 22.000000
53.250468 -57.266299 -16.696642 0.000000 40.000000 14.079709 0.000000
52.766010 -54.036204 -16.292498 0.000000 65.000000 14.865546 11.000000
52.692756 -56.119749 -16.778116 0.000000 40.000000 14.108000 0.000000
53.085466 -54.621949 -15.113952 0.000000 45.000000 14.497054 22.000000
51.963021 -54.819007 -17.249594 0.000000 30.000000 14.185764 0.000000
52.321641 -54.762616 -20.015034 0.000000 3.000000 15.444785 5.000000
52.154583 -54.283452 -15.835506 0.000000 31.000000 14.092053 0.000000
54.713750 -56.962917 -14.989977 0.000000 57.000000 14.867921 26.000000
54.323109 -57.607804 -14.770291 0.000000 64.000000 14.197298 0.000000
54.386928 -57.732200 -14.889588 0.000000 59.000000 14.240226 0.000000
52.613359 -54.647192 -16.785365 0.000000 67.000000 14.650530 30.000000
54.350125 -58.084580 -15.262624 0.000000 59.000000 14.189510 0.000000
53.139586 -59.400804 -19.808428 0.000000 42.000000 14.154602 0.000000
54.159797 -56.718353 -15.792264 0.000000 56.000000 14.770406 23.000000
53.305319 -59.404100 -19.384099 0.000000 46.000000 14.150464 0.000000
52.678668 -58.233475 -19.720769 0.000000 45.000000 14.216367 0.000000
52.640695 -54.013239 -16.453574 0.000000 62.000000 14.823258 11.000000
52.674969 -58.199458 -19.335747 0.000000 41.000000 14.097471 0.000000
52.902124 -58.207429 -19.083874 0.000000 37.000000 14.201525 0.000000
53.192621 -58.402954 -18.843811 0.000000 51.000000 14.285821 8.000000
53.940576 -58.955867 -18.872928 0.000000 54.000000 14.700637 28.000000
50.987599 -54.447875 -19.539063 0.000000 33.000000 14.285083 0.000000
53.098972 -58.062910 -17.925587 0.000000 38.000000 14.037256 0.000000
53.231029 -55.749616 -16.464625 0.000000 52.000000 14.610523 19.000000
53.411083 -58.028330 -17.495074 0.000000 50.000000 14.170538 0.000000
53.445357 -57.992226 -17.310487 0.000000 50.000000 14.152210 0.000000
52.359090 -54.089820 -17.032990 0.000000 57.000000 14.748670 18.000000
54.821873 -57.439782 -15.477421 0.000000 84.000000 14.927092 23.000000
53.073308 -54.884040 -15.127927 0.000000 59.000000 14.383389 21.000000
51.497590 -53.164900 -16.381449 0.000000 49.000000 14.181349 0.000000
51.355656 -53.063922 -16.598332 0.000000 44.000000 14.175982 0.000000
53.967293 -57.300193 -17.294694 0.000000 7.000000 14.874013 10.000000
51.588009 -53.421682 -18.080372 0.000000 55.000000 14.724698 4.000000
52.779342 -55.256483 -15.593897 0.000000 41.000000 14.138082 0.000000
52.594784 -53.580525 -15.585327 0.000000 53.000000 14.670161 22.000000
52.762119 -54.417050 -15.125049 0.000000 57.000000 14.311636 22.000000
54.508390 -58.000166 -16.106654 0.000000 67.000000 14.642796 16.000000
52.012744 -55.124885 -17.414652 0.000000 47.000000 14.157345 0.000000
53.613548 -58.893024 -18.958555 0.000000 41.000000 14.478643 8.000000
51.810864 -55.117921 -17.839840 0.000000 40.000000 14.132693 0.000000
53.074184 -58.695085 -19.945193 0.000000 44.000000 14.436394 14.000000
52.769913 -55.252423 -16.333148 0.000000 64.000000 14.380984 0.000000
51.403606 -55.103784 -18.513978 0.000000 23.000000 14.021103 0.000000
54.303502 -57.838608 -15.694311 0.000000 34.000000 14.397015 23.000000
54.515420 -56.590580 -15.013243 0.000000 60.000000 14.861462 12.000000
52.467565 -54.420952 -16.625628 0.000000 41.000000 14.566592 30.000000
54.116433 -57.652503 -16.937178 0.000000 76.000000 14.734422 10.000000
51.996889 -53.923908 -15.890068 0.000000 38.000000 14.125260 0.000000
52.552137 -57.778954 -19.776056 0.000000 40.000000 14.315362 0.000000
52.254955 -54.137913 -16.579858 0.000000 45.000000 14.487948 18.000000
51.917929 -53.306036 -15.621726 0.000000 35.000000 14.222784 0.000000
52.186360 -53.584522 -15.474500 0.000000 53.000000 14.285488 0.000000
54.661863 -57.922128 -15.787480 0.000000 58.000000 14.697273 27.000000
52.277912 -53.675162 -15.050819 0.000000 43.000000 14.182766 0.000000
53.968663 -56.718155 -14.484365 0.000000 48.000000 14.167822 0.000000
50.970158 -54.162054 -20.834000 0.000000 58.000000 14.824727 3.000000
54.388274 -56.303284 -14.999109 0.000000 31.000000 14.867571 12.000000
