-7.759671 -5.318221 -49.833071 0.000000 41.000000 14.200137 0.000000
-7.542657 -5.102434 -49.200290 0.000000 34.000000 14.265911 0.000000
-9.006053 -4.852977 -46.754496 0.000000 36.000000 14.198935 0.000000
-7.256931 -4.621533 -47.365147 0.000000 42.000000 14.352481 0.000000
-9.376353 -3.933899 -44.499507 0.000000 58.000000 14.703469 6.000000
-9.892275 -4.075980 -44.232906 0.000000 69.000000 14.569603 9.000000
-7.746677 -5.084002 -48.703537 0.000000 40.000000 14.210780 0.000000
-7.542559 -5.128064 -48.996114 0.000000 34.000000 14.201775 0.000000
-11.238428 -5.750240 -49.639074 0.000000 28.000000 14.117891 0.000000
-8.392096 -4.024284 -44.264268 0.000000 51.000000 14.463742 2.000000
-8.956714 -4.427940 -44.934612 0.000000 36.000000 14.259508 0.000000
-9.079491 -4.320304 -44.058799 0.000000 42.000000 14.209974 0.000000
-9.787677 -4.312280 -44.807198 0.000000 38.000000 14.437819 9.000000
-8.162336 -4.440792 -45.160209 0.000000 55.000000 14.204256 0.000000
-7.985449 -4.389148 -45.309972 0.000000 46.000000 14.264194 0.000000
-5.944216 -4.723857 -49.232854 0.000000 40.000000 14.468518 29.000000
-7.356582 -4.540686 -46.039146 0.000000 42.000000 14.188052 0.000000
-7.143319 -4.575310 -46.262944 0.000000 35.000000 14.174086 0.000000
-6.950597 -4.526354 -46.407117 0.000000 42.000000 14.228618 0.000000
-7.981397 -4.318241 -45.715710 0.000000 37.000000 14.410667 18.000000
-6.933087 -4.003016 -43.985863 0.000000 33.000000 14.273297 0.000000
-6.702880 -4.111942 -44.240200 0.000000 44.000000 14.190869 0.000000
-11.090364 -5.520114 -49.378732 0.000000 44.000000 14.276473 0.000000
-6.620083 -5.019084 -50.082206 0.000000 55.000000 14.416391 0.000000
-11.081098 -4.448396 -45.403207 0.000000 63.000000 14.559171 28.000000
-7.133996 -5.206215 -49.777346 0.000000 28.000000 14.231030 0.000000
-9.901993 -4.412378 -45.057517 0.000000 47.000000 14.400505 9.000000
-6.564953 -4.128773 -45.738848 0.000000 46.000000 14.446685 12.000000
-10.406730 -4.839618 -47.844735 0.000000 60.000000 14.572401 26.000000
-8.608172 -5.472653 -49.700995 0.000000 28.000000 14.115980 0.000000
-9.170359 -4.672797 -46.024352 0.000000 42.000000 14.252571 0.000000
-11.048321 -5.438213 -49.372186 0.000000 54.000000 14.350564 23.000000
-5.882893 -4.207749 -46.552233 0.000000 62.000000 14.451707 24.000000
-8.091936 -4.276962 -44.005038 0.000000 54.000000 14.135112 0.000000
-9.668769 -5.381132 -49.232002 0.000000 36.000000 14.230137 0.000000
-6.023707 -4.542038 -46.933351 0.000000 36.000000 14.213872 0.000000
-9.907822 -4.908008 -46.840839 0.000000 38.000000 14.259356 0.000000
-9.950630 -4.376279 -45.107536 0.000000 56.000000 14.450565 9.000000
-7.945379 -4.775415 -47.632660 0.000000 47.000000 14.328110 0.000000
-9.800723 -5.373142 -48.733105 0.000000 40.000000 14.156613 0.000000
-10.836832 -4.377848 -45.592765 0.000000 64.000000 14.637885 28.000000
-9.808792 -4.136673 -44.262619 0.000000 47.000000 14.507059 9.000000
-5.850541 -4.051589 -45.566035 0.000000 63.000000 14.411574 25.000000
-6.262859 -4.907332 -48.554323 0.000000 36.000000 14.193998 0.000000
-10.165120 -4.717981 -47.297576 0.000000 77.000000 14.560077 27.000000
-10.396311 -5.458014 -49.160285 0.000000 43.000000 14.220107 0.000000
-8.618098 -4.351326 -45.028955 0.000000 60.000000 14.315687 0.000000
-11.243253 -5.597323 -48.979697 0.000000 38.000000 14.141238 0.000000
-7.837680 -3.933084 -44.483736 0.000000 73.000000 14.534777 3.000000
-10.262651 -5.125183 -49.014309 0.000000 71.000000 14.502350 4.000000
-11.203532 -5.159692 -46.870803 0.000000 42.000000 14.159760 0.000000
-10.904585 -3.805013 -43.817764 0.000000 52.000000 14.863902 7.000000
-7.043797 -4.578231 -46.080967 0.000000 36.000000 14.125601 0.000000
-6.445931 -3.892009 -44.502062 0.000000 39.000000 14.427789 11.000000
-7.198308 -4.399258 -45.627260 0.000000 37.000000 14.229969 0.000000
-6.916346 -4.910093 -48.070599 0.000000 39.000000 14.169318 0.000000
-6.260746 -4.619164 -47.209476 0.000000 32.000000 14.217189 0.000000
-7.510811 -4.554400 -46.315270 0.000000 42.000000 14.244267 0.000000
-10.388700 -5.031963 -47.226598 0.000000 52.000000 14.264379 0.000000
-7.561131 -4.246743 -44.656545 0.000000 44.000000 14.232000 0.000000
-8.914797 -4.602207 -45.768964 0.000000 43.000000 14.244848 0.000000
-11.030512 -3.801096 -44.225251 0.000000 47.000000 14.959425 7.000000
-5.896284 -4.366471 -46.310537 0.000000 31.000000 14.252013 0.000000
-10.319352 -5.134613 -48.970947 0.000000 70.000000 14.490977 4.000000
-6.874338 -4.592521 -46.543792 0.000000 26.000000 14.182010 0.000000
-5.212283 -4.120213 -44.841844 0.000000 39.000000 14.136818 0.000000
-10.468080 -4.527840 -44.535885 0.000000 46.000000 14.249167 0.000000
-8.782871 -5.040999 -48.113642 0.000000 48.000000 14.251801 0.000000
-11.202249 -5.420189 -48.124619 0.000000 38.000000 14.145753 0.000000
-11.087871 -5.490048 -48.490903 0.000000 37.000000 14.135417 0.000000
-9.434869 -5.413230 -49.538234 0.000000 35.000000 14.232197 0.000000
-5.586948 -3.789195 -44.663717 0.000000 49.000000 14.466127 10.000000
-9.372225 -4.209102 -45.441180 0.000000 51.000000 14.614999 14.000000
-11.014061 -4.007991 -43.936502 0.000000 80.000000 14.700495 7.000000
-9.320720 -5.196174 -48.484604 0.000000 44.000000 14.229698 0.000000
-11.263352 -5.728595 -49.471052 0.000000 38.000000 14.109507 0.000000
-8.491260 -4.036235 -44.663308 0.000000 81.000000 14.539272 2.000000
-8.990234 -4.656448 -46.244660 0.000000 35.000000 14.291245 0.000000
-9.349476 -4.119444 -44.782169 0.000000 73.000000 14.573725 6.000000
-8.631613 -4.756672 -46.800156 0.000000 55.000000 14.261119 0.000000
-10.055909 -4.833818 -47.535463 0.000000 60.000000 14.480846 26.000000
-6.584349 -4.345825 -45.589989 0.000000 41.000000 14.208529 0.000000
-9.588468 -4.326339 -43.852302 0.000000 44.000000 14.219584 0.000000
-5.935005 -4.548620 -47.027954 0.000000 46.000000 14.215982 0.000000
-7.614914 -4.913998 -47.989932 0.000000 41.000000 14.225628 0.000000
-7.913133 -5.030156 -48.393943 0.000000 30.000000 14.221992 0.000000
-10.715531 -3.981340 -44.447437 0.000000 70.000000 14.792095 7.000000
-6.948123 -4.766682 -47.115538 0.000000 37.000000 14.129652 0.000000
-10.938217 -4.452685 -45.347973 0.000000 68.000000 14.528946 28.000000
-11.259603 -5.554886 -49.298563 0.000000 40.000000 14.245502 0.000000
-6.777548 -5.133037 -50.007370 0.000000 50.000000 14.307927 0.000000
-10.292442 -4.571250 -45.812785 0.000000 72.000000 14.432485 8.000000
-10.170157 -4.385130 -46.757894 0.000000 75.000000 14.781907 27.000000
-10.417801 -5.466994 -49.204974 0.000000 45.000000 14.222236 0.000000
-8.867246 -4.201148 -43.925654 0.000000 25.000000 14.277736 0.000000
-7.723645 -4.029681 -44.405743 0.000000 56.000000 14.413267 3.000000
-10.282982 -4.716676 -47.900598 0.000000 56.000000 14.689646 26.000000
-9.491312 -4.263541 -43.928935 0.000000 51.000000 14.285017 0.000000
-6.586098 -4.440370 -46.307383 0.000000 41.000000 14.253950 0.000000
-10.759379 -4.262979 -45.130373 0.000000 60.000000 14.652960 28.000000
-8.151367 -4.425080 -45.287986 0.000000 48.000000 14.242880 0.000000
-7.507446 -4.541631 -45.904031 0.000000 33.000000 14.177563 0.000000
-5.280106 -4.238480 -45.523464 0.000000 34.000000 14.159393 0.000000
-7.071062 -4.576280 -46.268653 0.000000 49.000000 14.166417 0.000000
-6.876006 -4.499096 -46.356324 0.000000 36.000000 14.237406 0.000000
-5.728851 -4.143301 -46.768432 0.000000 49.000000 14.539336 24.000000
-6.515513 -4.914671 -49.464717 0.000000 37.000000 14.388614 0.000000
-10.920320 -4.862001 -47.027574 0.000000 52.000000 14.449554 5.000000
-10.456848 -5.257725 -48.097403 0.000000 38.000000 14.218378 0.000000
-8.045242 -4.971086 -49.928540 0.000000 76.000000 14.587951 19.000000
-10.321757 -4.083017 -43.921653 0.000000 42.000000 14.549564 9.000000
-10.993219 -5.388653 -48.576230 0.000000 53.000000 14.240436 0.000000
-7.380325 -5.163373 -49.783481 0.000000 56.000000 14.300647 0.000000
-5.714579 -5.163656 -50.189857 0.000000 22.000000 14.198025 0.000000
-5.281380 -4.225988 -45.081843 0.000000 33.000000 14.087098 0.000000
-9.547685 -4.981643 -47.645814 0.000000 51.000000 14.302805 0.000000
-10.635661 -5.223366 -47.898875 0.000000 57.000000 14.233200 0.000000
-7.565310 -4.422386 -45.734258 0.000000 28.000000 14.267615 0.000000
-8.398326 -5.005052 -47.873386 0.000000 53.000000 14.199229 0.000000
-6.616015 -4.270569 -45.794235 0.000000 44.000000 14.324501 0.000000
-8.715857 -4.088381 -44.587955 0.000000 68.000000 14.498264 2.000000
-9.769364 -4.262374 -44.789889 0.000000 61.000000 14.481203 9.000000
-9.392408 -4.178337 -44.931605 0.000000 60.000000 14.549553 6.000000
-9.720486 -4.940266 -46.348594 0.000000 25.000000 14.113302 0.000000
-6.917118 -4.687673 -46.941813 0.000000 41.000000 14.170083 0.000000
-8.427595 -4.761161 -47.013316 0.000000 37.000000 14.275512 0.000000
-9.771649 -5.007710 -47.405044 0.000000 35.000000 14.255473 0.000000
-7.597108 -4.737563 -47.123191 0.000000 41.000000 14.229736 0.000000
-10.121108 -4.125215 -44.904180 0.000000 71.000000 14.674954 9.000000
-6.763466 -5.206124 -49.618754 0.000000 39.000000 14.160645 0.000000
-5.385407 -3.992144 -44.473880 0.000000 41.000000 14.209973 0.000000
-9.299013 -4.837337 -46.613922 0.000000 49.000000 14.218950 0.000000
-10.460034 -4.135099 -43.786580 0.000000 52.000000 14.487837 7.000000
-9.424772 -4.450033 -45.442742 0.000000 41.000000 14.385957 14.000000
-10.049453 -4.142863 -44.639460 0.000000 48.000000 14.599263 9.000000
-9.652110 -4.654978 -45.594157 0.000000 35.000000 14.239643 0.000000
-5.301391 -4.565723 -46.937858 0.000000 37.000000 14.113485 0.000000
-8.876032 -4.659596 -46.507780 0.000000 60.000000 14.326235 0.000000
-10.160112 -4.761812 -47.987960 0.000000 73.000000 14.649063 26.000000
-6.423090 -4.592482 -47.230503 0.000000 34.000000 14.264810 0.000000
-6.137921 -4.602208 -47.206119 0.000000 41.000000 14.219799 0.000000
-6.179260 -4.165720 -45.209556 0.000000 38.000000 14.267499 0.000000
-5.813144 -4.771539 -49.252097 0.000000 40.000000 14.411511 29.000000
-6.088675 -4.597385 -47.206508 0.000000 37.000000 14.219250 0.000000
-8.190532 -4.142464 -43.864539 0.000000 54.000000 14.250059 0.000000
-7.938486 -4.694845 -46.724608 0.000000 51.000000 14.231966 0.000000
-6.798573 -4.092164 -44.166718 0.000000 35.000000 14.206435 0.000000
-9.487540 -4.265663 -44.776618 0.000000 49.000000 14.444963 6.000000
-7.529471 -4.413987 -45.580110 0.000000 42.000000 14.242393 0.000000
-5.815123 -4.081032 -45.589380 0.000000 56.000000 14.383494 25.000000
-7.163083 -4.301335 -45.364812 0.000000 44.000000 14.271394 0.000000
-7.327223 -4.297345 -45.122315 0.000000 45.000000 14.246578 0.000000
-6.884979 -4.894891 -47.784875 0.000000 27.000000 14.126006 0.000000
-10.800362 -5.177453 -47.532277 0.000000 50.000000 14.225562 0.000000
-8.153088 -4.243651 -43.958058 0.000000 32.000000 14.165221 0.000000
-11.110225 -4.664371 -44.956366 0.000000 33.000000 14.266022 0.000000
-11.119230 -5.326248 -47.833635 0.000000 43.000000 14.172655 0.000000
-6.920181 -4.547292 -46.557181 0.000000 22.000000 14.233655 0.000000
-10.888067 -5.336371 -48.434245 0.000000 58.000000 14.252853 0.000000
-10.748464 -5.482919 -48.883183 0.000000 39.000000 14.180815 0.000000
-11.126935 -5.234128 -47.405067 0.000000 29.000000 14.181233 0.000000
-11.158156 -5.608527 -49.131027 0.000000 42.000000 14.150099 0.000000
-10.850958 -5.434123 -48.681773 0.000000 37.000000 14.200912 0.000000
-10.399417 -4.895978 -46.711514 0.000000 54.000000 14.299495 0.000000
-5.752689 -3.842162 -46.031413 0.000000 44.000000 14.694453 25.000000
-6.111274 -4.208641 -45.314269 0.000000 25.000000 14.238339 0.000000
-10.999375 -4.973662 -46.705786 0.000000 34.000000 14.287526 0.000000
-9.340002 -5.385356 -49.066440 0.000000 39.000000 14.158724 0.000000
-9.000126 -4.641588 -46.057348 0.000000 26.000000 14.270920 0.000000
-10.843017 -4.292617 -45.800917 0.000000 56.000000 14.761580 28.000000
-9.452263 -4.759441 -46.025457 0.000000 44.000000 14.198760 0.000000
-9.275365 -4.787656 -46.271768 0.000000 48.000000 14.199295 0.000000
-6.962728 -4.485364 -46.469641 0.000000 45.000000 14.281895 0.000000
-6.741453 -4.465998 -46.097854 0.000000 37.000000 14.205609 0.000000
-8.898752 -4.887711 -46.805889 0.000000 36.000000 14.163290 0.000000
-6.368596 -4.798960 -48.803891 0.000000 40.000000 14.358974 0.000000
-10.832992 -4.118299 -45.333469 0.000000 62.000000 14.840973 28.000000
-8.528365 -4.889841 -47.243589 0.000000 37.000000 14.205009 0.000000
-6.631951 -4.652728 -47.071650 0.000000 24.000000 14.198198 0.000000
-8.146445 -4.861028 -47.653015 0.000000 60.000000 14.270248 0.000000
-10.062140 -4.296087 -45.538691 0.000000 65.000000 14.623470 8.000000
-5.873112 -4.261959 -45.628903 0.000000 39.000000 14.220849 0.000000
-7.707639 -5.011078 -48.234870 0.000000 38.000000 14.187891 0.000000
-9.091565 -4.676845 -46.198001 0.000000 43.000000 14.273371 0.000000
-11.000088 -5.293363 -47.764716 0.000000 43.000000 14.178638 0.000000
-8.278100 -5.039746 -48.197742 0.000000 24.000000 14.214528 0.000000
-6.992759 -5.285836 -49.167015 0.000000 35.000000 14.021135 0.000000
-10.839564 -5.256334 -47.896113 0.000000 59.000000 14.222571 0.000000
-6.800433 -5.182262 -49.272507 0.000000 44.000000 14.121577 0.000000
-7.467259 -4.873599 -47.884238 0.000000 50.000000 14.228810 0.000000
-5.969235 -4.125158 -44.637043 0.000000 33.000000 14.174647 0.000000
-9.247666 -4.025134 -44.002436 0.000000 53.000000 14.505305 6.000000
-8.968753 -4.634904 -45.855706 0.000000 35.000000 14.235409 0.000000
-6.590549 -4.600994 -46.754954 0.000000 36.000000 14.183503 0.000000
-6.281589 -4.613448 -47.352612 0.000000 37.000000 14.252447 0.000000
-8.638651 -3.816965 -44.472756 0.000000 59.000000 14.732601 2.000000
-5.926418 -4.635796 -47.309274 0.000000 53.000000 14.183918 0.000000
-8.453455 -4.398784 -45.051115 0.000000 51.000000 14.255826 0.000000
-11.076870 -4.186350 -44.409010 0.000000 54.000000 14.623839 7.000000
-8.794628 -4.388989 -44.877948 0.000000 36.000000 14.269112 0.000000
-6.499432 -4.086764 -45.709377 0.000000 40.000000 14.474928 12.000000
-9.636524 -5.182041 -48.252276 0.000000 35.000000 14.233135 0.000000
-7.501966 -4.754719 -47.229007 0.000000 40.000000 14.222982 0.000000
-9.024979 -4.869667 -47.208181 0.000000 30.000000 14.271631 0.000000
-9.822131 -5.448902 -49.036149 0.000000 41.000000 14.143092 0.000000
-10.286122 -4.395533 -44.103896 0.000000 25.000000 14.275772 0.000000
-10.932306 -3.945441 -44.357429 0.000000 74.000000 14.833319 7.000000
-11.394700 -5.557299 -48.584154 0.000000 41.000000 14.120875 0.000000
-7.179601 -4.875322 -47.826027 0.000000 40.000000 14.184855 0.000000
-7.038346 -5.261728 -49.922542 0.000000 26.000000 14.194351 0.000000
-8.036663 -4.258715 -44.142400 0.000000 53.000000 14.173252 0.000000
-7.427526 -4.218207 -44.471455 0.000000 44.000000 14.209917 0.000000
-7.215585 -4.215008 -44.586807 0.000000 43.000000 14.212211 0.000000
-10.421762 -4.449581 -45.349199 0.000000 49.000000 14.476336 28.000000
-6.800045 -4.160980 -44.766764 0.000000 47.000000 14.254440 0.000000
-6.555388 -4.246575 -44.952670 0.000000 33.000000 14.180096 0.000000
-6.196930 -5.177017 -50.107014 0.000000 28.000000 14.221303 0.000000
-6.125888 -4.209075 -45.128642 0.000000 36.000000 14.203929 0.000000
-10.558650 -3.890109 -44.122729 0.000000 73.000000 14.801900 7.000000
-7.988655 -5.108030 -48.761954 0.000000 43.000000 14.224712 0.000000
-5.176110 -4.292604 -45.598299 0.000000 43.000000 14.109684 0.000000
-6.030449 -5.042070 -49.749125 0.000000 53.000000 14.266355 0.000000
-9.492884 -4.629460 -45.797258 0.000000 35.000000 14.286225 0.000000
-5.885226 -4.696092 -49.307262 0.000000 41.000000 14.503477 29.000000
-10.144712 -4.777699 -47.208407 0.000000 80.000000 14.482530 27.000000
-6.808381 -4.832049 -47.642211 0.000000 37.000000 14.151685 0.000000
-11.029762 -4.629463 -45.123888 0.000000 41.000000 14.323468 28.000000
-7.814326 -4.875615 -47.670606 0.000000 30.000000 14.223458 0.000000
-9.756930 -4.793491 -46.057269 0.000000 34.000000 14.204602 0.000000
-9.908655 -4.428484 -45.724910 0.000000 61.000000 14.513394 8.000000
-7.245978 -4.613811 -46.561240 0.000000 42.000000 14.204791 0.000000
-9.323033 -4.659090 -45.782048 0.000000 44.000000 14.236031 0.000000
-8.970919 -4.455889 -45.358650 0.000000 47.000000 14.315031 0.000000
-7.149433 -5.074007 -48.662848 0.000000 39.000000 14.148119 0.000000
-8.841897 -4.863289 -49.121501 0.000000 51.000000 14.624657 13.000000
-10.763374 -4.353580 -45.928212 0.000000 51.000000 14.717886 28.000000
-7.473710 -4.917610 -47.904537 0.000000 37.000000 14.190466 0.000000
-10.973143 -4.530070 -44.374983 0.000000 43.000000 14.270802 0.000000
-7.959330 -4.312800 -44.951412 0.000000 49.000000 14.267140 0.000000
-8.040359 -4.428352 -45.955699 0.000000 40.000000 14.355619 18.000000
-9.464951 -3.963128 -44.237581 0.000000 45.000000 14.634353 6.000000
-9.529177 -4.650293 -45.732410 0.000000 42.000000 14.257404 0.000000
-7.844952 -4.185594 -45.309413 0.000000 43.000000 14.447452 18.000000
-8.223526 -4.752805 -46.354089 0.000000 48.000000 14.135270 0.000000
-7.271465 -4.221774 -44.575432 0.000000 40.000000 14.209477 0.000000
-11.360663 -5.553750 -48.654757 0.000000 37.000000 14.134184 0.000000
-7.601932 -4.934181 -48.038088 0.000000 34.000000 14.213763 0.000000
-8.338896 -5.191579 -48.725807 0.000000 49.000000 14.174176 0.000000
-9.116968 -4.669851 -46.210431 0.000000 39.000000 14.285323 0.000000
-5.450463 -4.204170 -45.553591 0.000000 34.000000 14.217065 0.000000
-6.364756 -4.600910 -47.848954 0.000000 40.000000 14.368778 1.000000
-5.847261 -4.142277 -45.059890 0.000000 33.000000 14.225773 0.000000
-11.054721 -5.417176 -48.568442 0.000000 44.000000 14.217773 0.000000
-6.432121 -4.069832 -44.376536 0.000000 46.000000 14.228778 0.000000
-10.148902 -4.568259 -46.953930 0.000000 53.000000 14.638528 27.000000
-10.589666 -5.175501 -47.577866 0.000000 48.000000 14.213408 0.000000
-5.630483 -5.199725 -50.145746 0.000000 27.000000 14.145290 0.000000
-9.186231 -3.969062 -44.647893 0.000000 54.000000 14.677031 6.000000
-10.235824 -4.200298 -44.328286 0.000000 70.000000 14.503775 9.000000
-7.897739 -4.150051 -45.291728 0.000000 73.000000 14.484446 18.000000
-10.232972 -4.748561 -45.946081 0.000000 53.000000 14.278628 0.000000
-9.586562 -5.089490 -47.912619 0.000000 37.000000 14.252930 0.000000
-8.557849 -4.278308 -45.382260 0.000000 33.000000 14.448094 20.000000
-9.236125 -5.200821 -48.544407 0.000000 38.000000 14.227472 0.000000
-9.059809 -5.218209 -48.821865 0.000000 55.000000 14.244598 0.000000
-8.226220 -5.032342 -49.827305 0.000000 60.000000 14.528378 19.000000
-9.220053 -4.442015 -44.701930 0.000000 47.000000 14.229684 0.000000
-9.453635 -3.891086 -44.720137 0.000000 78.000000 14.795868 6.000000
-9.238243 -4.640552 -45.731678 0.000000 32.000000 14.235290 0.000000
-8.366818 -4.829452 -47.174474 0.000000 53.000000 14.233198 0.000000
-6.648306 -4.505290 -48.194334 0.000000 36.000000 14.558909 1.000000
-9.477935 -4.654471 -47.156191 0.000000 49.000000 14.520595 17.000000
-7.582654 -4.989761 -48.224747 0.000000 34.000000 14.193225 0.000000
-8.858038 -4.784563 -47.207908 0.000000 61.000000 14.336537 0.000000
-6.166893 -4.694942 -47.754492 0.000000 28.000000 14.237545 0.000000
-10.410867 -5.345331 -48.898592 0.000000 48.000000 14.281460 0.000000
-5.855612 -4.874847 -48.911482 0.000000 36.000000 14.250064 0.000000
-5.254745 -4.341852 -45.861930 0.000000 34.000000 14.120664 0.000000
-10.060774 -4.548822 -45.313532 0.000000 49.000000 14.333639 8.000000
-9.160053 -5.334645 -49.399270 0.000000 59.000000 14.252498 0.000000
-9.790271 -4.145286 -44.892466 0.000000 47.000000 14.617339 9.000000
-10.305506 -4.768844 -46.947341 0.000000 59.000000 14.458540 27.000000
-10.797102 -4.087020 -45.335383 0.000000 69.000000 14.867969 28.000000
-5.831375 -4.510721 -47.473318 0.000000 54.000000 14.327077 30.000000
-10.991076 -5.034306 -46.964167 0.000000 39.000000 14.276978 0.000000
-6.870924 -4.789915 -47.565896 0.000000 26.000000 14.184930 0.000000
-11.007093 -5.309463 -48.257331 0.000000 51.000000 14.258081 0.000000
-7.221626 -5.182415 -49.833971 0.000000 53.000000 14.274577 0.000000
-10.486328 -5.448223 -48.977405 0.000000 47.000000 14.204356 0.000000
-10.359139 -3.940823 -43.999935 0.000000 56.000000 14.707316 9.000000
-9.630041 -4.702222 -45.572879 0.000000 40.000000 14.187092 0.000000
-7.750585 -5.109355 -49.024867 0.000000 44.000000 14.248041 0.000000
-6.856735 -4.777496 -47.599684 0.000000 29.000000 14.201984 0.000000
-8.705914 -4.328804 -44.821996 0.000000 62.000000 14.307503 0.000000
-10.782810 -5.062704 -47.100300 0.000000 26.000000 14.252828 0.000000
-9.008801 -4.340981 -44.374517 0.000000 45.000000 14.242651 0.000000
-9.300398 -5.132729 -48.318003 0.000000 45.000000 14.257467 0.000000
-8.233565 -4.415994 -45.103341 0.000000 55.000000 14.225256 0.000000
-6.638613 -5.109093 -49.331144 0.000000 51.000000 14.186681 0.000000
-9.336277 -4.899121 -47.258709 0.000000 63.000000 14.286259 0.000000
-9.783972 -4.470995 -45.003814 0.000000 34.000000 14.320267 9.000000
-11.152685 -5.372382 -47.846741 0.000000 27.000000 14.133783 0.000000
-10.012904 -3.859301 -44.321677 0.000000 73.000000 14.811032 9.000000
-9.659828 -5.183174 -48.041133 0.000000 42.000000 14.194092 0.000000
-11.042242 -5.533099 -49.758534 0.000000 50.000000 14.331374 23.000000
-10.330173 -4.854081 -46.280548 0.000000 60.000000 14.250297 0.000000
-6.345122 -4.001400 -44.221712 0.000000 45.000000 14.256455 0.000000
-10.491028 -4.067642 -44.018634 0.000000 50.000000 14.601457 7.000000
-9.585365 -4.459184 -44.125626 0.000000 42.000000 14.142032 0.000000
-5.972439 -4.614460 -47.577813 0.000000 41.000000 14.261164 0.000000
-7.601612 -5.303122 -49.959490 0.000000 43.000000 14.221989 0.000000
-5.692289 -4.927293 -48.778840 0.000000 25.000000 14.155818 0.000000
-7.127065 -4.874144 -47.832389 0.000000 25.000000 14.181539 0.000000
-6.050811 -4.960748 -49.355113 0.000000 38.000000 14.272391 0.000000
-9.591112 -5.437673 -49.856191 0.000000 53.000000 14.286180 0.000000
-10.076853 -4.011507 -44.573853 0.000000 69.000000 14.717793 9.000000
-9.735754 -5.066311 -48.979675 0.000000 25.000000 14.496140 16.000000
-10.943249 -3.808386 -44.413612 0.000000 80.000000 14.978965 7.000000
-10.354550 -4.747552 -46.971732 0.000000 66.000000 14.489290 27.000000
-10.759414 -4.279124 -45.406651 0.000000 59.000000 14.690152 28.000000
-7.113910 -4.600600 -46.857122 0.000000 36.000000 14.260085 0.000000
-9.466738 -4.222972 -44.010818 0.000000 45.000000 14.337622 0.000000
-5.888595 -4.339841 -47.883283 0.000000 39.000000 14.578513 30.000000
-9.181867 -4.700670 -46.210071 0.000000 47.000000 14.262211 0.000000
-10.944630 -3.895132 -43.873908 0.000000 58.000000 14.791081 7.000000
-5.176240 -4.079493 -44.735187 0.000000 27.000000 14.152205 0.000000
-11.269092 -5.003787 -47.274753 0.000000 35.000000 14.396338 0.000000
-7.956172 -4.738037 -47.766474 0.000000 60.000000 14.391379 0.000000
-5.530209 -3.895263 -44.113971 0.000000 35.000000 14.251183 0.000000
-10.796007 -4.272079 -45.861978 0.000000 74.000000 14.788229 28.000000
-9.146867 -4.961290 -47.469989 0.000000 48.000000 14.245605 0.000000
-9.368696 -5.092062 -48.151181 0.000000 44.000000 14.272561 0.000000
-5.655902 -3.738135 -44.713643 0.000000 38.000000 14.532961 10.000000
-6.175830 -4.438904 -46.374783 0.000000 33.000000 14.223908 0.000000
-7.106158 -4.595091 -46.679890 0.000000 37.000000 14.230660 0.000000
-6.688546 -4.367021 -45.565903 0.000000 42.000000 14.194509 0.000000
-5.512262 -3.886875 -44.637935 0.000000 42.000000 14.357821 10.000000
-7.060754 -4.195841 -44.945261 0.000000 50.000000 14.282841 0.000000
-11.329485 -5.328107 -47.472834 0.000000 26.000000 14.124455 0.000000
-6.526113 -4.478505 -47.686967 0.000000 47.000000 14.474602 1.000000
-10.521643 -3.969682 -43.911769 0.000000 66.000000 14.679852 7.000000
-8.853543 -5.085677 -48.133287 0.000000 32.000000 14.219629 0.000000
-9.712868 -4.664406 -45.433391 0.000000 41.000000 14.206215 0.000000
-8.298901 -4.644698 -46.132402 0.000000 47.000000 14.206404 0.000000
-9.136160 -5.280465 -48.921357 0.000000 41.000000 14.211192 0.000000
-9.208131 -5.376374 -49.720111 0.000000 41.000000 14.278469 0.000000
-7.929555 -4.596826 -46.475787 0.000000 48.000000 14.278942 0.000000
-7.260245 -4.545024 -47.326315 0.000000 62.000000 14.420032 0.000000
-11.162989 -5.360562 -47.749980 0.000000 31.000000 14.127887 0.000000
-9.562523 -5.046345 -47.770910 0.000000 66.000000 14.265263 0.000000
-11.036579 -5.063741 -46.537194 0.000000 28.000000 14.171376 0.000000
-9.521676 -4.322875 -44.865424 0.000000 54.000000 14.409862 6.000000
-7.252874 -4.228178 -44.841275 0.000000 47.000000 14.252157 0.000000
-8.823036 -5.178679 -49.622698 0.000000 62.000000 14.410992 13.000000
-10.855256 -4.565659 -44.691183 0.000000 31.000000 14.283918 0.000000
-8.602412 -5.029292 -48.059802 0.000000 40.000000 14.233382 0.000000
-6.855183 -4.251798 -45.179228 0.000000 33.000000 14.250846 0.000000
-6.612753 -4.385772 -45.458553 0.000000 51.000000 14.147448 0.000000
-6.196283 -4.809662 -48.204174 0.000000 38.000000 14.214979 0.000000
-10.969432 -4.603452 -44.465850 0.000000 39.000000 14.216228 0.000000
-8.596806 -3.972092 -44.280876 0.000000 35.000000 14.539983 2.000000
-10.455279 -5.380498 -48.692717 0.000000 49.000000 14.212512 0.000000
-5.343400 -4.406574 -46.155388 0.000000 36.000000 14.123350 0.000000
-8.709653 -4.350407 -44.950156 0.000000 28.000000 14.311391 0.000000
-7.965410 -4.630942 -47.316294 0.000000 49.000000 14.410590 0.000000
-10.056118 -5.206893 -49.526669 0.000000 61.000000 14.498472 15.000000
-7.952222 -4.223960 -45.020353 0.000000 28.000000 14.366244 0.000000
-9.236041 -5.199085 -48.425386 0.000000 40.000000 14.206351 0.000000
-9.412933 -5.118361 -48.277729 0.000000 27.000000 14.275941 0.000000
-11.175165 -5.503115 -48.608017 0.000000 34.000000 14.154554 0.000000
-10.392027 -4.475976 -45.319874 0.000000 54.000000 14.441751 28.000000
-10.160557 -4.638545 -48.109913 0.000000 76.000000 14.792724 26.000000
-8.927841 -5.198790 -49.033877 0.000000 58.000000 14.289888 0.000000
-9.594893 -4.815420 -46.257096 0.000000 61.000000 14.203969 0.000000
-11.204855 -4.378876 -46.371303 0.000000 60.000000 14.825873 21.000000
-10.728080 -5.278377 -48.517421 0.000000 51.000000 14.308055 22.000000
-6.492844 -4.100527 -45.584444 0.000000 47.000000 14.436852 12.000000
-9.615350 -5.050127 -47.746025 0.000000 45.000000 14.262521 0.000000
-7.239978 -4.574156 -46.596616 0.000000 47.000000 14.249604 0.000000
-6.427315 -4.008546 -45.593057 0.000000 55.000000 14.521139 12.000000
-7.255867 -4.849644 -48.893922 0.000000 40.000000 14.422774 0.000000
-5.444499 -5.100275 -49.536869 0.000000 37.000000 14.105515 0.000000
-6.322313 -4.109906 -44.978437 0.000000 27.000000 14.293136 0.000000
-6.025489 -4.669087 -47.836025 0.000000 48.000000 14.263091 0.000000
-6.129679 -4.686723 -47.557202 0.000000 33.000000 14.203734 0.000000
-6.963479 -4.598214 -46.691518 0.000000 23.000000 14.214406 0.000000
-6.094768 -4.952863 -49.212026 0.000000 40.000000 14.257421 0.000000
-9.788403 -4.292620 -44.447288 0.000000 44.000000 14.388113 9.000000
-10.253012 -4.121930 -45.011384 0.000000 73.000000 14.712970 9.000000
-6.756261 -4.519159 -45.982973 0.000000 33.000000 14.133341 0.000000
-8.169625 -4.697150 -46.215087 0.000000 49.000000 14.157095 0.000000
-6.684674 -4.755834 -47.775673 0.000000 48.000000 14.238221 0.000000
-10.700815 -4.141109 -45.125477 0.000000 58.000000 14.764569 28.000000
-9.961419 -4.496443 -47.119215 0.000000 61.000000 14.719972 27.000000
-7.201765 -4.224534 -44.934436 0.000000 49.000000 14.268032 0.000000
-8.288409 -5.095131 -49.768029 0.000000 59.000000 14.462499 19.000000
-7.315690 -4.238924 -44.698198 0.000000 44.000000 14.221054 0.000000
-6.851176 -4.485491 -45.887182 0.000000 23.000000 14.158098 0.000000
-7.448093 -4.202333 -44.418176 0.000000 35.000000 14.217418 0.000000
-7.263703 -4.586535 -46.489204 0.000000 43.000000 14.219513 0.000000
-7.407273 -4.554762 -46.190570 0.000000 31.000000 14.208820 0.000000
-8.923235 -4.408323 -44.906572 0.000000 31.000000 14.269649 0.000000
-8.019447 -4.300860 -44.941558 0.000000 47.000000 14.283404 0.000000
-6.993998 -5.257175 -49.591459 0.000000 27.000000 14.130556 0.000000
-7.541117 -4.488146 -46.412897 0.000000 24.000000 14.330882 0.000000
-10.228917 -4.752050 -45.967575 0.000000 58.000000 14.278903 0.000000
-11.144809 -4.946753 -45.611295 0.000000 32.000000 14.119793 0.000000
-9.868840 -5.446858 -49.053383 0.000000 23.000000 14.153442 0.000000
-11.064916 -4.829750 -45.760960 0.000000 45.000000 14.253963 0.000000
-11.085373 -5.504225 -48.709273 0.000000 38.000000 14.163159 0.000000
-9.424780 -5.365859 -49.425336 0.000000 35.000000 14.255683 0.000000
-9.185827 -4.915535 -47.311272 0.000000 26.000000 14.264043 0.000000
-10.493658 -5.136030 -47.356729 0.000000 35.000000 14.199152 0.000000
-10.318825 -4.464672 -46.844739 0.000000 53.000000 14.737038 27.000000
-8.256688 -4.883194 -47.951238 0.000000 34.000000 14.317694 0.000000
-10.544193 -5.506285 -49.242805 0.000000 51.000000 14.204830 0.000000
-5.799503 -4.007900 -45.774024 0.000000 44.000000 14.488524 25.000000
-8.004021 -5.032706 -48.881788 0.000000 48.000000 14.322814 0.000000
-8.934113 -4.305977 -44.258743 0.000000 24.000000 14.246534 0.000000
-10.345028 -4.467838 -45.888147 0.000000 71.000000 14.553493 8.000000
-10.094763 -4.172093 -45.145275 0.000000 69.000000 14.672572 9.000000
-8.823275 -4.334489 -44.377987 0.000000 42.000000 14.229577 0.000000
-8.618441 -4.833653 -47.003251 0.000000 58.000000 14.223514 0.000000
-5.883848 -4.539132 -47.516378 0.000000 51.000000 14.313289 30.000000
-8.156488 -4.354810 -45.168416 0.000000 51.000000 14.289071 0.000000
-10.237590 -5.171556 -48.640244 0.000000 59.000000 14.382728 4.000000
-9.177766 -5.027597 -47.659708 0.000000 45.000000 14.220619 0.000000
-9.223851 -5.208173 -48.449987 0.000000 50.000000 14.200880 0.000000
-10.170925 -4.980173 -48.894599 0.000000 76.000000 14.610944 4.000000
-10.913154 -5.448339 -49.229288 0.000000 40.000000 14.298682 0.000000
-7.388416 -4.547429 -46.105968 0.000000 39.000000 14.197721 0.000000
-10.104100 -3.971501 -44.071644 0.000000 81.000000 14.663538 9.000000
-7.201752 -4.545831 -46.291600 0.000000 33.000000 14.214655 0.000000
-6.799493 -5.147070 -49.344416 0.000000 40.000000 14.169584 0.000000
-11.001500 -4.925448 -46.157609 0.000000 42.000000 14.229752 0.000000
-9.694492 -4.353045 -43.817489 0.000000 37.000000 14.198333 0.000000
-10.068095 -5.170699 -48.646502 0.000000 37.000000 14.366426 4.000000
-10.397210 -5.089270 -47.314163 0.000000 47.000000 14.226175 0.000000
-5.462984 -4.611236 -47.015858 0.000000 23.000000 14.101517 0.000000
-11.103205 -5.460297 -49.636458 0.000000 50.000000 14.385597 23.000000
-9.326390 -5.404014 -49.513213 0.000000 32.000000 14.224657 0.000000
-11.475141 -5.688876 -48.976121 0.000000 48.000000 14.076331 0.000000
-9.172839 -4.830989 -46.731775 0.000000 41.000000 14.234074 0.000000
-11.199263 -5.327245 -47.677860 0.000000 44.000000 14.150493 0.000000
-6.023832 -4.596983 -47.373952 0.000000 31.000000 14.244711 0.000000
-8.610977 -4.297670 -45.281104 0.000000 58.000000 14.415572 20.000000
-7.524821 -5.249537 -49.913686 0.000000 41.000000 14.257177 0.000000
-7.469256 -4.299120 -45.301758 0.000000 36.000000 14.294597 0.000000
-9.197407 -4.642071 -45.783317 0.000000 27.000000 14.239285 0.000000
-8.822703 -4.158429 -43.836586 0.000000 40.000000 14.297522 0.000000
-10.122433 -3.801967 -43.904902 0.000000 73.000000 14.798951 9.000000
-10.418642 -5.322458 -48.659150 0.000000 35.000000 14.258735 0.000000
-6.839531 -4.466048 -46.464863 0.000000 40.000000 14.286494 0.000000
-10.295778 -4.440490 -45.066823 0.000000 78.000000 14.417467 9.000000
-6.330295 -5.109145 -49.513868 0.000000 29.000000 14.188287 0.000000
-11.126319 -4.553727 -44.020046 0.000000 39.000000 14.196286 0.000000
-7.258245 -4.081455 -43.933368 0.000000 33.000000 14.221900 0.000000
-10.621721 -5.105855 -48.389370 0.000000 31.000000 14.440306 0.000000
-9.974450 -5.307792 -48.092362 0.000000 34.000000 14.116383 0.000000
-8.594075 -4.945083 -47.632408 0.000000 35.000000 14.232732 0.000000
-10.842526 -5.054691 -48.713075 0.000000 46.000000 14.576129 22.000000
-6.014989 -4.106413 -44.703655 0.000000 31.000000 14.210645 0.000000
-5.812472 -4.074736 -44.793473 0.000000 45.000000 14.236846 0.000000
-11.118861 -4.735415 -45.335115 0.000000 41.000000 14.270225 0.000000
-8.615191 -4.520748 -46.278759 0.000000 64.000000 14.389578 0.000000
-7.063299 -5.236262 -49.707886 0.000000 40.000000 14.180762 0.000000
-7.520494 -5.040396 -48.786329 0.000000 36.000000 14.244711 0.000000
-8.498732 -5.044236 -48.059245 0.000000 26.000000 14.207480 0.000000
-8.740889 -5.076440 -48.302917 0.000000 41.000000 14.248954 0.000000
-9.743467 -4.708664 -45.988287 0.000000 45.000000 14.272676 0.000000
-6.457504 -4.454118 -47.308269 0.000000 45.000000 14.418406 0.000000
-9.708758 -5.166221 -47.935298 0.000000 41.000000 14.195645 0.000000
-8.436243 -4.513461 -46.182975 0.000000 47.000000 14.358974 0.000000
-9.485403 -5.123027 -48.455738 0.000000 62.000000 14.313338 0.000000
-7.763007 -4.704896 -46.726840 0.000000 34.000000 14.203605 0.000000
-9.469053 -4.253861 -45.369111 0.000000 70.000000 14.568003 14.000000
-8.382014 -4.799682 -46.800601 0.000000 35.000000 14.192245 0.000000
-9.999824 -5.452839 -48.842321 0.000000 38.000000 14.121336 0.000000
-7.739219 -5.256448 -49.635432 0.000000 28.000000 14.220314 0.000000
-6.464357 -4.393952 -46.889195 0.000000 37.000000 14.397540 0.000000
-10.669983 -5.356666 -48.418571 0.000000 43.000000 14.206459 0.000000
-10.076164 -4.382528 -45.912711 0.000000 71.000000 14.612330 8.000000
-10.076723 -3.923529 -44.438665 0.000000 62.000000 14.777697 9.000000
-6.270713 -4.130894 -45.784793 0.000000 35.000000 14.421586 12.000000
-7.492069 -4.907283 -48.064243 0.000000 44.000000 14.233126 0.000000
-6.605989 -4.404581 -46.238363 0.000000 52.000000 14.277789 0.000000
-9.824627 -5.545066 -49.467407 0.000000 41.000000 14.132188 0.000000
-5.171518 -4.074750 -44.610417 0.000000 33.000000 14.132414 0.000000
-11.376427 -4.200933 -46.403655 0.000000 75.000000 15.024216 21.000000
-9.704890 -4.500952 -44.566867 0.000000 44.000000 14.198765 0.000000
-6.979616 -4.260170 -45.181924 0.000000 48.000000 14.256658 0.000000
-10.052389 -4.746797 -47.554605 0.000000 63.000000 14.569021 26.000000
-11.401560 -4.431696 -46.571438 0.000000 82.000000 14.833976 21.000000
-8.369639 -4.582752 -45.653211 0.000000 23.000000 14.182667 0.000000
-5.179341 -4.250638 -45.947325 0.000000 35.000000 14.217848 0.000000
-6.272144 -4.014110 -44.318002 0.000000 51.000000 14.254611 0.000000
-6.405047 -4.074039 -44.145801 0.000000 30.000000 14.177534 0.000000
-10.842712 -4.550951 -46.229985 0.000000 49.000000 14.591758 28.000000
-11.317934 -5.546055 -48.511189 0.000000 36.000000 14.109558 0.000000
-10.014720 -3.858588 -44.315472 0.000000 79.000000 14.810734 9.000000
-10.461473 -5.421086 -48.912610 0.000000 52.000000 14.215723 0.000000
-10.900094 -5.528043 -49.653320 0.000000 40.000000 14.300768 0.000000
-10.988945 -4.128364 -43.860905 0.000000 50.000000 14.565869 7.000000
-9.758173 -4.991552 -46.878654 0.000000 34.000000 14.168915 0.000000
-9.632930 -4.897259 -47.040780 0.000000 48.000000 14.278412 0.000000
-11.121777 -3.927349 -44.433976 0.000000 84.000000 14.886134 7.000000
-5.923961 -4.902004 -49.829950 0.000000 53.000000 14.406955 29.000000
-8.982731 -5.111123 -48.264291 0.000000 36.000000 14.233884 0.000000
-10.027446 -4.362683 -45.505695 0.000000 78.000000 14.548430 8.000000
-8.822668 -5.101633 -48.507585 0.000000 61.000000 14.272443 0.000000
-10.478395 -4.923111 -46.596909 0.000000 41.000000 14.259612 0.000000
-8.652479 -5.116856 -48.779609 0.000000 45.000000 14.291303 0.000000
-8.429050 -5.341729 -49.264917 0.000000 39.000000 14.140759 0.000000
-6.937675 -4.583788 -46.692970 0.000000 44.000000 14.225966 0.000000
-6.901408 -4.592828 -46.639330 0.000000 39.000000 14.202944 0.000000
-8.326509 -4.748219 -46.708158 0.000000 55.000000 14.218727 0.000000
-9.256692 -3.772562 -44.307209 0.000000 43.000000 14.811059 6.000000
-9.158897 -5.029731 -49.858038 0.000000 46.000000 14.637718 13.000000
-8.381932 -4.991824 -48.127261 0.000000 29.000000 14.259004 0.000000
-7.227437 -4.899229 -48.150318 0.000000 27.000000 14.228846 0.000000
-10.740574 -3.823496 -44.121922 0.000000 77.000000 14.886408 7.000000
-7.102165 -4.035010 -44.619330 0.000000 55.000000 14.381758 0.000000
-7.966939 -4.644705 -46.514465 0.000000 46.000000 14.243691 0.000000
-5.742164 -5.178366 -50.064012 0.000000 23.000000 14.162547 0.000000
-9.564850 -5.344776 -49.516705 0.000000 50.000000 14.308910 0.000000
-6.485786 -4.472653 -47.348419 0.000000 42.000000 14.411079 0.000000
-7.353240 -4.290204 -44.863862 0.000000 33.000000 14.206837 0.000000
-7.626927 -4.254030 -44.675322 0.000000 44.000000 14.235607 0.000000
-8.951081 -5.187270 -48.745962 0.000000 40.000000 14.248472 0.000000
-10.727734 -4.804730 -46.884687 0.000000 51.000000 14.457209 5.000000
-10.910563 -4.860113 -46.712673 0.000000 70.000000 14.390003 5.000000
-6.478618 -4.075219 -46.021432 0.000000 48.000000 14.543732 12.000000
-6.982944 -5.054748 -48.439670 0.000000 30.000000 14.106131 0.000000
-5.973505 -4.375736 -46.055854 0.000000 33.000000 14.202529 0.000000
-6.514270 -4.283991 -47.911363 0.000000 49.000000 14.706064 1.000000
-5.348323 -4.044894 -44.288992 0.000000 29.000000 14.119078 0.000000
-9.599733 -4.959938 -47.062156 0.000000 40.000000 14.217774 0.000000
-9.874239 -4.071243 -44.300245 0.000000 67.000000 14.585175 9.000000
-9.796563 -4.559628 -45.407369 0.000000 41.000000 14.312492 0.000000
-11.001230 -5.182143 -48.642566 0.000000 56.000000 14.455461 22.000000
-8.926786 -5.013933 -47.750268 0.000000 42.000000 14.224148 0.000000
-8.040782 -4.932905 -48.348944 0.000000 61.000000 14.322048 0.000000
-9.016294 -4.898160 -47.051819 0.000000 49.000000 14.212937 0.000000
-9.070790 -5.257877 -49.056809 0.000000 35.000000 14.252108 0.000000
-8.919051 -5.150404 -48.644345 0.000000 52.000000 14.261499 0.000000
-10.212700 -3.981878 -44.838010 0.000000 68.000000 14.812008 9.000000
-10.307203 -4.929576 -47.674605 0.000000 74.000000 14.441283 26.000000
-10.211104 -4.118921 -45.035380 0.000000 81.000000 14.715970 9.000000
-9.106640 -5.003554 -47.570466 0.000000 41.000000 14.219278 0.000000
-9.183256 -4.909969 -47.180009 0.000000 38.000000 14.244043 0.000000
-10.158074 -4.248942 -44.981367 0.000000 65.000000 14.573049 9.000000
-9.173813 -4.825663 -46.660660 0.000000 44.000000 14.225748 0.000000
-7.156021 -4.400459 -45.851547 0.000000 49.000000 14.267197 0.000000
-10.844018 -4.350960 -46.160149 0.000000 63.000000 14.773607 28.000000
-8.752027 -4.214095 -44.126812 0.000000 45.000000 14.291184 0.000000
-9.480581 -4.660997 -45.792588 0.000000 50.000000 14.253236 0.000000
-5.210302 -4.007829 -44.366416 0.000000 20.000000 14.155138 0.000000
-9.715835 -4.486740 -44.829310 0.000000 50.000000 14.264099 0.000000
-9.211583 -5.225555 -48.643233 0.000000 40.000000 14.219625 0.000000
-5.460280 -4.614244 -47.422482 0.000000 36.000000 14.176202 0.000000
-5.449252 -4.867737 -48.744006 0.000000 38.000000 14.180947 0.000000
-9.866704 -4.711394 -45.796518 0.000000 50.000000 14.246601 0.000000
-9.367078 -4.168343 -43.947148 0.000000 60.000000 14.367930 0.000000
-10.403878 -5.263072 -48.455627 0.000000 56.000000 14.276071 0.000000
-9.217010 -4.673065 -45.860064 0.000000 44.000000 14.225877 0.000000
-9.930751 -4.641092 -46.882226 0.000000 47.000000 14.530140 27.000000
-6.448394 -4.144186 -44.811694 0.000000 40.000000 14.241387 0.000000
-6.161047 -4.571325 -46.947418 0.000000 29.000000 14.202856 0.000000
-6.571810 -4.099986 -44.523771 0.000000 30.000000 14.242688 0.000000
-10.970340 -3.898299 -44.139244 0.000000 78.000000 14.841615 7.000000
-7.918615 -4.105903 -45.369998 0.000000 66.000000 14.544768 18.000000
-6.598395 -4.373802 -45.937085 0.000000 53.000000 14.249263 0.000000
-6.694016 -4.467855 -45.756829 0.000000 33.000000 14.133322 0.000000
-10.608706 -5.066266 -47.190755 0.000000 33.000000 14.247850 0.000000
-11.171001 -5.472672 -48.377793 0.000000 40.000000 14.139687 0.000000
-8.128051 -4.853018 -47.447014 0.000000 47.000000 14.236600 0.000000
-7.275372 -4.210887 -44.534578 0.000000 30.000000 14.212692 0.000000
-7.415094 -4.165016 -44.259626 0.000000 31.000000 14.219871 0.000000
-8.047064 -4.396505 -45.653393 0.000000 40.000000 14.329486 18.000000
-11.073455 -4.875265 -46.092915 0.000000 33.000000 14.274093 0.000000
-11.102008 -4.466692 -45.880054 0.000000 61.000000 14.634955 28.000000
-6.203629 -4.700294 -47.685155 0.000000 26.000000 14.223013 0.000000
-11.023698 -5.431030 -49.261690 0.000000 54.000000 14.333735 23.000000
-9.948797 -5.489557 -49.141647 0.000000 38.000000 14.137351 0.000000
-9.801100 -5.546187 -49.484752 0.000000 52.000000 14.131873 0.000000
-9.737600 -5.005955 -46.795573 0.000000 33.000000 14.136721 0.000000
-9.664571 -5.518091 -49.739235 0.000000 39.000000 14.193271 0.000000
-9.632922 -4.856544 -46.898326 0.000000 44.000000 14.290833 0.000000
-6.077470 -4.117637 -44.971973 0.000000 40.000000 14.257868 0.000000
-9.011494 -5.114005 -48.123602 0.000000 35.000000 14.207226 0.000000
-8.858741 -5.118992 -48.378396 0.000000 53.000000 14.234658 0.000000
-6.453459 -4.292373 -46.880580 0.000000 42.000000 14.493800 12.000000
-8.239753 -4.277349 -44.435330 0.000000 44.000000 14.233176 0.000000
-5.150485 -3.920966 -44.156536 0.000000 42.000000 14.193185 0.000000
-10.277469 -4.056470 -44.757704 0.000000 62.000000 14.730864 9.000000
-6.245991 -4.761620 -47.893463 0.000000 35.000000 14.207687 0.000000
-9.044095 -4.379281 -44.548898 0.000000 38.000000 14.242521 0.000000
-8.878863 -4.422386 -44.781481 0.000000 39.000000 14.227162 0.000000
-8.333231 -4.614405 -45.548192 0.000000 48.000000 14.127728 0.000000
-5.724451 -3.893559 -45.567845 0.000000 56.000000 14.552437 25.000000
-7.442109 -4.941004 -48.921479 0.000000 49.000000 14.359082 0.000000
-6.445189 -3.856804 -44.596295 0.000000 36.000000 14.480106 11.000000
-7.225905 -4.662847 -46.777447 0.000000 40.000000 14.196213 0.000000
-8.652439 -3.903159 -44.441532 0.000000 64.000000 14.644029 2.000000
-9.029204 -5.102662 -48.214730 0.000000 38.000000 14.237669 0.000000
-9.599617 -4.779214 -45.745846 0.000000 36.000000 14.141838 0.000000
-9.425421 -4.590750 -47.128865 0.000000 67.000000 14.571837 17.000000
-8.058822 -5.077945 -48.903882 0.000000 28.000000 14.288846 0.000000
-6.800693 -4.213356 -44.883758 0.000000 33.000000 14.225835 0.000000
-5.947543 -4.784306 -49.400971 0.000000 48.000000 14.442122 29.000000
-5.510354 -4.128876 -45.548057 0.000000 32.000000 14.295933 0.000000
-6.416631 -4.218835 -45.209842 0.000000 40.000000 14.241420 0.000000
-5.845019 -4.061810 -45.909937 0.000000 51.000000 14.466902 25.000000
-9.868952 -4.186570 -44.577809 0.000000 36.000000 14.525287 9.000000
-5.998038 -4.286355 -45.582086 0.000000 30.000000 14.201595 0.000000
-5.473330 -4.893833 -48.532205 0.000000 38.000000 14.117512 0.000000
-11.039904 -5.358504 -48.552781 0.000000 46.000000 14.270403 0.000000
-9.945244 -4.284777 -44.959944 0.000000 34.000000 14.510962 9.000000
-10.651655 -4.497718 -45.755063 0.000000 37.000000 14.532017 28.000000
-7.342841 -4.548605 -46.357974 0.000000 52.000000 14.239931 0.000000
-10.375433 -4.904399 -46.560587 0.000000 49.000000 14.259767 0.000000
-10.533002 -4.612560 -45.187315 0.000000 53.000000 14.298367 0.000000
-5.382879 -4.608644 -46.948933 0.000000 28.000000 14.082555 0.000000
-10.910347 -4.826003 -46.960301 0.000000 73.000000 14.470702 5.000000
-6.715434 -5.069680 -48.761232 0.000000 27.000000 14.124238 0.000000
-6.819444 -4.915565 -48.304633 0.000000 37.000000 14.198340 0.000000
-9.113764 -4.803113 -46.711413 0.000000 27.000000 14.250974 0.000000
-11.059711 -5.334478 -49.321524 0.000000 45.000000 14.443282 23.000000
-10.242277 -4.456882 -46.710205 0.000000 74.000000 14.710578 27.000000
-10.074264 -4.567423 -45.203726 0.000000 39.000000 14.295913 0.000000
-9.457286 -4.503334 -45.448486 0.000000 35.000000 14.338580 14.000000
-6.991860 -4.079145 -44.574821 0.000000 45.000000 14.318243 0.000000
-11.181519 -5.511151 -49.589537 0.000000 54.000000 14.335472 0.000000
-6.846203 -5.234074 -49.090176 0.000000 37.000000 14.041050 0.000000
-9.402556 -5.183283 -48.669948 0.000000 39.000000 14.286640 0.000000
-10.883522 -4.556735 -44.493869 0.000000 50.000000 14.257874 0.000000
-9.424539 -5.354930 -49.444227 0.000000 34.000000 14.269938 0.000000
-7.084384 -4.997345 -48.224807 0.000000 36.000000 14.131932 0.000000
-7.902742 -5.073851 -48.675109 0.000000 33.000000 14.232118 0.000000
-8.734473 -4.239815 -45.416296 0.000000 46.000000 14.511275 20.000000
-7.757798 -4.790414 -47.340778 0.000000 23.000000 14.237257 0.000000
-7.200334 -4.102298 -44.298052 0.000000 28.000000 14.265180 0.000000
-7.675354 -4.291893 -44.928251 0.000000 40.000000 14.252375 0.000000
-8.302705 -5.018580 -48.340520 0.000000 47.000000 14.265195 0.000000
-7.545338 -4.611410 -46.674963 0.000000 43.000000 14.261311 0.000000
-7.653638 -4.552796 -46.338546 0.000000 34.000000 14.265745 0.000000
-7.946279 -4.176635 -44.076077 0.000000 42.000000 14.230834 0.000000
-7.431387 -4.191475 -44.433064 0.000000 41.000000 14.229055 0.000000
-6.265250 -3.867836 -44.607075 0.000000 59.000000 14.451943 11.000000
-7.418546 -5.087833 -49.441613 0.000000 52.000000 14.312965 0.000000
-8.293173 -4.826183 -46.506845 0.000000 50.000000 14.100495 0.000000
-7.432458 -4.220299 -44.359862 0.000000 37.000000 14.187027 0.000000
-9.178375 -4.983546 -47.544146 0.000000 40.000000 14.241514 0.000000
-6.640273 -4.809145 -48.566751 0.000000 48.000000 14.332992 1.000000
-11.218195 -5.528743 -48.979100 0.000000 37.000000 14.205312 0.000000
-11.121895 -5.493276 -49.238145 0.000000 47.000000 14.279127 0.000000
-10.281668 -4.775285 -48.030837 0.000000 66.000000 14.657286 26.000000
-7.702601 -4.040558 -44.310588 0.000000 64.000000 14.382148 3.000000
-9.851620 -4.084965 -44.016804 0.000000 74.000000 14.515032 9.000000
-9.836468 -5.477219 -49.473400 0.000000 50.000000 14.200802 0.000000
-8.421625 -4.486788 -45.531936 0.000000 48.000000 14.258666 0.000000
-8.044754 -5.269993 -49.960459 0.000000 51.000000 14.302433 19.000000
-10.866492 -4.922434 -47.033876 0.000000 65.000000 14.385987 5.000000
-6.760217 -4.908184 -48.206971 0.000000 40.000000 14.180419 0.000000
-9.006839 -4.676341 -46.065101 0.000000 42.000000 14.239231 0.000000
-8.762972 -5.285869 -49.492720 0.000000 38.000000 14.275025 0.000000
-8.859218 -4.637043 -46.255203 0.000000 59.000000 14.298021 0.000000
-11.126331 -4.389323 -46.236456 0.000000 4.000000 14.781349 21.000000
-10.855987 -5.441765 -48.878511 0.000000 44.000000 14.231698 0.000000
-8.319536 -5.112679 -48.443639 0.000000 24.000000 14.194982 0.000000
-8.048616 -4.609160 -46.403464 0.000000 37.000000 14.265932 0.000000
-11.032995 -4.763890 -44.987429 0.000000 39.000000 14.166538 0.000000
-8.240628 -5.011591 -48.506457 0.000000 29.000000 14.297092 0.000000
-8.022980 -4.590752 -46.278356 0.000000 23.000000 14.257144 0.000000
-7.588286 -4.977588 -48.143683 0.000000 30.000000 14.190176 0.000000
-11.211667 -3.988443 -44.200201 0.000000 73.000000 14.791468 7.000000
-8.930805 -4.850012 -46.731604 0.000000 37.000000 14.189299 0.000000
-8.832026 -4.435310 -45.666095 0.000000 61.000000 14.378988 0.000000
-6.511175 -4.264841 -46.103660 0.000000 49.000000 14.378036 12.000000
-9.538067 -4.236215 -44.884064 0.000000 57.000000 14.499743 6.000000
-10.284379 -4.341439 -45.837284 0.000000 56.000000 14.660486 8.000000
-7.437598 -4.789693 -47.592380 0.000000 46.000000 14.251528 0.000000
-8.322823 -4.584325 -45.231606 0.000000 41.000000 14.095284 0.000000
-8.837542 -5.196725 -49.541889 0.000000 33.000000 14.379473 13.000000
-8.465275 -5.431993 -49.348185 0.000000 41.000000 14.072582 0.000000
-6.341550 -5.157259 -49.669879 0.000000 36.000000 14.172462 0.000000
-9.938383 -4.682937 -46.871063 0.000000 41.000000 14.488008 27.000000
-6.163997 -4.642811 -47.209063 0.000000 27.000000 14.183575 0.000000
-6.322841 -3.832285 -44.690928 0.000000 58.000000 14.508921 11.000000
-5.971479 -4.444315 -46.541635 0.000000 34.000000 14.228493 0.000000
-9.473645 -5.415730 -49.433041 0.000000 29.000000 14.213798 0.000000
