20.250579 7.728189 -16.795238 0.000000 35.000000 14.326019 0.000000
20.844494 8.240566 -21.669868 0.000000 43.000000 14.256449 0.000000
23.302692 9.691791 -20.546035 0.000000 40.000000 14.252974 0.000000
21.275986 8.116020 -15.552914 0.000000 36.000000 14.170345 0.000000
18.412509 7.121558 -19.126144 0.000000 64.000000 14.676324 27.000000
21.167078 8.284962 -17.908188 0.000000 24.000000 14.276631 0.000000
22.553815 9.178413 -18.194022 0.000000 34.000000 14.301446 0.000000
21.476415 8.393961 -15.819169 0.000000 30.000000 14.291640 0.000000
22.173911 8.866166 -16.971098 0.000000 38.000000 14.283104 0.000000
21.382587 8.433707 -21.226286 0.000000 36.000000 14.157560 0.000000
20.786522 8.197300 -21.211884 0.000000 36.000000 14.268270 0.000000
21.584542 8.636167 -21.620108 0.000000 44.000000 14.208655 0.000000
19.165958 6.914511 -17.779366 0.000000 43.000000 14.160316 0.000000
22.443153 9.060718 -19.622502 0.000000 42.000000 14.201718 0.000000
19.075620 7.171751 -17.114682 0.000000 62.000000 14.453275 9.000000
19.382053 7.279095 -19.027949 0.000000 45.000000 14.307800 0.000000
20.863834 8.073044 -19.103929 0.000000 41.000000 14.206628 0.000000
21.628894 8.712414 -21.132469 0.000000 42.000000 14.269982 0.000000
19.611072 7.991235 -21.784952 0.000000 54.000000 14.684006 23.000000
21.654960 8.725698 -20.978584 0.000000 46.000000 14.273849 0.000000
18.439874 7.202024 -20.583011 0.000000 51.000000 14.672098 30.000000
21.311113 8.503560 -19.740354 0.000000 45.000000 14.314022 0.000000
18.206819 6.973086 -19.970324 0.000000 48.000000 14.623486 30.000000
19.583806 7.511826 -21.629844 0.000000 42.000000 14.296182 0.000000
19.159076 6.913340 -17.979556 0.000000 39.000000 14.154883 0.000000
19.694902 7.333997 -19.799177 0.000000 42.000000 14.160134 0.000000
21.773715 8.743172 -20.381830 0.000000 38.000000 14.250620 0.000000
21.963131 8.928278 -17.938412 0.000000 55.000000 14.407332 18.000000
21.773090 8.759364 -20.221251 0.000000 48.000000 14.271181 0.000000
19.869330 7.505732 -20.269895 0.000000 35.000000 14.196360 0.000000
23.101414 9.533166 -19.826556 0.000000 39.000000 14.251924 0.000000
19.682255 7.370630 -19.524936 0.000000 40.000000 14.208946 0.000000
19.172455 6.971532 -18.463669 0.000000 40.000000 14.178026 0.000000
20.211613 7.692456 -17.623642 0.000000 58.000000 14.282708 0.000000
21.697471 8.716714 -16.925269 0.000000 37.000000 14.406623 12.000000
20.476432 8.097823 -22.173686 0.000000 37.000000 14.306994 0.000000
21.824700 8.767930 -19.622349 0.000000 48.000000 14.275538 0.000000
18.721863 7.094436 -17.830149 0.000000 47.000000 14.543575 21.000000
17.998557 6.682332 -17.747943 0.000000 51.000000 14.573862 28.000000
21.880853 8.737184 -19.342065 0.000000 40.000000 14.231257 0.000000
21.590758 8.471889 -18.007841 0.000000 36.000000 14.210438 0.000000
17.779148 6.658532 -17.873258 0.000000 65.000000 14.663215 28.000000
21.650663 8.427351 -17.880888 0.000000 27.000000 14.146298 0.000000
21.628445 8.602819 -19.485463 0.000000 39.000000 14.242964 0.000000
19.063588 7.498440 -20.019486 0.000000 82.000000 14.621237 10.000000
18.224147 6.842722 -18.548197 0.000000 74.000000 14.560468 28.000000
21.855522 8.620696 -15.501782 0.000000 24.000000 14.299376 0.000000
21.806330 8.741968 -18.428652 0.000000 33.000000 14.310924 0.000000
19.277459 7.059897 -18.217581 0.000000 42.000000 14.208288 0.000000
21.237209 8.359884 -17.634663 0.000000 47.000000 14.314768 0.000000
21.844928 8.709405 -16.653284 0.000000 40.000000 14.334258 0.000000
21.944728 8.615189 -18.197633 0.000000 29.000000 14.139900 0.000000
20.278135 7.885526 -20.773362 0.000000 50.000000 14.285996 0.000000
22.045389 8.917525 -19.988520 0.000000 26.000000 14.272929 0.000000
19.836761 7.466539 -20.518711 0.000000 45.000000 14.170016 0.000000
18.817418 7.311146 -19.174771 0.000000 77.000000 14.624255 10.000000
19.822415 7.532172 -16.999379 0.000000 52.000000 14.374623 8.000000
21.813925 8.629583 -17.740794 0.000000 35.000000 14.238841 0.000000
19.226819 7.201291 -17.815886 0.000000 54.000000 14.371289 9.000000
20.974850 8.711560 -22.137250 0.000000 59.000000 14.570707 15.000000
21.567906 8.335182 -16.575563 0.000000 28.000000 14.163421 0.000000
22.567921 9.615043 -17.868932 0.000000 55.000000 14.678982 4.000000
19.560976 7.357075 -18.729212 0.000000 53.000000 14.292704 0.000000
18.493025 7.190345 -19.754205 0.000000 67.000000 14.667633 30.000000
17.913039 6.531115 -18.293251 0.000000 55.000000 14.467882 28.000000
21.767451 8.528094 -17.201888 0.000000 31.000000 14.198315 0.000000
19.493191 7.798917 -20.719877 0.000000 49.000000 14.624551 23.000000
18.918716 7.180986 -20.799961 0.000000 35.000000 14.395258 30.000000
21.435221 8.292707 -16.010691 0.000000 31.000000 14.219247 0.000000
18.956531 7.743676 -19.617127 0.000000 72.000000 14.902182 10.000000
23.079669 9.501772 -19.983712 0.000000 31.000000 14.230244 0.000000
19.320916 7.127270 -18.335915 0.000000 53.000000 14.238210 0.000000
19.358731 7.972865 -22.696197 0.000000 61.000000 14.763658 17.000000
21.919549 8.730186 -17.196614 0.000000 54.000000 14.291162 0.000000
22.745294 9.609331 -18.387027 0.000000 45.000000 14.560642 4.000000
21.268210 8.505872 -19.813247 0.000000 52.000000 14.335486 0.000000
21.525864 8.416654 -16.403356 0.000000 26.000000 14.261687 0.000000
22.316094 9.408902 -18.962417 0.000000 52.000000 14.591135 18.000000
18.937616 7.665958 -21.722179 0.000000 79.000000 14.761412 29.000000
19.651484 7.293433 -19.721967 0.000000 34.000000 14.151373 0.000000
19.975916 7.731180 -20.394024 0.000000 54.000000 14.327690 0.000000
19.615279 7.269329 -20.023867 0.000000 36.000000 14.137650 0.000000
21.323868 8.195282 -15.700621 0.000000 31.000000 14.206902 0.000000
19.120683 7.033315 -16.748919 0.000000 57.000000 14.326502 0.000000
22.326149 8.971396 -17.835966 0.000000 45.000000 14.258470 0.000000
19.429613 7.494877 -22.121843 0.000000 41.000000 14.342579 0.000000
19.516687 7.449874 -22.006413 0.000000 37.000000 14.263383 0.000000
19.643534 7.625736 -19.153937 0.000000 62.000000 14.461331 25.000000
19.552238 7.473700 -21.685731 0.000000 45.000000 14.277965 0.000000
19.571805 7.522970 -19.101679 0.000000 44.000000 14.413387 25.000000
18.687713 6.820139 -18.393622 0.000000 54.000000 14.305202 0.000000
20.428292 8.668321 -19.936757 0.000000 54.000000 14.907780 26.000000
19.779816 7.393789 -20.509851 0.000000 35.000000 14.138169 0.000000
19.668106 7.712503 -19.332130 0.000000 58.000000 14.515237 25.000000
19.753663 7.420857 -20.335389 0.000000 47.000000 14.181888 0.000000
19.794585 7.386411 -20.200730 0.000000 33.000000 14.136571 0.000000
18.965817 7.613493 -21.938595 0.000000 66.000000 14.693309 29.000000
22.724424 9.202159 -18.482324 0.000000 32.000000 14.220951 0.000000
20.053333 7.618360 -20.954729 0.000000 43.000000 14.168652 0.000000
19.768170 7.402778 -19.877532 0.000000 35.000000 14.177283 0.000000
18.354637 6.737524 -18.556423 0.000000 43.000000 14.402357 28.000000
20.407848 8.639913 -20.010538 0.000000 47.000000 14.891307 26.000000
18.224028 7.072154 -19.812629 0.000000 70.000000 14.705194 30.000000
22.470664 9.102762 -19.672144 0.000000 32.000000 14.221157 0.000000
20.081589 7.992738 -15.937709 0.000000 56.000000 14.674040 2.000000
22.073093 8.790304 -16.483280 0.000000 44.000000 14.290751 0.000000
20.387971 7.639450 -17.690038 0.000000 51.000000 14.142745 0.000000
21.364287 8.261690 -15.670533 0.000000 36.000000 14.243546 0.000000
18.971522 7.695791 -19.515314 0.000000 69.000000 14.857653 10.000000
19.600101 7.370645 -18.344512 0.000000 38.000000 14.299252 0.000000
17.849304 6.709046 -17.757556 0.000000 43.000000 14.674219 28.000000
19.868013 7.663564 -20.577796 0.000000 46.000000 14.319114 0.000000
19.512807 7.305755 -17.772818 0.000000 37.000000 14.312542 0.000000
19.729311 7.496514 -18.661983 0.000000 43.000000 14.326193 0.000000
19.501255 7.275108 -17.636583 0.000000 38.000000 14.297944 0.000000
22.051049 8.937587 -20.234334 0.000000 30.000000 14.277195 0.000000
17.963275 6.626087 -18.714946 0.000000 61.000000 14.505594 28.000000
19.704657 7.425375 -18.398558 0.000000 48.000000 14.289060 0.000000
18.430094 7.086132 -19.113779 0.000000 57.000000 14.637461 27.000000
20.795110 8.550312 -20.677887 0.000000 70.000000 14.585857 26.000000
22.675717 9.535591 -17.767840 0.000000 40.000000 14.559043 4.000000
20.020113 7.820164 -16.110754 0.000000 63.000000 14.552246 2.000000
20.989098 8.499324 -18.782191 0.000000 69.000000 14.517129 16.000000
19.350497 7.168030 -16.948760 0.000000 36.000000 14.313127 0.000000
20.210022 7.870241 -16.056223 0.000000 69.000000 14.497845 2.000000
19.089256 7.127445 -20.018248 0.000000 44.000000 14.291910 0.000000
19.816959 7.530458 -19.937762 0.000000 28.000000 14.258112 0.000000
19.251727 7.081050 -16.551810 0.000000 36.000000 14.306588 0.000000
19.024349 7.712886 -21.455088 0.000000 71.000000 14.766773 29.000000
20.866072 8.115047 -17.208982 0.000000 33.000000 14.317266 0.000000
22.338151 9.039770 -19.516219 0.000000 48.000000 14.243010 0.000000
19.374215 7.180945 -17.213076 0.000000 38.000000 14.301127 0.000000
19.335798 7.145595 -17.092653 0.000000 39.000000 14.295927 0.000000
19.245488 7.661538 -21.023693 0.000000 54.000000 14.624796 23.000000
19.962227 7.556623 -20.683768 0.000000 36.000000 14.174552 0.000000
23.760141 9.811563 -20.252646 0.000000 23.000000 14.127712 0.000000
18.533730 7.372604 -21.051210 0.000000 72.000000 14.749545 29.000000
19.714058 7.332489 -20.216560 0.000000 35.000000 14.132092 0.000000
22.427976 9.121245 -20.752094 0.000000 42.000000 14.215873 0.000000
21.191339 8.327133 -20.982725 0.000000 44.000000 14.176504 0.000000
18.280282 7.083486 -19.349040 0.000000 64.000000 14.704051 27.000000
22.136188 8.791236 -15.267340 0.000000 28.000000 14.307364 0.000000
22.784421 9.296321 -18.777899 0.000000 30.000000 14.257934 0.000000
20.139450 7.699084 -21.147813 0.000000 40.000000 14.184655 0.000000
18.291388 6.701645 -16.935029 0.000000 64.000000 14.469910 1.000000
22.335943 9.043648 -19.086992 0.000000 34.000000 14.264690 0.000000
22.230755 8.981785 -19.170665 0.000000 37.000000 14.263612 0.000000
18.527775 6.720239 -16.618559 0.000000 43.000000 14.374920 1.000000
22.228641 8.854582 -19.297954 0.000000 31.000000 14.151274 0.000000
22.028918 8.848074 -17.385586 0.000000 30.000000 14.326831 0.000000
19.202174 7.034498 -16.692478 0.000000 58.000000 14.287191 0.000000
22.188984 9.346743 -18.877334 0.000000 45.000000 14.608031 18.000000
21.523881 8.631503 -21.850734 0.000000 48.000000 14.227127 0.000000
22.446221 9.145049 -19.286248 0.000000 43.000000 14.285429 0.000000
18.979969 6.995141 -22.015668 0.000000 36.000000 14.156192 0.000000
19.690517 7.315480 -16.244983 0.000000 24.000000 14.289267 0.000000
18.804757 7.742419 -21.054266 0.000000 70.000000 14.922756 29.000000
22.016197 8.999292 -20.759294 0.000000 46.000000 14.326895 0.000000
21.602489 8.642546 -19.695985 0.000000 46.000000 14.281914 0.000000
21.949457 8.920103 -20.869884 0.000000 51.000000 14.289890 0.000000
20.010369 7.619178 -19.180224 0.000000 41.000000 14.263001 0.000000
18.361780 6.575527 -17.449357 0.000000 36.000000 14.305078 0.000000
21.974079 8.863789 -17.789847 0.000000 34.000000 14.352649 18.000000
20.031300 7.692938 -19.933643 0.000000 53.000000 14.284652 0.000000
19.623550 8.002259 -21.450299 0.000000 75.000000 14.700303 23.000000
21.671592 8.748889 -21.167769 0.000000 41.000000 14.277318 0.000000
22.217899 9.010531 -18.741408 0.000000 41.000000 14.312035 0.000000
21.566953 8.703896 -21.260634 0.000000 46.000000 14.289951 0.000000
21.516159 8.622950 -21.387226 0.000000 48.000000 14.242476 0.000000
20.328719 8.212697 -17.003575 0.000000 51.000000 14.689466 7.000000
18.678348 7.200918 -18.686160 0.000000 64.000000 14.622653 21.000000
20.013407 7.752297 -20.639866 0.000000 51.000000 14.316219 0.000000
22.453008 9.400244 -17.573158 0.000000 61.000000 14.567960 4.000000
20.906012 8.236970 -18.605888 0.000000 41.000000 14.344182 16.000000
22.232747 9.472345 -18.958588 0.000000 50.000000 14.688873 18.000000
19.449702 7.414542 -18.053215 0.000000 58.000000 14.426917 9.000000
21.879798 8.861567 -20.198367 0.000000 41.000000 14.303382 0.000000
21.615944 8.376848 -17.218354 0.000000 25.000000 14.148013 0.000000
20.456779 8.505997 -20.045741 0.000000 51.000000 14.750275 26.000000
20.301699 7.887164 -21.309546 0.000000 42.000000 14.253563 0.000000
18.956401 7.494728 -21.970952 0.000000 75.000000 14.595783 29.000000
20.722394 8.487680 -19.858393 0.000000 67.000000 14.603396 26.000000
19.734205 7.646827 -22.150176 0.000000 41.000000 14.311689 0.000000
23.260032 9.690197 -20.481816 0.000000 32.000000 14.276484 0.000000
21.183086 8.381551 -18.402940 0.000000 63.000000 14.330675 0.000000
19.322850 7.919951 -21.192132 0.000000 62.000000 14.797693 23.000000
20.192212 7.676236 -17.914626 0.000000 43.000000 14.267357 0.000000
19.615539 7.363240 -17.234141 0.000000 59.000000 14.329432 0.000000
19.148587 7.585798 -21.097446 0.000000 36.000000 14.607967 29.000000
19.789275 7.605254 -17.649762 0.000000 51.000000 14.428085 8.000000
19.687357 8.136741 -22.509362 0.000000 76.000000 14.738999 22.000000
23.251952 9.700600 -20.665094 0.000000 34.000000 14.282212 0.000000
18.880547 7.211141 -18.503672 0.000000 54.000000 14.533024 21.000000
17.769841 6.357186 -17.688615 0.000000 45.000000 14.418842 28.000000
20.332770 7.927364 -22.082351 0.000000 36.000000 14.240554 0.000000
18.390291 6.574523 -20.089463 0.000000 43.000000 14.183390 0.000000
18.140928 6.391393 -19.009951 0.000000 40.000000 14.201045 0.000000
18.325681 6.566063 -19.934184 0.000000 43.000000 14.216178 0.000000
20.109269 7.738269 -18.491759 0.000000 42.000000 14.340372 0.000000
20.890589 8.160293 -18.407142 0.000000 52.000000 14.294913 0.000000
18.262865 6.477527 -19.671407 0.000000 41.000000 14.184144 0.000000
21.087672 8.308458 -20.124244 0.000000 56.000000 14.249216 0.000000
18.383922 6.968173 -17.866794 0.000000 71.000000 14.611162 21.000000
22.343529 9.094577 -21.017117 0.000000 30.000000 14.226654 0.000000
17.936822 6.223835 -18.331580 0.000000 36.000000 14.192216 0.000000
19.553837 7.574083 -21.448461 0.000000 54.000000 14.372143 23.000000
17.882258 6.198249 -18.197339 0.000000 36.000000 14.204325 0.000000
19.706226 7.948490 -19.668988 0.000000 77.000000 14.682783 24.000000
17.799609 6.201618 -18.049523 0.000000 39.000000 14.256313 0.000000
17.734474 6.184897 -17.911715 0.000000 38.000000 14.281638 0.000000
23.092466 9.696604 -19.573944 0.000000 52.000000 14.405931 20.000000
17.677965 6.062417 -17.678225 0.000000 37.000000 14.216224 0.000000
20.086624 7.692731 -16.127377 0.000000 46.000000 14.408293 2.000000
21.258224 8.390516 -17.869219 0.000000 57.000000 14.320463 0.000000
22.964321 9.245580 -16.850198 0.000000 29.000000 14.198062 0.000000
18.990404 6.852626 -17.802566 0.000000 37.000000 14.198415 0.000000
22.890241 9.165996 -16.922017 0.000000 30.000000 14.166112 0.000000
18.223412 6.492137 -19.250324 0.000000 26.000000 14.234098 0.000000
22.626308 9.201452 -16.945636 0.000000 27.000000 14.333278 0.000000
20.313725 7.807207 -21.591728 0.000000 50.000000 14.167860 0.000000
19.223636 6.937162 -18.209397 0.000000 40.000000 14.132213 0.000000
18.719311 7.471013 -21.473483 0.000000 73.000000 14.719438 29.000000
18.502189 7.076313 -20.383019 0.000000 68.000000 14.540497 30.000000
22.135931 8.805267 -19.388022 0.000000 39.000000 14.154106 0.000000
21.687604 8.739051 -21.941669 0.000000 60.000000 14.229519 0.000000
17.986812 6.652662 -18.792727 0.000000 41.000000 14.512808 28.000000
21.956862 8.789244 -17.478510 0.000000 45.000000 14.310651 0.000000
19.371560 7.161902 -16.378661 0.000000 59.000000 14.319776 0.000000
19.066562 7.122569 -20.030580 0.000000 50.000000 14.299121 0.000000
21.564323 8.332413 -16.533998 0.000000 29.000000 14.164603 0.000000
20.628616 7.895337 -18.806701 0.000000 38.000000 14.190120 0.000000
21.439676 8.303846 -16.614165 0.000000 32.000000 14.202191 0.000000
18.704399 6.818361 -17.435024 0.000000 47.000000 14.333432 0.000000
21.353006 8.251412 -16.706459 0.000000 28.000000 14.199120 0.000000
21.270372 8.426495 -18.582486 0.000000 27.000000 14.316137 0.000000
21.201917 8.130159 -15.576071 0.000000 37.000000 14.220162 0.000000
21.442639 8.464387 -18.018055 0.000000 42.000000 14.281038 0.000000
22.118397 9.235786 -18.710196 0.000000 52.000000 14.557124 18.000000
20.324432 8.024584 -17.113664 0.000000 66.000000 14.527079 7.000000
20.859070 8.059440 -17.171386 0.000000 34.000000 14.275075 0.000000
21.395468 8.292000 -16.924298 0.000000 34.000000 14.202759 0.000000
21.102842 8.286870 -18.405380 0.000000 49.000000 14.291872 0.000000
18.329243 7.137321 -19.228176 0.000000 70.000000 14.729166 27.000000
20.495646 7.922329 -17.568579 0.000000 36.000000 14.332271 0.000000
20.463432 7.845920 -17.693106 0.000000 34.000000 14.279033 0.000000
20.820255 8.096186 -18.833345 0.000000 39.000000 14.259967 0.000000
20.467193 7.744291 -17.832040 0.000000 42.000000 14.184939 0.000000
21.088333 8.407407 -18.944408 0.000000 37.000000 14.380483 16.000000
19.358806 7.696860 -21.352319 0.000000 68.000000 14.582479 23.000000
20.683033 8.134684 -21.400043 0.000000 49.000000 14.261471 0.000000
21.073066 8.190992 -16.327309 0.000000 30.000000 14.309158 0.000000
22.173682 9.362972 -18.827102 0.000000 57.000000 14.631864 18.000000
19.882342 7.467202 -20.287876 0.000000 29.000000 14.156025 0.000000
20.474723 7.986889 -19.250920 0.000000 45.000000 14.330684 0.000000
22.624576 9.089826 -20.608203 0.000000 38.000000 14.092154 0.000000
19.086821 7.488280 -22.085164 0.000000 54.000000 14.517558 29.000000
21.865520 8.838330 -20.297842 0.000000 45.000000 14.287061 0.000000
19.056994 7.210408 -17.802369 0.000000 67.000000 14.468337 9.000000
20.929611 8.098288 -17.912071 0.000000 39.000000 14.241580 0.000000
22.407904 9.108879 -20.912835 0.000000 25.000000 14.209379 0.000000
17.926846 6.507186 -18.814310 0.000000 57.000000 14.419381 28.000000
22.436726 9.010258 -17.313178 0.000000 45.000000 14.254763 0.000000
18.943667 6.942772 -17.072239 0.000000 45.000000 14.328916 0.000000
18.302047 7.033271 -18.973550 0.000000 62.000000 14.664978 27.000000
18.807076 6.880019 -21.466120 0.000000 27.000000 14.170543 0.000000
18.822446 6.845765 -17.664459 0.000000 51.000000 14.285879 0.000000
17.843759 6.476121 -17.627690 0.000000 50.000000 14.483953 28.000000
19.426584 8.120059 -21.282322 0.000000 70.000000 14.910293 23.000000
19.612770 7.314565 -19.387694 0.000000 39.000000 14.203013 0.000000
20.404919 8.019028 -21.533007 0.000000 41.000000 14.302963 0.000000
18.986089 6.945227 -18.130788 0.000000 33.000000 14.266365 0.000000
21.890426 8.666753 -16.096415 0.000000 39.000000 14.296502 0.000000
21.365768 8.465396 -19.572184 0.000000 44.000000 14.259707 0.000000
19.954327 7.817534 -17.838504 0.000000 37.000000 14.515056 8.000000
23.114636 9.575690 -19.773397 0.000000 34.000000 14.283365 0.000000
19.118321 7.144171 -20.575820 0.000000 43.000000 14.268594 0.000000
19.295680 7.330310 -22.328726 0.000000 50.000000 14.264109 0.000000
20.109000 7.748308 -19.139136 0.000000 52.000000 14.323086 0.000000
18.215678 6.478760 -16.971498 0.000000 24.000000 14.318185 0.000000
19.415103 7.488625 -21.990921 0.000000 42.000000 14.350090 29.000000
22.740405 9.240202 -18.941768 0.000000 30.000000 14.226564 0.000000
19.353824 7.434321 -20.239862 0.000000 45.000000 14.406124 10.000000
20.001590 7.373911 -16.109136 0.000000 43.000000 14.181931 0.000000
19.876489 7.381327 -16.188276 0.000000 40.000000 14.250443 0.000000
19.784593 7.361415 -16.277746 0.000000 40.000000 14.277914 0.000000
20.599211 7.965907 -18.810291 0.000000 52.000000 14.265444 0.000000
18.666869 7.275102 -18.609305 0.000000 73.000000 14.694916 21.000000
20.957571 8.405992 -19.269130 0.000000 48.000000 14.434578 16.000000
19.022231 7.022342 -18.493308 0.000000 49.000000 14.298609 0.000000
19.251078 7.121286 -17.092613 0.000000 44.000000 14.319495 0.000000
19.100348 7.025773 -17.432639 0.000000 39.000000 14.303271 0.000000
19.101000 6.950595 -17.568075 0.000000 35.000000 14.233470 0.000000
19.720765 7.360989 -19.703830 0.000000 36.000000 14.173434 0.000000
18.861264 7.417429 -18.999897 0.000000 63.000000 14.698877 10.000000
19.064715 6.839659 -17.830199 0.000000 38.000000 14.147432 0.000000
18.483864 6.618887 -17.059071 0.000000 36.000000 14.293872 0.000000
18.432456 6.606170 -17.181913 0.000000 37.000000 14.304976 0.000000
23.101349 9.539858 -19.509659 0.000000 47.000000 14.270373 0.000000
18.102950 6.910239 -18.875806 0.000000 53.000000 14.668156 27.000000
18.705154 6.804097 -18.535021 0.000000 37.000000 14.276752 0.000000
18.317343 6.545056 -17.570308 0.000000 36.000000 14.297495 0.000000
18.662198 6.790273 -18.662005 0.000000 40.000000 14.282330 0.000000
20.428720 8.175852 -17.511537 0.000000 52.000000 14.585449 7.000000
19.564170 7.286335 -17.751631 0.000000 50.000000 14.270014 0.000000
21.232807 8.342481 -20.997453 0.000000 37.000000 14.167315 0.000000
20.633990 7.844549 -18.444130 0.000000 30.000000 14.158606 0.000000
19.673873 7.411450 -18.260923 0.000000 28.000000 14.298810 0.000000
22.684467 9.206332 -20.700887 0.000000 31.000000 14.156363 0.000000
19.559460 7.597912 -22.423131 0.000000 34.000000 14.350390 17.000000
18.813840 6.647917 -17.018017 0.000000 46.000000 14.147815 0.000000
18.082034 6.316830 -19.105247 0.000000 39.000000 14.164494 0.000000
18.302066 6.801688 -18.795280 0.000000 42.000000 14.474890 27.000000
21.061067 8.210072 -19.748389 0.000000 55.000000 14.194407 0.000000
22.711605 9.049304 -15.979518 0.000000 25.000000 14.197893 0.000000
19.063499 6.947347 -17.488314 0.000000 48.000000 14.253499 0.000000
22.643991 9.832345 -20.776610 0.000000 46.000000 14.707629 3.000000
21.494597 8.460738 -15.571511 0.000000 66.000000 14.348948 13.000000
22.005745 8.963638 -21.110582 0.000000 43.000000 14.287896 0.000000
22.847673 9.361817 -20.895653 0.000000 33.000000 14.195687 0.000000
19.146802 7.550578 -21.048681 0.000000 35.000000 14.580861 29.000000
20.662991 7.927735 -16.190589 0.000000 50.000000 14.304722 0.000000
19.326244 7.198231 -19.124448 0.000000 46.000000 14.264222 0.000000
22.100361 8.968938 -20.506319 0.000000 34.000000 14.267215 0.000000
20.182861 7.761949 -21.118289 0.000000 38.000000 14.216694 0.000000
19.105167 7.529019 -20.130893 0.000000 52.000000 14.621082 10.000000
22.202797 8.955560 -16.497823 0.000000 54.000000 14.363133 5.000000
17.746366 6.136308 -18.052414 0.000000 36.000000 14.228397 0.000000
19.674429 7.371782 -17.627440 0.000000 47.000000 14.290154 0.000000
20.087466 7.794075 -16.118651 0.000000 66.000000 14.494514 2.000000
22.418633 8.947551 -19.995174 0.000000 28.000000 14.103196 0.000000
21.714116 8.523197 -15.412286 0.000000 37.000000 14.293822 0.000000
22.367759 9.019287 -19.809763 0.000000 30.000000 14.198315 0.000000
18.579335 7.369621 -20.579409 0.000000 63.000000 14.742104 30.000000
18.367116 7.333988 -20.067120 0.000000 48.000000 14.843207 30.000000
22.432079 9.048858 -19.514984 0.000000 27.000000 14.201718 0.000000
18.992681 7.574970 -21.181946 0.000000 71.000000 14.676822 29.000000
22.490909 9.443390 -17.862089 0.000000 54.000000 14.573307 4.000000
20.211189 7.791984 -21.232926 0.000000 33.000000 14.222872 0.000000
21.176448 8.321585 -19.937284 0.000000 42.000000 14.221508 0.000000
20.500317 8.016827 -21.305714 0.000000 54.000000 14.260359 0.000000
22.819387 9.330511 -21.035228 0.000000 26.000000 14.178206 0.000000
18.370703 7.158887 -17.859994 0.000000 74.000000 14.780766 21.000000
22.073229 8.714439 -18.685986 0.000000 33.000000 14.137686 0.000000
20.045943 7.743579 -17.951883 0.000000 60.000000 14.399648 8.000000
19.404626 7.381476 -21.593278 0.000000 39.000000 14.280266 0.000000
22.180394 8.943615 -20.144165 0.000000 27.000000 14.218358 0.000000
23.962237 9.951868 -21.038297 0.000000 27.000000 14.110076 0.000000
19.574375 7.339873 -18.419821 0.000000 53.000000 14.283466 0.000000
19.522268 7.723912 -19.035245 0.000000 69.000000 14.613073 25.000000
22.014818 9.004700 -20.656344 0.000000 43.000000 14.336352 0.000000
21.115609 8.372718 -19.584875 0.000000 57.000000 14.310987 0.000000
22.566887 9.133661 -17.140250 0.000000 30.000000 14.298784 0.000000
20.462387 7.835820 -16.300548 0.000000 46.000000 14.326854 0.000000
22.559282 9.049115 -16.440740 0.000000 26.000000 14.258821 0.000000
23.205254 9.628819 -19.898902 0.000000 28.000000 14.276225 0.000000
20.446735 7.964780 -21.089975 0.000000 52.000000 14.252687 0.000000
22.951303 9.196064 -17.253809 0.000000 29.000000 14.146498 0.000000
22.649626 9.595102 -20.036486 0.000000 50.000000 14.532331 3.000000
22.896719 9.194083 -17.111032 0.000000 29.000000 14.179063 0.000000
22.492400 9.534227 -20.260869 0.000000 66.000000 14.553641 3.000000
18.079578 6.776461 -18.643366 0.000000 62.000000 14.575762 28.000000
22.572488 8.918487 -15.908799 0.000000 24.000000 14.162013 0.000000
22.883969 9.122957 -16.852930 0.000000 27.000000 14.135506 0.000000
18.927514 7.039491 -21.846834 0.000000 24.000000 14.228148 0.000000
22.855909 9.097037 -16.721500 0.000000 26.000000 14.133367 0.000000
22.332419 8.975367 -20.004250 0.000000 40.000000 14.171574 0.000000
22.881256 9.284813 -21.445810 0.000000 26.000000 14.090481 0.000000
19.627068 7.271507 -19.149169 0.000000 37.000000 14.168442 0.000000
19.213670 6.970382 -18.068622 0.000000 43.000000 14.171361 0.000000
20.388095 7.794123 -18.335850 0.000000 46.000000 14.248496 0.000000
22.083983 9.012651 -17.958640 0.000000 42.000000 14.415227 18.000000
19.091379 7.006375 -16.445830 0.000000 48.000000 14.331033 0.000000
20.515144 7.895884 -18.651386 0.000000 30.000000 14.256113 0.000000
19.500723 7.526032 -20.768627 0.000000 59.000000 14.386252 23.000000
18.800506 7.166376 -19.489057 0.000000 52.000000 14.497186 10.000000
22.285467 9.399440 -18.733525 0.000000 58.000000 14.608264 18.000000
22.562820 8.905121 -15.861430 0.000000 27.000000 14.157583 0.000000
18.615904 6.652900 -17.144645 0.000000 51.000000 14.250409 0.000000
19.758346 8.361622 -22.458010 0.000000 44.000000 14.895488 22.000000
22.368835 8.833813 -15.516779 0.000000 27.000000 14.212048 0.000000
21.530672 8.661068 -21.247114 0.000000 35.000000 14.272978 0.000000
22.248402 8.765695 -15.305064 0.000000 31.000000 14.225461 0.000000
18.287755 6.533175 -17.457524 0.000000 23.000000 14.307362 0.000000
21.895783 8.874295 -20.064084 0.000000 40.000000 14.311256 0.000000
19.067911 6.979520 -17.355525 0.000000 48.000000 14.283922 0.000000
20.258371 7.756009 -21.584484 0.000000 38.000000 14.153472 0.000000
20.857748 8.122997 -18.263842 0.000000 51.000000 14.286060 0.000000
19.095321 7.154207 -17.747729 0.000000 52.000000 14.402637 9.000000
20.242228 7.843644 -21.233731 0.000000 39.000000 14.250617 0.000000
19.699671 7.939170 -21.312925 0.000000 57.000000 14.612308 23.000000
20.531906 8.156851 -21.981620 0.000000 54.000000 14.335985 0.000000
18.364880 7.117320 -19.697872 0.000000 63.000000 14.674663 30.000000
19.932295 7.585574 -20.801254 0.000000 32.000000 14.210137 0.000000
21.271477 8.493750 -20.839503 0.000000 25.000000 14.282276 0.000000
19.265214 7.645862 -20.122819 0.000000 71.000000 14.637285 10.000000
20.329057 7.892909 -20.621469 0.000000 42.000000 14.271769 0.000000
20.669168 8.120567 -21.560843 0.000000 47.000000 14.250241 0.000000
23.116477 9.530016 -18.311967 0.000000 27.000000 14.302143 0.000000
20.065576 7.768030 -17.601838 0.000000 58.000000 14.424259 8.000000
18.836714 6.934393 -18.984561 0.000000 44.000000 14.300936 0.000000
21.726942 8.498769 -17.120654 0.000000 34.000000 14.197767 0.000000
21.477212 8.644289 -18.492883 0.000000 68.000000 14.397136 14.000000
21.121937 8.437463 -19.224071 0.000000 53.000000 14.377299 16.000000
18.959005 7.494871 -19.834494 0.000000 77.000000 14.680269 10.000000
20.679457 8.166972 -20.914891 0.000000 51.000000 14.310305 0.000000
21.687403 8.760419 -20.909908 0.000000 35.000000 14.289222 0.000000
19.739110 7.747644 -19.400216 0.000000 68.000000 14.505330 25.000000
19.808540 7.802866 -21.507388 0.000000 54.000000 14.431530 23.000000
20.394506 7.954248 -19.396300 0.000000 50.000000 14.338969 0.000000
19.293853 7.021132 -18.394413 0.000000 22.000000 14.159611 0.000000
19.185622 7.068262 -16.915911 0.000000 48.000000 14.315631 0.000000
20.427914 7.923146 -18.811681 0.000000 42.000000 14.318481 0.000000
17.906628 6.286546 -17.120558 0.000000 42.000000 14.309995 0.000000
18.905908 7.091022 -21.721474 0.000000 55.000000 14.288356 0.000000
20.737334 8.101561 -19.571507 0.000000 45.000000 14.278256 0.000000
22.666174 9.188840 -17.458311 0.000000 31.000000 14.281134 0.000000
18.948095 6.932464 -17.220371 0.000000 47.000000 14.311880 0.000000
18.509215 7.262604 -18.002206 0.000000 60.000000 14.791013 21.000000
17.981997 6.312062 -16.979670 0.000000 43.000000 14.297995 0.000000
19.220933 6.957458 -18.128756 0.000000 40.000000 14.154146 0.000000
20.809426 7.995076 -19.170547 0.000000 56.000000 14.165983 0.000000
19.038345 7.498776 -20.980073 0.000000 41.000000 14.596170 29.000000
18.120192 6.800280 -18.382686 0.000000 54.000000 14.585284 28.000000
18.158668 6.358682 -19.183185 0.000000 37.000000 14.156965 0.000000
20.332423 7.896024 -20.682088 0.000000 58.000000 14.270231 0.000000
19.882509 7.881787 -17.780745 0.000000 39.000000 14.609623 8.000000
18.606554 7.307274 -20.182789 0.000000 51.000000 14.690696 30.000000
18.732700 7.318092 -18.413073 0.000000 80.000000 14.705003 21.000000
19.265546 7.230944 -18.900914 0.000000 55.000000 14.332770 0.000000
18.889902 7.721014 -19.571572 0.000000 73.000000 14.919527 10.000000
20.721125 7.925285 -18.450334 0.000000 33.000000 14.181585 0.000000
20.681924 8.350485 -20.727372 0.000000 57.000000 14.472831 26.000000
18.184368 6.887512 -18.833453 0.000000 67.000000 14.607954 27.000000
20.341558 7.773685 -17.238850 0.000000 35.000000 14.299425 0.000000
20.602464 7.946060 -18.143515 0.000000 36.000000 14.273596 0.000000
22.637281 8.972805 -15.991861 0.000000 22.000000 14.171083 0.000000
19.227313 7.321428 -18.038533 0.000000 30.000000 14.464413 9.000000
20.545622 8.095745 -20.739306 0.000000 45.000000 14.326624 0.000000
20.327598 7.806379 -16.936756 0.000000 40.000000 14.346686 7.000000
21.011899 8.237715 -19.523745 0.000000 50.000000 14.252657 0.000000
20.970078 8.477219 -19.204624 0.000000 70.000000 14.491292 16.000000
22.224470 8.823972 -19.084309 0.000000 26.000000 14.135957 0.000000
20.185750 7.650554 -16.420478 0.000000 34.000000 14.308813 0.000000
20.592735 8.209750 -20.471657 0.000000 75.000000 14.409839 26.000000
20.282642 7.756407 -16.942877 0.000000 35.000000 14.327372 0.000000
19.667490 7.423740 -17.205595 0.000000 51.000000 14.354957 8.000000
20.240834 7.665437 -16.708779 0.000000 35.000000 14.281137 0.000000
20.229448 7.608334 -16.596296 0.000000 30.000000 14.242967 0.000000
18.602615 6.761489 -19.401214 0.000000 28.000000 14.259290 0.000000
19.003294 6.981561 -22.056929 0.000000 44.000000 14.130783 0.000000
20.014850 7.499041 -16.128769 0.000000 39.000000 14.280783 0.000000
17.958395 6.714737 -18.752462 0.000000 70.000000 14.582139 28.000000
20.988763 8.348369 -20.498342 0.000000 43.000000 14.319880 0.000000
19.833643 8.344178 -22.411325 0.000000 72.000000 14.843158 22.000000
18.784857 7.568375 -19.531620 0.000000 52.000000 14.846024 10.000000
23.230917 9.660806 -20.149411 0.000000 40.000000 14.280005 0.000000
19.670283 7.459684 -18.612189 0.000000 35.000000 14.327670 0.000000
19.264867 7.110516 -16.527386 0.000000 51.000000 14.325798 0.000000
23.445500 9.598221 -18.715508 0.000000 42.000000 14.172109 0.000000
22.308026 9.098442 -16.890279 0.000000 54.000000 14.414087 5.000000
19.581761 7.515513 -22.070211 0.000000 48.000000 14.282721 0.000000
20.237614 7.764696 -21.322008 0.000000 25.000000 14.182249 0.000000
22.029951 8.982322 -20.846601 0.000000 40.000000 14.301751 0.000000
21.955219 8.895299 -20.947314 0.000000 45.000000 14.262648 0.000000
20.740076 8.004197 -18.366570 0.000000 34.000000 14.242250 0.000000
21.704671 8.791618 -21.097766 0.000000 53.000000 14.299232 0.000000
18.757196 7.464032 -20.849907 0.000000 43.000000 14.718717 29.000000
22.702328 9.150755 -20.859156 0.000000 29.000000 14.093347 0.000000
23.180469 9.634323 -20.220455 0.000000 38.000000 14.280961 0.000000
18.881261 7.365900 -19.717272 0.000000 73.000000 14.615757 10.000000
18.102553 6.816915 -18.398752 0.000000 52.000000 14.608024 28.000000
23.160795 9.330315 -17.517419 0.000000 23.000000 14.140788 0.000000
20.819522 8.244962 -21.965228 0.000000 48.000000 14.261391 0.000000
20.709799 8.200394 -22.059002 0.000000 44.000000 14.277006 0.000000
21.767493 8.593806 -17.893814 0.000000 47.000000 14.226494 0.000000
20.946999 8.284015 -22.048354 0.000000 42.000000 14.224703 0.000000
18.972887 7.710695 -21.630438 0.000000 36.000000 14.784763 29.000000
18.766418 6.986905 -18.762176 0.000000 40.000000 14.391315 21.000000
20.350529 7.900392 -20.504687 0.000000 42.000000 14.271608 0.000000
19.065416 7.055385 -22.146140 0.000000 35.000000 14.157615 0.000000
22.406146 8.844267 -15.098871 0.000000 43.000000 14.218222 0.000000
18.663636 6.640814 -17.002031 0.000000 51.000000 14.220896 0.000000
19.231146 7.488929 -20.900413 0.000000 50.000000 14.490233 23.000000
22.733403 9.794747 -18.560958 0.000000 45.000000 14.717789 4.000000
20.440319 8.190576 -20.377429 0.000000 78.000000 14.476934 26.000000
19.786283 7.428403 -18.177884 0.000000 42.000000 14.257840 0.000000
21.717276 8.424776 -17.096771 0.000000 28.000000 14.140759 0.000000
21.980322 8.711053 -16.287419 0.000000 47.000000 14.279592 0.000000
18.148759 6.365078 -16.944778 0.000000 45.000000 14.257407 0.000000
19.071898 7.114634 -20.379907 0.000000 46.000000 14.275558 0.000000
19.045154 7.094118 -20.231095 0.000000 45.000000 14.278031 0.000000
20.241981 7.705447 -21.627395 0.000000 44.000000 14.117253 0.000000
17.780881 6.169443 -18.044120 0.000000 25.000000 14.238914 0.000000
20.078130 7.707485 -18.453585 0.000000 35.000000 14.331958 0.000000
20.307554 7.851426 -19.721444 0.000000 37.000000 14.283789 0.000000
19.433486 7.242143 -16.999667 0.000000 53.000000 14.330838 0.000000
23.071459 9.550686 -19.481230 0.000000 36.000000 14.296355 0.000000
19.012268 7.070744 -20.139277 0.000000 43.000000 14.278993 0.000000
22.524099 9.058293 -20.411076 0.000000 34.000000 14.125713 0.000000
20.341451 7.915088 -19.630064 0.000000 36.000000 14.323962 0.000000
19.078540 7.803544 -22.631892 0.000000 75.000000 14.768447 17.000000
19.635705 7.385179 -18.138876 0.000000 47.000000 14.301277 0.000000
19.690749 7.610369 -19.445543 0.000000 50.000000 14.411870 25.000000
18.482489 6.646476 -17.778295 0.000000 31.000000 14.289229 0.000000
18.684317 6.790586 -18.701620 0.000000 39.000000 14.269449 0.000000
19.073291 6.927180 -18.216558 0.000000 43.000000 14.201986 0.000000
18.630321 6.771276 -18.564226 0.000000 40.000000 14.286731 0.000000
17.854753 6.190197 -18.255078 0.000000 38.000000 14.209523 0.000000
19.783473 7.534409 -17.964888 0.000000 40.000000 14.358137 8.000000
20.469004 8.069706 -21.835111 0.000000 54.000000 14.300515 0.000000
22.026141 8.951514 -21.422551 0.000000 24.000000 14.254395 0.000000
18.308458 6.530316 -17.253222 0.000000 38.000000 14.302307 0.000000
19.730986 8.019648 -22.360510 0.000000 59.000000 14.622450 22.000000
21.600051 8.681902 -16.578069 0.000000 51.000000 14.441813 12.000000
18.455908 6.632698 -18.060292 0.000000 37.000000 14.280068 0.000000
20.859416 8.287101 -22.258052 0.000000 44.000000 14.264682 0.000000
19.422792 7.862524 -21.341268 0.000000 80.000000 14.690576 23.000000
20.551243 8.072267 -17.591736 0.000000 66.000000 14.429987 7.000000
20.431059 8.063517 -20.347194 0.000000 43.000000 14.374774 26.000000
18.298197 6.534244 -17.694305 0.000000 38.000000 14.293316 0.000000
19.609078 7.348574 -17.251725 0.000000 25.000000 14.319613 0.000000
19.373768 7.715673 -22.523502 0.000000 67.000000 14.543689 17.000000
18.135746 6.423290 -17.347532 0.000000 38.000000 14.297623 0.000000
21.110182 8.639948 -21.788612 0.000000 60.000000 14.452989 15.000000
18.330875 6.906242 -16.688051 0.000000 68.000000 14.633434 1.000000
22.243907 9.095766 -16.410851 0.000000 60.000000 14.464550 5.000000
21.998147 8.931829 -20.955831 0.000000 52.000000 14.270984 0.000000
20.844667 8.394800 -20.624867 0.000000 50.000000 14.429645 26.000000
20.780067 8.680426 -20.027615 0.000000 61.000000 14.730624 26.000000
20.377798 7.943832 -22.112560 0.000000 47.000000 14.229838 0.000000
19.186713 7.194690 -20.347560 0.000000 30.000000 14.285040 0.000000
18.492165 6.980358 -19.153821 0.000000 62.000000 14.513335 27.000000
22.456597 9.068320 -17.421571 0.000000 35.000000 14.289479 0.000000
22.785717 9.343234 -18.580782 0.000000 40.000000 14.305120 0.000000
18.861310 7.130438 -16.545130 0.000000 61.000000 14.552931 6.000000
22.728629 9.252467 -18.673224 0.000000 34.000000 14.253939 0.000000
20.533296 8.401300 -20.320216 0.000000 51.000000 14.610110 26.000000
22.564851 9.228498 -18.729531 0.000000 37.000000 14.316848 0.000000
21.916724 8.846413 -20.489153 0.000000 47.000000 14.259512 0.000000
18.485330 6.822202 -18.062028 0.000000 54.000000 14.426019 21.000000
21.733012 8.502826 -17.795382 0.000000 30.000000 14.170977 0.000000
19.222247 7.451100 -17.815941 0.000000 64.000000 14.586429 9.000000
18.417338 6.610450 -17.545969 0.000000 36.000000 14.301913 0.000000
19.779387 7.992881 -21.658632 0.000000 40.000000 14.602525 23.000000
20.348936 7.709002 -17.257130 0.000000 49.000000 14.239749 0.000000
20.890396 8.304935 -21.409320 0.000000 48.000000 14.297738 0.000000
21.989414 8.757682 -19.378675 0.000000 36.000000 14.190516 0.000000
21.498514 8.637302 -21.903830 0.000000 62.000000 14.243191 0.000000
23.198067 9.423394 -18.210220 0.000000 39.000000 14.172785 0.000000
22.539535 9.205662 -19.859368 0.000000 51.000000 14.265293 0.000000
21.772685 8.607114 -15.907740 0.000000 40.000000 14.314806 0.000000
19.225227 7.488651 -17.940122 0.000000 72.000000 14.611870 9.000000
20.341261 7.902690 -21.244347 0.000000 47.000000 14.248729 0.000000
19.282646 7.252455 -20.668397 0.000000 37.000000 14.271234 0.000000
20.150383 7.936821 -16.056079 0.000000 58.000000 14.585719 2.000000
18.582375 7.328391 -20.663454 0.000000 39.000000 14.702029 30.000000
21.080645 8.352574 -20.885215 0.000000 50.000000 14.259926 0.000000
19.544255 7.291993 -17.495747 0.000000 42.000000 14.295506 0.000000
21.132104 8.579258 -21.727215 0.000000 49.000000 14.392310 15.000000
21.217887 8.406774 -20.144543 0.000000 44.000000 14.264090 0.000000
20.700098 8.366564 -20.586493 0.000000 35.000000 14.482681 26.000000
20.762668 8.016928 -19.227229 0.000000 52.000000 14.206753 0.000000
19.625714 7.818713 -21.076685 0.000000 67.000000 14.557844 23.000000
18.353985 7.059115 -19.411328 0.000000 44.000000 14.642283 30.000000
18.414070 7.158928 -17.842793 0.000000 67.000000 14.758830 21.000000
22.637927 9.930589 -20.599024 0.000000 71.000000 14.801595 3.000000
18.817797 7.734227 -21.427803 0.000000 67.000000 14.893977 29.000000
20.167018 7.652577 -21.436777 0.000000 53.000000 14.119046 0.000000
19.181446 7.212599 -22.739752 0.000000 36.000000 14.207059 0.000000
20.602286 8.068251 -21.048556 0.000000 46.000000 14.261189 0.000000
20.536327 8.025634 -21.172947 0.000000 47.000000 14.254370 0.000000
20.067529 7.774647 -20.100580 0.000000 50.000000 14.328611 0.000000
20.116103 7.704387 -19.282973 0.000000 46.000000 14.276197 0.000000
18.454622 7.041917 -19.097969 0.000000 63.000000 14.587622 27.000000
17.848362 6.553986 -18.202753 0.000000 58.000000 14.524789 28.000000
19.937892 7.698099 -20.349944 0.000000 53.000000 14.321153 0.000000
20.346540 7.902586 -21.555710 0.000000 44.000000 14.233388 0.000000
21.893774 8.887457 -20.934391 0.000000 48.000000 14.288596 0.000000
19.799833 7.702607 -20.939891 0.000000 44.000000 14.373464 23.000000
17.778795 6.098778 -17.522818 0.000000 24.000000 14.200738 0.000000
22.666466 9.466660 -20.509125 0.000000 54.000000 14.395177 3.000000
19.838609 7.569789 -19.880814 0.000000 27.000000 14.282580 0.000000
21.033564 8.220620 -18.093486 0.000000 27.000000 14.284165 0.000000
19.938768 7.720769 -17.905936 0.000000 59.000000 14.438069 8.000000
18.577564 6.932235 -18.354652 0.000000 56.000000 14.459792 21.000000
23.562014 9.645475 -19.111864 0.000000 30.000000 14.135565 0.000000
19.170081 7.262486 -22.258482 0.000000 47.000000 14.274796 0.000000
18.641223 7.254263 -18.603094 0.000000 39.000000 14.690819 21.000000
19.176255 7.124812 -22.626588 0.000000 40.000000 14.139546 0.000000
18.234535 6.462492 -17.200204 0.000000 46.000000 14.285299 0.000000
17.682028 6.014296 -17.287876 0.000000 30.000000 14.188780 0.000000
20.112173 7.844553 -16.152450 0.000000 78.000000 14.523238 2.000000
19.282095 7.447398 -20.228199 0.000000 36.000000 14.455211 10.000000
21.809413 8.806052 -20.245276 0.000000 35.000000 14.290999 0.000000
19.581073 7.618330 -18.946501 0.000000 59.000000 14.495985 25.000000
21.045489 8.411703 -21.455212 0.000000 28.000000 14.305784 0.000000
22.670547 9.256247 -19.076511 0.000000 32.000000 14.271327 0.000000
21.819155 8.599966 -16.021297 0.000000 32.000000 14.279879 0.000000
22.380958 9.014079 -19.521651 0.000000 19.000000 14.198544 0.000000
18.633954 7.223933 -20.343901 0.000000 65.000000 14.598936 30.000000
18.654695 7.644177 -20.852259 0.000000 73.000000 14.925607 29.000000
20.926805 8.112226 -19.242230 0.000000 46.000000 14.201544 0.000000
23.136244 9.582789 -19.836204 0.000000 40.000000 14.275599 0.000000
20.926924 8.096883 -16.787037 0.000000 39.000000 14.286929 0.000000
22.699519 9.508496 -18.220676 0.000000 49.000000 14.505359 4.000000
19.936688 7.623440 -17.196582 0.000000 40.000000 14.384727 8.000000
20.670167 8.027237 -18.548064 0.000000 42.000000 14.291121 0.000000
20.332428 7.759525 -18.291890 0.000000 31.000000 14.249883 0.000000
19.502335 7.320748 -18.490558 0.000000 47.000000 14.301984 0.000000
20.281207 7.865015 -19.734502 0.000000 57.000000 14.308606 0.000000
19.914880 7.834260 -17.924725 0.000000 45.000000 14.546454 8.000000
20.017306 7.626897 -18.355904 0.000000 54.000000 14.299027 0.000000
19.090966 6.927668 -18.094597 0.000000 43.000000 14.198059 0.000000
20.040103 7.740021 -20.192803 0.000000 55.000000 14.309752 0.000000
18.899786 7.059186 -20.373343 0.000000 44.000000 14.318535 0.000000
23.296921 9.530516 -18.582212 0.000000 22.000000 14.197435 0.000000
19.367118 7.790870 -21.246309 0.000000 75.000000 14.662454 23.000000
18.246578 6.479245 -19.451857 0.000000 40.000000 14.202927 0.000000
22.398231 9.053547 -20.031286 0.000000 40.000000 14.202682 0.000000
19.895016 7.960551 -22.079512 0.000000 60.000000 14.497681 23.000000
19.766486 7.483483 -18.502391 0.000000 38.000000 14.302074 0.000000
19.382981 7.207236 -17.414800 0.000000 45.000000 14.310843 0.000000
19.526068 7.761328 -20.724004 0.000000 64.000000 14.575192 23.000000
19.176529 7.286645 -17.643863 0.000000 70.000000 14.477162 9.000000
18.550212 6.997633 -20.764460 0.000000 43.000000 14.433088 30.000000
20.767057 8.086943 -18.974167 0.000000 56.000000 14.274243 0.000000
20.041276 7.752440 -20.274449 0.000000 60.000000 14.316440 0.000000
19.187010 6.994384 -18.052469 0.000000 34.000000 14.206382 0.000000
23.070189 9.790085 -19.632359 0.000000 45.000000 14.494843 20.000000
19.174737 6.932458 -18.196237 0.000000 34.000000 14.154286 0.000000
23.036032 9.445417 -19.888218 0.000000 32.000000 14.208884 0.000000
19.689624 7.420005 -18.493693 0.000000 48.000000 14.288525 0.000000
18.661663 7.713572 -21.136807 0.000000 76.000000 14.969650 29.000000
22.193522 9.250668 -18.466701 0.000000 59.000000 14.540312 18.000000
20.200131 7.805633 -19.296792 0.000000 62.000000 14.317961 0.000000
21.135739 8.279298 -20.141719 0.000000 41.000000 14.198563 0.000000
22.567111 9.879251 -20.575547 0.000000 57.000000 14.795819 3.000000
21.789070 8.765854 -19.393767 0.000000 52.000000 14.301560 0.000000
19.629840 7.768249 -21.005047 0.000000 49.000000 14.515584 23.000000
19.432528 7.241894 -18.929097 0.000000 47.000000 14.253708 0.000000
18.654401 6.819031 -19.473003 0.000000 40.000000 14.278355 0.000000
18.602469 6.820238 -19.604690 0.000000 41.000000 14.301236 0.000000
18.780442 7.017818 -21.441826 0.000000 46.000000 14.302794 0.000000
18.839880 6.926372 -21.648859 0.000000 46.000000 14.185546 0.000000
18.830657 6.914153 -21.390034 0.000000 44.000000 14.190345 0.000000
18.883899 7.596772 -21.992585 0.000000 68.000000 14.719708 29.000000
18.252153 7.007096 -18.938018 0.000000 54.000000 14.670184 27.000000
23.144106 9.646731 -20.576304 0.000000 33.000000 14.296252 0.000000
18.687680 7.249487 -19.866879 0.000000 64.000000 14.611766 30.000000
19.206955 7.815618 -22.825897 0.000000 65.000000 14.703843 17.000000
22.184649 9.488266 -18.846324 0.000000 71.000000 14.732071 18.000000
21.405880 8.415068 -16.206283 0.000000 36.000000 14.330941 0.000000
20.475504 8.318820 -20.265034 0.000000 72.000000 14.572279 26.000000
23.437518 9.726207 -19.884778 0.000000 27.000000 14.238365 0.000000
22.002411 8.667417 -18.875440 0.000000 24.000000 14.127042 0.000000
23.989449 10.042235 -20.713005 0.000000 35.000000 14.185871 0.000000
23.537604 9.749458 -19.600774 0.000000 31.000000 14.217262 0.000000
24.033397 10.051416 -20.567225 0.000000 29.000000 14.176575 0.000000
18.482040 7.151515 -17.900116 0.000000 55.000000 14.714699 21.000000
23.695293 9.730531 -19.341883 0.000000 26.000000 14.129131 0.000000
19.946265 7.738116 -17.957946 0.000000 39.000000 14.446838 8.000000
18.745643 7.129833 -20.832303 0.000000 34.000000 14.440834 30.000000
19.983454 7.596045 -18.147062 0.000000 51.000000 14.298820 0.000000
18.041048 6.365091 -17.126670 0.000000 46.000000 14.306404 0.000000
21.020824 8.374999 -22.224225 0.000000 52.000000 14.256556 0.000000
17.777465 6.319341 -17.941106 0.000000 44.000000 14.372495 28.000000
17.904542 6.325641 -17.471617 0.000000 39.000000 14.330295 0.000000
19.012957 7.922115 -22.813039 0.000000 58.000000 14.896431 17.000000
17.810083 6.162876 -18.122503 0.000000 39.000000 14.214916 0.000000
20.249235 7.838948 -20.444125 0.000000 37.000000 14.274639 0.000000
20.303038 8.434537 -20.136956 0.000000 71.000000 14.766092 26.000000
19.061806 7.045521 -22.445422 0.000000 36.000000 14.139091 0.000000
19.076217 7.186216 -17.649204 0.000000 51.000000 14.443834 9.000000
19.763938 7.580380 -19.602485 0.000000 40.000000 14.341787 0.000000
20.839055 8.300086 -22.260975 0.000000 37.000000 14.286263 0.000000
17.634636 5.982187 -17.233761 0.000000 25.000000 14.188370 0.000000
18.252043 6.737783 -16.907794 0.000000 79.000000 14.522339 1.000000
21.644259 8.504983 -15.355761 0.000000 42.000000 14.317081 0.000000
18.743243 6.887132 -21.305480 0.000000 38.000000 14.216402 0.000000
19.911650 7.867523 -17.601890 0.000000 64.000000 14.589425 8.000000
22.262240 8.865950 -18.894563 0.000000 33.000000 14.159585 0.000000
19.750829 7.857644 -19.956253 0.000000 51.000000 14.570579 24.000000
18.395958 6.571561 -17.150452 0.000000 54.000000 14.295835 0.000000
21.843918 8.811854 -19.020494 0.000000 43.000000 14.327054 0.000000
19.841141 7.428489 -20.016473 0.000000 46.000000 14.155474 0.000000
22.487389 9.133440 -20.009484 0.000000 42.000000 14.225009 0.000000
18.000216 6.330358 -17.048641 0.000000 47.000000 14.301289 0.000000
21.536797 8.649825 -20.761276 0.000000 47.000000 14.279696 0.000000
17.774778 6.164655 -18.068454 0.000000 49.000000 14.237049 0.000000
21.544756 8.661671 -20.605688 0.000000 46.000000 14.291869 0.000000
21.203831 8.436291 -19.540922 0.000000 34.000000 14.320794 0.000000
22.122191 9.115007 -16.076141 0.000000 61.000000 14.557970 5.000000
19.220502 7.606250 -19.884728 0.000000 74.000000 14.636466 10.000000
20.349781 7.881167 -18.858607 0.000000 37.000000 14.321674 0.000000
21.266330 8.424397 -19.256144 0.000000 35.000000 14.289433 0.000000
21.604857 8.656620 -20.162400 0.000000 45.000000 14.273948 0.000000
21.247296 8.449754 -19.093439 0.000000 39.000000 14.327503 0.000000
19.672098 7.293502 -19.708520 0.000000 31.000000 14.141200 0.000000
21.305709 8.418348 -18.965326 0.000000 33.000000 14.275372 0.000000
21.633556 8.647141 -19.867093 0.000000 39.000000 14.262728 0.000000
21.531766 8.597017 -20.012859 0.000000 52.000000 14.267380 0.000000
18.153000 6.429358 -16.837486 0.000000 46.000000 14.314240 0.000000
21.333341 8.409515 -18.674762 0.000000 35.000000 14.265069 0.000000
