22.474893 2.613227 -21.941874 0.000000 49.000000 14.737504 20.000000
23.215689 2.372570 -18.845768 0.000000 46.000000 14.481256 0.000000
22.837565 2.458889 -19.990765 0.000000 44.000000 14.478810 0.000000
23.148307 1.475928 -21.577746 0.000000 40.000000 14.981335 27.000000
22.706726 2.584835 -20.028332 0.000000 40.000000 14.398864 0.000000
22.874214 3.057554 -18.907361 0.000000 38.000000 14.348779 0.000000
23.434072 0.816594 -21.525892 0.000000 63.000000 15.071185 24.000000
22.930536 3.221123 -18.892111 0.000000 45.000000 14.436386 0.000000
22.708179 2.891739 -20.027455 0.000000 50.000000 14.474548 0.000000
23.595395 2.773682 -18.835182 0.000000 44.000000 14.927702 22.000000
22.668663 3.037341 -20.041602 0.000000 57.000000 14.477344 0.000000
22.656709 5.207781 -19.372544 0.000000 70.000000 14.802618 13.000000
21.709963 7.101239 -21.236078 0.000000 51.000000 14.917522 29.000000
22.478465 2.049375 -22.697975 0.000000 59.000000 14.819779 21.000000
22.565511 3.321082 -20.086886 0.000000 43.000000 14.463617 0.000000
21.933777 7.663309 -19.399981 0.000000 46.000000 14.737074 4.000000
21.678468 5.458521 -21.371684 0.000000 44.000000 14.527831 0.000000
21.164470 6.076946 -23.826278 0.000000 40.000000 14.902868 2.000000
22.449938 3.602700 -20.143461 0.000000 37.000000 14.441086 0.000000
22.711450 4.080367 -18.995739 0.000000 45.000000 14.471721 0.000000
22.345190 3.737134 -20.189363 0.000000 38.000000 14.389769 0.000000
23.310753 2.616051 -19.678084 0.000000 57.000000 14.866326 25.000000
23.603835 2.183191 -20.360123 0.000000 63.000000 15.227654 25.000000
21.114619 6.014788 -23.369392 0.000000 51.000000 14.711028 2.000000
22.476076 4.492319 -19.109232 0.000000 36.000000 14.386069 0.000000
21.489319 7.022820 -21.536671 0.000000 43.000000 14.779799 29.000000
23.670219 1.806204 -19.497824 0.000000 51.000000 14.951235 23.000000
22.302347 7.527230 -19.252023 0.000000 67.000000 15.003399 4.000000
22.236218 4.472050 -20.324824 0.000000 48.000000 14.506059 0.000000
22.245727 4.975541 -20.466803 0.000000 56.000000 14.677799 14.000000
22.155872 4.610335 -20.377762 0.000000 57.000000 14.480310 0.000000
22.101226 4.754492 -20.425060 0.000000 51.000000 14.478199 0.000000
22.318297 5.357248 -19.313332 0.000000 40.000000 14.508321 0.000000
22.342769 3.045924 -21.626100 0.000000 61.000000 14.629977 0.000000
22.047163 5.626813 -19.459200 0.000000 32.000000 14.364165 0.000000
21.725979 5.750329 -20.820054 0.000000 38.000000 14.485206 0.000000
21.715458 5.895097 -20.871996 0.000000 42.000000 14.525475 0.000000
21.641184 6.749304 -19.959735 0.000000 40.000000 14.403615 0.000000
21.420461 6.453939 -21.192181 0.000000 39.000000 14.479300 0.000000
21.773528 3.361144 -23.489965 0.000000 62.000000 14.711357 16.000000
21.372086 6.594253 -21.269601 0.000000 40.000000 14.490674 0.000000
22.025629 3.486761 -22.664651 0.000000 47.000000 14.739813 30.000000
21.270129 6.870641 -21.436262 0.000000 39.000000 14.510942 0.000000
23.209358 3.626066 -17.301105 0.000000 35.000000 14.338758 0.000000
23.190950 3.527092 -17.412671 0.000000 32.000000 14.329512 0.000000
23.073877 0.759789 -22.471447 0.000000 50.000000 14.993601 26.000000
23.702601 2.754904 -17.408236 0.000000 58.000000 14.614877 28.000000
23.272197 2.242134 -18.626011 0.000000 46.000000 14.439160 0.000000
23.504677 2.568548 -17.696521 0.000000 44.000000 14.468467 0.000000
21.748032 7.278365 -20.940372 0.000000 62.000000 14.911384 29.000000
23.600004 1.661776 -19.612768 0.000000 50.000000 14.883881 23.000000
22.096341 6.749145 -19.915770 0.000000 29.000000 14.812946 12.000000
23.043397 1.141840 -20.327892 0.000000 49.000000 14.445839 0.000000
23.000568 1.284454 -20.366905 0.000000 45.000000 14.451941 0.000000
22.942872 1.422184 -20.413291 0.000000 43.000000 14.445181 0.000000
23.562568 2.276989 -18.754727 0.000000 57.000000 14.753575 23.000000
22.661825 3.390376 -19.688794 0.000000 35.000000 14.456017 0.000000
22.357669 1.899657 -21.949826 0.000000 48.000000 14.457689 0.000000
21.833215 3.367809 -23.813306 0.000000 55.000000 14.860677 16.000000
22.301744 2.945178 -21.960283 0.000000 56.000000 14.662930 20.000000
22.541978 2.537094 -20.833396 0.000000 51.000000 14.464525 0.000000
22.770255 0.952270 -22.380584 0.000000 45.000000 14.732965 26.000000
21.632255 3.711517 -23.076748 0.000000 31.000000 14.547505 30.000000
22.187600 2.317394 -22.149699 0.000000 49.000000 14.458658 0.000000
22.422903 2.810984 -20.967329 0.000000 38.000000 14.458969 0.000000
22.366787 2.946156 -21.036210 0.000000 38.000000 14.459478 0.000000
22.327669 3.086080 -21.100038 0.000000 51.000000 14.475456 0.000000
22.766930 1.190747 -21.911916 0.000000 43.000000 14.653955 26.000000
23.390144 1.328680 -21.534314 0.000000 62.000000 15.157324 27.000000
23.347597 2.462128 -19.130378 0.000000 68.000000 14.706606 25.000000
21.771453 2.991402 -22.587360 0.000000 39.000000 14.361724 0.000000
23.597055 1.631947 -19.748679 0.000000 60.000000 14.912724 23.000000
23.646683 1.650238 -19.742776 0.000000 50.000000 14.961489 23.000000
21.744285 3.285074 -22.721297 0.000000 50.000000 14.446174 0.000000
21.343413 4.105252 -23.321068 0.000000 45.000000 14.445236 0.000000
23.424276 1.051388 -20.735695 0.000000 63.000000 14.893428 24.000000
21.251188 4.380147 -23.523714 0.000000 44.000000 14.484442 0.000000
22.019171 4.327919 -21.387405 0.000000 45.000000 14.573380 18.000000
20.921258 4.912832 -24.031786 0.000000 53.000000 14.453201 0.000000
23.701327 2.885149 -17.262330 0.000000 61.000000 14.603669 28.000000
22.949965 1.541027 -21.810050 0.000000 40.000000 14.879657 26.000000
22.740859 4.310563 -20.225774 0.000000 47.000000 14.906318 8.000000
20.976263 5.857385 -23.241790 0.000000 59.000000 14.508066 0.000000
20.878543 5.980298 -23.387409 0.000000 45.000000 14.488951 0.000000
22.291725 5.842295 -18.471325 0.000000 54.000000 14.361032 0.000000
22.425548 5.309541 -18.928683 0.000000 48.000000 14.486264 0.000000
22.433859 5.196492 -19.019648 0.000000 54.000000 14.492480 0.000000
22.623987 5.453362 -18.073966 0.000000 46.000000 14.461000 0.000000
22.624462 5.335840 -18.163289 0.000000 40.000000 14.458396 0.000000
22.687356 4.761502 -19.735367 0.000000 60.000000 14.826217 13.000000
21.674504 7.379686 -20.135824 0.000000 58.000000 14.638010 3.000000
22.479398 2.445456 -22.978794 0.000000 61.000000 14.997127 19.000000
21.958988 3.039316 -23.350390 0.000000 57.000000 14.765191 15.000000
23.488936 2.437857 -19.167867 0.000000 58.000000 14.842438 25.000000
22.631735 4.846457 -18.502484 0.000000 42.000000 14.443100 0.000000
22.417815 4.469134 -19.560118 0.000000 48.000000 14.455233 0.000000
22.878711 1.303985 -22.831490 0.000000 64.000000 15.047794 26.000000
22.425397 4.342064 -19.642778 0.000000 55.000000 14.454994 0.000000
23.592158 2.573731 -19.218328 0.000000 63.000000 14.985562 25.000000
23.551965 2.163405 -18.602100 0.000000 33.000000 14.672540 23.000000
22.525165 4.450146 -18.767594 0.000000 33.000000 14.323729 0.000000
22.309402 4.067188 -19.840803 0.000000 39.000000 14.337233 0.000000
22.329504 2.959830 -21.065807 0.000000 24.000000 14.436695 0.000000
22.313754 3.800738 -19.998603 0.000000 32.000000 14.321590 0.000000
23.698358 2.849023 -18.090074 0.000000 62.000000 14.828601 22.000000
22.011436 5.439350 -22.982207 0.000000 9.000000 15.291917 11.000000
21.868195 7.544499 -19.140924 0.000000 46.000000 14.573399 4.000000
23.127314 1.287830 -22.443698 0.000000 56.000000 15.163541 26.000000
22.330002 2.078261 -22.162748 0.000000 39.000000 14.536274 0.000000
22.550188 1.993608 -22.544326 0.000000 47.000000 14.828820 21.000000
23.329536 1.291117 -21.066486 0.000000 55.000000 14.958365 24.000000
22.771111 3.542819 -19.205839 0.000000 47.000000 14.456405 0.000000
21.701455 5.372850 -22.798303 0.000000 45.000000 14.935866 11.000000
22.803619 3.409379 -19.261300 0.000000 53.000000 14.469954 0.000000
23.315229 2.448320 -18.398062 0.000000 31.000000 14.464042 0.000000
22.810129 3.270945 -19.322779 0.000000 55.000000 14.459907 0.000000
22.561799 2.861602 -20.424494 0.000000 58.000000 14.444954 0.000000
22.769335 1.114561 -21.774229 0.000000 41.000000 14.598334 26.000000
23.441091 1.026860 -20.899218 0.000000 66.000000 14.949769 24.000000
22.826183 2.989947 -19.438834 0.000000 41.000000 14.439651 0.000000
22.041112 3.188907 -21.401795 0.000000 25.000000 14.321013 0.000000
22.745019 2.827394 -19.521168 0.000000 33.000000 14.348428 0.000000
22.639417 2.594509 -22.085364 0.000000 54.000000 14.926460 20.000000
22.742861 2.680291 -19.579381 0.000000 34.000000 14.327306 0.000000
22.515488 2.260117 -20.693457 0.000000 37.000000 14.332677 0.000000
22.711697 2.155583 -20.684985 0.000000 40.000000 14.486738 0.000000
23.032457 2.645570 -20.003267 0.000000 40.000000 14.708416 25.000000
22.163841 7.378383 -18.894152 0.000000 49.000000 14.736594 4.000000
21.180311 6.778180 -21.654596 0.000000 46.000000 14.467582 0.000000
21.187675 6.644357 -21.733652 0.000000 49.000000 14.464468 0.000000
21.205706 6.508675 -21.807061 0.000000 48.000000 14.469180 0.000000
21.539411 6.682266 -20.650434 0.000000 40.000000 14.490293 0.000000
23.407707 0.897518 -21.377264 0.000000 52.000000 15.023954 24.000000
22.254441 4.058779 -22.748717 0.000000 50.000000 15.114957 30.000000
21.213224 6.231867 -21.958820 0.000000 42.000000 14.452229 0.000000
21.419477 4.821024 -23.605466 0.000000 54.000000 14.770947 10.000000
21.930824 2.820684 -23.553614 0.000000 51.000000 14.744004 15.000000
21.113044 5.796690 -22.212658 0.000000 34.000000 14.326115 0.000000
22.794564 5.769647 -18.798867 0.000000 54.000000 14.903077 5.000000
21.601051 5.839253 -21.032660 0.000000 35.000000 14.451746 0.000000
23.763882 3.269509 -17.649163 0.000000 42.000000 14.865577 28.000000
22.268196 5.571478 -20.298474 0.000000 57.000000 14.795372 14.000000
21.359064 5.371907 -22.311841 0.000000 38.000000 14.479272 0.000000
22.360181 1.681351 -22.885091 0.000000 31.000000 14.674143 21.000000
21.781933 5.114051 -21.245075 0.000000 41.000000 14.503857 0.000000
22.409011 7.720949 -18.962114 0.000000 39.000000 15.066536 4.000000
21.686333 4.954209 -21.327274 0.000000 37.000000 14.399870 0.000000
22.796363 5.816773 -18.755615 0.000000 56.000000 14.903842 5.000000
22.328283 4.140130 -21.924105 0.000000 47.000000 14.967609 18.000000
21.726414 4.652172 -21.403101 0.000000 33.000000 14.385283 0.000000
21.620491 7.278421 -20.217201 0.000000 47.000000 14.586576 3.000000
23.382276 1.654444 -19.755227 0.000000 37.000000 14.720962 23.000000
23.023623 2.033879 -20.566401 0.000000 35.000000 14.712439 27.000000
21.728805 2.889237 -22.858544 0.000000 43.000000 14.374830 0.000000
21.998264 3.121778 -21.622422 0.000000 31.000000 14.328006 0.000000
21.709618 2.718924 -22.890647 0.000000 48.000000 14.324824 0.000000
22.060734 2.975946 -21.618416 0.000000 33.000000 14.349328 0.000000
21.783269 5.237481 -22.569689 0.000000 60.000000 14.913500 11.000000
22.190189 2.841245 -21.587208 0.000000 35.000000 14.427681 0.000000
21.202544 4.386503 -23.992325 0.000000 40.000000 14.574764 10.000000
22.278086 2.542210 -21.581107 0.000000 38.000000 14.434744 0.000000
22.321283 2.391876 -21.576558 0.000000 41.000000 14.436951 0.000000
22.071297 2.332198 -22.475434 0.000000 25.000000 14.447497 0.000000
22.424042 2.094108 -21.552061 0.000000 47.000000 14.452843 0.000000
22.442273 1.938454 -21.549583 0.000000 43.000000 14.431206 0.000000
22.826202 1.102247 -21.972336 0.000000 53.000000 14.704651 26.000000
22.962345 0.697947 -22.787155 0.000000 50.000000 14.965370 26.000000
23.568195 2.546726 -17.448526 0.000000 44.000000 14.451199 0.000000
23.559548 3.086979 -17.256445 0.000000 67.000000 14.519609 0.000000
23.432399 3.331200 -17.195595 0.000000 36.000000 14.443714 0.000000
23.442809 1.998349 -18.479996 0.000000 57.000000 14.496357 0.000000
23.371258 2.128525 -18.463932 0.000000 45.000000 14.457077 0.000000
23.354564 2.271982 -18.438430 0.000000 41.000000 14.469181 0.000000
22.768488 2.752523 -19.489264 0.000000 37.000000 14.342874 0.000000
22.826056 2.914424 -19.456082 0.000000 38.000000 14.426106 0.000000
21.153730 5.248087 -23.393684 0.000000 34.000000 14.567890 0.000000
22.821230 3.209239 -19.431310 0.000000 62.000000 14.486206 0.000000
22.526112 2.275561 -23.127368 0.000000 54.000000 15.041584 19.000000
21.903828 6.352117 -20.126665 0.000000 54.000000 14.598243 12.000000
22.727872 3.492397 -19.438617 0.000000 58.000000 14.470568 0.000000
21.799837 3.477095 -23.301213 0.000000 71.000000 14.710004 16.000000
22.646551 3.774452 -19.451106 0.000000 46.000000 14.467299 0.000000
22.438500 5.299477 -18.889517 0.000000 36.000000 14.484636 0.000000
22.955429 1.434613 -21.935532 0.000000 60.000000 14.894707 26.000000
21.451320 4.650130 -24.091661 0.000000 48.000000 14.897826 10.000000
22.532931 2.068377 -22.814702 0.000000 37.000000 14.908233 21.000000
22.434868 4.337616 -19.517121 0.000000 37.000000 14.426795 0.000000
22.644969 4.800652 -18.394607 0.000000 31.000000 14.413419 0.000000
22.447745 4.484708 -19.520970 0.000000 46.000000 14.475580 0.000000
22.663247 4.948633 -18.398260 0.000000 38.000000 14.467370 0.000000
23.651312 3.131102 -17.159644 0.000000 43.000000 14.587744 28.000000
22.590711 5.232002 -18.438500 0.000000 44.000000 14.480493 0.000000
22.565957 5.375529 -18.460155 0.000000 47.000000 14.498614 0.000000
22.427769 5.793895 -18.549480 0.000000 38.000000 14.497709 0.000000
21.653430 5.505612 -22.919349 0.000000 40.000000 14.958194 11.000000
23.287153 1.849397 -20.660315 0.000000 31.000000 14.938724 27.000000
22.546383 5.334512 -18.455644 0.000000 35.000000 14.469213 0.000000
23.720895 2.970015 -17.906656 0.000000 75.000000 14.826500 22.000000
22.227494 6.354619 -18.707020 0.000000 40.000000 14.493334 0.000000
22.178428 6.493728 -18.752206 0.000000 38.000000 14.494566 0.000000
23.854588 2.168873 -18.953811 0.000000 64.000000 15.054875 23.000000
22.069366 6.773068 -18.852765 0.000000 36.000000 14.490082 0.000000
22.019855 6.912198 -18.906130 0.000000 39.000000 14.493243 0.000000
23.217247 1.868523 -20.614626 0.000000 52.000000 14.865517 27.000000
22.415563 1.688098 -22.453229 0.000000 57.000000 14.603750 21.000000
21.782847 7.190008 -19.054727 0.000000 28.000000 14.383504 0.000000
21.914967 2.928040 -23.231374 0.000000 75.000000 14.663341 15.000000
22.623315 0.499273 -22.642571 0.000000 37.000000 14.561502 26.000000
23.448610 2.684022 -18.618682 0.000000 58.000000 14.707994 22.000000
22.661652 2.779453 -20.281603 0.000000 57.000000 14.476732 0.000000
22.360476 2.423916 -21.487163 0.000000 42.000000 14.455532 0.000000
21.818534 3.762767 -22.944775 0.000000 49.000000 14.694939 30.000000
21.758738 5.325364 -22.786245 0.000000 23.000000 14.973983 11.000000
21.351181 4.817621 -23.963904 0.000000 49.000000 14.809207 10.000000
22.304814 5.056654 -20.214837 0.000000 59.000000 14.680305 14.000000
22.514922 3.203933 -20.405272 0.000000 44.000000 14.479205 0.000000
22.180161 2.850728 -21.634683 0.000000 40.000000 14.434252 0.000000
22.465564 3.347027 -20.451608 0.000000 51.000000 14.481464 0.000000
22.021170 2.974463 -21.725113 0.000000 32.000000 14.342773 0.000000
21.920902 3.036170 -23.493869 0.000000 46.000000 14.770110 15.000000
21.981257 3.121353 -21.773301 0.000000 37.000000 14.355239 0.000000
22.336413 3.623779 -20.560618 0.000000 47.000000 14.460141 0.000000
22.247734 3.757904 -20.625504 0.000000 40.000000 14.429070 0.000000
22.514827 4.206728 -19.899536 0.000000 50.000000 14.578354 0.000000
22.072912 4.323469 -20.851612 0.000000 41.000000 14.469055 0.000000
22.046786 7.676080 -19.404646 0.000000 44.000000 14.846270 4.000000
23.730173 3.007699 -17.288129 0.000000 75.000000 14.667563 28.000000
21.940093 7.536084 -20.710384 0.000000 51.000000 15.086357 3.000000
21.556330 5.192855 -22.885421 0.000000 50.000000 14.782479 11.000000
21.702478 4.864151 -21.181123 0.000000 32.000000 14.351199 0.000000
22.852464 1.646251 -22.140245 0.000000 41.000000 14.909174 26.000000
21.736331 5.011209 -21.227098 0.000000 35.000000 14.431454 0.000000
21.419175 4.839848 -22.574807 0.000000 48.000000 14.480810 0.000000
21.795995 2.724774 -23.417716 0.000000 48.000000 14.556887 15.000000
21.577928 5.055692 -23.037369 0.000000 43.000000 14.812574 11.000000
23.407304 2.772941 -17.817998 0.000000 34.000000 14.462580 0.000000
22.836697 1.818742 -21.756222 0.000000 54.000000 14.826775 27.000000
20.900930 5.952490 -23.377452 0.000000 47.000000 14.500101 0.000000
21.891960 3.648336 -23.505290 0.000000 64.000000 14.895319 16.000000
21.691836 7.156346 -21.291388 0.000000 48.000000 14.929912 29.000000
23.488880 2.317795 -20.117294 0.000000 70.000000 15.084433 25.000000
22.816184 4.945623 -17.881769 0.000000 44.000000 14.460863 0.000000
23.522563 1.986796 -20.319726 0.000000 72.000000 15.093043 25.000000
22.663910 4.734419 -18.120786 0.000000 32.000000 14.336657 0.000000
22.305487 3.879873 -21.487778 0.000000 59.000000 14.758579 17.000000
23.457271 1.058438 -20.971401 0.000000 59.000000 14.993063 24.000000
21.266503 4.274588 -23.746438 0.000000 46.000000 14.536611 0.000000
22.252202 2.138741 -23.374131 0.000000 49.000000 14.824913 19.000000
23.339065 0.825613 -21.370602 0.000000 55.000000 14.940944 24.000000
22.994690 4.177920 -17.963136 0.000000 37.000000 14.463005 0.000000
22.758649 3.767032 -18.987806 0.000000 43.000000 14.437057 0.000000
22.501868 2.373014 -21.019533 0.000000 26.000000 14.440642 0.000000
22.778725 3.652772 -19.074562 0.000000 46.000000 14.452683 0.000000
23.572088 2.911555 -17.787921 0.000000 40.000000 14.640429 28.000000
23.170844 4.583069 -18.159004 0.000000 48.000000 14.780719 6.000000
23.033255 3.828656 -18.220145 0.000000 37.000000 14.487293 0.000000
23.311901 1.965224 -20.752659 0.000000 63.000000 15.016195 27.000000
22.803608 3.292810 -19.340499 0.000000 58.000000 14.464238 0.000000
21.408756 5.183635 -23.217958 0.000000 51.000000 14.738435 11.000000
22.811440 3.042991 -19.512753 0.000000 49.000000 14.459993 0.000000
23.026250 1.929991 -21.311955 0.000000 48.000000 14.902611 27.000000
22.946562 3.186881 -18.656719 0.000000 33.000000 14.375674 0.000000
22.757752 2.772656 -19.698305 0.000000 39.000000 14.397531 0.000000
23.163455 3.412845 -18.390017 0.000000 42.000000 14.555461 7.000000
23.405827 2.840452 -17.753154 0.000000 51.000000 14.459094 0.000000
22.148735 4.084770 -22.606678 0.000000 52.000000 14.982707 30.000000
22.930956 1.427722 -20.410225 0.000000 42.000000 14.434605 0.000000
22.423546 2.255967 -23.213414 0.000000 60.000000 14.966325 19.000000
23.741364 2.971331 -17.628328 0.000000 69.000000 14.766284 28.000000
21.522487 4.594908 -23.957250 0.000000 40.000000 14.911979 10.000000
21.181041 4.219117 -24.072958 0.000000 48.000000 14.537185 0.000000
22.326775 1.972709 -22.100416 0.000000 58.000000 14.489824 0.000000
22.286770 2.105133 -22.187817 0.000000 56.000000 14.509891 0.000000
22.228572 3.057766 -21.354651 0.000000 33.000000 14.449449 0.000000
22.161472 3.682187 -22.128701 0.000000 50.000000 14.760128 18.000000
22.512772 2.041822 -22.570456 0.000000 70.000000 14.813318 21.000000
23.744196 1.812525 -19.315964 0.000000 63.000000 14.969395 23.000000
21.600407 3.205322 -23.214813 0.000000 41.000000 14.434401 0.000000
21.739941 7.401702 -19.385146 0.000000 36.000000 14.489572 0.000000
21.436792 3.768364 -23.644891 0.000000 40.000000 14.542431 0.000000
21.724879 7.204214 -19.595851 0.000000 42.000000 14.487806 0.000000
21.467821 4.645016 -23.788243 0.000000 53.000000 14.825201 10.000000
22.553240 5.186721 -18.462817 0.000000 32.000000 14.441700 0.000000
22.939174 1.450525 -20.870186 0.000000 57.000000 14.579164 27.000000
22.452634 3.458517 -21.810145 0.000000 63.000000 14.884672 17.000000
21.821918 7.127853 -18.930775 0.000000 28.000000 14.369207 0.000000
22.335428 4.232828 -19.729729 0.000000 28.000000 14.369884 0.000000
23.062962 1.352695 -21.680962 0.000000 64.000000 14.901757 27.000000
21.849969 3.375784 -23.468381 0.000000 72.000000 14.779611 16.000000
21.978470 6.284622 -20.642814 0.000000 54.000000 14.798483 1.000000
23.851565 3.138468 -17.971183 0.000000 57.000000 15.007005 22.000000
21.943680 6.665736 -19.269545 0.000000 44.000000 14.466549 0.000000
21.586772 6.318044 -20.413830 0.000000 36.000000 14.378087 0.000000
23.039705 1.479553 -22.111599 0.000000 62.000000 15.034049 26.000000
22.244248 7.618087 -20.700537 0.000000 14.000000 15.385424 3.000000
22.805204 2.420477 -20.289357 0.000000 30.000000 14.524776 0.000000
22.969035 4.089198 -18.700481 0.000000 52.000000 14.628301 6.000000
21.755228 5.829545 -20.712477 0.000000 49.000000 14.500841 0.000000
21.745203 5.701327 -20.798388 0.000000 37.000000 14.484928 0.000000
23.648797 2.147299 -18.858849 0.000000 31.000000 14.831735 23.000000
22.795311 1.021002 -22.204277 0.000000 41.000000 14.722530 26.000000
21.797373 5.034631 -21.173125 0.000000 37.000000 14.478314 0.000000
21.663681 4.883144 -21.292044 0.000000 32.000000 14.351537 0.000000
21.905612 3.612875 -23.216129 0.000000 48.000000 14.816751 16.000000
21.764684 4.609775 -21.398324 0.000000 38.000000 14.409090 0.000000
21.918859 4.483233 -21.410644 0.000000 55.000000 14.524776 0.000000
22.120444 4.696650 -20.345178 0.000000 41.000000 14.459136 0.000000
22.156910 4.556559 -20.394248 0.000000 50.000000 14.472912 0.000000
22.163870 4.413757 -20.449289 0.000000 37.000000 14.460382 0.000000
21.907839 6.441973 -20.124742 0.000000 44.000000 14.623250 12.000000
22.764097 1.587724 -22.294857 0.000000 58.000000 14.857203 26.000000
22.235384 3.537538 -20.732233 0.000000 35.000000 14.394555 0.000000
22.392809 3.422516 -21.923480 0.000000 75.000000 14.852841 17.000000
22.733142 5.058663 -19.401232 0.000000 53.000000 14.845427 13.000000
21.898253 2.975146 -21.984440 0.000000 35.000000 14.303078 0.000000
22.365669 3.255948 -20.776865 0.000000 52.000000 14.459643 0.000000
22.430250 3.115068 -20.796024 0.000000 51.000000 14.490745 0.000000
22.431318 2.961283 -20.833380 0.000000 37.000000 14.465031 0.000000
23.421397 2.598761 -18.202397 0.000000 58.000000 14.543125 22.000000
22.212923 2.403952 -22.033962 0.000000 55.000000 14.470105 0.000000
22.484313 2.664951 -20.885528 0.000000 50.000000 14.457037 0.000000
22.228237 2.247607 -22.064876 0.000000 48.000000 14.455136 0.000000
23.675255 2.202894 -20.320372 0.000000 60.000000 15.287292 25.000000
21.943723 7.450337 -20.694871 0.000000 56.000000 15.064451 3.000000
22.360579 5.301560 -20.254934 0.000000 61.000000 14.802974 14.000000
22.317842 1.947553 -22.099338 0.000000 56.000000 14.475121 0.000000
22.606970 2.226913 -20.934852 0.000000 57.000000 14.478373 0.000000
22.302064 1.784563 -22.136140 0.000000 54.000000 14.431396 0.000000
22.790346 1.328553 -20.996582 0.000000 35.000000 14.447666 0.000000
22.346317 6.323464 -19.566209 0.000000 31.000000 14.841358 9.000000
20.931674 6.116968 -23.087250 0.000000 43.000000 14.485671 0.000000
22.348253 6.326559 -20.898267 0.000000 3.000000 15.224440 1.000000
21.016663 5.391914 -23.586131 0.000000 48.000000 14.530761 0.000000
23.090093 1.455681 -21.605093 0.000000 45.000000 14.930262 27.000000
22.314811 3.415791 -21.949502 0.000000 50.000000 14.786337 17.000000
23.032686 1.667450 -20.611804 0.000000 51.000000 14.644756 27.000000
21.346426 4.219918 -23.283838 0.000000 39.000000 14.465261 0.000000
22.597643 1.605708 -22.606998 0.000000 43.000000 14.796441 21.000000
22.134975 8.004538 -19.080922 0.000000 32.000000 14.915367 4.000000
21.593306 3.271007 -23.223981 0.000000 39.000000 14.446402 0.000000
21.477453 4.974441 -22.976657 0.000000 34.000000 14.682342 11.000000
21.713106 2.964202 -23.167967 0.000000 53.000000 14.466890 0.000000
23.550317 1.020119 -21.482243 0.000000 60.000000 15.215938 24.000000
21.671762 2.628241 -23.172321 0.000000 38.000000 14.348159 0.000000
22.886287 1.905242 -21.369018 0.000000 49.000000 14.783152 27.000000
22.545649 0.606957 -22.449826 0.000000 48.000000 14.460615 0.000000
23.276056 4.413288 -18.715046 0.000000 12.000000 14.995834 6.000000
23.461863 2.503052 -17.867470 0.000000 45.000000 14.461696 0.000000
22.975382 2.737668 -19.745627 0.000000 53.000000 14.604289 25.000000
22.949412 1.876275 -21.448741 0.000000 52.000000 14.857404 27.000000
22.321104 3.608623 -20.511815 0.000000 30.000000 14.428325 0.000000
22.931874 2.971515 -18.791704 0.000000 42.000000 14.348279 0.000000
22.185315 4.108176 -21.470083 0.000000 37.000000 14.697610 18.000000
22.924123 3.116375 -18.765133 0.000000 37.000000 14.368709 0.000000
23.138778 3.581396 -17.661447 0.000000 34.000000 14.365415 0.000000
23.711340 3.375492 -17.442149 0.000000 43.000000 14.783489 28.000000
22.502784 4.952489 -19.625119 0.000000 61.000000 14.670040 13.000000
21.402648 5.539512 -22.644939 0.000000 44.000000 14.655566 11.000000
23.165276 4.488834 -18.039564 0.000000 58.000000 14.718534 6.000000
22.575811 1.708235 -22.665985 0.000000 71.000000 14.817971 21.000000
22.950451 4.378277 -17.906148 0.000000 28.000000 14.454409 0.000000
22.144009 3.312011 -21.704956 0.000000 37.000000 14.532922 17.000000
22.599094 4.944784 -18.668491 0.000000 39.000000 14.484163 0.000000
22.553952 5.082622 -18.680442 0.000000 45.000000 14.479229 0.000000
22.532739 5.223017 -18.690227 0.000000 44.000000 14.496481 0.000000
22.252284 6.049477 -18.829063 0.000000 38.000000 14.477019 0.000000
22.223449 6.186459 -18.857776 0.000000 45.000000 14.491783 0.000000
22.101799 3.704082 -23.022072 0.000000 48.000000 14.965345 30.000000
22.114039 6.598722 -18.960082 0.000000 44.000000 14.519779 0.000000
22.040909 6.734934 -19.008230 0.000000 37.000000 14.498847 0.000000
21.926293 6.872418 -19.070320 0.000000 36.000000 14.443748 0.000000
22.224759 3.763672 -21.986552 0.000000 53.000000 14.797990 18.000000
23.111674 3.879844 -17.772686 0.000000 40.000000 14.444600 0.000000
22.828187 1.710455 -21.973122 0.000000 53.000000 14.854531 26.000000
22.054518 2.795831 -23.358970 0.000000 48.000000 14.797024 15.000000
23.234620 1.936888 -19.772770 0.000000 50.000000 14.657740 25.000000
22.165062 5.436207 -21.029837 0.000000 54.000000 14.875823 14.000000
22.517801 2.396526 -20.889482 0.000000 45.000000 14.423973 0.000000
22.962524 1.151671 -21.292154 0.000000 57.000000 14.648723 27.000000
22.507304 3.506039 -21.759419 0.000000 69.000000 14.932409 17.000000
23.096375 1.827254 -21.548661 0.000000 60.000000 15.010269 27.000000
23.053938 4.167658 -17.705065 0.000000 29.000000 14.441710 0.000000
22.346602 4.349221 -21.184465 0.000000 55.000000 14.824110 18.000000
22.416985 2.837825 -20.937411 0.000000 40.000000 14.451459 0.000000
22.656567 3.324990 -19.792329 0.000000 43.000000 14.464828 0.000000
22.368635 2.981283 -20.963688 0.000000 42.000000 14.449011 0.000000
21.893176 4.432625 -21.875909 0.000000 42.000000 14.621583 18.000000
22.346374 3.131096 -20.982987 0.000000 52.000000 14.470297 0.000000
22.549260 3.607830 -19.845804 0.000000 42.000000 14.449371 0.000000
23.487878 1.906805 -19.673546 0.000000 65.000000 14.856854 23.000000
23.332392 0.735801 -21.751387 0.000000 45.000000 15.021711 24.000000
22.099365 3.394700 -21.094620 0.000000 38.000000 14.337276 0.000000
22.342056 3.877828 -19.936859 0.000000 31.000000 14.348923 0.000000
22.588959 0.892088 -22.317760 0.000000 32.000000 14.532331 26.000000
22.332661 4.027724 -19.958903 0.000000 34.000000 14.382942 0.000000
22.161987 3.710072 -21.112085 0.000000 48.000000 14.476961 0.000000
21.843998 3.310359 -23.787394 0.000000 59.000000 14.849309 16.000000
22.042629 3.991036 -21.199583 0.000000 41.000000 14.459596 0.000000
21.866007 6.097806 -20.766743 0.000000 51.000000 14.684231 1.000000
22.926539 5.079324 -19.412154 0.000000 45.000000 15.032847 13.000000
22.210596 4.748582 -20.122812 0.000000 47.000000 14.491805 0.000000
21.750054 4.554047 -21.420862 0.000000 41.000000 14.388423 0.000000
21.686965 4.699057 -21.478689 0.000000 39.000000 14.381702 0.000000
22.260797 3.733499 -20.685623 0.000000 27.000000 14.452422 0.000000
23.141616 1.100557 -20.430710 0.000000 70.000000 14.556227 24.000000
21.684364 5.050170 -22.591997 0.000000 67.000000 14.782665 11.000000
22.346336 4.207765 -21.871172 0.000000 53.000000 14.985660 18.000000
22.588265 4.746669 -19.603795 0.000000 53.000000 14.693168 13.000000
21.568150 5.281765 -21.691058 0.000000 45.000000 14.473846 0.000000
23.158357 4.409724 -18.097439 0.000000 50.000000 14.709427 6.000000
21.529296 5.424483 -21.753433 0.000000 55.000000 14.490332 0.000000
21.555361 7.056298 -20.415399 0.000000 24.000000 14.528838 0.000000
22.430910 4.149363 -20.086518 0.000000 40.000000 14.540036 8.000000
21.190714 5.986181 -22.093947 0.000000 45.000000 14.410254 0.000000
21.375975 6.193385 -21.148343 0.000000 30.000000 14.362215 0.000000
21.490414 6.572689 -20.943447 0.000000 41.000000 14.501949 0.000000
22.517063 4.410090 -21.638846 0.000000 58.000000 15.126725 18.000000
23.010597 1.066565 -22.984889 0.000000 42.000000 15.156174 26.000000
21.088614 6.409844 -22.325256 0.000000 45.000000 14.484651 0.000000
22.022414 2.936157 -23.522351 0.000000 63.000000 14.848041 15.000000
22.197406 6.689537 -20.125428 0.000000 61.000000 14.952040 12.000000
22.818013 3.325556 -19.240365 0.000000 29.000000 14.456945 0.000000
22.772357 1.779427 -21.781463 0.000000 48.000000 14.764787 27.000000
21.398525 4.525325 -24.065339 0.000000 53.000000 14.811035 10.000000
21.767156 3.231895 -23.480273 0.000000 45.000000 14.671271 16.000000
23.665224 2.424703 -19.366369 0.000000 55.000000 15.059366 25.000000
22.180382 4.445636 -21.343837 0.000000 63.000000 14.738985 18.000000
23.059263 3.925805 -17.857914 0.000000 31.000000 14.431532 0.000000
23.179827 3.755331 -17.395731 0.000000 31.000000 14.369831 0.000000
23.163419 3.650692 -17.499120 0.000000 38.000000 14.358725 0.000000
21.456014 3.781243 -23.917720 0.000000 54.000000 14.641319 0.000000
22.896276 1.614891 -21.991048 0.000000 45.000000 14.899545 26.000000
21.643129 4.895641 -23.562378 0.000000 65.000000 14.984098 10.000000
22.701626 5.543463 -18.828039 0.000000 51.000000 14.770287 5.000000
23.405793 0.731241 -21.560294 0.000000 44.000000 15.034055 24.000000
22.405877 4.455597 -20.004962 0.000000 34.000000 14.567957 0.000000
23.044017 4.451239 -18.075352 0.000000 47.000000 14.607214 6.000000
22.292461 3.435021 -21.944666 0.000000 56.000000 14.768910 17.000000
23.263938 2.297400 -18.611413 0.000000 42.000000 14.440765 0.000000
23.440218 3.676985 -18.436664 0.000000 63.000000 14.889540 7.000000
23.299485 2.055884 -18.774821 0.000000 36.000000 14.461702 0.000000
22.569516 0.532724 -22.359123 0.000000 45.000000 14.438786 0.000000
22.584169 0.695707 -22.383616 0.000000 61.000000 14.498977 0.000000
22.429760 2.034118 -21.585718 0.000000 42.000000 14.453179 0.000000
23.564398 1.172232 -21.046270 0.000000 61.000000 15.141413 24.000000
22.306445 2.303568 -21.724166 0.000000 46.000000 14.443902 0.000000
23.737799 3.065653 -18.444111 0.000000 51.000000 15.018950 22.000000
23.508487 2.428639 -19.422363 0.000000 67.000000 14.931025 25.000000
22.517578 1.787750 -22.672671 0.000000 49.000000 14.785225 21.000000
21.890074 3.101780 -22.214991 0.000000 41.000000 14.392135 0.000000
22.146697 2.598677 -22.759755 0.000000 53.000000 14.663378 19.000000
22.438611 5.492459 -20.765471 0.000000 54.000000 15.067551 14.000000
23.268324 1.032818 -22.651782 0.000000 70.000000 15.291724 26.000000
23.192989 2.323573 -20.212246 0.000000 35.000000 14.838673 25.000000
22.015677 7.407918 -20.469238 0.000000 55.000000 15.056385 3.000000
23.117592 3.760440 -18.359208 0.000000 81.000000 14.588621 7.000000
23.406216 2.537751 -19.619960 0.000000 70.000000 14.919186 25.000000
23.539256 2.313583 -18.840621 0.000000 78.000000 14.765397 23.000000
23.679963 2.849198 -18.403154 0.000000 51.000000 14.901030 22.000000
20.841241 4.940393 -23.754267 0.000000 32.000000 14.306443 0.000000
20.806872 5.071129 -23.867675 0.000000 37.000000 14.338754 0.000000
22.934442 1.435051 -20.405743 0.000000 28.000000 14.438337 0.000000
20.826089 5.337935 -24.062215 0.000000 40.000000 14.476986 0.000000
22.428605 3.997772 -22.037286 0.000000 74.000000 15.058342 18.000000
21.585567 7.234510 -20.428741 0.000000 52.000000 14.603962 3.000000
22.224344 6.592155 -18.518281 0.000000 44.000000 14.494225 0.000000
22.807811 1.670544 -22.265194 0.000000 66.000000 14.909380 26.000000
22.193031 6.414043 -18.739129 0.000000 42.000000 14.485002 0.000000
23.529584 2.691156 -19.077562 0.000000 62.000000 14.915881 25.000000
22.362067 5.128148 -20.191123 0.000000 48.000000 14.743979 14.000000
22.061788 4.467684 -20.716252 0.000000 35.000000 14.455123 0.000000
22.156280 6.026999 -19.164497 0.000000 42.000000 14.478385 0.000000
21.125545 5.757385 -23.019892 0.000000 65.000000 14.558756 0.000000
21.384225 5.016931 -22.987600 0.000000 48.000000 14.609373 11.000000
23.407568 3.628711 -18.441078 0.000000 53.000000 14.848802 7.000000
22.375071 6.089671 -18.420775 0.000000 42.000000 14.483974 0.000000
22.079983 5.708621 -19.484682 0.000000 40.000000 14.421750 0.000000
22.016833 5.594542 -19.598899 0.000000 30.000000 14.368114 0.000000
21.999106 5.480516 -19.701939 0.000000 32.000000 14.353404 0.000000
22.840159 3.775715 -18.827121 0.000000 39.000000 14.468824 0.000000
22.412830 4.245749 -21.660519 0.000000 46.000000 14.996352 18.000000
21.036265 5.391515 -23.553433 0.000000 45.000000 14.539495 0.000000
22.288519 4.326464 -20.478040 0.000000 54.000000 14.562930 0.000000
22.442562 5.043939 -19.213804 0.000000 62.000000 14.518937 0.000000
22.181791 4.663143 -20.290313 0.000000 58.000000 14.492188 0.000000
23.503003 2.786125 -19.124046 0.000000 70.000000 14.927600 25.000000
22.444564 5.265752 -20.215459 0.000000 59.000000 14.860848 14.000000
22.420782 4.527569 -19.539116 0.000000 39.000000 14.466186 0.000000
22.428020 4.397863 -19.612577 0.000000 45.000000 14.462358 0.000000
22.297342 5.647654 -20.581302 0.000000 56.000000 14.921700 14.000000
22.197666 3.877631 -20.776177 0.000000 41.000000 14.454798 0.000000
23.127064 2.545464 -19.755166 0.000000 58.000000 14.700912 25.000000
22.142927 3.733059 -20.869162 0.000000 35.000000 14.395482 0.000000
23.549555 2.732718 -17.484907 0.000000 36.000000 14.489515 0.000000
23.194593 1.507199 -21.506993 0.000000 69.000000 15.011629 27.000000
22.494336 4.395259 -21.671576 0.000000 61.000000 15.111403 18.000000
22.070409 3.444481 -21.038019 0.000000 35.000000 14.306362 0.000000
23.491755 1.797705 -19.692914 0.000000 57.000000 14.839465 23.000000
22.200934 3.322734 -21.066772 0.000000 42.000000 14.405985 0.000000
22.503917 3.590462 -20.010187 0.000000 41.000000 14.450077 0.000000
22.597772 5.232862 -19.217252 0.000000 28.000000 14.709716 13.000000
21.841272 6.997483 -19.753921 0.000000 31.000000 14.590616 0.000000
22.290404 3.056460 -21.174873 0.000000 52.000000 14.455091 0.000000
22.541432 3.317715 -20.125597 0.000000 34.000000 14.451537 0.000000
23.556327 2.696787 -18.805622 0.000000 51.000000 14.864353 22.000000
22.578955 3.546503 -21.495249 0.000000 59.000000 14.933197 17.000000
22.050104 7.529643 -20.819797 0.000000 44.000000 15.218028 3.000000
22.587058 3.040334 -20.231378 0.000000 43.000000 14.456638 0.000000
23.609207 2.799510 -18.709689 0.000000 49.000000 14.910933 22.000000
22.594323 4.969104 -18.560651 0.000000 31.000000 14.454844 0.000000
22.364556 2.481613 -21.401846 0.000000 41.000000 14.448963 0.000000
22.664646 2.763282 -20.319066 0.000000 53.000000 14.486279 0.000000
23.451655 1.931287 -19.367594 0.000000 64.000000 14.741822 23.000000
21.762363 3.352746 -23.642269 0.000000 57.000000 14.742477 16.000000
21.496495 7.283203 -20.956801 0.000000 40.000000 14.684079 29.000000
22.710916 4.830822 -19.471102 0.000000 56.000000 14.789411 13.000000
23.003491 1.852681 -20.178104 0.000000 54.000000 14.538813 25.000000
22.513473 1.906452 -21.573360 0.000000 42.000000 14.496223 0.000000
22.902494 1.309108 -20.692598 0.000000 40.000000 14.460060 0.000000
21.975473 5.136689 -20.735891 0.000000 33.000000 14.543309 14.000000
21.229038 6.766587 -21.571165 0.000000 37.000000 14.486100 0.000000
21.640967 3.382519 -23.515487 0.000000 63.000000 14.600960 16.000000
23.425197 2.726659 -17.987490 0.000000 35.000000 14.516337 0.000000
22.708133 5.113458 -17.932243 0.000000 30.000000 14.415909 0.000000
22.942994 1.452303 -22.451575 0.000000 42.000000 15.034899 26.000000
23.448398 2.688635 -18.872840 0.000000 64.000000 14.781525 25.000000
22.634976 3.855701 -19.309082 0.000000 32.000000 14.435743 0.000000
21.234037 6.200676 -21.844969 0.000000 29.000000 14.431417 0.000000
22.681745 2.301221 -23.242407 0.000000 32.000000 15.224956 19.000000
21.737289 6.968677 -20.159032 0.000000 61.000000 14.602952 0.000000
21.171906 5.904224 -21.991568 0.000000 30.000000 14.343654 0.000000
21.313626 5.761163 -22.000732 0.000000 27.000000 14.442878 0.000000
23.168864 0.941486 -21.847244 0.000000 51.000000 14.947492 24.000000
22.810568 2.355752 -20.600107 0.000000 36.000000 14.602791 0.000000
21.474391 5.170810 -22.151824 0.000000 42.000000 14.491595 0.000000
21.999866 5.846044 -19.891017 0.000000 38.000000 14.496959 0.000000
23.100254 1.182738 -22.461302 0.000000 41.000000 15.117944 26.000000
21.587499 7.770531 -19.528647 0.000000 35.000000 14.478889 0.000000
22.252769 6.209557 -19.571683 0.000000 50.000000 14.728520 9.000000
22.777095 5.686017 -18.442514 0.000000 73.000000 14.764758 5.000000
22.280517 7.663809 -19.161754 0.000000 45.000000 14.990567 4.000000
23.168598 1.214015 -22.511009 0.000000 60.000000 15.203100 26.000000
21.474477 4.399587 -22.362612 0.000000 30.000000 14.364458 0.000000
21.279346 4.053133 -23.602547 0.000000 42.000000 14.453590 0.000000
23.434406 2.638834 -19.170779 0.000000 67.000000 14.841565 25.000000
21.789324 3.489749 -22.422457 0.000000 47.000000 14.452297 0.000000
21.472098 4.699260 -23.707193 0.000000 51.000000 14.819195 10.000000
23.347746 1.840322 -20.857539 0.000000 56.000000 15.049029 27.000000
23.225305 1.955519 -19.901998 0.000000 41.000000 14.690551 25.000000
23.436753 2.558778 -19.550678 0.000000 68.000000 14.932811 25.000000
22.205928 2.124777 -22.372926 0.000000 39.000000 14.492605 0.000000
22.315020 1.828766 -22.330940 0.000000 55.000000 14.509798 0.000000
22.589274 0.786897 -22.158032 0.000000 53.000000 14.461428 0.000000
23.120617 1.148125 -22.855746 0.000000 44.000000 15.241091 26.000000
22.418777 2.814695 -22.304070 0.000000 56.000000 14.837918 20.000000
23.633617 2.539687 -17.291266 0.000000 41.000000 14.465209 0.000000
23.398608 2.214875 -18.324347 0.000000 43.000000 14.463541 0.000000
23.606858 2.540572 -17.316467 0.000000 23.000000 14.447819 0.000000
23.113077 1.547501 -21.462998 0.000000 33.000000 14.933290 27.000000
23.374581 2.482192 -18.229371 0.000000 60.000000 14.479102 0.000000
23.584726 2.937542 -17.148219 0.000000 39.000000 14.475713 0.000000
23.566927 3.071202 -17.104171 0.000000 41.000000 14.479116 0.000000
23.150374 3.265484 -18.016874 0.000000 40.000000 14.400923 0.000000
22.360339 1.899672 -22.255232 0.000000 35.000000 14.547414 0.000000
23.113062 3.535225 -17.955238 0.000000 36.000000 14.414284 0.000000
23.121461 3.673897 -17.924387 0.000000 44.000000 14.446957 0.000000
23.236155 1.547740 -21.362090 0.000000 47.000000 15.018615 27.000000
22.717852 1.686738 -22.510202 0.000000 58.000000 14.899916 21.000000
21.697680 7.299286 -20.191320 0.000000 50.000000 14.655808 3.000000
23.025511 4.212178 -17.836499 0.000000 39.000000 14.463725 0.000000
23.185081 1.333778 -19.769478 0.000000 32.000000 14.464302 0.000000
22.036745 7.588763 -19.290355 0.000000 38.000000 14.783091 4.000000
22.085840 4.197314 -21.340245 0.000000 43.000000 14.589969 18.000000
23.873980 3.078994 -18.077424 0.000000 69.000000 15.043680 22.000000
22.249277 7.527829 -19.194987 0.000000 49.000000 14.938054 4.000000
22.158640 5.880524 -19.680079 0.000000 41.000000 14.592263 9.000000
20.976339 5.635528 -23.783582 0.000000 63.000000 14.608994 2.000000
23.362031 1.224928 -21.422370 0.000000 64.000000 15.074068 24.000000
21.985649 5.163861 -21.002914 0.000000 47.000000 14.635627 14.000000
22.874071 2.717701 -19.170920 0.000000 38.000000 14.341343 0.000000
22.818850 2.855741 -19.168201 0.000000 35.000000 14.322925 0.000000
22.639698 2.528223 -20.269920 0.000000 43.000000 14.391986 0.000000
23.625792 3.242816 -17.476065 0.000000 50.000000 14.681631 28.000000
22.676596 2.687871 -20.245719 0.000000 59.000000 14.458076 0.000000
23.451260 2.645987 -17.747647 0.000000 28.000000 14.452375 0.000000
22.496549 2.239686 -23.400612 0.000000 59.000000 15.083519 19.000000
22.307386 5.308628 -20.032531 0.000000 66.000000 14.691847 14.000000
23.537723 2.660146 -18.390211 0.000000 46.000000 14.719531 22.000000
22.265915 4.067763 -20.863317 0.000000 45.000000 14.589167 0.000000
21.370445 4.550100 -23.667425 0.000000 48.000000 14.677351 10.000000
22.790124 3.596518 -19.128661 0.000000 45.000000 14.465034 0.000000
22.227029 4.263984 -22.179270 0.000000 45.000000 14.976740 18.000000
22.484172 2.149638 -23.189604 0.000000 69.000000 14.989882 19.000000
22.418556 2.247551 -23.404124 0.000000 50.000000 15.014136 19.000000
23.122344 1.930800 -21.343921 0.000000 65.000000 15.001018 27.000000
23.002531 1.135249 -22.697374 0.000000 60.000000 15.083253 26.000000
21.263594 4.418601 -23.945659 0.000000 38.000000 14.625826 10.000000
22.439316 3.692612 -20.280917 0.000000 48.000000 14.492358 0.000000
23.693480 3.220024 -17.746409 0.000000 37.000000 14.816069 28.000000
21.544016 6.993254 -21.514944 0.000000 62.000000 14.817111 29.000000
23.238848 1.088182 -21.282944 0.000000 70.000000 14.886814 24.000000
21.796671 5.356165 -22.899875 0.000000 52.000000 15.049093 11.000000
22.337092 4.193393 -22.104493 0.000000 56.000000 15.040251 18.000000
23.754819 2.961680 -18.288771 0.000000 35.000000 14.965083 22.000000
22.184705 2.478845 -23.379298 0.000000 48.000000 14.846476 19.000000
23.576768 2.182622 -20.151068 0.000000 59.000000 15.142703 25.000000
22.136604 4.542037 -20.426126 0.000000 55.000000 14.459665 0.000000
22.133466 4.689561 -20.445258 0.000000 50.000000 14.498076 0.000000
22.201444 5.433486 -19.394287 0.000000 38.000000 14.441653 0.000000
22.056270 5.567921 -19.454816 0.000000 31.000000 14.357041 0.000000
22.081054 5.713877 -19.476818 0.000000 33.000000 14.421774 0.000000
22.118212 3.955151 -22.315990 0.000000 49.000000 14.839868 18.000000
23.147981 1.537260 -21.945607 0.000000 46.000000 15.101027 26.000000
22.991595 4.683203 -18.049124 0.000000 40.000000 14.607501 6.000000
21.640942 6.840870 -19.894644 0.000000 46.000000 14.407049 0.000000
23.479101 2.163981 -19.650523 0.000000 63.000000 14.904642 25.000000
22.835671 0.391585 -22.247259 0.000000 59.000000 14.619253 0.000000
21.364572 6.664475 -21.170158 0.000000 42.000000 14.472366 0.000000
21.631742 7.117217 -19.999635 0.000000 51.000000 14.495675 0.000000
22.660719 2.742881 -20.234166 0.000000 26.000000 14.453427 0.000000
23.233993 1.948745 -21.249526 0.000000 51.000000 15.081911 27.000000
21.265261 6.940952 -21.311970 0.000000 52.000000 14.488009 0.000000
23.259592 2.011003 -20.640938 0.000000 40.000000 14.946915 27.000000
21.867444 5.372187 -22.315836 0.000000 57.000000 14.951749 11.000000
23.400276 2.504613 -18.138292 0.000000 52.000000 14.482351 0.000000
21.715463 7.364780 -20.236186 0.000000 60.000000 14.701027 3.000000
20.852719 5.628923 -24.032506 0.000000 35.000000 14.563904 2.000000
22.278424 7.527045 -19.049286 0.000000 52.000000 14.923260 4.000000
23.336530 2.201696 -18.482287 0.000000 44.000000 14.447910 0.000000
22.297107 4.202846 -21.769180 0.000000 51.000000 14.909692 18.000000
22.329635 4.203209 -22.154579 0.000000 35.000000 15.050032 18.000000
21.961600 3.047445 -23.334261 0.000000 50.000000 14.764980 15.000000
23.535460 2.353165 -17.817352 0.000000 48.000000 14.479176 0.000000
23.570241 2.255593 -17.915932 0.000000 49.000000 14.515867 0.000000
22.047904 3.591557 -23.553871 0.000000 50.000000 15.039958 16.000000
23.273610 2.724475 -19.225024 0.000000 60.000000 14.728817 25.000000
22.147735 7.475331 -18.844944 0.000000 66.000000 14.731168 4.000000
22.502463 2.391151 -21.111768 0.000000 52.000000 14.471951 0.000000
22.249143 2.036344 -22.310279 0.000000 49.000000 14.493277 0.000000
23.020781 1.607895 -21.910589 0.000000 78.000000 14.990275 26.000000
22.376590 2.668945 -21.210244 0.000000 44.000000 14.450912 0.000000
21.970021 5.235988 -20.886610 0.000000 52.000000 14.605445 14.000000
22.286306 2.951330 -21.305702 0.000000 49.000000 14.463116 0.000000
22.364469 4.350404 -21.818615 0.000000 47.000000 15.022121 18.000000
23.759516 1.669411 -19.401669 0.000000 55.000000 14.973299 23.000000
22.578924 5.419406 -18.959555 0.000000 62.000000 14.663964 5.000000
22.825221 3.496776 -19.022266 0.000000 31.000000 14.442933 0.000000
22.973294 4.519842 -18.375509 0.000000 58.000000 14.644074 6.000000
23.559022 2.261876 -19.795397 0.000000 48.000000 15.043907 25.000000
21.611333 6.945709 -20.419006 0.000000 46.000000 14.554878 0.000000
21.987959 3.697687 -22.574919 0.000000 67.000000 14.730521 30.000000
22.328490 3.864123 -21.903171 0.000000 47.000000 14.894741 18.000000
22.234070 6.515893 -19.954212 0.000000 44.000000 14.894915 12.000000
22.289993 1.505017 -22.967420 0.000000 41.000000 14.589742 0.000000
23.199840 1.973381 -20.963716 0.000000 57.000000 14.974591 27.000000
23.336684 3.678155 -18.407029 0.000000 70.000000 14.785382 7.000000
20.827098 5.126307 -24.052627 0.000000 37.000000 14.423750 0.000000
23.206318 1.496779 -21.355109 0.000000 56.000000 14.976577 27.000000
23.286283 2.440023 -19.888753 0.000000 51.000000 14.861044 25.000000
21.108123 5.708301 -22.879393 0.000000 58.000000 14.490541 0.000000
20.722854 5.405685 -24.264946 0.000000 43.000000 14.455667 0.000000
23.277417 1.248520 -21.564368 0.000000 58.000000 15.041930 27.000000
22.826354 1.003436 -21.971837 0.000000 68.000000 14.680636 26.000000
20.968598 5.972825 -23.103642 0.000000 45.000000 14.489551 0.000000
22.591934 1.596585 -22.699017 0.000000 47.000000 14.815220 21.000000
22.625011 5.499224 -18.057814 0.000000 47.000000 14.468481 0.000000
22.604847 2.261958 -23.277450 0.000000 59.000000 15.154140 19.000000
22.593712 5.326862 -18.283206 0.000000 45.000000 14.461966 0.000000
22.592458 5.236387 -18.392309 0.000000 43.000000 14.469982 0.000000
20.985272 5.375793 -23.704145 0.000000 49.000000 14.531458 0.000000
22.977538 4.152552 -18.852687 0.000000 49.000000 14.695061 6.000000
22.559430 4.952566 -18.716588 0.000000 41.000000 14.463026 0.000000
22.414046 4.587318 -19.442802 0.000000 27.000000 14.446948 0.000000
23.487082 1.009611 -20.974473 0.000000 71.000000 15.009708 24.000000
22.522051 1.689398 -22.335377 0.000000 36.000000 14.669113 26.000000
22.022318 7.334230 -20.685715 0.000000 56.000000 15.106475 3.000000
22.510250 4.647140 -19.038332 0.000000 41.000000 14.435122 0.000000
21.905685 7.366512 -20.309459 0.000000 49.000000 14.898716 3.000000
21.895664 5.303267 -20.990646 0.000000 46.000000 14.582587 14.000000
23.704731 1.799157 -19.438739 0.000000 54.000000 14.964636 23.000000
22.801674 5.655966 -18.520965 0.000000 49.000000 14.802650 5.000000
22.340599 2.114357 -23.292635 0.000000 57.000000 14.877650 19.000000
22.350344 3.783138 -22.098040 0.000000 64.000000 14.950986 18.000000
20.992273 6.022964 -23.277813 0.000000 40.000000 14.573439 0.000000
22.179481 5.824081 -19.439398 0.000000 46.000000 14.529108 9.000000
22.721308 4.508909 -18.514423 0.000000 32.000000 14.447510 0.000000
23.877835 2.314133 -20.255238 0.000000 4.000000 15.483511 25.000000
22.387415 3.971082 -19.662164 0.000000 34.000000 14.335162 0.000000
22.428483 3.859968 -19.746605 0.000000 40.000000 14.370350 0.000000
22.509451 3.756460 -19.818552 0.000000 37.000000 14.440805 0.000000
22.775713 4.049547 -18.867150 0.000000 39.000000 14.487068 0.000000
21.968465 6.208234 -19.969184 0.000000 38.000000 14.578205 0.000000
23.674280 3.264142 -17.365074 0.000000 46.000000 14.700055 28.000000
22.521807 3.515995 -19.997602 0.000000 53.000000 14.444968 0.000000
21.997487 2.775979 -23.325876 0.000000 42.000000 14.729878 15.000000
22.531156 3.394147 -20.084033 0.000000 48.000000 14.448712 0.000000
23.292722 1.922187 -19.801196 0.000000 60.000000 14.716149 25.000000
22.531725 3.269751 -20.171994 0.000000 41.000000 14.444136 0.000000
23.042559 3.954549 -18.289268 0.000000 41.000000 14.546260 0.000000
22.532369 3.142282 -20.259215 0.000000 47.000000 14.438670 0.000000
22.784689 3.434667 -19.286108 0.000000 53.000000 14.465638 0.000000
