51.622978 16.986208 19.102173 0.000000 48.000000 14.271306 0.000000
53.354134 16.948955 19.383175 0.000000 32.000000 14.351157 26.000000
55.450821 15.641398 21.943977 0.000000 36.000000 14.193888 0.000000
52.404839 16.211818 20.694979 0.000000 37.000000 14.209049 0.000000
51.677250 16.904066 19.260129 0.000000 50.000000 14.260244 0.000000
50.600178 17.581957 18.314405 0.000000 43.000000 14.496586 28.000000
53.460598 17.369824 17.911891 0.000000 35.000000 14.139500 0.000000
53.774273 15.764551 22.551677 0.000000 60.000000 14.552806 1.000000
53.746101 16.275261 20.526387 0.000000 50.000000 14.198706 0.000000
54.391258 16.391218 20.419227 0.000000 49.000000 14.261270 0.000000
52.041882 18.078020 18.226274 0.000000 70.000000 14.914341 21.000000
54.252487 16.496993 20.110975 0.000000 46.000000 14.233013 0.000000
54.176308 16.562260 19.961556 0.000000 51.000000 14.232109 0.000000
50.242359 16.181252 20.823802 0.000000 24.000000 14.233326 0.000000
55.366440 16.664590 20.201847 0.000000 49.000000 14.423059 13.000000
55.360020 16.741907 19.554318 0.000000 47.000000 14.231257 0.000000
52.612541 17.099860 19.273832 0.000000 50.000000 14.444785 27.000000
55.362354 16.729607 19.382142 0.000000 50.000000 14.150220 0.000000
55.094070 17.111793 19.170490 0.000000 40.000000 14.413803 15.000000
51.235653 16.514183 20.134381 0.000000 34.000000 14.258215 0.000000
51.496826 16.708860 19.723594 0.000000 58.000000 14.269665 0.000000
49.686695 17.749117 18.665505 0.000000 58.000000 14.791718 7.000000
53.528004 16.116915 20.790078 0.000000 22.000000 14.160842 0.000000
49.898071 17.516410 18.709931 0.000000 53.000000 14.596995 7.000000
49.973076 17.350349 18.529787 0.000000 54.000000 14.372167 7.000000
53.842197 17.244494 19.039774 0.000000 49.000000 14.482126 26.000000
52.269684 16.803139 19.492209 0.000000 41.000000 14.262057 0.000000
53.522991 17.314698 18.015878 0.000000 40.000000 14.131258 0.000000
54.935062 17.274807 17.985492 0.000000 43.000000 14.082474 0.000000
55.243633 15.400071 23.124275 0.000000 44.000000 14.451721 29.000000
52.474392 17.159225 18.816567 0.000000 35.000000 14.313698 27.000000
49.318012 16.224420 20.959201 0.000000 40.000000 14.327674 3.000000
54.377705 16.753800 19.611852 0.000000 41.000000 14.265451 0.000000
55.298073 16.991213 18.991869 0.000000 35.000000 14.231169 0.000000
51.318386 17.627925 18.541688 0.000000 66.000000 14.630739 28.000000
53.626137 17.270679 18.139012 0.000000 21.000000 14.140932 0.000000
49.851479 16.918476 20.557071 0.000000 56.000000 14.799144 2.000000
51.954113 15.471649 23.059643 0.000000 38.000000 14.490955 24.000000
54.609138 14.908561 23.326312 0.000000 27.000000 14.084301 0.000000
52.067539 16.799691 19.508088 0.000000 51.000000 14.265341 0.000000
50.997284 15.538323 22.015807 0.000000 23.000000 14.128778 0.000000
51.798256 17.557758 18.394174 0.000000 77.000000 14.506799 28.000000
53.525425 16.687070 19.812699 0.000000 57.000000 14.285865 0.000000
50.100079 17.890743 18.661443 0.000000 49.000000 14.919540 7.000000
50.477390 16.954982 19.671076 0.000000 52.000000 14.473370 6.000000
51.738811 15.595229 22.365396 0.000000 56.000000 14.322508 12.000000
50.155663 16.165356 20.747382 0.000000 31.000000 14.187818 0.000000
52.498070 16.483243 20.264431 0.000000 42.000000 14.282648 0.000000
52.965591 17.147932 19.154373 0.000000 50.000000 14.440307 26.000000
53.909016 17.287257 18.040182 0.000000 39.000000 14.116025 0.000000
50.588924 16.204119 20.777240 0.000000 49.000000 14.235356 0.000000
51.263870 15.647406 22.009415 0.000000 36.000000 14.225906 0.000000
51.360767 16.747986 19.669347 0.000000 60.000000 14.283442 0.000000
49.323517 16.145757 20.764752 0.000000 31.000000 14.176942 0.000000
50.337894 16.134095 20.945547 0.000000 38.000000 14.239568 0.000000
50.204849 16.107396 21.028432 0.000000 37.000000 14.248759 0.000000
54.429165 17.040322 18.814049 0.000000 39.000000 14.203981 0.000000
52.426369 17.310085 19.123132 0.000000 65.000000 14.575876 27.000000
54.772316 15.198916 22.811096 0.000000 37.000000 14.140884 0.000000
49.568363 15.927876 21.397768 0.000000 35.000000 14.234363 0.000000
52.688377 16.537781 20.059177 0.000000 33.000000 14.249303 0.000000
50.777790 16.947632 19.468299 0.000000 36.000000 14.384454 0.000000
51.588051 16.226683 21.228106 0.000000 60.000000 14.438746 18.000000
50.073528 17.396670 18.747759 0.000000 49.000000 14.502868 7.000000
49.622093 16.663533 20.492723 0.000000 37.000000 14.540002 2.000000
50.464111 17.461591 18.950312 0.000000 73.000000 14.644323 9.000000
49.641068 17.680896 18.759575 0.000000 67.000000 14.767485 7.000000
51.502747 17.407737 18.775708 0.000000 72.000000 14.524314 28.000000
51.416988 17.164423 19.208923 0.000000 64.000000 14.477494 8.000000
55.148605 17.164356 18.559347 0.000000 36.000000 14.214122 0.000000
53.566826 15.269923 23.266566 0.000000 51.000000 14.390424 30.000000
52.278023 16.820981 19.644381 0.000000 51.000000 14.340051 0.000000
53.804737 15.541664 22.372070 0.000000 43.000000 14.276246 0.000000
52.409138 16.185470 21.083890 0.000000 55.000000 14.342612 0.000000
51.900509 17.400360 18.682772 0.000000 48.000000 14.479898 28.000000
52.442886 17.535466 18.517870 0.000000 76.000000 14.536562 5.000000
53.855354 15.484830 22.038679 0.000000 32.000000 14.089148 0.000000
54.229572 17.197053 19.261104 0.000000 64.000000 14.528475 4.000000
55.321770 15.740171 21.802309 0.000000 43.000000 14.226755 0.000000
53.149681 16.099853 20.811641 0.000000 32.000000 14.153986 0.000000
51.662430 17.637390 18.631875 0.000000 61.000000 14.675949 28.000000
50.981815 14.901770 23.406572 0.000000 24.000000 14.110627 0.000000
53.623039 15.846538 21.579027 0.000000 42.000000 14.233482 0.000000
54.797077 16.662116 20.672460 0.000000 52.000000 14.611564 13.000000
53.619350 15.877267 21.416432 0.000000 38.000000 14.195664 0.000000
49.711254 16.742040 20.461653 0.000000 53.000000 14.599175 2.000000
53.517010 16.040761 21.274539 0.000000 52.000000 14.287606 0.000000
49.735912 15.873556 21.580626 0.000000 26.000000 14.258829 0.000000
50.461166 17.446321 18.917156 0.000000 69.000000 14.616923 9.000000
50.801498 16.186129 20.565280 0.000000 27.000000 14.132991 0.000000
54.306099 17.443062 18.497190 0.000000 64.000000 14.443707 22.000000
52.182472 16.196103 20.593049 0.000000 40.000000 14.153365 0.000000
55.304173 17.498824 18.548622 0.000000 62.000000 14.515531 23.000000
52.882412 16.479889 20.323935 0.000000 51.000000 14.303703 0.000000
53.447720 16.320552 20.506149 0.000000 48.000000 14.231905 0.000000
53.070999 17.270000 18.403130 0.000000 28.000000 14.247373 0.000000
51.633652 15.590940 22.266446 0.000000 62.000000 14.278477 0.000000
53.063622 15.831612 22.638427 0.000000 63.000000 14.649274 1.000000
51.268097 15.270588 23.254341 0.000000 48.000000 14.386076 25.000000
53.424141 16.505963 20.051234 0.000000 49.000000 14.216996 0.000000
54.023212 15.917800 21.375426 0.000000 29.000000 14.216096 0.000000
53.061062 16.565932 19.905344 0.000000 48.000000 14.212680 0.000000
52.061474 16.677662 19.733817 0.000000 47.000000 14.245289 0.000000
55.103500 17.140234 18.601043 0.000000 37.000000 14.208972 0.000000
50.418514 16.806248 19.353951 0.000000 50.000000 14.208855 0.000000
54.644962 15.474185 22.260066 0.000000 26.000000 14.169158 0.000000
51.906757 18.138838 18.334964 0.000000 69.000000 15.013997 21.000000
49.342533 15.763560 21.827134 0.000000 50.000000 14.258200 0.000000
51.318638 17.682107 18.676671 0.000000 47.000000 14.734986 28.000000
49.404816 16.215137 20.915034 0.000000 49.000000 14.301284 3.000000
49.525043 16.679590 19.926824 0.000000 46.000000 14.325288 6.000000
55.089130 16.714637 19.736426 0.000000 52.000000 14.280147 0.000000
51.915031 17.292419 18.336600 0.000000 38.000000 14.240899 0.000000
53.461765 17.094960 18.723708 0.000000 57.000000 14.217308 0.000000
53.486057 17.151745 18.573853 0.000000 56.000000 14.208474 0.000000
50.895569 17.631227 18.822970 0.000000 67.000000 14.747777 28.000000
52.152447 17.323728 18.312135 0.000000 48.000000 14.259604 0.000000
52.944256 16.574136 19.972557 0.000000 48.000000 14.247425 0.000000
52.703205 17.085667 18.934577 0.000000 70.000000 14.294290 0.000000
53.948715 15.270166 23.211578 0.000000 32.000000 14.368356 30.000000
53.736710 16.621510 19.887280 0.000000 36.000000 14.256164 0.000000
51.873043 18.090248 18.297728 0.000000 30.000000 14.954484 21.000000
53.769840 15.532402 23.286079 0.000000 45.000000 14.638281 30.000000
51.887207 17.067464 18.869588 0.000000 32.000000 14.251306 0.000000
51.352707 17.570161 18.390330 0.000000 47.000000 14.516579 28.000000
50.336891 17.129046 18.716662 0.000000 45.000000 14.245612 0.000000
53.508987 17.063572 18.794163 0.000000 57.000000 14.217174 0.000000
53.682976 15.803270 22.540693 0.000000 45.000000 14.583748 1.000000
52.707035 17.110882 18.745543 0.000000 52.000000 14.240714 0.000000
51.078697 14.943466 23.370682 0.000000 34.000000 14.134195 0.000000
49.674988 15.305955 22.843400 0.000000 37.000000 14.251829 0.000000
52.948521 16.729713 19.477005 0.000000 31.000000 14.188770 0.000000
51.605995 17.251494 18.864895 0.000000 51.000000 14.417636 8.000000
50.080757 17.532151 18.505093 0.000000 42.000000 14.528352 7.000000
49.824856 16.207843 20.656003 0.000000 42.000000 14.189616 0.000000
53.535843 17.259731 18.137376 0.000000 35.000000 14.130260 0.000000
50.859100 16.778012 19.815191 0.000000 47.000000 14.370010 14.000000
50.999249 15.549848 22.040286 0.000000 31.000000 14.149236 0.000000
51.257153 15.298662 22.918720 0.000000 32.000000 14.275693 0.000000
55.073074 17.185971 19.230313 0.000000 67.000000 14.505863 15.000000
50.961853 15.764853 21.765321 0.000000 34.000000 14.234325 0.000000
51.604473 17.479209 18.427560 0.000000 60.000000 14.448526 28.000000
51.085072 16.020029 21.290245 0.000000 42.000000 14.275020 0.000000
53.278004 16.313612 20.912621 0.000000 44.000000 14.390328 0.000000
53.535587 17.486743 19.315595 0.000000 49.000000 14.815386 26.000000
52.348213 15.576693 22.090240 0.000000 25.000000 14.194026 0.000000
49.903244 14.932862 23.467057 0.000000 26.000000 14.163568 0.000000
53.505733 16.444944 20.229952 0.000000 33.000000 14.233660 0.000000
49.675415 15.384458 23.002539 0.000000 42.000000 14.388101 0.000000
53.189949 17.145419 18.632378 0.000000 49.000000 14.226414 0.000000
54.461876 15.850313 21.668748 0.000000 40.000000 14.273302 0.000000
51.180779 16.164390 20.638171 0.000000 50.000000 14.142665 0.000000
51.136547 16.344049 20.524761 0.000000 44.000000 14.260930 0.000000
49.983131 16.517679 20.085012 0.000000 43.000000 14.241399 0.000000
50.617199 15.319257 22.777101 0.000000 34.000000 14.237114 0.000000
55.410141 17.004471 19.177814 0.000000 82.000000 14.318663 15.000000
51.934288 16.145461 21.012219 0.000000 34.000000 14.276984 0.000000
54.461857 16.585852 19.964578 0.000000 34.000000 14.254901 0.000000
51.383396 16.684309 19.721381 0.000000 49.000000 14.246324 0.000000
50.190765 16.825925 19.444263 0.000000 37.000000 14.263451 0.000000
51.553589 16.689583 19.435519 0.000000 38.000000 14.135269 0.000000
51.004463 17.145287 19.083563 0.000000 46.000000 14.409185 8.000000
51.576607 16.790754 19.314908 0.000000 50.000000 14.178864 0.000000
50.919746 15.638041 22.492574 0.000000 40.000000 14.413197 12.000000
50.538673 17.147247 18.681258 0.000000 40.000000 14.247899 0.000000
55.106060 15.829398 21.553803 0.000000 44.000000 14.207589 0.000000
51.136261 15.945856 21.408557 0.000000 25.000000 14.255173 0.000000
49.633041 17.736370 18.765605 0.000000 47.000000 14.820641 7.000000
50.117054 16.967280 20.185802 0.000000 66.000000 14.693261 6.000000
51.329132 16.766569 19.693301 0.000000 54.000000 14.310140 0.000000
49.441708 16.873145 19.626168 0.000000 57.000000 14.380354 0.000000
55.407932 17.230129 18.147350 0.000000 33.000000 14.107242 0.000000
52.279243 17.126911 19.460853 0.000000 57.000000 14.545325 27.000000
51.025162 15.481084 22.630301 0.000000 47.000000 14.325543 0.000000
49.281128 17.397727 19.330286 0.000000 59.000000 14.739967 9.000000
49.248947 17.383328 17.949253 0.000000 40.000000 14.166990 0.000000
53.062542 16.538630 19.966980 0.000000 43.000000 14.212706 0.000000
52.463608 15.936091 21.810373 0.000000 66.000000 14.409126 0.000000
51.852966 15.460255 23.143438 0.000000 46.000000 14.514506 24.000000
54.986691 16.116243 20.969197 0.000000 35.000000 14.232835 0.000000
54.118671 16.691727 19.479680 0.000000 29.000000 14.155130 0.000000
53.903656 17.280697 18.341920 0.000000 52.000000 14.232340 0.000000
52.257690 17.437330 19.378591 0.000000 61.000000 14.795751 27.000000
53.910019 17.215342 18.486986 0.000000 41.000000 14.231399 0.000000
55.379219 17.093003 18.692477 0.000000 39.000000 14.202860 0.000000
52.502392 16.906571 19.663104 0.000000 64.000000 14.425883 17.000000
53.466557 15.673910 22.540012 0.000000 37.000000 14.465217 1.000000
52.821671 16.641211 19.860397 0.000000 35.000000 14.263277 0.000000
55.038361 16.502409 20.365793 0.000000 38.000000 14.341257 13.000000
55.376629 16.732616 19.464055 0.000000 54.000000 14.186175 0.000000
53.931396 16.763500 19.356493 0.000000 30.000000 14.170806 0.000000
49.706841 17.267165 18.652873 0.000000 40.000000 14.346017 7.000000
52.963623 17.209771 19.315661 0.000000 52.000000 14.562217 26.000000
53.961243 17.315045 18.215257 0.000000 34.000000 14.212396 0.000000
51.978397 14.939770 23.324896 0.000000 35.000000 14.112257 0.000000
49.513332 16.833775 19.539009 0.000000 42.000000 14.309033 0.000000
49.628586 17.308094 19.275648 0.000000 57.000000 14.635880 9.000000
55.263103 16.515397 20.092261 0.000000 60.000000 14.242251 0.000000
50.180763 16.378533 20.402850 0.000000 40.000000 14.243036 0.000000
53.800186 16.485131 20.101953 0.000000 41.000000 14.218512 0.000000
52.712578 16.690188 19.404876 0.000000 37.000000 14.123400 0.000000
53.751995 16.449212 20.253749 0.000000 53.000000 14.247208 0.000000
55.255451 16.229664 20.536183 0.000000 43.000000 14.160994 0.000000
54.019070 16.560290 19.993140 0.000000 49.000000 14.243111 0.000000
52.925606 15.832457 21.564463 0.000000 52.000000 14.214706 0.000000
52.788258 16.793332 19.727071 0.000000 58.000000 14.348295 17.000000
51.090046 16.329918 20.538801 0.000000 48.000000 14.253703 0.000000
53.671196 16.238006 20.682674 0.000000 44.000000 14.228001 0.000000
50.105354 16.617128 20.340571 0.000000 77.000000 14.435904 2.000000
50.232487 17.472304 19.214061 0.000000 77.000000 14.761029 9.000000
52.528381 15.055171 23.300923 0.000000 38.000000 14.208034 0.000000
51.502518 15.316756 22.806128 0.000000 32.000000 14.246594 0.000000
50.836823 17.290042 18.723755 0.000000 61.000000 14.395663 28.000000
52.334057 15.459422 22.473233 0.000000 42.000000 14.242071 0.000000
54.841213 15.797636 21.739249 0.000000 56.000000 14.253725 0.000000
49.594833 15.647237 21.852074 0.000000 27.000000 14.161972 0.000000
50.243111 16.799760 19.411079 0.000000 30.000000 14.226081 0.000000
53.461887 16.149175 20.822638 0.000000 28.000000 14.203531 0.000000
54.902130 15.449091 22.009029 0.000000 28.000000 14.044458 0.000000
52.337494 17.517490 18.531264 0.000000 70.000000 14.525558 5.000000
54.175690 14.944781 23.499903 0.000000 47.000000 14.187778 0.000000
53.705387 17.450707 19.230415 0.000000 72.000000 14.747915 26.000000
51.726677 15.443983 23.207905 0.000000 43.000000 14.525764 24.000000
53.554733 16.206902 20.722000 0.000000 33.000000 14.215508 0.000000
50.746521 15.614403 21.899317 0.000000 29.000000 14.151107 0.000000
50.379906 16.425324 20.396109 0.000000 35.000000 14.283078 0.000000
54.884140 16.102662 21.075263 0.000000 42.000000 14.263415 0.000000
49.437897 14.941803 23.467513 0.000000 40.000000 14.171926 0.000000
54.753536 16.213166 21.085694 0.000000 47.000000 14.368661 19.000000
54.364269 14.890256 23.428638 0.000000 38.000000 14.109046 0.000000
51.268055 17.324942 18.885981 0.000000 51.000000 14.493327 8.000000
52.491997 17.508898 19.387684 0.000000 65.000000 14.864861 27.000000
54.162148 15.180334 23.133512 0.000000 47.000000 14.254591 0.000000
52.414391 17.589085 19.404566 0.000000 42.000000 14.945008 27.000000
52.927334 17.260168 19.338636 0.000000 47.000000 14.617601 26.000000
52.888859 15.825019 21.613861 0.000000 44.000000 14.227931 0.000000
53.102638 15.515892 22.096370 0.000000 39.000000 14.140929 0.000000
54.417709 17.287865 19.268165 0.000000 34.000000 14.614354 4.000000
51.986042 17.753186 18.289287 0.000000 41.000000 14.642934 21.000000
55.303028 15.809710 21.547199 0.000000 38.000000 14.186914 0.000000
53.022884 16.665044 19.776066 0.000000 48.000000 14.250880 0.000000
53.015747 17.306459 17.969541 0.000000 37.000000 14.104943 0.000000
53.688553 16.717168 19.512956 0.000000 35.000000 14.191875 0.000000
55.226490 16.569986 20.002592 0.000000 29.000000 14.255806 0.000000
54.182098 17.003548 18.963617 0.000000 45.000000 14.230992 0.000000
54.953693 16.375424 20.540247 0.000000 38.000000 14.295889 0.000000
54.450058 17.172102 18.601540 0.000000 58.000000 14.238306 0.000000
49.911037 16.174011 21.061085 0.000000 65.000000 14.322892 3.000000
55.276531 15.466229 22.325873 0.000000 33.000000 14.188560 0.000000
54.163872 17.352520 17.882165 0.000000 42.000000 14.111632 0.000000
51.154797 17.576559 18.662408 0.000000 41.000000 14.632717 28.000000
54.895142 16.107155 20.711477 0.000000 40.000000 14.120058 0.000000
53.430927 16.367882 20.416270 0.000000 33.000000 14.238739 0.000000
53.847870 17.210789 18.473975 0.000000 45.000000 14.221963 0.000000
53.789925 17.141068 18.609843 0.000000 49.000000 14.213302 0.000000
53.728786 17.077060 18.743047 0.000000 55.000000 14.208784 0.000000
53.686359 15.833110 22.531723 0.000000 66.000000 14.607391 1.000000
55.358242 16.633530 20.208167 0.000000 37.000000 14.397227 13.000000
52.729717 17.311068 18.270379 0.000000 44.000000 14.231104 0.000000
52.155720 16.832677 19.198847 0.000000 36.000000 14.170142 0.000000
54.815907 17.409641 18.409584 0.000000 72.000000 14.377643 23.000000
53.538002 15.810596 21.664289 0.000000 56.000000 14.235187 0.000000
53.186436 15.667928 21.850299 0.000000 36.000000 14.180167 0.000000
53.097843 17.158621 18.604120 0.000000 42.000000 14.227029 0.000000
53.548378 17.244392 18.449242 0.000000 56.000000 14.242656 0.000000
51.265820 15.673092 21.838761 0.000000 30.000000 14.180211 0.000000
53.821983 16.536779 19.981942 0.000000 32.000000 14.217079 0.000000
55.393890 17.048950 18.836036 0.000000 38.000000 14.220781 0.000000
53.814632 16.046117 21.276894 0.000000 56.000000 14.293457 0.000000
51.718407 16.643749 19.832163 0.000000 47.000000 14.254152 0.000000
51.653709 15.673390 22.552866 0.000000 42.000000 14.469952 12.000000
51.867603 15.671036 22.027640 0.000000 38.000000 14.254895 0.000000
52.836273 16.486399 20.174385 0.000000 53.000000 14.249032 0.000000
52.134941 15.804899 21.688126 0.000000 34.000000 14.239642 0.000000
52.852901 17.142754 19.481655 0.000000 57.000000 14.568240 26.000000
52.862820 15.849734 21.835914 0.000000 47.000000 14.340535 0.000000
52.581974 16.292055 20.522206 0.000000 56.000000 14.212363 0.000000
51.208939 17.405946 19.070244 0.000000 55.000000 14.642070 8.000000
54.447689 17.381114 19.229592 0.000000 83.000000 14.683963 4.000000
54.494286 15.255974 22.884489 0.000000 30.000000 14.222794 0.000000
53.780266 17.282178 18.045248 0.000000 38.000000 14.113435 0.000000
51.503635 17.429962 17.951180 0.000000 33.000000 14.210402 0.000000
52.373692 15.495737 22.304046 0.000000 29.000000 14.206688 0.000000
49.281654 16.024469 21.273928 0.000000 54.000000 14.272465 0.000000
50.372673 14.929524 23.472876 0.000000 26.000000 14.162875 0.000000
53.372509 16.693368 19.667357 0.000000 31.000000 14.232706 0.000000
49.821873 17.689758 19.133277 0.000000 50.000000 14.927070 9.000000
53.115768 16.158580 20.637067 0.000000 35.000000 14.136906 0.000000
50.595791 16.064857 21.169604 0.000000 39.000000 14.267097 0.000000
49.717041 15.317523 22.972688 0.000000 34.000000 14.314812 0.000000
54.096684 16.166549 20.696242 0.000000 48.000000 14.168178 0.000000
54.166801 17.541867 18.637113 0.000000 67.000000 14.590750 22.000000
51.537769 16.624614 19.855333 0.000000 36.000000 14.246052 0.000000
50.280125 15.923848 21.469134 0.000000 39.000000 14.259610 0.000000
50.589054 16.593013 20.370797 0.000000 59.000000 14.426111 20.000000
53.497971 17.193456 18.514582 0.000000 28.000000 14.222578 0.000000
51.311890 15.714209 21.795073 0.000000 35.000000 14.200089 0.000000
51.408287 17.165635 19.209326 0.000000 66.000000 14.478766 8.000000
50.275955 17.297389 18.111327 0.000000 37.000000 14.154126 0.000000
49.466091 15.614586 21.954715 0.000000 45.000000 14.173730 0.000000
54.944447 16.479153 20.137242 0.000000 37.000000 14.227352 0.000000
49.776932 15.598150 21.922092 0.000000 29.000000 14.145481 0.000000
49.422432 17.495240 19.161817 0.000000 54.000000 14.760818 9.000000
54.868767 16.204419 21.211817 0.000000 45.000000 14.411790 19.000000
51.590683 15.969802 21.329037 0.000000 43.000000 14.244829 0.000000
55.145733 17.326650 18.339502 0.000000 55.000000 14.273368 0.000000
50.548748 15.543685 22.327978 0.000000 51.000000 14.260221 0.000000
52.571987 16.316880 21.111609 0.000000 65.000000 14.473977 0.000000
49.258377 15.522611 22.262057 0.000000 30.000000 14.214234 0.000000
49.480793 17.133007 18.697817 0.000000 43.000000 14.241594 0.000000
52.074142 16.179687 20.544813 0.000000 27.000000 14.118805 0.000000
54.827209 17.112611 18.662365 0.000000 49.000000 14.208578 0.000000
50.479084 15.537056 22.371285 0.000000 24.000000 14.271716 0.000000
51.964619 16.452301 20.428065 0.000000 44.000000 14.320693 0.000000
50.964066 16.800506 19.299831 0.000000 47.000000 14.181667 0.000000
55.014553 14.874628 23.494074 0.000000 34.000000 14.121284 0.000000
49.385559 15.254992 22.963468 0.000000 41.000000 14.253911 0.000000
50.067009 17.179694 18.658500 0.000000 45.000000 14.268336 0.000000
53.836166 15.411003 22.611467 0.000000 37.000000 14.253843 0.000000
54.223724 15.329639 22.710596 0.000000 33.000000 14.219646 0.000000
52.693363 14.915192 23.470174 0.000000 26.000000 14.148678 0.000000
52.312435 17.166069 18.719655 0.000000 52.000000 14.280670 0.000000
50.144283 17.194573 19.811531 0.000000 75.000000 14.749329 6.000000
55.343121 15.511659 22.199603 0.000000 43.000000 14.178906 0.000000
53.915134 15.552888 21.913109 0.000000 29.000000 14.100463 0.000000
55.221821 15.635510 22.038629 0.000000 34.000000 14.226873 0.000000
53.525593 16.336035 20.448074 0.000000 23.000000 14.222518 0.000000
52.676914 16.933405 19.732166 0.000000 59.000000 14.478409 17.000000
50.062531 17.382877 18.628820 0.000000 49.000000 14.442046 7.000000
52.732948 15.909901 21.493648 0.000000 34.000000 14.256797 0.000000
50.759296 16.282468 21.022468 0.000000 50.000000 14.406385 18.000000
49.302845 17.296234 19.324893 0.000000 71.000000 14.645000 9.000000
51.395058 16.147753 20.725862 0.000000 39.000000 14.163002 0.000000
53.838318 17.109557 18.721079 0.000000 55.000000 14.229586 0.000000
53.396950 16.152671 20.683617 0.000000 39.000000 14.150374 0.000000
51.665382 15.411675 22.841625 0.000000 41.000000 14.347754 0.000000
55.245461 15.778961 21.742795 0.000000 49.000000 14.238091 0.000000
54.642986 16.291675 20.610973 0.000000 45.000000 14.247998 0.000000
53.240959 16.374724 20.397978 0.000000 49.000000 14.237579 0.000000
51.395687 17.260691 18.981111 0.000000 80.000000 14.473153 8.000000
53.200207 16.438570 20.248146 0.000000 40.000000 14.235209 0.000000
51.461792 17.930051 18.693092 0.000000 46.000000 14.968303 28.000000
51.179771 16.574663 20.261606 0.000000 41.000000 14.365075 0.000000
53.678627 16.358002 20.476191 0.000000 36.000000 14.253997 0.000000
52.644382 17.123334 18.954196 0.000000 65.000000 14.336677 27.000000
50.708122 14.895715 23.377214 0.000000 38.000000 14.093191 0.000000
53.075005 16.661169 19.808820 0.000000 55.000000 14.260614 0.000000
54.401283 16.677868 19.850282 0.000000 53.000000 14.292687 0.000000
51.785751 17.363309 18.694168 0.000000 39.000000 14.450647 28.000000
53.042103 15.825315 21.585741 0.000000 48.000000 14.216803 0.000000
54.401188 16.737063 19.529437 0.000000 58.000000 14.216743 0.000000
54.429657 16.736887 19.361968 0.000000 30.000000 14.148697 0.000000
55.150822 15.457474 22.375523 0.000000 31.000000 14.200683 0.000000
54.276428 17.003533 19.089908 0.000000 62.000000 14.282172 0.000000
52.122429 17.283541 18.014734 0.000000 40.000000 14.102312 0.000000
50.964493 16.877992 19.885002 0.000000 64.000000 14.489706 14.000000
55.346474 16.599858 20.167992 0.000000 61.000000 14.350160 13.000000
54.300850 17.065575 18.770180 0.000000 44.000000 14.209284 0.000000
50.442234 15.331232 22.675626 0.000000 34.000000 14.206927 0.000000
55.093327 17.055828 18.805687 0.000000 46.000000 14.214766 0.000000
51.752213 18.106456 18.229909 0.000000 75.000000 14.941809 21.000000
52.036118 16.510730 20.264565 0.000000 65.000000 14.307830 0.000000
53.637249 16.696262 19.588527 0.000000 43.000000 14.203397 0.000000
54.032001 15.539016 21.939690 0.000000 18.000000 14.098557 0.000000
53.458870 15.269371 22.881939 0.000000 32.000000 14.234007 0.000000
52.963638 17.321458 18.016144 0.000000 40.000000 14.137546 0.000000
52.688721 17.124034 19.052080 0.000000 63.000000 14.376995 27.000000
51.838768 16.216865 21.185548 0.000000 69.000000 14.412519 18.000000
52.283470 17.316164 18.279394 0.000000 48.000000 14.239417 0.000000
50.675941 17.252077 18.570145 0.000000 69.000000 14.298690 0.000000
54.605747 16.155901 21.183131 0.000000 64.000000 14.355809 19.000000
50.915184 16.906459 19.333547 0.000000 48.000000 14.292192 0.000000
50.532757 17.343659 19.096787 0.000000 73.000000 14.595889 9.000000
53.017799 14.987722 23.360998 0.000000 43.000000 14.170726 0.000000
54.428123 16.102904 20.724835 0.000000 53.000000 14.121587 0.000000
49.760826 16.554231 20.009386 0.000000 39.000000 14.244157 0.000000
53.615242 15.513923 21.948974 0.000000 22.000000 14.079381 0.000000
53.733139 16.370653 20.396691 0.000000 45.000000 14.233336 0.000000
52.202133 17.297325 18.036561 0.000000 28.000000 14.123761 0.000000
50.739292 15.514668 23.110968 0.000000 46.000000 14.551086 25.000000
52.537361 15.065657 23.205023 0.000000 41.000000 14.178746 0.000000
50.490139 16.576334 19.936090 0.000000 50.000000 14.234652 0.000000
51.522045 17.383374 18.668133 0.000000 56.000000 14.458436 28.000000
50.697079 15.359745 23.135927 0.000000 45.000000 14.419580 25.000000
52.445137 15.244704 22.893263 0.000000 34.000000 14.216048 0.000000
54.413555 16.753352 19.575130 0.000000 52.000000 14.250156 0.000000
51.087070 17.267246 18.925553 0.000000 71.000000 14.456624 8.000000
51.300182 17.664521 18.526243 0.000000 65.000000 14.657933 28.000000
50.720661 16.751247 20.225980 0.000000 46.000000 14.512059 20.000000
49.258934 16.198149 20.835507 0.000000 41.000000 14.253518 0.000000
49.758663 15.584183 22.153098 0.000000 47.000000 14.226353 0.000000
49.978756 17.162809 19.890340 0.000000 73.000000 14.752237 6.000000
51.061951 15.599880 21.899797 0.000000 31.000000 14.138025 0.000000
52.334629 15.626481 21.979227 0.000000 33.000000 14.194540 0.000000
53.456215 15.867729 21.499461 0.000000 35.000000 14.220601 0.000000
55.190369 15.837146 21.506254 0.000000 41.000000 14.195397 0.000000
50.583237 17.247425 19.070073 0.000000 72.000000 14.497088 9.000000
52.289112 15.800980 21.682520 0.000000 40.000000 14.233787 0.000000
50.976753 15.905614 21.472742 0.000000 39.000000 14.244403 0.000000
52.280949 15.868419 21.535159 0.000000 41.000000 14.235703 0.000000
54.038628 16.756049 19.744185 0.000000 38.000000 14.321149 0.000000
52.025875 16.104980 21.063600 0.000000 29.000000 14.260806 0.000000
53.230595 16.253721 20.893936 0.000000 44.000000 14.328004 0.000000
52.259136 16.096020 21.099121 0.000000 52.000000 14.267014 0.000000
55.269833 16.398127 21.076871 0.000000 64.000000 14.534168 19.000000
50.224754 17.324356 18.029216 0.000000 43.000000 14.145494 0.000000
52.877300 15.855784 22.452604 0.000000 40.000000 14.596047 1.000000
51.970551 15.622444 21.988436 0.000000 38.000000 14.194582 0.000000
51.036285 16.224119 20.609734 0.000000 46.000000 14.185740 0.000000
50.320438 16.616645 20.244759 0.000000 49.000000 14.396624 0.000000
53.104397 14.973458 23.326295 0.000000 35.000000 14.143620 0.000000
52.058472 14.927975 23.300628 0.000000 33.000000 14.091637 0.000000
52.344589 16.452510 20.230370 0.000000 43.000000 14.240746 0.000000
52.402542 17.325698 17.931678 0.000000 30.000000 14.107183 0.000000
55.384129 15.311633 22.747242 0.000000 29.000000 14.218041 0.000000
50.859787 15.474058 23.034377 0.000000 53.000000 14.482916 25.000000
54.696758 15.447302 22.100714 0.000000 29.000000 14.079988 0.000000
53.076500 15.433842 23.230016 0.000000 48.000000 14.525456 30.000000
51.255997 15.725875 22.452559 0.000000 48.000000 14.477271 12.000000
55.435867 15.606115 22.584045 0.000000 50.000000 14.421091 0.000000
50.034069 17.133065 18.740317 0.000000 42.000000 14.258875 0.000000
49.376072 15.297611 23.166158 0.000000 35.000000 14.375034 0.000000
54.143822 15.469714 22.467214 0.000000 42.000000 14.249040 0.000000
54.200077 16.396277 20.397110 0.000000 69.000000 14.256930 0.000000
50.786613 16.991306 19.321627 0.000000 48.000000 14.364924 9.000000
49.680233 16.808502 19.312892 0.000000 41.000000 14.194271 0.000000
53.350231 15.759177 22.436790 0.000000 54.000000 14.501322 1.000000
49.429287 15.118366 23.142159 0.000000 49.000000 14.201447 0.000000
51.848812 16.119135 20.897250 0.000000 45.000000 14.206315 0.000000
54.564545 16.034502 21.364667 0.000000 46.000000 14.318418 0.000000
50.839462 16.837403 19.493427 0.000000 47.000000 14.293873 0.000000
49.425636 15.408669 22.590854 0.000000 30.000000 14.243354 0.000000
51.705956 17.503012 18.197430 0.000000 76.000000 14.377001 28.000000
50.195892 17.707410 18.233041 0.000000 43.000000 14.578288 7.000000
51.504593 16.285627 21.249767 0.000000 73.000000 14.501410 18.000000
51.002934 15.501053 23.055231 0.000000 58.000000 14.516047 25.000000
53.417641 16.435361 20.307026 0.000000 41.000000 14.256143 0.000000
54.410004 17.248921 19.010952 0.000000 47.000000 14.474490 4.000000
54.607285 15.575017 21.879277 0.000000 31.000000 14.106978 0.000000
53.353333 17.307563 18.042305 0.000000 24.000000 14.135448 0.000000
52.658325 17.248230 19.267843 0.000000 60.000000 14.577991 27.000000
51.594601 16.209510 20.933405 0.000000 60.000000 14.303587 0.000000
54.205521 16.729183 19.653443 0.000000 43.000000 14.259807 0.000000
49.901318 16.210133 20.609225 0.000000 39.000000 14.172748 0.000000
50.066868 16.503724 20.123826 0.000000 47.000000 14.244376 0.000000
50.348278 17.048817 19.859334 0.000000 76.000000 14.635462 6.000000
49.392132 17.386807 18.820344 0.000000 59.000000 14.523275 9.000000
52.665226 17.152981 18.950337 0.000000 58.000000 14.362215 27.000000
52.183670 15.211645 22.919735 0.000000 44.000000 14.196558 0.000000
55.059620 15.439276 22.139026 0.000000 32.000000 14.088181 0.000000
52.484276 16.677001 19.907085 0.000000 45.000000 14.314920 17.000000
52.908188 16.577941 20.415546 0.000000 59.000000 14.430473 0.000000
54.593418 17.280712 18.436191 0.000000 43.000000 14.270567 0.000000
54.649292 17.189369 18.576496 0.000000 39.000000 14.243939 0.000000
54.713665 17.083553 18.714977 0.000000 41.000000 14.203341 0.000000
54.833946 16.794339 19.311425 0.000000 34.000000 14.180730 0.000000
49.699543 17.225707 19.282534 0.000000 43.000000 14.563357 9.000000
54.851871 16.574346 19.933109 0.000000 38.000000 14.231626 0.000000
52.788857 15.791339 21.770607 0.000000 43.000000 14.260680 0.000000
54.208359 15.445841 22.059544 0.000000 26.000000 14.061964 0.000000
50.225574 16.758169 20.161695 0.000000 44.000000 14.492329 6.000000
52.673710 17.101620 19.353085 0.000000 38.000000 14.478520 27.000000
50.804825 15.940880 21.391402 0.000000 45.000000 14.243670 0.000000
50.015446 17.811749 18.618721 0.000000 52.000000 14.830009 7.000000
54.792278 15.817025 21.609875 0.000000 37.000000 14.219007 0.000000
54.800655 15.707928 21.757455 0.000000 35.000000 14.179098 0.000000
52.390968 17.015900 19.386141 0.000000 50.000000 14.413558 27.000000
52.094620 18.149842 18.340342 0.000000 46.000000 15.026236 21.000000
50.798832 16.891698 19.659816 0.000000 39.000000 14.410954 14.000000
49.516060 15.962130 21.783654 0.000000 36.000000 14.422099 0.000000
50.405525 16.794800 19.607422 0.000000 49.000000 14.301136 6.000000
54.785938 15.514411 22.191506 0.000000 37.000000 14.178139 0.000000
52.047573 15.635787 21.908699 0.000000 31.000000 14.174458 0.000000
54.368587 15.080171 23.244913 0.000000 30.000000 14.208183 0.000000
50.136242 16.811015 19.597928 0.000000 45.000000 14.312110 6.000000
50.220978 15.716351 21.967041 0.000000 48.000000 14.271756 0.000000
54.502869 17.156975 18.592670 0.000000 54.000000 14.220882 0.000000
55.427376 17.086190 18.702765 0.000000 40.000000 14.200802 0.000000
50.666149 16.837655 19.704009 0.000000 26.000000 14.379464 14.000000
51.655659 17.213143 18.878497 0.000000 41.000000 14.388091 8.000000
50.870678 16.976166 19.325165 0.000000 50.000000 14.352518 0.000000
50.113087 17.084858 19.744064 0.000000 61.000000 14.621684 6.000000
54.754726 17.279740 18.111696 0.000000 38.000000 14.138142 0.000000
52.719189 17.263655 19.262059 0.000000 47.000000 14.589747 27.000000
49.962471 17.199165 19.932800 0.000000 45.000000 14.802684 6.000000
54.055923 16.417836 20.326875 0.000000 46.000000 14.248168 0.000000
53.959515 16.382158 20.379955 0.000000 54.000000 14.237069 0.000000
54.575554 16.542507 20.374840 0.000000 38.000000 14.381580 13.000000
50.598202 16.575331 20.465131 0.000000 51.000000 14.448187 20.000000
54.535076 17.029977 18.869705 0.000000 49.000000 14.217085 0.000000
52.605228 17.366015 19.210742 0.000000 59.000000 14.662519 27.000000
51.953709 16.524015 20.405133 0.000000 47.000000 14.376955 0.000000
50.231304 17.161613 19.891568 0.000000 78.000000 14.751642 6.000000
54.380569 16.754678 19.441505 0.000000 46.000000 14.197202 0.000000
54.270920 16.769487 19.601415 0.000000 59.000000 14.275561 0.000000
50.717739 15.616891 22.448004 0.000000 49.000000 14.375796 12.000000
54.441166 16.734463 19.255907 0.000000 32.000000 14.103489 0.000000
52.970772 17.209252 18.500338 0.000000 42.000000 14.231244 0.000000
55.199036 16.138046 20.573908 0.000000 41.000000 14.092533 0.000000
50.110394 16.160462 20.763053 0.000000 43.000000 14.189696 0.000000
52.584019 16.515421 20.076392 0.000000 35.000000 14.235840 0.000000
51.904179 16.344745 20.543940 0.000000 43.000000 14.269341 0.000000
54.017040 16.424444 20.291343 0.000000 64.000000 14.239806 0.000000
53.788361 17.347498 19.130806 0.000000 81.000000 14.613189 26.000000
51.213573 15.832425 21.625242 0.000000 46.000000 14.239315 0.000000
55.121063 17.054735 19.053777 0.000000 47.000000 14.314333 15.000000
53.961926 16.204592 20.546068 0.000000 43.000000 14.142081 0.000000
51.159882 15.331010 22.884006 0.000000 42.000000 14.291193 0.000000
53.875366 16.166484 20.686812 0.000000 58.000000 14.164296 0.000000
52.272598 17.383306 19.122809 0.000000 46.000000 14.642681 27.000000
49.622894 17.942632 18.590359 0.000000 59.000000 14.938160 7.000000
52.425636 16.428048 20.233923 0.000000 42.000000 14.219824 0.000000
53.642551 16.164438 20.971671 0.000000 57.000000 14.277896 0.000000
52.995544 17.245970 18.351640 0.000000 49.000000 14.204534 0.000000
53.005657 16.323330 20.876498 0.000000 34.000000 14.384569 0.000000
53.342979 15.291476 22.814090 0.000000 41.000000 14.226712 0.000000
53.452484 15.933885 21.346730 0.000000 37.000000 14.219168 0.000000
55.442177 15.469327 22.288329 0.000000 48.000000 14.176174 0.000000
52.466759 16.700810 19.762901 0.000000 44.000000 14.278239 0.000000
52.030682 15.968207 21.306119 0.000000 32.000000 14.234081 0.000000
53.275558 15.833423 21.601408 0.000000 52.000000 14.230565 0.000000
50.611568 17.327925 18.823426 0.000000 72.000000 14.470697 9.000000
51.487183 16.541780 20.074609 0.000000 31.000000 14.259214 0.000000
53.391331 17.300378 18.110005 0.000000 21.000000 14.156323 0.000000
55.263462 17.018554 19.328939 0.000000 58.000000 14.392797 15.000000
51.696980 15.745665 21.780793 0.000000 34.000000 14.223056 0.000000
49.709038 17.337077 18.954055 0.000000 63.000000 14.532015 9.000000
51.630936 15.655755 21.892874 0.000000 36.000000 14.186297 0.000000
51.808105 17.431556 18.666631 0.000000 60.000000 14.501873 28.000000
50.062920 15.872337 21.532223 0.000000 22.000000 14.238094 0.000000
52.706291 15.532285 22.314375 0.000000 42.000000 14.244285 0.000000
50.663002 17.061650 19.216921 0.000000 60.000000 14.386786 9.000000
54.676727 17.133914 18.618749 0.000000 61.000000 14.210372 0.000000
51.325718 15.538642 22.232293 0.000000 42.000000 14.216824 0.000000
53.101063 15.618437 21.969803 0.000000 20.000000 14.183367 0.000000
54.904781 15.271439 22.843928 0.000000 32.000000 14.220490 0.000000
52.308460 15.307986 22.752908 0.000000 33.000000 14.217004 0.000000
52.202980 15.256719 22.858027 0.000000 34.000000 14.212749 0.000000
52.074684 15.235499 22.962877 0.000000 40.000000 14.235852 0.000000
52.158260 15.316264 23.059251 0.000000 32.000000 14.348750 24.000000
50.680252 15.458122 23.095971 0.000000 55.000000 14.493315 25.000000
49.823418 16.055032 21.267098 0.000000 48.000000 14.297635 0.000000
50.292042 17.042007 20.013103 0.000000 70.000000 14.691569 6.000000
51.200790 15.849845 21.571892 0.000000 45.000000 14.233613 0.000000
51.542591 14.936055 23.440914 0.000000 34.000000 14.155890 0.000000
52.774925 17.137662 19.302552 0.000000 62.000000 14.490984 26.000000
49.606781 17.728636 18.690711 0.000000 50.000000 14.783212 7.000000
53.156296 15.902009 21.400600 0.000000 37.000000 14.211865 0.000000
53.219276 16.124711 20.683808 0.000000 29.000000 14.124891 0.000000
55.196053 15.552118 22.516100 0.000000 44.000000 14.344187 0.000000
53.365780 16.269051 21.071746 0.000000 62.000000 14.414095 0.000000
52.049942 17.051633 18.925189 0.000000 42.000000 14.259373 0.000000
54.284058 15.932591 21.842201 0.000000 52.000000 14.418828 0.000000
55.245220 16.525344 20.050949 0.000000 44.000000 14.234598 0.000000
53.237923 15.938243 21.362402 0.000000 37.000000 14.229504 0.000000
54.968979 16.869663 19.812969 0.000000 73.000000 14.452893 16.000000
54.254795 16.463778 20.220888 0.000000 48.000000 14.247203 0.000000
51.402744 17.376185 18.754914 0.000000 68.000000 14.487042 28.000000
51.511063 17.716993 18.387532 0.000000 65.000000 14.649673 28.000000
54.465721 16.778018 19.669545 0.000000 48.000000 14.310977 16.000000
54.126987 16.205022 20.576800 0.000000 50.000000 14.154932 0.000000
52.610645 17.043028 19.416319 0.000000 58.000000 14.450590 27.000000
52.213127 17.387664 18.464185 0.000000 70.000000 14.379686 5.000000
51.716026 17.333308 18.651360 0.000000 45.000000 14.405869 28.000000
52.597172 17.164484 18.963921 0.000000 35.000000 14.378237 27.000000
55.116241 17.027108 18.899357 0.000000 58.000000 14.226482 0.000000
50.320236 15.742370 21.852100 0.000000 47.000000 14.248949 0.000000
53.965546 17.297875 18.248016 0.000000 38.000000 14.209979 0.000000
52.380363 17.136507 18.807171 0.000000 51.000000 14.289121 0.000000
55.031231 17.155788 18.595525 0.000000 42.000000 14.220955 0.000000
54.308113 17.212958 19.148920 0.000000 26.000000 14.497540 4.000000
53.615799 17.262886 18.287371 0.000000 40.000000 14.193946 0.000000
53.327595 17.181407 18.565573 0.000000 37.000000 14.232233 0.000000
50.089481 17.326116 19.221538 0.000000 62.000000 14.630421 9.000000
55.009136 17.247829 18.108943 0.000000 40.000000 14.107854 0.000000
52.129902 16.695519 19.676930 0.000000 25.000000 14.238553 0.000000
50.017319 17.693503 18.221878 0.000000 43.000000 14.561050 7.000000
50.526909 16.798543 19.731120 0.000000 49.000000 14.354699 0.000000
53.452759 17.288594 18.058958 0.000000 38.000000 14.124858 0.000000
53.872490 17.168197 19.157615 0.000000 53.000000 14.460146 26.000000
50.200798 17.090574 19.749303 0.000000 65.000000 14.629033 6.000000
50.939877 16.892644 19.438053 0.000000 42.000000 14.321926 0.000000
53.111507 17.214273 18.457267 0.000000 52.000000 14.218375 0.000000
53.588169 15.797937 21.708848 0.000000 35.000000 14.241677 0.000000
52.920910 17.107375 18.695332 0.000000 50.000000 14.217155 0.000000
51.075188 16.383543 21.013567 0.000000 82.000000 14.495175 18.000000
52.461262 16.791413 19.249464 0.000000 37.000000 14.152938 0.000000
51.490307 16.316274 21.135731 0.000000 54.000000 14.483201 18.000000
49.414978 16.738936 19.917592 0.000000 48.000000 14.375797 6.000000
55.338692 16.926098 19.240440 0.000000 60.000000 14.272404 0.000000
51.958855 16.702268 19.702350 0.000000 44.000000 14.255027 0.000000
54.485992 15.304508 22.765404 0.000000 36.000000 14.218890 0.000000
53.612835 17.343841 19.143587 0.000000 45.000000 14.615026 26.000000
51.516018 16.510726 20.097303 0.000000 46.000000 14.240025 0.000000
54.331234 16.669657 19.911083 0.000000 48.000000 14.309827 0.000000
50.870430 16.135135 20.620839 0.000000 42.000000 14.108896 0.000000
52.740677 15.280818 23.045060 0.000000 57.000000 14.310594 30.000000
53.475937 16.700110 19.778066 0.000000 52.000000 14.283746 0.000000
50.218193 15.602020 22.085400 0.000000 47.000000 14.215217 0.000000
50.289650 17.225160 19.278563 0.000000 66.000000 14.561247 9.000000
49.437386 16.127764 20.701422 0.000000 31.000000 14.134822 0.000000
50.535130 15.633847 22.528234 0.000000 41.000000 14.423818 0.000000
49.283474 16.152944 20.791836 0.000000 33.000000 14.194491 0.000000
51.313667 15.721275 22.432381 0.000000 61.000000 14.464887 12.000000
51.011692 17.209968 19.034988 0.000000 62.000000 14.448624 8.000000
50.004219 16.110496 21.123270 0.000000 42.000000 14.290036 0.000000
51.868225 17.109712 18.812416 0.000000 46.000000 14.266752 0.000000
49.637791 15.972519 21.323782 0.000000 37.000000 14.245183 0.000000
53.714035 17.297037 18.339788 0.000000 34.000000 14.246413 0.000000
49.299568 17.061463 19.268220 0.000000 38.000000 14.407409 9.000000
52.868870 14.946874 23.388490 0.000000 32.000000 14.144529 0.000000
54.214386 14.916061 23.368549 0.000000 32.000000 14.108278 0.000000
52.634125 15.251824 22.918527 0.000000 46.000000 14.232798 0.000000
52.812561 17.129166 18.675415 0.000000 41.000000 14.229002 0.000000
52.111343 15.768307 21.771768 0.000000 45.000000 14.240096 0.000000
51.978195 15.626034 22.180934 0.000000 37.000000 14.275895 0.000000
54.727684 16.717016 20.566320 0.000000 55.000000 14.618727 13.000000
50.521030 16.597564 20.007060 0.000000 45.000000 14.282828 0.000000
54.066963 17.059434 18.851440 0.000000 52.000000 14.236609 0.000000
53.161545 15.350901 22.813191 0.000000 41.000000 14.280671 0.000000
55.368473 15.962939 21.391119 0.000000 40.000000 14.263721 0.000000
50.110413 17.534756 18.467134 0.000000 32.000000 14.515347 7.000000
53.795586 15.498989 22.076263 0.000000 33.000000 14.117327 0.000000
49.751366 15.877527 21.551258 0.000000 26.000000 14.250555 0.000000
55.416073 15.830414 21.562715 0.000000 29.000000 14.212130 0.000000
52.304543 15.790303 21.692579 0.000000 38.000000 14.228104 0.000000
55.418793 15.438717 22.598035 0.000000 39.000000 14.273733 0.000000
51.508511 15.659317 21.873080 0.000000 40.000000 14.181530 0.000000
50.158894 17.472014 19.087266 0.000000 63.000000 14.709367 9.000000
51.217796 15.995665 21.328134 0.000000 38.000000 14.268106 0.000000
53.589706 15.878297 21.464387 0.000000 38.000000 14.216045 0.000000
54.700157 17.182159 18.587002 0.000000 37.000000 14.241607 0.000000
53.550350 15.966507 21.313285 0.000000 44.000000 14.235432 0.000000
54.424915 15.381487 23.148875 0.000000 42.000000 14.444704 29.000000
53.299126 16.726517 19.424264 0.000000 34.000000 14.164470 0.000000
54.299786 17.064920 18.770324 0.000000 25.000000 14.208743 0.000000
52.221622 16.158345 20.633681 0.000000 49.000000 14.135319 0.000000
53.509750 16.193148 20.696709 0.000000 55.000000 14.192683 0.000000
49.508202 17.141695 18.698362 0.000000 44.000000 14.249757 0.000000
50.452465 16.175844 20.601704 0.000000 42.000000 14.138354 0.000000
55.427376 16.795313 20.399966 0.000000 63.000000 14.622869 13.000000
55.432907 16.535896 20.092673 0.000000 43.000000 14.261158 0.000000
53.897915 15.224280 22.991272 0.000000 27.000000 14.237106 0.000000
54.972397 15.905838 21.483787 0.000000 46.000000 14.249085 0.000000
52.124702 16.523605 20.071963 0.000000 44.000000 14.241527 0.000000
53.455910 16.488948 20.107355 0.000000 55.000000 14.224191 0.000000
52.320751 17.143065 18.613406 0.000000 41.000000 14.216572 0.000000
53.448353 16.564115 19.961699 0.000000 49.000000 14.233863 0.000000
51.715370 17.404565 18.189817 0.000000 58.000000 14.283919 0.000000
53.438446 16.643757 19.817204 0.000000 47.000000 14.248096 0.000000
52.130344 16.713652 19.641465 0.000000 50.000000 14.240754 0.000000
53.425369 16.733942 19.674702 0.000000 54.000000 14.272775 0.000000
52.118401 16.805111 19.504078 0.000000 47.000000 14.268670 0.000000
53.856789 15.390198 22.630209 0.000000 23.000000 14.242421 0.000000
52.241814 16.700869 19.320362 0.000000 34.000000 14.098906 0.000000
51.780678 17.541250 18.656475 0.000000 65.000000 14.598034 28.000000
53.401806 16.263223 21.047027 0.000000 65.000000 14.398747 0.000000
49.604618 17.995715 18.518671 0.000000 42.000000 14.957627 7.000000
52.174473 17.045217 18.938236 0.000000 72.000000 14.258796 0.000000
49.262402 16.823622 19.254577 0.000000 35.000000 14.184455 0.000000
54.370857 16.454012 20.149591 0.000000 42.000000 14.209375 0.000000
51.094978 16.568104 20.021221 0.000000 47.000000 14.261637 0.000000
50.734097 17.760039 18.806893 0.000000 73.000000 14.859015 28.000000
52.815865 15.709268 22.448494 0.000000 39.000000 14.460442 1.000000
54.157909 15.187149 23.106996 0.000000 51.000000 14.250072 0.000000
54.154392 15.965287 21.270629 0.000000 42.000000 14.217026 0.000000
55.044205 17.295055 18.338982 0.000000 62.000000 14.244274 0.000000
51.326244 16.455477 21.225421 0.000000 41.000000 14.646811 18.000000
55.486050 17.065182 18.806964 0.000000 32.000000 14.223835 0.000000
53.202236 15.869995 21.538574 0.000000 37.000000 14.238528 0.000000
53.545185 17.409968 19.008454 0.000000 81.000000 14.620700 26.000000
53.267513 16.772601 19.278645 0.000000 23.000000 14.147570 0.000000
49.569103 16.801519 19.261527 0.000000 35.000000 14.167067 0.000000
54.541523 16.733015 19.261081 0.000000 37.000000 14.104262 0.000000
50.460201 17.307990 18.022129 0.000000 41.000000 14.127660 0.000000
53.138424 17.108810 18.749746 0.000000 50.000000 14.240524 0.000000
50.627148 17.168895 18.600499 0.000000 43.000000 14.234953 0.000000
54.418869 16.471980 20.234642 0.000000 35.000000 14.260277 0.000000
54.749859 15.486899 22.223919 0.000000 43.000000 14.166128 0.000000
50.592060 17.344767 18.867282 0.000000 78.000000 14.503870 9.000000
50.954475 14.919554 23.476077 0.000000 31.000000 14.155058 0.000000
52.573101 16.711550 19.433267 0.000000 42.000000 14.154437 0.000000
53.064278 15.486334 22.133915 0.000000 31.000000 14.129128 0.000000
49.580029 15.275730 22.952867 0.000000 40.000000 14.268572 0.000000
54.798225 17.366473 18.334719 0.000000 56.000000 14.307834 0.000000
50.856689 15.272570 22.887743 0.000000 38.000000 14.239285 0.000000
51.092285 17.683754 18.661463 0.000000 77.000000 14.730327 28.000000
50.854713 15.332660 22.738855 0.000000 39.000000 14.233863 0.000000
49.562187 15.544664 22.385255 0.000000 42.000000 14.284333 0.000000
53.533123 15.378172 23.078077 0.000000 55.000000 14.412975 30.000000
49.602531 15.614369 22.100826 0.000000 34.000000 14.232759 0.000000
52.528210 15.581115 21.935553 0.000000 43.000000 14.135365 0.000000
50.060696 16.015051 21.201510 0.000000 53.000000 14.234500 0.000000
50.175400 17.167679 19.763988 0.000000 68.000000 14.705471 6.000000
50.160950 17.090474 19.937388 0.000000 48.000000 14.705183 6.000000
53.774559 17.261410 19.319435 0.000000 76.000000 14.610953 26.000000
49.833344 15.537576 22.242164 0.000000 49.000000 14.219851 0.000000
55.211094 17.405953 18.405465 0.000000 50.000000 14.372602 23.000000
51.140968 15.562172 21.970125 0.000000 35.000000 14.132062 0.000000
52.364826 16.809756 19.836145 0.000000 45.000000 14.407523 17.000000
54.807240 17.073533 18.814203 0.000000 44.000000 14.234404 0.000000
54.124779 17.063771 19.259084 0.000000 35.000000 14.405816 0.000000
53.520378 17.226161 18.448244 0.000000 43.000000 14.225585 0.000000
